-12.817061 -14.621377 -44.469235
-49.239047 -30.431405 -29.493357
-33.358904 -20.616936 -39.215743
-47.412383 -20.948247 -31.234288
-41.483137 -36.201421 -32.937141
-39.427178 -16.617488 -36.345246
-33.064732 -30.083287 -37.888812
-6.148184 22.701430 -40.531472
-17.598926 17.205526 -38.715861
-9.988635 26.785970 -37.167294
-6.092187 16.576588 -42.771036
-39.343626 4.069984 -30.901071
-28.495612 11.133223 -35.625191
-38.588558 10.370596 -27.810256
-35.787713 0.000000 -35.366345
-17.383308 33.065016 -28.126783
-21.490492 20.828048 -34.772347
-13.867961 30.331567 -32.903563
-23.621631 29.750589 -25.962685
-15.957176 23.792494 -36.116041
-6.107417 3.774591 -45.330835
-17.781382 10.989499 -41.024975
-6.099761 10.110974 -44.390799
-12.368796 0.000000 -44.750723
-12.117884 13.823774 -42.043416
-35.267273 21.796374 -21.124500
-27.840552 17.206408 -32.728532
-37.145096 16.411844 -24.470413
-29.696043 25.915084 -23.578322
-33.144081 13.969333 -30.553285
-25.896971 23.561842 -29.675288
-25.871420 -7.794156 -41.860837
-24.362071 7.339442 -39.418659
-31.119850 -4.071205 -39.145910
-19.086118 -3.931957 -43.606066
-29.941418 3.917038 -37.663551
-18.647970 3.841693 -42.605029
-28.377393 36.130448 3.737590
-34.938516 27.946359 10.918631
-26.423567 36.664436 9.853492
-32.247026 32.631229 0.000000
-43.804177 6.644618 24.534452
-40.159475 18.255145 17.847076
-21.155606 35.319203 21.828468
-32.499783 27.645967 17.086147
-23.964822 36.377628 16.072753
-29.715677 32.235448 13.586369
-39.223245 24.241299 -7.303058
-39.223245 24.241299 7.303058
-35.946383 28.576320 -3.738451
-35.946383 28.576320 3.738451
-47.935596 -61.032195 6.313604
-56.572064 -45.250441 17.679328
-42.517269 -58.995506 15.854922
-55.850876 -56.516305 0.000000
-48.503802 -7.357500 27.166683
-54.876685 -24.945093 24.387479
-29.152318 -48.669684 30.079519
-49.516620 -42.121353 26.032428
-35.816237 -54.367596 24.021273
-47.392439 -51.411129 21.668399
-62.202096 -38.443009 -11.581537
-62.202096 -38.443009 11.581537
-60.827334 -48.355946 -6.326089
-60.827334 -48.355946 6.326089
-6.439470 -23.776972 42.451760
-19.576505 -19.138899 43.066334
-10.960673 -29.392633 40.784211
-6.296951 -17.133742 44.208608
-41.505166 -4.293589 32.598777
-31.878700 -12.454994 39.854724
-44.663430 -12.003206 32.188335
-21.799730 -41.465551 35.272705
-25.389811 -24.607170 41.081577
-16.192284 -35.415253 38.418325
-31.713773 -39.942350 34.856810
-18.310469 -27.301305 41.442274
-6.152510 -3.802460 45.665527
-18.996039 -11.740198 43.827415
-6.222537 -10.314488 45.284299
-12.817061 -14.621377 44.469235
-49.239047 -30.431405 29.493357
-33.358904 -20.616936 39.215743
-47.412383 -20.948247 31.234288
-41.483137 -36.201421 32.937141
-39.427178 -16.617488 36.345246
-33.064732 -30.083287 37.888812
-6.148184 22.701430 40.531472
-17.598926 17.205526 38.715861
-9.988635 26.785970 37.167294
-6.092187 16.576588 42.771036
-39.343626 4.069984 30.901071
-28.495612 11.133223 35.625191
-38.588558 10.370596 27.810256
-35.787713 0.000000 35.366345
-17.383308 33.065016 28.126783
-21.490492 20.828048 34.772347
-13.867961 30.331567 32.903563
-23.621631 29.750589 25.962685
-15.957176 23.792494 36.116041
-6.107417 3.774591 45.330835
-17.781382 10.989499 41.024975
-6.099761 10.110974 44.390799
-12.368796 0.000000 44.750723
-12.117884 13.823774 42.043416
-35.267273 21.796374 21.124500
-27.840552 17.206408 32.728532
-37.145096 16.411844 24.470413
-29.696043 25.915084 23.578322
-33.144081 13.969333 30.553285
-25.896971 23.561842 29.675288
-25.871420 -7.794156 41.860837
-24.362071 7.339442 39.418659
-31.119850 -4.071205 39.145910
-19.086118 -3.931957 43.606066
-29.941418 3.917038 37.663551
-18.647970 3.841693 42.605029
-49.441466 0.000000 -21.794026
-55.386451 0.000000 -7.714444
-47.690504 6.792902 -18.483205
-53.494939 -7.619670 -20.732805
-49.441466 0.000000 21.794026
-55.386451 0.000000 7.714444
-47.690504 6.792902 18.483205
-53.494939 -7.619670 20.732805
-42.731149 18.520887 -11.446537
-52.094250 7.018650 -4.337765
-45.372893 13.077516 -14.918498
-43.854722 19.194953 -3.954378
-50.577228 6.949841 -11.520069
-60.514865 -26.228851 -16.210322
-59.430131 -8.007013 -4.948606
-57.434628 -16.553988 -18.884368
-64.194209 -28.097427 -5.788388
-57.366335 -7.882736 -13.066436
-42.731149 18.520887 11.446537
-52.094250 7.018650 4.337765
-45.372893 13.077516 14.918498
-43.854722 19.194953 3.954378
-50.577228 6.949841 11.520069
-48.307851 13.351962 0.000000
-60.514865 -26.228851 16.210322
-59.430131 -8.007013 4.948606
-57.434628 -16.553988 18.884368
-64.194209 -28.097427 5.788388
-57.366335 -7.882736 13.066436
-62.818468 -17.362597 0.000000
-22.017487 41.843415 0.000000
-16.590601 46.023130 0.000000
-3.757402 54.213539 0.000000
-10.563841 50.154817 0.000000
34.122738 64.848993 0.000000
23.090001 64.052779 0.000000
4.026162 58.091334 0.000000
12.960648 61.534335 0.000000
-34.122738 -64.848993 0.000000
-23.090001 -64.052779 0.000000
-4.026162 -58.091334 0.000000
-12.960648 -61.534335 0.000000
22.017487 -41.843415 0.000000
16.590601 -46.023130 0.000000
3.757402 -54.213539 0.000000
10.563841 -50.154817 0.000000
-37.784607 -64.169739 4.907433
-32.825254 -61.752120 13.979398
-32.185093 -64.528928 4.756376
-21.350746 -51.591211 27.579356
-27.126101 -57.227478 21.578951
-21.236364 -63.431890 4.427398
-27.416723 -61.850616 13.552214
-26.597151 -64.236392 4.597861
-29.900746 -63.487964 9.326995
-1.993304 -28.057805 40.179945
-6.219301 -33.692229 38.232831
-15.871874 -45.562531 32.168619
-10.826851 -39.539711 35.631532
-2.364034 -57.135475 3.825087
-7.267226 -57.577295 11.758619
-6.564090 -58.968740 3.966901
-16.599070 -51.522956 26.857860
-12.139432 -55.745571 19.642013
-19.244091 -54.401300 24.138421
-15.907411 -62.172224 4.281425
-11.789788 -59.089613 12.192908
-11.103312 -60.679068 4.117740
-19.014319 -62.160594 8.694272
-9.179581 -59.325556 8.071572
-24.644974 -59.636003 17.565649
-14.447118 -58.175597 16.417030
-21.959119 -57.151581 21.030457
-21.973634 -61.325704 13.185697
-16.916302 -56.621542 20.373099
-16.716812 -60.362753 12.724962
23.726542 -40.294874 3.081583
21.719164 -40.858920 9.249611
21.149914 -42.404142 3.125576
16.385701 -39.593848 21.165869
19.260852 -40.634295 15.322106
15.598954 -46.593245 3.252100
19.036186 -42.944586 9.409675
18.431244 -44.514415 3.186217
20.146955 -42.777834 6.284477
1.958902 -27.573567 39.486496
5.843518 -31.656477 35.922727
0.000000 -30.330789 38.617536
13.144017 -37.731818 26.639882
9.602715 -35.069158 31.602857
-4.141540 -36.012729 36.441799
3.958732 -34.423122 34.833252
-2.039256 -33.160463 37.601203
1.996930 -32.472190 36.820758
2.268948 -54.837393 3.671236
6.461135 -51.190738 10.454336
5.882350 -52.844310 3.554903
0.000000 -55.436891 7.469004
13.368043 -41.493956 21.629948
10.156048 -46.637661 16.432831
14.921748 -42.182426 18.716780
12.472822 -48.748542 3.357017
9.820224 -49.218290 10.155999
9.295358 -50.798690 3.447248
14.378437 -47.005217 6.574521
7.915172 -51.153962 6.959781
-4.681119 -55.176451 15.250396
4.339521 -51.150030 14.137521
-2.341642 -55.565327 11.374040
2.250714 -53.407690 10.932379
17.734729 -42.914566 12.640388
11.670423 -46.994410 13.261723
16.389795 -42.656661 15.696663
16.139168 -45.042427 9.684615
13.345142 -44.668306 16.072184
13.056523 -47.145811 9.938723
-13.546134 -47.996872 29.663698
-4.260096 -46.045429 28.457640
-11.077408 -45.006249 31.698676
-11.542995 -50.575746 26.452179
11.400217 -40.393427 24.964511
4.017758 -43.426111 26.838813
9.656851 -39.234685 27.633665
9.862385 -43.212135 22.600856
-6.405362 -39.052182 35.033029
-2.148261 -43.177495 30.339999
-8.685236 -41.999213 33.489638
-2.092889 -38.253835 34.343878
-6.478983 -44.189712 31.075440
-7.115038 -54.181400 19.255870
-2.242007 -48.030940 25.200739
-9.370669 -52.662170 22.938964
-2.301213 -52.463916 18.617205
-6.725623 -49.385122 25.883706
5.951149 -36.282935 32.548786
2.087793 -41.962167 29.486011
7.827734 -37.852590 30.183174
2.041749 -37.319112 33.504694
5.960898 -40.656132 28.590528
0.000000 -40.257006 32.003139
6.378632 -48.573623 17.262887
2.169234 -46.471893 24.382742
8.178976 -45.964983 20.021756
2.217954 -50.565753 17.943628
6.113133 -44.887714 23.526526
0.000000 -49.520112 21.674661
-23.726542 40.294874 3.081583
-21.719164 40.858920 9.249611
-21.149914 42.404142 3.125576
-16.385701 39.593848 21.165869
-19.260852 40.634295 15.322106
-15.598954 46.593245 3.252100
-19.036186 42.944586 9.409675
-18.431244 44.514415 3.186217
-20.146955 42.777834 6.284477
-1.958902 27.573567 39.486496
-5.843518 31.656477 35.922727
-13.144017 37.731818 26.639882
-9.602715 35.069158 31.602857
-2.268948 54.837393 3.671236
-6.461135 51.190738 10.454336
-5.882350 52.844310 3.554903
-13.368043 41.493956 21.629948
-10.156048 46.637661 16.432831
-14.921748 42.182426 18.716780
-12.472822 48.748542 3.357017
-9.820224 49.218290 10.155999
-9.295358 50.798690 3.447248
-14.378437 47.005217 6.574521
-7.915172 51.153962 6.959781
-17.734729 42.914566 12.640388
-11.670423 46.994410 13.261723
-16.389795 42.656661 15.696663
-16.139168 45.042427 9.684615
-13.345142 44.668306 16.072184
-13.056523 47.145811 9.938723
37.784607 64.169739 4.907433
32.825254 61.752120 13.979398
32.185093 64.528928 4.756376
21.350746 51.591211 27.579356
27.126101 57.227478 21.578951
21.236364 63.431890 4.427398
27.416723 61.850616 13.552214
26.597151 64.236392 4.597861
29.900746 63.487964 9.326995
1.993304 28.057805 40.179945
6.219301 33.692229 38.232831
0.000000 30.330789 38.617536
15.871874 45.562531 32.168619
10.826851 39.539711 35.631532
-3.958732 34.423122 34.833252
4.141540 36.012729 36.441799
-1.996930 32.472190 36.820758
2.039256 33.160463 37.601203
2.364034 57.135475 3.825087
7.267226 57.577295 11.758619
6.564090 58.968740 3.966901
0.000000 55.436891 7.469004
16.599070 51.522956 26.857860
12.139432 55.745571 19.642013
19.244091 54.401300 24.138421
15.907411 62.172224 4.281425
11.789788 59.089613 12.192908
11.103312 60.679068 4.117740
19.014319 62.160594 8.694272
9.179581 59.325556 8.071572
-4.339521 51.150030 14.137521
4.681119 55.176451 15.250396
-2.250714 53.407690 10.932379
2.341642 55.565327 11.374040
24.644974 59.636003 17.565649
14.447118 58.175597 16.417030
21.959119 57.151581 21.030457
21.973634 61.325704 13.185697
16.916302 56.621542 20.373099
16.716812 60.362753 12.724962
-11.400217 40.393427 24.964511
-4.017758 43.426111 26.838813
-9.656851 39.234685 27.633665
-9.862385 43.212135 22.600856
13.546134 47.996872 29.663698
4.260096 46.045429 28.457640
11.077408 45.006249 31.698676
11.542995 50.575746 26.452179
-5.951149 36.282935 32.548786
-2.087793 41.962167 29.486011
-7.827734 37.852590 30.183174
-2.041749 37.319112 33.504694
-5.960898 40.656132 28.590528
-6.378632 48.573623 17.262887
-2.169234 46.471893 24.382742
-8.178976 45.964983 20.021756
-2.217954 50.565753 17.943628
-6.113133 44.887714 23.526526
6.405362 39.052182 35.033029
2.148261 43.177495 30.339999
8.685236 41.999213 33.489638
2.092889 38.253835 34.343878
6.478983 44.189712 31.075440
0.000000 40.257006 32.003139
7.115038 54.181400 19.255870
2.242007 48.030940 25.200739
9.370669 52.662170 22.938964
2.301213 52.463916 18.617205
6.725623 49.385122 25.883706
0.000000 49.520112 21.674661
0.000000 -22.179141 42.150632
0.000000 -15.864681 44.009392
0.000000 -3.174478 45.802843
0.000000 -9.522848 45.212412
0.000000 22.179141 42.150632
0.000000 15.864681 44.009392
0.000000 3.174478 45.802843
0.000000 9.522848 45.212412
-37.784607 -64.169739 -4.907433
-32.825254 -61.752120 -13.979398
-32.185093 -64.528928 -4.756376
-21.350746 -51.591211 -27.579356
-27.126101 -57.227478 -21.578951
-21.236364 -63.431890 -4.427398
-27.416723 -61.850616 -13.552214
-26.597151 -64.236392 -4.597861
-29.900746 -63.487964 -9.326995
-1.993304 -28.057805 -40.179945
-6.219301 -33.692229 -38.232831
-15.871874 -45.562531 -32.168619
-10.826851 -39.539711 -35.631532
-2.364034 -57.135475 -3.825087
-7.267226 -57.577295 -11.758619
-6.564090 -58.968740 -3.966901
-16.599070 -51.522956 -26.857860
-12.139432 -55.745571 -19.642013
-19.244091 -54.401300 -24.138421
-15.907411 -62.172224 -4.281425
-11.789788 -59.089613 -12.192908
-11.103312 -60.679068 -4.117740
-19.014319 -62.160594 -8.694272
-9.179581 -59.325556 -8.071572
-24.644974 -59.636003 -17.565649
-14.447118 -58.175597 -16.417030
-21.959119 -57.151581 -21.030457
-21.973634 -61.325704 -13.185697
-16.916302 -56.621542 -20.373099
-16.716812 -60.362753 -12.724962
23.726542 -40.294874 -3.081583
21.719164 -40.858920 -9.249611
21.149914 -42.404142 -3.125576
16.385701 -39.593848 -21.165869
19.260852 -40.634295 -15.322106
15.598954 -46.593245 -3.252100
19.036186 -42.944586 -9.409675
18.431244 -44.514415 -3.186217
20.146955 -42.777834 -6.284477
1.958902 -27.573567 -39.486496
5.843518 -31.656477 -35.922727
0.000000 -30.330789 -38.617536
13.144017 -37.731818 -26.639882
9.602715 -35.069158 -31.602857
-4.141540 -36.012729 -36.441799
3.958732 -34.423122 -34.833252
-2.039256 -33.160463 -37.601203
1.996930 -32.472190 -36.820758
2.268948 -54.837393 -3.671236
6.461135 -51.190738 -10.454336
5.882350 -52.844310 -3.554903
0.000000 -55.436891 -7.469004
13.368043 -41.493956 -21.629948
10.156048 -46.637661 -16.432831
14.921748 -42.182426 -18.716780
12.472822 -48.748542 -3.357017
9.820224 -49.218290 -10.155999
9.295358 -50.798690 -3.447248
14.378437 -47.005217 -6.574521
7.915172 -51.153962 -6.959781
-4.681119 -55.176451 -15.250396
4.339521 -51.150030 -14.137521
-2.341642 -55.565327 -11.374040
2.250714 -53.407690 -10.932379
17.734729 -42.914566 -12.640388
11.670423 -46.994410 -13.261723
16.389795 -42.656661 -15.696663
16.139168 -45.042427 -9.684615
13.345142 -44.668306 -16.072184
13.056523 -47.145811 -9.938723
-13.546134 -47.996872 -29.663698
-4.260096 -46.045429 -28.457640
-11.077408 -45.006249 -31.698676
-11.542995 -50.575746 -26.452179
11.400217 -40.393427 -24.964511
4.017758 -43.426111 -26.838813
9.656851 -39.234685 -27.633665
9.862385 -43.212135 -22.600856
-6.405362 -39.052182 -35.033029
-2.148261 -43.177495 -30.339999
-8.685236 -41.999213 -33.489638
-2.092889 -38.253835 -34.343878
-6.478983 -44.189712 -31.075440
-7.115038 -54.181400 -19.255870
-2.242007 -48.030940 -25.200739
-9.370669 -52.662170 -22.938964
-2.301213 -52.463916 -18.617205
-6.725623 -49.385122 -25.883706
5.951149 -36.282935 -32.548786
2.087793 -41.962167 -29.486011
7.827734 -37.852590 -30.183174
2.041749 -37.319112 -33.504694
5.960898 -40.656132 -28.590528
0.000000 -40.257006 -32.003139
6.378632 -48.573623 -17.262887
2.169234 -46.471893 -24.382742
8.178976 -45.964983 -20.021756
2.217954 -50.565753 -17.943628
6.113133 -44.887714 -23.526526
0.000000 -49.520112 -21.674661
-23.726542 40.294874 -3.081583
-21.719164 40.858920 -9.249611
-21.149914 42.404142 -3.125576
-16.385701 39.593848 -21.165869
-19.260852 40.634295 -15.322106
-15.598954 46.593245 -3.252100
-19.036186 42.944586 -9.409675
-18.431244 44.514415 -3.186217
-20.146955 42.777834 -6.284477
-1.958902 27.573567 -39.486496
-5.843518 31.656477 -35.922727
-13.144017 37.731818 -26.639882
-9.602715 35.069158 -31.602857
-2.268948 54.837393 -3.671236
-6.461135 51.190738 -10.454336
-5.882350 52.844310 -3.554903
-13.368043 41.493956 -21.629948
-10.156048 46.637661 -16.432831
-14.921748 42.182426 -18.716780
-12.472822 48.748542 -3.357017
-9.820224 49.218290 -10.155999
-9.295358 50.798690 -3.447248
-14.378437 47.005217 -6.574521
-7.915172 51.153962 -6.959781
-17.734729 42.914566 -12.640388
-11.670423 46.994410 -13.261723
-16.389795 42.656661 -15.696663
-16.139168 45.042427 -9.684615
-13.345142 44.668306 -16.072184
-13.056523 47.145811 -9.938723
37.784607 64.169739 -4.907433
32.825254 61.752120 -13.979398
32.185093 64.528928 -4.756376
21.350746 51.591211 -27.579356
27.126101 57.227478 -21.578951
21.236364 63.431890 -4.427398
27.416723 61.850616 -13.552214
26.597151 64.236392 -4.597861
29.900746 63.487964 -9.326995
1.993304 28.057805 -40.179945
6.219301 33.692229 -38.232831
0.000000 30.330789 -38.617536
15.871874 45.562531 -32.168619
10.826851 39.539711 -35.631532
-3.958732 34.423122 -34.833252
4.141540 36.012729 -36.441799
-1.996930 32.472190 -36.820758
2.039256 33.160463 -37.601203
2.364034 57.135475 -3.825087
7.267226 57.577295 -11.758619
6.564090 58.968740 -3.966901
0.000000 55.436891 -7.469004
16.599070 51.522956 -26.857860
12.139432 55.745571 -19.642013
19.244091 54.401300 -24.138421
15.907411 62.172224 -4.281425
11.789788 59.089613 -12.192908
11.103312 60.679068 -4.117740
19.014319 62.160594 -8.694272
9.179581 59.325556 -8.071572
-4.339521 51.150030 -14.137521
4.681119 55.176451 -15.250396
-2.250714 53.407690 -10.932379
2.341642 55.565327 -11.374040
24.644974 59.636003 -17.565649
14.447118 58.175597 -16.417030
21.959119 57.151581 -21.030457
21.973634 61.325704 -13.185697
16.916302 56.621542 -20.373099
16.716812 60.362753 -12.724962
-11.400217 40.393427 -24.964511
-4.017758 43.426111 -26.838813
-9.656851 39.234685 -27.633665
-9.862385 43.212135 -22.600856
13.546134 47.996872 -29.663698
4.260096 46.045429 -28.457640
11.077408 45.006249 -31.698676
11.542995 50.575746 -26.452179
-5.951149 36.282935 -32.548786
-2.087793 41.962167 -29.486011
-7.827734 37.852590 -30.183174
-2.041749 37.319112 -33.504694
-5.960898 40.656132 -28.590528
-6.378632 48.573623 -17.262887
-2.169234 46.471893 -24.382742
-8.178976 45.964983 -20.021756
-2.217954 50.565753 -17.943628
-6.113133 44.887714 -23.526526
6.405362 39.052182 -35.033029
2.148261 43.177495 -30.339999
8.685236 41.999213 -33.489638
2.092889 38.253835 -34.343878
6.478983 44.189712 -31.075440
0.000000 40.257006 -32.003139
7.115038 54.181400 -19.255870
2.242007 48.030940 -25.200739
9.370669 52.662170 -22.938964
2.301213 52.463916 -18.617205
6.725623 49.385122 -25.883706
0.000000 49.520112 -21.674661
0.000000 -22.179141 -42.150632
0.000000 -15.864681 -44.009392
0.000000 -3.174478 -45.802843
0.000000 -9.522848 -45.212412
0.000000 22.179141 -42.150632
0.000000 15.864681 -44.009392
0.000000 3.174478 -45.802843
0.000000 9.522848 -45.212412
44.059109 63.094479 -3.130081
51.204936 58.105674 -9.451999
41.839488 62.707769 -8.073900
56.917662 40.185707 -19.827475
55.540595 50.050858 -15.208249
36.288519 59.761840 -17.073615
48.440873 57.235197 -14.307688
39.197857 61.545836 -12.780998
45.452295 60.372039 -11.262960
46.669380 3.569079 -27.479996
50.280725 11.382513 -26.727464
55.960461 29.915047 -23.158936
53.519933 20.180935 -25.368706
23.785143 48.846424 -30.188750
34.562019 47.976781 -29.651281
26.829749 51.840341 -27.574564
53.480991 38.855246 -24.013863
44.922554 44.742150 -27.652170
53.233715 43.884215 -22.111761
33.107730 57.367072 -21.120586
38.083128 50.769460 -26.614846
29.971076 54.730704 -24.543168
39.260199 56.905975 -20.189347
32.475924 51.600190 -27.269354
50.802615 53.195182 -17.296420
43.700283 49.194802 -25.520076
52.361611 48.751983 -19.852223
45.279004 55.544664 -18.912731
48.747200 46.922296 -24.031467
41.757019 53.321174 -23.045823
26.515021 -37.970614 -1.883700
30.146995 -34.209817 -5.564881
25.643023 -38.432993 -4.948416
36.370397 -25.678675 -12.669760
33.424767 -30.121000 -9.152444
23.552502 -38.787497 -11.081366
29.176649 -34.473599 -8.617731
24.651461 -38.706065 -8.037946
27.466610 -36.482542 -6.806154
44.386187 -3.394470 -26.135600
43.074513 -9.751176 -22.896895
38.984178 -20.839955 -16.133393
41.239253 -15.550219 -19.547605
18.052003 -37.072544 -22.912092
24.136225 -33.504362 -20.706834
19.561624 -37.796897 -20.104670
35.138654 -25.529090 -15.777846
29.794192 -29.674542 -18.339876
33.803472 -27.866529 -14.040995
22.304736 -38.648298 -14.228976
25.531563 -34.036691 -17.843036
20.988071 -38.326683 -17.187030
25.261492 -36.615449 -12.990587
22.618035 -35.937235 -18.991891
30.848563 -32.301386 -10.502800
28.434572 -32.009705 -16.605212
32.366253 -30.135035 -12.271243
28.116958 -34.491638 -11.744262
31.149252 -29.983147 -15.356005
26.894882 -34.343129 -14.843366
3.119285 -24.016825 -40.787864
9.098937 -21.365363 -40.193336
5.055517 -26.198026 -39.264815
3.094640 -20.940578 -41.984440
20.350967 -15.754839 -38.069454
14.813162 -18.621077 -39.284574
8.900351 -30.133502 -35.604167
11.014772 -23.410963 -38.554404
7.000422 -28.250588 -37.523861
8.088370 -24.806105 -38.948876
3.062024 -14.687236 -43.869993
9.071887 -18.352825 -41.402962
3.078876 -17.810314 -43.014768
6.131036 -19.655048 -41.733373
42.072105 -2.087173 -29.379107
36.620897 -5.957089 -32.271731
41.727488 -5.372597 -27.841155
25.791087 -12.725224 -36.529614
31.198962 -9.479989 -34.620963
40.545053 -11.583489 -24.619723
36.367440 -9.091154 -30.779497
41.206474 -8.557197 -26.243944
39.037422 -7.282791 -29.390103
16.143119 -35.952151 -26.120116
18.533427 -30.108627 -29.987715
14.453566 -34.796730 -28.685340
19.339706 -34.312902 -25.058958
22.322119 -17.587174 -36.117948
20.583322 -23.992257 -33.304515
19.595724 -19.066424 -36.840074
10.863061 -31.906712 -33.409370
16.774983 -28.725287 -32.336971
12.678200 -33.439630 -31.134418
11.961671 -28.637457 -35.130144
15.666858 -31.779811 -30.590099
25.401012 -30.789763 -22.827117
21.683501 -28.513144 -28.930832
22.440006 -32.580519 -23.955191
20.557165 -31.439587 -27.074890
14.006795 -21.956455 -38.044817
17.824380 -25.504868 -34.001104
16.810283 -20.528004 -37.486547
13.012930 -25.304940 -36.678424
18.749576 -22.329454 -35.478717
14.950017 -27.088125 -34.589888
3.062163 -1.892521 -45.739656
9.118851 -5.635760 -44.651398
3.061341 -5.065646 -45.507418
20.488936 -12.662859 -39.305088
14.972684 -9.253628 -42.493650
17.721971 -14.128647 -39.940402
3.070596 -11.408641 -44.589318
9.099015 -8.798185 -44.095903
3.062074 -8.256752 -45.122758
6.107047 -13.356073 -43.662960
6.113627 -6.952863 -44.934782
12.072416 -16.937853 -40.986283
12.120262 -10.665928 -42.949515
14.903990 -15.562120 -40.502524
9.127848 -15.211330 -42.452947
14.959985 -12.421656 -41.577249
9.139610 -12.006727 -43.355101
36.607988 -22.624981 -17.825793
33.707887 -20.832620 -24.282843
37.738635 -20.073680 -19.531470
33.942480 -24.788436 -19.130926
25.534638 -15.781274 -35.146289
29.981104 -18.529341 -30.101990
28.217066 -14.217618 -34.228691
24.687394 -19.052945 -33.804124
39.697010 -14.615076 -22.909970
34.560383 -18.117571 -25.924394
38.778457 -17.389621 -21.235467
37.927303 -13.456012 -26.166558
36.253686 -19.159127 -22.817201
28.408792 -28.824951 -21.604144
30.873898 -22.889493 -25.470422
31.195049 -26.864301 -20.397271
26.700599 -27.871762 -24.805619
32.507405 -23.901433 -22.389648
33.584027 -10.919851 -32.073513
32.594470 -16.908562 -28.954026
30.913884 -12.588397 -33.202768
35.872734 -12.214519 -29.242802
30.501043 -15.621248 -31.687291
35.261983 -15.240501 -27.614457
22.786707 -25.356046 -30.735258
28.944312 -21.693605 -28.526430
23.766722 -22.263458 -32.324190
24.809979 -26.705293 -27.876662
26.913509 -20.434633 -31.252190
27.889502 -24.821407 -26.717594
3.196051 24.607880 -41.791654
9.716956 22.816544 -42.923353
5.281969 27.371516 -41.023606
3.160190 21.384140 -42.873750
22.797649 17.648954 -42.646330
16.306287 20.498030 -43.244348
9.768881 33.074046 -39.078560
12.042249 25.594779 -42.150826
7.485007 30.206158 -40.121349
8.657283 26.550897 -41.688431
3.106599 14.901046 -44.508631
9.591849 19.404732 -43.776006
3.133792 18.127980 -43.781982
6.379383 20.451206 -43.423846
43.293571 2.147769 -30.232062
39.448216 6.417006 -34.763273
45.049037 5.800261 -30.057338
40.493139 0.000000 -31.803916
28.979152 14.298203 -41.045080
34.609494 10.516299 -38.405573
48.375614 13.820636 -29.374588
40.902540 10.224841 -34.617768
46.758844 9.710237 -29.780186
43.112583 8.043050 -32.458169
34.902855 -3.966642 -34.491905
36.542184 4.152949 -36.111933
37.677759 -2.043408 -33.227978
38.631685 2.095143 -34.069244
20.301177 45.212512 -32.847994
23.050356 37.446641 -37.296260
17.509819 42.154611 -34.750948
25.403250 45.070965 -32.915649
25.753260 20.290505 -41.669650
24.830947 28.943358 -40.177316
22.429175 21.823342 -42.166980
12.296711 36.117595 -37.818565
20.125920 34.463393 -38.796540
14.824367 39.100294 -36.404855
13.518091 32.363687 -39.701185
18.935290 38.409739 -36.971829
35.761040 43.347641 -32.137358
27.801362 36.557945 -37.093481
30.627187 44.467442 -32.695184
26.750779 40.911938 -35.232213
15.609761 24.469196 -42.398742
21.124018 30.226314 -40.295367
19.017065 23.222833 -42.407620
14.627873 28.445359 -41.230328
21.873483 26.049813 -41.389903
17.338766 31.416331 -40.116744
3.067800 1.896005 -45.823853
9.271023 5.729807 -45.396524
3.076491 5.090715 -45.732624
6.143821 0.000000 -45.601034
22.413609 13.852372 -42.997298
15.676495 9.688607 -44.491121
19.320475 15.403037 -43.542987
3.105247 11.537386 -45.092501
9.338917 9.030156 -45.258522
3.086896 8.323683 -45.488531
6.271227 13.715134 -44.836781
6.197646 7.048416 -45.552318
12.250290 -3.760235 -44.321966
12.433049 3.816332 -44.983193
9.231132 -1.900468 -45.096629
9.282862 1.911118 -45.349345
12.939599 18.154529 -43.930400
12.649305 11.131490 -44.824239
16.136616 16.849177 -43.852263
9.557894 15.927991 -44.453059
15.926842 13.224461 -44.264366
9.474896 12.447192 -44.945578
53.100924 32.818176 -25.856818
45.241525 27.960800 -32.591566
52.330582 27.835330 -27.083471
49.670978 36.275071 -27.995945
29.589435 18.287276 -40.727378
37.242702 23.017256 -37.392867
32.672960 16.462792 -39.633910
29.464821 22.740011 -40.345793
49.916825 18.377661 -28.808038
44.494450 23.325301 -33.376125
51.238277 22.977041 -28.058588
46.106330 16.357802 -31.809378
48.447803 25.603400 -30.491886
40.952725 41.552639 -31.143477
41.543810 30.800023 -34.272911
45.547105 39.223889 -29.781541
36.726937 38.337883 -34.120373
45.619495 33.542244 -31.420670
38.330715 12.463237 -36.606709
40.402153 20.958840 -35.889676
35.614249 14.502426 -38.251151
42.205889 14.370933 -34.405476
36.504071 18.695726 -37.923789
43.419768 18.766359 -34.003004
28.618746 31.845683 -38.601652
37.298500 27.955023 -36.760005
29.149402 27.305678 -39.644961
32.570036 35.058166 -36.595914
33.341589 25.315284 -38.716530
37.221205 33.126539 -35.657182
23.759609 -10.849990 -38.443856
24.881869 -3.724804 -40.259709
26.500161 -9.260737 -37.625320
21.071259 -9.194911 -40.287593
25.975211 11.861760 -42.028774
25.646170 3.839220 -41.496374
28.836474 10.077184 -40.942452
22.497151 9.817131 -43.013855
32.014299 -5.853425 -35.687129
27.702209 -1.961489 -39.423601
29.266474 -7.589996 -36.702961
32.849000 -2.001792 -36.588770
27.142477 -5.658991 -38.596983
15.359372 -5.675283 -43.217589
21.961015 -1.953782 -41.856242
18.247488 -7.454180 -41.891704
15.552950 -1.922450 -43.828743
21.565857 -5.603673 -41.146831
34.102540 6.235234 -38.014943
28.191699 1.996148 -40.120204
31.572197 8.187965 -39.594558
33.555373 2.044838 -37.375561
28.568008 5.956203 -40.624109
30.590885 0.000000 -38.480521
15.801888 5.838793 -44.462724
22.265722 1.980891 -42.436993
19.088463 7.797722 -43.822373
15.702381 1.940921 -44.249844
22.442048 5.831342 -42.818572
18.908508 0.000000 -43.200280
44.059109 63.094479 3.130081
51.204936 58.105674 9.451999
41.839488 62.707769 8.073900
48.396100 61.618513 0.000000
56.917662 40.185707 19.827475
55.540595 50.050858 15.208249
36.288519 59.761840 17.073615
48.440873 57.235197 14.307688
39.197857 61.545836 12.780998
45.452295 60.372039 11.262960
55.311402 55.970404 -6.360929
55.311402 55.970404 6.360929
52.223683 59.217306 -3.211579
52.223683 59.217306 3.211579
46.669380 3.569079 27.479996
50.280725 11.382513 26.727464
55.960461 29.915047 23.158936
53.519933 20.180935 25.368706
23.785143 48.846424 30.188750
34.562019 47.976781 29.651281
26.829749 51.840341 27.574564
53.480991 38.855246 24.013863
44.922554 44.742150 27.652170
53.233715 43.884215 22.111761
33.107730 57.367072 21.120586
38.083128 50.769460 26.614846
29.971076 54.730704 24.543168
39.260199 56.905975 20.189347
32.475924 51.600190 27.269354
50.802615 53.195182 17.296420
43.700283 49.194802 25.520076
52.361611 48.751983 19.852223
45.279004 55.544664 18.912731
48.747200 46.922296 24.031467
41.757019 53.321174 23.045823
59.779272 36.945622 -16.871475
63.750796 39.400159 -5.898186
59.806237 42.122563 -14.720136
59.779272 36.945622 16.871475
63.750796 39.400159 5.898186
59.806237 42.122563 14.720136
57.706084 51.767118 -9.464987
63.023916 44.285699 -3.135703
59.140929 47.158224 -12.230060
58.811480 52.800308 -3.217609
61.913911 43.539592 -9.077660
57.706084 51.767118 9.464987
63.023916 44.285699 3.135703
59.140929 47.158224 12.230060
58.811480 52.800308 3.217609
61.913911 43.539592 9.077660
61.414032 48.822353 0.000000
26.515021 -37.970614 1.883700
30.146995 -34.209817 5.564881
25.643023 -38.432993 4.948416
28.472043 -36.250957 0.000000
36.370397 -25.678675 12.669760
33.424767 -30.121000 9.152444
23.552502 -38.787497 11.081366
29.176649 -34.473599 8.617731
24.651461 -38.706065 8.037946
27.466610 -36.482542 6.806154
32.142179 -32.525133 -3.696419
32.142179 -32.525133 3.696419
30.358440 -34.423941 -1.866941
30.358440 -34.423941 1.866941
44.386187 -3.394470 26.135600
43.074513 -9.751176 22.896895
38.984178 -20.839955 16.133393
41.239253 -15.550219 19.547605
18.052003 -37.072544 22.912092
24.136225 -33.504362 20.706834
19.561624 -37.796897 20.104670
35.138654 -25.529090 15.777846
29.794192 -29.674542 18.339876
33.803472 -27.866529 14.040995
22.304736 -38.648298 14.228976
25.531563 -34.036691 17.843036
20.988071 -38.326683 17.187030
25.261492 -36.615449 12.990587
22.618035 -35.937235 18.991891
30.848563 -32.301386 10.502800
28.434572 -32.009705 16.605212
32.366253 -30.135035 12.271243
28.116958 -34.491638 11.744262
31.149252 -29.983147 15.356005
26.894882 -34.343129 14.843366
38.593809 -23.852286 -10.892312
39.602968 -24.475980 -3.664043
37.118983 -26.143539 -9.136112
38.593809 -23.852286 10.892312
39.602968 -24.475980 3.664043
37.118983 -26.143539 9.136112
33.929954 -30.437968 -5.565212
37.879632 -26.617292 -1.884670
35.554268 -28.350521 -7.352452
34.141579 -30.651939 -1.867905
37.625273 -26.459143 -5.516522
33.929954 -30.437968 5.565212
37.879632 -26.617292 1.884670
35.554268 -28.350521 7.352452
34.141579 -30.651939 1.867905
37.625273 -26.459143 5.516522
36.066335 -28.671678 0.000000
3.119285 -24.016825 40.787864
9.098937 -21.365363 40.193336
5.055517 -26.198026 39.264815
3.094640 -20.940578 41.984440
20.350967 -15.754839 38.069454
14.813162 -18.621077 39.284574
8.900351 -30.133502 35.604167
11.014772 -23.410963 38.554404
7.000422 -28.250588 37.523861
8.088370 -24.806105 38.948876
3.062024 -14.687236 43.869993
9.071887 -18.352825 41.402962
3.078876 -17.810314 43.014768
6.131036 -19.655048 41.733373
42.072105 -2.087173 29.379107
36.620897 -5.957089 32.271731
41.727488 -5.372597 27.841155
25.791087 -12.725224 36.529614
31.198962 -9.479989 34.620963
40.545053 -11.583489 24.619723
36.367440 -9.091154 30.779497
41.206474 -8.557197 26.243944
39.037422 -7.282791 29.390103
16.143119 -35.952151 26.120116
18.533427 -30.108627 29.987715
14.453566 -34.796730 28.685340
19.339706 -34.312902 25.058958
22.322119 -17.587174 36.117948
20.583322 -23.992257 33.304515
19.595724 -19.066424 36.840074
10.863061 -31.906712 33.409370
16.774983 -28.725287 32.336971
12.678200 -33.439630 31.134418
11.961671 -28.637457 35.130144
15.666858 -31.779811 30.590099
25.401012 -30.789763 22.827117
21.683501 -28.513144 28.930832
22.440006 -32.580519 23.955191
20.557165 -31.439587 27.074890
14.006795 -21.956455 38.044817
17.824380 -25.504868 34.001104
16.810283 -20.528004 37.486547
13.012930 -25.304940 36.678424
18.749576 -22.329454 35.478717
14.950017 -27.088125 34.589888
3.062163 -1.892521 45.739656
9.118851 -5.635760 44.651398
3.061341 -5.065646 45.507418
20.488936 -12.662859 39.305088
14.972684 -9.253628 42.493650
17.721971 -14.128647 39.940402
3.070596 -11.408641 44.589318
9.099015 -8.798185 44.095903
3.062074 -8.256752 45.122758
6.107047 -13.356073 43.662960
6.113627 -6.952863 44.934782
12.072416 -16.937853 40.986283
12.120262 -10.665928 42.949515
14.903990 -15.562120 40.502524
9.127848 -15.211330 42.452947
14.959985 -12.421656 41.577249
9.139610 -12.006727 43.355101
36.607988 -22.624981 17.825793
33.707887 -20.832620 24.282843
37.738635 -20.073680 19.531470
33.942480 -24.788436 19.130926
25.534638 -15.781274 35.146289
29.981104 -18.529341 30.101990
28.217066 -14.217618 34.228691
24.687394 -19.052945 33.804124
39.697010 -14.615076 22.909970
34.560383 -18.117571 25.924394
38.778457 -17.389621 21.235467
37.927303 -13.456012 26.166558
36.253686 -19.159127 22.817201
28.408792 -28.824951 21.604144
30.873898 -22.889493 25.470422
31.195049 -26.864301 20.397271
26.700599 -27.871762 24.805619
32.507405 -23.901433 22.389648
33.584027 -10.919851 32.073513
32.594470 -16.908562 28.954026
30.913884 -12.588397 33.202768
35.872734 -12.214519 29.242802
30.501043 -15.621248 31.687291
35.261983 -15.240501 27.614457
22.786707 -25.356046 30.735258
28.944312 -21.693605 28.526430
23.766722 -22.263458 32.324190
24.809979 -26.705293 27.876662
26.913509 -20.434633 31.252190
27.889502 -24.821407 26.717594
3.196051 24.607880 41.791654
9.716956 22.816544 42.923353
5.281969 27.371516 41.023606
3.160190 21.384140 42.873750
22.797649 17.648954 42.646330
16.306287 20.498030 43.244348
9.768881 33.074046 39.078560
12.042249 25.594779 42.150826
7.485007 30.206158 40.121349
8.657283 26.550897 41.688431
3.106599 14.901046 44.508631
9.591849 19.404732 43.776006
3.133792 18.127980 43.781982
6.379383 20.451206 43.423846
43.293571 2.147769 30.232062
39.448216 6.417006 34.763273
45.049037 5.800261 30.057338
40.493139 0.000000 31.803916
28.979152 14.298203 41.045080
34.609494 10.516299 38.405573
48.375614 13.820636 29.374588
40.902540 10.224841 34.617768
46.758844 9.710237 29.780186
43.112583 8.043050 32.458169
34.902855 -3.966642 34.491905
36.542184 4.152949 36.111933
37.677759 -2.043408 33.227978
38.631685 2.095143 34.069244
20.301177 45.212512 32.847994
23.050356 37.446641 37.296260
17.509819 42.154611 34.750948
25.403250 45.070965 32.915649
25.753260 20.290505 41.669650
24.830947 28.943358 40.177316
22.429175 21.823342 42.166980
12.296711 36.117595 37.818565
20.125920 34.463393 38.796540
14.824367 39.100294 36.404855
13.518091 32.363687 39.701185
18.935290 38.409739 36.971829
35.761040 43.347641 32.137358
27.801362 36.557945 37.093481
30.627187 44.467442 32.695184
26.750779 40.911938 35.232213
15.609761 24.469196 42.398742
21.124018 30.226314 40.295367
19.017065 23.222833 42.407620
14.627873 28.445359 41.230328
21.873483 26.049813 41.389903
17.338766 31.416331 40.116744
3.067800 1.896005 45.823853
9.271023 5.729807 45.396524
3.076491 5.090715 45.732624
6.143821 0.000000 45.601034
22.413609 13.852372 42.997298
15.676495 9.688607 44.491121
19.320475 15.403037 43.542987
3.105247 11.537386 45.092501
9.338917 9.030156 45.258522
3.086896 8.323683 45.488531
6.271227 13.715134 44.836781
6.197646 7.048416 45.552318
12.250290 -3.760235 44.321966
12.433049 3.816332 44.983193
9.231132 -1.900468 45.096629
9.282862 1.911118 45.349345
12.939599 18.154529 43.930400
12.649305 11.131490 44.824239
16.136616 16.849177 43.852263
9.557894 15.927991 44.453059
15.926842 13.224461 44.264366
9.474896 12.447192 44.945578
53.100924 32.818176 25.856818
45.241525 27.960800 32.591566
52.330582 27.835330 27.083471
49.670978 36.275071 27.995945
29.589435 18.287276 40.727378
37.242702 23.017256 37.392867
32.672960 16.462792 39.633910
29.464821 22.740011 40.345793
49.916825 18.377661 28.808038
44.494450 23.325301 33.376125
51.238277 22.977041 28.058588
46.106330 16.357802 31.809378
48.447803 25.603400 30.491886
40.952725 41.552639 31.143477
41.543810 30.800023 34.272911
45.547105 39.223889 29.781541
36.726937 38.337883 34.120373
45.619495 33.542244 31.420670
38.330715 12.463237 36.606709
40.402153 20.958840 35.889676
35.614249 14.502426 38.251151
42.205889 14.370933 34.405476
36.504071 18.695726 37.923789
43.419768 18.766359 34.003004
28.618746 31.845683 38.601652
37.298500 27.955023 36.760005
29.149402 27.305678 39.644961
32.570036 35.058166 36.595914
33.341589 25.315284 38.716530
37.221205 33.126539 35.657182
23.759609 -10.849990 38.443856
24.881869 -3.724804 40.259709
26.500161 -9.260737 37.625320
21.071259 -9.194911 40.287593
25.975211 11.861760 42.028774
25.646170 3.839220 41.496374
28.836474 10.077184 40.942452
22.497151 9.817131 43.013855
32.014299 -5.853425 35.687129
27.702209 -1.961489 39.423601
29.266474 -7.589996 36.702961
32.849000 -2.001792 36.588770
27.142477 -5.658991 38.596983
15.359372 -5.675283 43.217589
21.961015 -1.953782 41.856242
18.247488 -7.454180 41.891704
15.552950 -1.922450 43.828743
21.565857 -5.603673 41.146831
34.102540 6.235234 38.014943
28.191699 1.996148 40.120204
31.572197 8.187965 39.594558
33.555373 2.044838 37.375561
28.568008 5.956203 40.624109
30.590885 0.000000 38.480521
15.801888 5.838793 44.462724
22.265722 1.980891 42.436993
19.088463 7.797722 43.822373
15.702381 1.940921 44.249844
22.442048 5.831342 42.818572
18.908508 0.000000 43.200280
47.228758 0.000000 -24.851188
51.399910 0.000000 -18.528845
49.186607 3.625506 -24.532803
46.623432 -3.436576 -23.254369
55.985213 0.000000 -3.880192
54.405515 0.000000 -11.459142
53.005354 11.614110 -23.495855
53.494002 3.733757 -17.909258
51.133901 7.512064 -24.082388
51.490902 3.685574 -21.319866
44.958462 -9.850939 -19.928883
50.400219 -3.517818 -16.873490
45.857673 -6.736935 -21.597458
48.649405 -3.482188 -20.143342
47.228758 0.000000 24.851188
51.399910 0.000000 18.528845
49.186607 3.625506 24.532803
46.623432 -3.436576 23.254369
55.985213 0.000000 3.880192
54.405515 0.000000 11.459142
53.005354 11.614110 23.495855
53.494002 3.733757 17.909258
51.133901 7.512064 24.082388
51.490902 3.685574 21.319866
44.958462 -9.850939 19.928883
50.400219 -3.517818 16.873490
45.857673 -6.736935 21.597458
48.649405 -3.482188 20.143342
59.024770 30.768402 -19.015918
61.197815 21.563118 -13.326740
57.925200 25.702012 -20.490647
61.722418 32.282124 -14.087021
57.948845 3.879540 -2.397688
60.538959 12.363459 -7.641038
57.469788 3.866065 -6.397234
54.874745 16.163231 -22.677352
59.559486 16.807561 -14.790788
56.501731 20.791327 -21.709430
55.529677 11.939488 -19.896858
59.109690 21.268364 -17.659663
64.711581 33.952690 -3.020633
62.945384 22.370558 -8.265914
63.683996 33.378024 -8.672947
62.754076 27.334869 -11.166415
55.253054 3.804943 -14.137069
59.359618 12.248622 -11.843661
56.556247 3.837962 -10.348900
55.631651 7.781082 -17.017179
58.630527 7.977009 -9.072038
57.686426 12.160770 -15.975632
40.249434 -20.981204 -12.967097
45.164592 -15.913794 -9.835266
41.553701 -18.437808 -14.699340
41.036061 -21.462723 -9.365735
54.216400 -3.629662 -2.243254
49.860906 -10.182753 -6.293288
53.807495 -3.619698 -5.989567
43.908100 -12.933031 -18.145313
46.590714 -13.147801 -11.570170
42.781836 -15.742724 -16.437891
46.599043 -10.019304 -16.696919
44.101281 -15.868162 -13.175738
41.841435 -21.953247 -1.953091
45.760801 -16.263220 -6.009255
41.572459 -21.788936 -5.661638
43.441832 -18.922704 -7.730008
51.904502 -3.574349 -13.280307
49.115926 -10.134877 -9.799800
53.027632 -3.598506 -9.703219
49.282951 -6.893103 -15.075174
51.495741 -7.006282 -7.968056
47.998304 -10.118435 -13.292612
59.024770 30.768402 19.015918
61.197815 21.563118 13.326740
57.925200 25.702012 20.490647
61.722418 32.282124 14.087021
57.948845 3.879540 2.397688
60.538959 12.363459 7.641038
57.469788 3.866065 6.397234
59.778933 8.054007 0.000000
54.874745 16.163231 22.677352
59.559486 16.807561 14.790788
56.501731 20.791327 21.709430
55.529677 11.939488 19.896858
59.109690 21.268364 17.659663
64.711581 33.952690 3.020633
62.945384 22.370558 8.265914
63.683996 33.378024 8.672947
64.711377 28.323788 0.000000
62.754076 27.334869 11.166415
55.253054 3.804943 14.137069
59.359618 12.248622 11.843661
56.556247 3.837962 10.348900
55.631651 7.781082 17.017179
58.630527 7.977009 9.072038
57.686426 12.160770 15.975632
62.398823 17.246611 -5.293858
62.398823 17.246611 5.293858
61.309366 12.549826 -2.583708
63.866811 22.663606 -2.801376
61.309366 12.549826 2.583708
63.866811 22.663606 2.801376
40.249434 -20.981204 12.967097
45.164592 -15.913794 9.835266
41.553701 -18.437808 14.699340
41.036061 -21.462723 9.365735
54.216400 -3.629662 2.243254
49.860906 -10.182753 6.293288
53.807495 -3.619698 5.989567
52.328695 -7.050237 0.000000
43.908100 -12.933031 18.145313
46.590714 -13.147801 11.570170
42.781836 -15.742724 16.437891
46.599043 -10.019304 16.696919
44.101281 -15.868162 13.175738
41.841435 -21.953247 1.953091
45.760801 -16.263220 6.009255
41.572459 -21.788936 5.661638
44.018554 -19.266661 0.000000
43.441832 -18.922704 7.730008
51.904502 -3.574349 13.280307
49.115926 -10.134877 9.799800
53.027632 -3.598506 9.703219
49.282951 -6.893103 15.075174
51.495741 -7.006282 7.968056
47.998304 -10.118435 13.292612
48.116226 -13.298998 -4.082136
48.116226 -13.298998 4.082136
50.269628 -10.290028 -2.118469
46.127946 -16.368840 -2.023300
50.269628 -10.290028 2.118469
46.127946 -16.368840 2.023300
-26.515021 37.970614 -1.883700
-30.146995 34.209817 -5.564881
-25.643023 38.432993 -4.948416
-36.370397 25.678675 -12.669760
-33.424767 30.121000 -9.152444
-23.552502 38.787497 -11.081366
-29.176649 34.473599 -8.617731
-24.651461 38.706065 -8.037946
-27.466610 36.482542 -6.806154
-44.386187 3.394470 -26.135600
-43.074513 9.751176 -22.896895
-38.984178 20.839955 -16.133393
-41.239253 15.550219 -19.547605
-18.052003 37.072544 -22.912092
-24.136225 33.504362 -20.706834
-19.561624 37.796897 -20.104670
-35.138654 25.529090 -15.777846
-29.794192 29.674542 -18.339876
-33.803472 27.866529 -14.040995
-22.304736 38.648298 -14.228976
-25.531563 34.036691 -17.843036
-20.988071 38.326683 -17.187030
-25.261492 36.615449 -12.990587
-22.618035 35.937235 -18.991891
-30.848563 32.301386 -10.502800
-28.434572 32.009705 -16.605212
-32.366253 30.135035 -12.271243
-28.116958 34.491638 -11.744262
-31.149252 29.983147 -15.356005
-26.894882 34.343129 -14.843366
-44.059109 -63.094479 -3.130081
-51.204936 -58.105674 -9.451999
-41.839488 -62.707769 -8.073900
-56.917662 -40.185707 -19.827475
-55.540595 -50.050858 -15.208249
-36.288519 -59.761840 -17.073615
-48.440873 -57.235197 -14.307688
-39.197857 -61.545836 -12.780998
-45.452295 -60.372039 -11.262960
-46.669380 -3.569079 -27.479996
-50.280725 -11.382513 -26.727464
-55.960461 -29.915047 -23.158936
-53.519933 -20.180935 -25.368706
-23.785143 -48.846424 -30.188750
-34.562019 -47.976781 -29.651281
-26.829749 -51.840341 -27.574564
-53.480991 -38.855246 -24.013863
-44.922554 -44.742150 -27.652170
-53.233715 -43.884215 -22.111761
-33.107730 -57.367072 -21.120586
-38.083128 -50.769460 -26.614846
-29.971076 -54.730704 -24.543168
-39.260199 -56.905975 -20.189347
-32.475924 -51.600190 -27.269354
-50.802615 -53.195182 -17.296420
-43.700283 -49.194802 -25.520076
-52.361611 -48.751983 -19.852223
-45.279004 -55.544664 -18.912731
-48.747200 -46.922296 -24.031467
-41.757019 -53.321174 -23.045823
-3.196051 -24.607880 -41.791654
-9.716956 -22.816544 -42.923353
-5.281969 -27.371516 -41.023606
-3.160190 -21.384140 -42.873750
-22.797649 -17.648954 -42.646330
-16.306287 -20.498030 -43.244348
-9.768881 -33.074046 -39.078560
-12.042249 -25.594779 -42.150826
-7.485007 -30.206158 -40.121349
-8.657283 -26.550897 -41.688431
-3.106599 -14.901046 -44.508631
-9.591849 -19.404732 -43.776006
-3.133792 -18.127980 -43.781982
-6.379383 -20.451206 -43.423846
-43.293571 -2.147769 -30.232062
-39.448216 -6.417006 -34.763273
-45.049037 -5.800261 -30.057338
-28.979152 -14.298203 -41.045080
-34.609494 -10.516299 -38.405573
-48.375614 -13.820636 -29.374588
-40.902540 -10.224841 -34.617768
-46.758844 -9.710237 -29.780186
-43.112583 -8.043050 -32.458169
-20.301177 -45.212512 -32.847994
-23.050356 -37.446641 -37.296260
-17.509819 -42.154611 -34.750948
-25.403250 -45.070965 -32.915649
-25.753260 -20.290505 -41.669650
-24.830947 -28.943358 -40.177316
-22.429175 -21.823342 -42.166980
-12.296711 -36.117595 -37.818565
-20.125920 -34.463393 -38.796540
-14.824367 -39.100294 -36.404855
-13.518091 -32.363687 -39.701185
-18.935290 -38.409739 -36.971829
-35.761040 -43.347641 -32.137358
-27.801362 -36.557945 -37.093481
-30.627187 -44.467442 -32.695184
-26.750779 -40.911938 -35.232213
-15.609761 -24.469196 -42.398742
-21.124018 -30.226314 -40.295367
-19.017065 -23.222833 -42.407620
-14.627873 -28.445359 -41.230328
-21.873483 -26.049813 -41.389903
-17.338766 -31.416331 -40.116744
-3.067800 -1.896005 -45.823853
-9.271023 -5.729807 -45.396524
-3.076491 -5.090715 -45.732624
-22.413609 -13.852372 -42.997298
-15.676495 -9.688607 -44.491121
-19.320475 -15.403037 -43.542987
-3.105247 -11.537386 -45.092501
-9.338917 -9.030156 -45.258522
-3.086896 -8.323683 -45.488531
-6.271227 -13.715134 -44.836781
-6.197646 -7.048416 -45.552318
-12.939599 -18.154529 -43.930400
-12.649305 -11.131490 -44.824239
-16.136616 -16.849177 -43.852263
-9.557894 -15.927991 -44.453059
-15.926842 -13.224461 -44.264366
-9.474896 -12.447192 -44.945578
-53.100924 -32.818176 -25.856818
-45.241525 -27.960800 -32.591566
-52.330582 -27.835330 -27.083471
-49.670978 -36.275071 -27.995945
-29.589435 -18.287276 -40.727378
-37.242702 -23.017256 -37.392867
-32.672960 -16.462792 -39.633910
-29.464821 -22.740011 -40.345793
-49.916825 -18.377661 -28.808038
-44.494450 -23.325301 -33.376125
-51.238277 -22.977041 -28.058588
-46.106330 -16.357802 -31.809378
-48.447803 -25.603400 -30.491886
-40.952725 -41.552639 -31.143477
-41.543810 -30.800023 -34.272911
-45.547105 -39.223889 -29.781541
-36.726937 -38.337883 -34.120373
-45.619495 -33.542244 -31.420670
-38.330715 -12.463237 -36.606709
-40.402153 -20.958840 -35.889676
-35.614249 -14.502426 -38.251151
-42.205889 -14.370933 -34.405476
-36.504071 -18.695726 -37.923789
-43.419768 -18.766359 -34.003004
-28.618746 -31.845683 -38.601652
-37.298500 -27.955023 -36.760005
-29.149402 -27.305678 -39.644961
-32.570036 -35.058166 -36.595914
-33.341589 -25.315284 -38.716530
-37.221205 -33.126539 -35.657182
-3.119285 24.016825 -40.787864
-9.098937 21.365363 -40.193336
-5.055517 26.198026 -39.264815
-3.094640 20.940578 -41.984440
-20.350967 15.754839 -38.069454
-14.813162 18.621077 -39.284574
-8.900351 30.133502 -35.604167
-11.014772 23.410963 -38.554404
-7.000422 28.250588 -37.523861
-8.088370 24.806105 -38.948876
-3.062024 14.687236 -43.869993
-9.071887 18.352825 -41.402962
-3.078876 17.810314 -43.014768
-6.131036 19.655048 -41.733373
-42.072105 2.087173 -29.379107
-36.620897 5.957089 -32.271731
-41.727488 5.372597 -27.841155
-40.493139 0.000000 -31.803916
-25.791087 12.725224 -36.529614
-31.198962 9.479989 -34.620963
-40.545053 11.583489 -24.619723
-36.367440 9.091154 -30.779497
-41.206474 8.557197 -26.243944
-39.037422 7.282791 -29.390103
-36.542184 -4.152949 -36.111933
-34.902855 3.966642 -34.491905
-38.631685 -2.095143 -34.069244
-37.677759 2.043408 -33.227978
-16.143119 35.952151 -26.120116
-18.533427 30.108627 -29.987715
-14.453566 34.796730 -28.685340
-19.339706 34.312902 -25.058958
-22.322119 17.587174 -36.117948
-20.583322 23.992257 -33.304515
-19.595724 19.066424 -36.840074
-10.863061 31.906712 -33.409370
-16.774983 28.725287 -32.336971
-12.678200 33.439630 -31.134418
-11.961671 28.637457 -35.130144
-15.666858 31.779811 -30.590099
-25.401012 30.789763 -22.827117
-21.683501 28.513144 -28.930832
-22.440006 32.580519 -23.955191
-20.557165 31.439587 -27.074890
-14.006795 21.956455 -38.044817
-17.824380 25.504868 -34.001104
-16.810283 20.528004 -37.486547
-13.012930 25.304940 -36.678424
-18.749576 22.329454 -35.478717
-14.950017 27.088125 -34.589888
-3.062163 1.892521 -45.739656
-9.118851 5.635760 -44.651398
-3.061341 5.065646 -45.507418
-6.143821 0.000000 -45.601034
-20.488936 12.662859 -39.305088
-14.972684 9.253628 -42.493650
-17.721971 14.128647 -39.940402
-3.070596 11.408641 -44.589318
-9.099015 8.798185 -44.095903
-3.062074 8.256752 -45.122758
-6.107047 13.356073 -43.662960
-6.113627 6.952863 -44.934782
-12.433049 -3.816332 -44.983193
-12.250290 3.760235 -44.321966
-9.282862 -1.911118 -45.349345
-9.231132 1.900468 -45.096629
-12.072416 16.937853 -40.986283
-12.120262 10.665928 -42.949515
-14.903990 15.562120 -40.502524
-9.127848 15.211330 -42.452947
-14.959985 12.421656 -41.577249
-9.139610 12.006727 -43.355101
-36.607988 22.624981 -17.825793
-33.707887 20.832620 -24.282843
-37.738635 20.073680 -19.531470
-33.942480 24.788436 -19.130926
-25.534638 15.781274 -35.146289
-29.981104 18.529341 -30.101990
-28.217066 14.217618 -34.228691
-24.687394 19.052945 -33.804124
-39.697010 14.615076 -22.909970
