11.994986 -16.576663 19.408295
6.9042521 -4.2670625 24.979819
19.333794 -11.948942 16.513032
7.5966937 12.682651 25.215976
21.293453 4.8717542 21.042741
14.381608 19.874893 23.26993
7.0905467 4.3821989 25.653839
23.410358 14.468397 19.994833
14.569395 0 23.573776
30.587921 0 -8.6893875
30.587921 0 8.6893875
34.475454 9.5287812 -5.8891107
28.479097 -7.8714287 -4.8648105
34.475454 9.5287812 5.8891107
28.479097 -7.8714287 4.8648105
-20.594129 20.839495 -4.7678928
-25.12927 7.5705722 -12.639042
-17.228319 20.171267 -12.466529
-30.471392 -30.83444 -7.054648
-29.021646 -8.7432092 -14.596755
-23.04613 -26.982878 -16.676336
-7.5966937 -12.682651 -25.215976
-21.293453 -4.8717542 -21.042741
-14.381608 -19.874893 -23.26993
-7.0905467 -4.3821989 -25.653839
-23.410358 -14.468397 -19.994833
-7.0399121 11.753107 -23.367831
-19.837303 4.5385999 -19.603736
-11.994986 16.576663 -19.408295
-6.9042521 4.2670625 -24.979819
-19.333794 11.948942 -16.513032
-14.569395 0 -23.573776
-20.594129 20.839495 4.7678928
-25.12927 7.5705722 12.639042
-17.228319 20.171267 12.466529
-24.860473 15.364617 0
-30.471392 -30.83444 7.054648
-29.021646 -8.7432092 14.596755
-23.04613 -26.982878 16.676336
-36.366164 -22.475526 0
-7.5966937 -12.682651 25.215976
-21.293453 -4.8717542 21.042741
-14.381608 -19.874893 23.26993
-7.0905467 -4.3821989 25.653839
-23.410358 -14.468397 19.994833
-7.0399121 11.753107 23.367831
-19.837303 4.5385999 19.603736
-11.994986 16.576663 19.408295
-6.9042521 4.2670625 24.979819
-19.333794 11.948942 16.513032
-14.569395 0 23.573776
-30.587921 0 -8.6893875
-30.587921 0 8.6893875
-28.479097 7.8714287 -4.8648105
-34.475454 -9.5287812 -5.8891107
-28.479097 7.8714287 4.8648105
-34.475454 -9.5287812 5.8891107
-13.377758 30.3485 0
-5.2512566 37.701806 0
18.484431 41.933389 0
5.9952289 43.043213 0
-18.484431 -41.933389 0
-5.9952289 -43.043213 0
13.377758 -30.3485 0
5.2512566 -37.701806 0
-21.929529 -39.153309 5.9391313
-15.378572 -34.604849 15.730199
-16.091647 -41.519789 5.913963
-2.4524098 -18.61975 23.706897
-8.3887909 -26.843284 21.471206
-3.4550387 -41.49318 5.59037
-9.6270849 -35.938938 15.576951
-9.6684923 -42.448145 5.8328202
-12.93376 -39.33654 11.3377
15.412949 -27.518508 4.1742586
11.871469 -26.71317 12.142907
12.043638 -31.075085 4.4262485
2.3639279 -17.947958 22.851562
7.2488538 -23.1956 18.553524
0 -21.84463 22.104895
3.1909875 -38.322065 5.1631262
7.9834981 -29.803253 12.917571
7.93215 -34.82498 4.7853174
0 -37.654917 10.407563
10.159912 -30.900201 8.9061523
-5.7422351 -30.840384 19.060405
5.1235311 -27.51745 17.006719
-2.7340845 -26.289081 20.899048
-3.1485799 -34.918286 15.283528
2.5939294 -24.941445 19.827717
2.9370729 -32.572637 14.256851
-15.412949 27.518508 4.1742586
-11.871469 26.71317 12.142907
-12.043638 31.075085 4.4262485
-2.3639279 17.947958 22.851562
-7.2488538 23.1956 18.553524
-3.1909875 38.322065 5.1631262
-7.9834981 29.803253 12.917571
-7.93215 34.82498 4.7853174
-10.159912 30.900201 8.9061523
21.929529 39.153309 5.9391313
15.378572 34.604849 15.730199
16.091647 41.519789 5.913963
2.4524098 18.61975 23.706897
8.3887909 26.843284 21.471206
0 21.84463 22.104895
3.4550387 41.49318 5.59037
9.6270849 35.938938 15.576951
9.6684923 42.448145 5.8328202
0 37.654917 10.407563
12.93376 39.33654 11.3377
-5.1235311 27.51745 17.006719
5.7422351 30.840384 19.060405
-2.5939294 24.941445 19.827717
-2.9370729 32.572637 14.256851
2.7340845 26.289081 20.899048
3.1485799 34.918286 15.283528
0 -11.033245 25.029788
0 -3.5996367 25.843873
0 11.033245 25.029788
0 3.5996367 25.843873
-21.929529 -39.153309 -5.9391313
-15.378572 -34.604849 -15.730199
-16.091647 -41.519789 -5.913963
-2.4524098 -18.61975 -23.706897
-8.3887909 -26.843284 -21.471206
-3.4550387 -41.49318 -5.59037
-9.6270849 -35.938938 -15.576951
-9.6684923 -42.448145 -5.8328202
-12.93376 -39.33654 -11.3377
15.412949 -27.518508 -4.1742586
11.871469 -26.71317 -12.142907
12.043638 -31.075085 -4.4262485
2.3639279 -17.947958 -22.851562
7.2488538 -23.1956 -18.553524
0 -21.84463 -22.104895
3.1909875 -38.322065 -5.1631262
7.9834981 -29.803253 -12.917571
7.93215 -34.82498 -4.7853174
0 -37.654917 -10.407563
10.159912 -30.900201 -8.9061523
-5.7422351 -30.840384 -19.060405
5.1235311 -27.51745 -17.006719
-2.7340845 -26.289081 -20.899048
-3.1485799 -34.918286 -15.283528
2.5939294 -24.941445 -19.827717
2.9370729 -32.572637 -14.256851
-15.412949 27.518508 -4.1742586
-11.871469 26.71317 -12.142907
-12.043638 31.075085 -4.4262485
-2.3639279 17.947958 -22.851562
-7.2488538 23.1956 -18.553524
-3.1909875 38.322065 -5.1631262
-7.9834981 29.803253 -12.917571
-7.93215 34.82498 -4.7853174
-10.159912 30.900201 -8.9061523
21.929529 39.153309 -5.9391313
15.378572 34.604849 -15.730199
16.091647 41.519789 -5.913963
2.4524098 18.61975 -23.706897
8.3887909 26.843284 -21.471206
0 21.84463 -22.104895
3.4550387 41.49318 -5.59037
9.6270849 35.938938 -15.576951
9.6684923 42.448145 -5.8328202
0 37.654917 -10.407563
12.93376 39.33654 -11.3377
-5.1235311 27.51745 -17.006719
5.7422351 30.840384 -19.060405
-2.5939294 24.941445 -19.827717
-2.9370729 32.572637 -14.256851
2.7340845 26.289081 -20.899048
3.1485799 34.918286 -15.283528
0 -11.033245 -25.029788
0 -3.5996367 -25.843873
0 11.033245 -25.029788
0 3.5996367 -25.843873
28.177324 35.875717 -3.7112391
31.296043 25.032845 -9.780322
25.016574 34.712141 -9.3288171
27.495387 4.1707514 -15.399998
30.274276 13.761666 -13.454043
17.764444 29.657672 -18.329449
27.529996 23.418414 -14.473376
21.378898 32.452301 -14.338423
26.832914 29.108238 -12.268334
18.755871 -23.880207 -2.4703383
22.123064 -17.695632 -6.9136757
17.45187 -24.215617 -6.5078977
25.611172 -3.8849363 -14.344661
24.379797 -11.082235 -10.834506
13.645918 -22.781809 -14.079932
20.455104 -17.40015 -10.753884
15.691847 -23.819588 -10.524225
19.143949 -20.76728 -8.7528465
3.6203842 -13.367834 -23.86713
10.332623 -10.101651 -22.730726
6.0043244 -16.101465 -22.341842
3.5224472 -9.5844325 -24.729824
22.872807 -2.3661256 -17.964644
16.720492 -6.5326892 -20.903946
22.76804 -6.1188643 -16.408621
10.947128 -20.822675 -17.712825
12.84906 -12.452988 -20.790216
8.5350539 -18.6676 -20.250538
14.785507 -18.621811 -16.250844
9.5602536 -14.254545 -21.637821
3.4628628 -2.1401669 -25.702268
10.287769 -6.3581912 -23.735808
3.4817651 -5.7713795 -25.338423
7.0023999 -7.9881596 -24.295067
21.628786 -13.367325 -12.955277
16.603004 -10.261221 -19.518002
22.325724 -9.8641902 -14.707721
18.422933 -16.077288 -14.6276
19.689377 -8.2985394 -18.150303
15.778254 -14.35553 -18.08027
3.7812244 13.961717 -24.927458
11.373353 11.119117 -25.020228
6.5547474 17.577504 -24.389943
3.6316987 9.8817011 -25.496839
23.78781 2.4607801 -18.683301
18.34189 7.1661687 -22.931016
25.295069 6.7979982 -18.229816
20.679495 0 -20.436013
13.411028 25.509291 -21.699499
14.869292 14.410946 -24.059019
9.8642195 21.574709 -23.404159
18.805713 23.685115 -20.669479
10.84368 16.16816 -24.542612
3.4860435 2.1544934 -25.874322
10.914802 6.7457189 -25.182491
3.5456741 5.8773153 -25.803519
7.0333402 0 -25.446864
7.3702348 8.4077763 -25.571283
27.33845 16.896091 -16.375269
19.243688 11.893253 -22.622311
26.54068 11.726487 -17.484446
23.618725 20.611541 -18.753
22.481219 9.4752253 -20.723913
19.259545 17.522913 -22.069475
14.12297 -4.2547581 -22.851446
14.874749 4.4812428 -24.067849
17.360286 -2.2711316 -21.837643
10.693211 -2.2029225 -24.430785
17.921321 2.3445282 -22.543375
10.91642 2.2489063 -24.940753
28.177324 35.875717 3.7112391
31.296043 25.032845 9.780322
25.016574 34.712141 9.3288171
32.159495 32.542656 0
27.495387 4.1707514 15.399998
30.274276 13.761666 13.454043
17.764444 29.657672 18.329449
27.529996 23.418414 14.473376
21.378898 32.452301 14.338423
26.832914 29.108238 12.268334
34.614963 21.393224 -6.4450319
34.614963 21.393224 6.4450319
34.361483 27.316371 -3.5736205
34.361483 27.316371 3.5736205
18.755871 -23.880207 2.4703383
22.123064 -17.695632 6.9136757
17.45187 -24.215617 6.5078977
20.946112 -21.195672 0
25.611172 -3.8849363 14.344661
24.379797 -11.082235 10.834506
13.645918 -22.781809 14.079932
20.455104 -17.40015 10.753884
15.691847 -23.819588 10.524225
19.143949 -20.76728 8.7528465
24.482105 -15.130773 -4.558374
24.482105 -15.130773 4.558374
22.889986 -18.196867 -2.3805761
22.889986 -18.196867 2.3805761
3.6203842 -13.367834 23.86713
10.332623 -10.101651 22.730726
6.0043244 -16.101465 22.341842
3.5224472 -9.5844325 24.729824
22.872807 -2.3661256 17.964644
16.720492 -6.5326892 20.903946
22.76804 -6.1188643 16.408621
10.947128 -20.822675 17.712825
12.84906 -12.452988 20.790216
8.5350539 -18.6676 20.250538
14.785507 -18.621811 16.250844
9.5602536 -14.254545 21.637821
3.4628628 -2.1401669 25.702268
10.287769 -6.3581912 23.735808
3.4817651 -5.7713795 25.338423
7.0023999 -7.9881596 24.295067
21.628786 -13.367325 12.955277
16.603004 -10.261221 19.518002
22.325724 -9.8641902 14.707721
18.422933 -16.077288 14.6276
19.689377 -8.2985394 18.150303
15.778254 -14.35553 18.08027
3.7812244 13.961717 24.927458
11.373353 11.119117 25.020228
6.5547474 17.577504 24.389943
3.6316987 9.8817011 25.496839
23.78781 2.4607801 18.683301
18.34189 7.1661687 22.931016
25.295069 6.7979982 18.229816
20.679495 0 20.436013
13.411028 25.509291 21.699499
14.869292 14.410946 24.059019
9.8642195 21.574709 23.404159
18.805713 23.685115 20.669479
10.84368 16.16816 24.542612
3.4860435 2.1544934 25.874322
10.914802 6.7457189 25.182491
3.5456741 5.8773153 25.803519
7.0333402 0 25.446864
7.3702348 8.4077763 25.571283
27.33845 16.896091 16.375269
19.243688 11.893253 22.622311
26.54068 11.726487 17.484446
23.618725 20.611541 18.753
22.481219 9.4752253 20.723913
19.259545 17.522913 22.069475
14.12297 -4.2547581 22.851446
14.874749 4.4812428 24.067849
17.360286 -2.2711316 21.837643
10.693211 -2.2029225 24.430785
17.921321 2.3445282 22.543375
10.91642 2.2489063 24.940753
28.429791 0 -12.531983
32.073755 0 -4.4673594
30.264745 4.3108259 -11.729578
27.924086 -3.977429 -10.822419
28.429791 0 12.531983
32.073755 0 4.4673594
30.264745 4.3108259 11.729578
27.924086 -3.977429 10.822419
33.52356 14.530057 -8.9800694
34.022183 4.5838036 -2.8329464
32.046936 9.2366676 -10.536955
36.176868 15.834402 -3.2620661
32.613438 4.4814284 -7.428423
26.042111 -11.287386 -6.9759882
30.693799 -4.135371 -2.5557998
27.104099 -7.812028 -8.9117626
26.850842 -11.752455 -2.4211389
29.711764 -4.082708 -6.7675035
33.52356 14.530057 8.9800694
34.022183 4.5838036 2.8329464
32.046936 9.2366676 10.536955
36.176868 15.834402 3.2620661
32.613438 4.4814284 7.428423
35.70935 9.8698215 0
26.042111 -11.287386 6.9759882
30.693799 -4.135371 2.5557998
27.104099 -7.812028 8.9117626
26.850842 -11.752455 2.4211389
29.711764 -4.082708 6.7675035
28.996304 -8.0143814 0
-18.755871 23.880207 -2.4703383
-22.123064 17.695632 -6.9136757
-17.45187 24.215617 -6.5078977
-25.611172 3.8849363 -14.344661
-24.379797 11.082235 -10.834506
-13.645918 22.781809 -14.079932
-20.455104 17.40015 -10.753884
-15.691847 23.819588 -10.524225
-19.143949 20.76728 -8.7528465
-28.177324 -35.875717 -3.7112391
-31.296043 -25.032845 -9.780322
-25.016574 -34.712141 -9.3288171
-27.495387 -4.1707514 -15.399998
-30.274276 -13.761666 -13.454043
-17.764444 -29.657672 -18.329449
-27.529996 -23.418414 -14.473376
-21.378898 -32.452301 -14.338423
-26.832914 -29.108238 -12.268334
-3.7812244 -13.961717 -24.927458
-11.373353 -11.119117 -25.020228
-6.5547474 -17.577504 -24.389943
-3.6316987 -9.8817011 -25.496839
-23.78781 -2.4607801 -18.683301
-18.34189 -7.1661687 -22.931016
-25.295069 -6.7979982 -18.229816
-13.411028 -25.509291 -21.699499
-14.869292 -14.410946 -24.059019
-9.8642195 -21.574709 -23.404159
-18.805713 -23.685115 -20.669479
-10.84368 -16.16816 -24.542612
-3.4860435 -2.1544934 -25.874322
-10.914802 -6.7457189 -25.182491
-3.5456741 -5.8773153 -25.803519
-7.3702348 -8.4077763 -25.571283
-27.33845 -16.896091 -16.375269
-19.243688 -11.893253 -22.622311
-26.54068 -11.726487 -17.484446
-23.618725 -20.611541 -18.753
-22.481219 -9.4752253 -20.723913
-19.259545 -17.522913 -22.069475
-3.6203842 13.367834 -23.86713
-10.332623 10.101651 -22.730726
-6.0043244 16.101465 -22.341842
-3.5224472 9.5844325 -24.729824
-22.872807 2.3661256 -17.964644
-16.720492 6.5326892 -20.903946
-22.76804 6.1188643 -16.408621
-20.679495 0 -20.436013
-10.947128 20.822675 -17.712825
-12.84906 12.452988 -20.790216
-8.5350539 18.6676 -20.250538
-14.785507 18.621811 -16.250844
-9.5602536 14.254545 -21.637821
-3.4628628 2.1401669 -25.702268
-10.287769 6.3581912 -23.735808
-3.4817651 5.7713795 -25.338423
-7.0333402 0 -25.446864
-7.0023999 7.9881596 -24.295067
-21.628786 13.367325 -12.955277
-16.603004 10.261221 -19.518002
-22.325724 9.8641902 -14.707721
-18.422933 16.077288 -14.6276
-19.689377 8.2985394 -18.150303
-15.778254 14.35553 -18.08027
-14.874749 -4.4812428 -24.067849
-14.12297 4.2547581 -22.851446
-17.921321 -2.3445282 -22.543375
-10.91642 -2.2489063 -24.940753
-17.360286 2.2711316 -21.837643
-10.693211 2.2029225 -24.430785
-18.755871 23.880207 2.4703383
-22.123064 17.695632 6.9136757
-17.45187 24.215617 6.5078977
-20.946112 21.195672 0
-25.611172 3.8849363 14.344661
-24.379797 11.082235 10.834506
-13.645918 22.781809 14.079932
-20.455104 17.40015 10.753884
-15.691847 23.819588 10.524225
-19.143949 20.76728 8.7528465
-24.482105 15.130773 -4.558374
-24.482105 15.130773 4.558374
-22.889986 18.196867 -2.3805761
-22.889986 18.196867 2.3805761
-28.177324 -35.875717 3.7112391
-31.296043 -25.032845 9.780322
-25.016574 -34.712141 9.3288171
-32.159495 -32.542656 0
-27.495387 -4.1707514 15.399998
-30.274276 -13.761666 13.454043
-17.764444 -29.657672 18.329449
-27.529996 -23.418414 14.473376
-21.378898 -32.452301 14.338423
-26.832914 -29.108238 12.268334
-34.614963 -21.393224 -6.4450319
-34.614963 -21.393224 6.4450319
-34.361483 -27.316371 -3.5736205
-34.361483 -27.316371 3.5736205
-3.7812244 -13.961717 24.927458
-11.373353 -11.119117 25.020228
-6.5547474 -17.577504 24.389943
-3.6316987 -9.8817011 25.496839
-23.78781 -2.4607801 18.683301
-18.34189 -7.1661687 22.931016
-25.295069 -6.7979982 18.229816
-13.411028 -25.509291 21.699499
-14.869292 -14.410946 24.059019
-9.8642195 -21.574709 23.404159
-18.805713 -23.685115 20.669479
-10.84368 -16.16816 24.542612
-3.4860435 -2.1544934 25.874322
-10.914802 -6.7457189 25.182491
-3.5456741 -5.8773153 25.803519
-7.3702348 -8.4077763 25.571283
-27.33845 -16.896091 16.375269
-19.243688 -11.893253 22.622311
-26.54068 -11.726487 17.484446
-23.618725 -20.611541 18.753
-22.481219 -9.4752253 20.723913
-19.259545 -17.522913 22.069475
-3.6203842 13.367834 23.86713
-10.332623 10.101651 22.730726
-6.0043244 16.101465 22.341842
-3.5224472 9.5844325 24.729824
-22.872807 2.3661256 17.964644
-16.720492 6.5326892 20.903946
-22.76804 6.1188643 16.408621
-20.679495 0 20.436013
-10.947128 20.822675 17.712825
-12.84906 12.452988 20.790216
-8.5350539 18.6676 20.250538
-14.785507 18.621811 16.250844
-9.5602536 14.254545 21.637821
-3.4628628 2.1401669 25.702268
-10.287769 6.3581912 23.735808
-3.4817651 5.7713795 25.338423
-7.0333402 0 25.446864
-7.0023999 7.9881596 24.295067
-21.628786 13.367325 12.955277
-16.603004 10.261221 19.518002
-22.325724 9.8641902 14.707721
-18.422933 16.077288 14.6276
-19.689377 8.2985394 18.150303
-15.778254 14.35553 18.08027
-14.874749 -4.4812428 24.067849
-14.12297 4.2547581 22.851446
-17.921321 -2.3445282 22.543375
-10.91642 -2.2489063 24.940753
-17.360286 2.2711316 21.837643
-10.693211 2.2029225 24.430785
-28.429791 0 -12.531983
-32.073755 0 -4.4673594
-27.924086 3.977429 -10.822419
-30.264745 -4.3108259 -11.729578
-28.429791 0 12.531983
-32.073755 0 4.4673594
-27.924086 3.977429 10.822419
-30.264745 -4.3108259 11.729578
-26.042111 11.287386 -6.9759882
-30.693799 4.135371 -2.5557998
-27.104099 7.812028 -8.9117626
-26.850842 11.752455 -2.4211389
-29.711764 4.082708 -6.7675035
-33.52356 -14.530057 -8.9800694
-34.022183 -4.5838036 -2.8329464
-32.046936 -9.2366676 -10.536955
-36.176868 -15.834402 -3.2620661
-32.613438 -4.4814284 -7.428423
-26.042111 11.287386 6.9759882
-30.693799 4.135371 2.5557998
-27.104099 7.812028 8.9117626
-26.850842 11.752455 2.4211389
-29.711764 4.082708 6.7675035
-28.996304 8.0143814 0
-33.52356 -14.530057 8.9800694
-34.022183 -4.5838036 2.8329464
-32.046936 -9.2366676 10.536955
-36.176868 -15.834402 3.2620661
-32.613438 -4.4814284 7.428423
-35.70935 -9.8698215 0
-15.025035 28.554519 0
-11.598015 32.173455 0
-2.7329264 39.431929 0
-7.5567178 35.877652 0
21.457931 40.779998 0
15.423893 42.786625 0
2.9257447 42.214 0
9.1415225 43.40196 0
-21.457931 -40.779998 0
-15.423893 -42.786625 0
-2.9257447 -42.214 0
-9.1415225 -43.40196 0
15.025035 -28.554519 0
11.598015 -32.173455 0
2.7329264 -39.431929 0
7.5567178 -35.877652 0
-23.268365 -39.51675 3.0220754
-20.408908 -38.394017 8.6916086
-20.396059 -40.892715 3.0141695
-13.619052 -32.908613 17.592112
-17.105063 -36.086263 13.607164
-14.310198 -42.743802 2.983418
-17.591077 -39.6845 8.695351
-17.382674 -41.981951 3.0049503
-19.068578 -40.488126 5.9480968
-1.1905001 -16.757515 23.997459
-3.7966327 -20.567749 23.339604
-10.091857 -28.97015 20.453861
-6.7640567 -24.702366 22.260738
-1.7184164 -41.531783 2.7804561
-5.1567905 -40.856585 8.3438622
-4.7341706 -42.529595 2.8610193
-10.819714 -33.584028 17.506665
-8.2743035 -37.996488 13.388104
-12.54599 -35.466374 15.736798
-11.037804 -43.139944 2.9707867
-8.2343575 -41.270036 8.5159085
-7.8823405 -43.076615 2.9232207
-12.908845 -42.200904 5.9025518
-6.5305512 -42.205474 5.7422895
-15.920548 -38.524603 11.347334
-9.8664537 -39.730196 11.211777
-14.265934 -37.129024 13.66262
-14.55508 -40.621432 8.7340523
-11.287864 -37.782268 13.594506
-11.402339 -41.172716 8.6795453
16.04266 -27.24531 2.0836071
14.672799 -27.603029 6.2487529
14.471349 -29.014073 2.1386043
10.783141 -26.056012 13.928885
12.891279 -27.196515 10.255078
10.932698 -32.655387 2.2792701
13.005275 -29.339183 6.4285678
12.764494 -30.828304 2.2066035
13.790915 -29.282116 4.3018257
1.1708642 -16.481121 23.601651
3.5747303 -19.365623 21.97547
0 -18.318823 23.323753
8.4580192 -24.279979 17.142449
6.0251955 -22.004042 19.829121
-2.5623184 -22.280617 22.546077
2.4517598 -21.319256 21.573262
-1.2460744 -20.26249 22.975976
1.2209423 -19.853815 22.512572
1.6497959 -39.87332 2.6694259
4.5987522 -36.435321 7.4409374
4.2541873 -38.217648 2.5709492
0 -40.108768 5.4038484
8.8626308 -27.509308 14.340038
6.9884811 -32.091853 11.3076
9.9955928 -28.256633 12.537761
8.8476419 -34.579956 2.3813122
6.9316545 -34.740978 7.1686632
6.6638909 -36.417846 2.4713503
10.077507 -32.944846 4.6079264
5.6649757 -36.611456 4.9811922
-3.3001432 -38.89886 10.751381
3.0613803 -36.084556 9.973526
-1.6762451 -39.77599 8.1420147
1.6113907 -38.237046 7.8269979
12.062671 -29.189299 8.5976414
8.1006009 -32.619467 9.2051445
11.074663 -28.823309 10.60631
11.150515 -31.119713 6.6910788
9.1023355 -30.466959 10.962372
9.121298 -32.936104 6.9432
-8.7797311 -31.10848 19.226098
-2.8011789 -30.276663 18.712007
-7.1165505 -28.913735 20.364441
-7.6435837 -33.490436 17.516203
7.4523135 -26.405154 16.319282
2.6421237 -28.557509 17.649511
6.2319026 -25.319511 17.832968
6.5709089 -28.790501 15.058038
-4.0169738 -24.490665 21.970148
-1.3914757 -27.967014 19.651885
-5.5160781 -26.674111 21.269597
-1.3142555 -24.021973 21.566667
-4.1866788 -28.555119 20.080757
-4.9179054 -37.450115 13.309633
-1.5041291 -32.223236 16.906797
-6.3427128 -35.645377 15.526668
-1.601289 -36.506785 12.9547
-4.4951525 -33.007152 17.299692
3.7377828 -22.788495 20.443161
1.3523512 -27.180659 19.099328
4.9835739 -24.099079 19.216299
1.2825563 -23.442574 21.046488
3.8556441 -26.297307 18.493001
0 -25.675656 20.411393
4.4174756 -33.639315 11.955289
1.455083 -31.172512 16.355506
5.5572655 -31.231246 13.603929
1.5432241 -35.182999 12.484945
4.0897942 -30.030675 15.739662
0 -33.867016 14.823393
-16.04266 27.24531 2.0836071
-14.672799 27.603029 6.2487529
-14.471349 29.014073 2.1386043
-10.783141 26.056012 13.928885
-12.891279 27.196515 10.255078
-10.932698 32.655387 2.2792701
-13.005275 29.339183 6.4285678
-12.764494 30.828304 2.2066035
-13.790915 29.282116 4.3018257
-1.1708642 16.481121 23.601651
-3.5747303 19.365623 21.97547
-8.4580192 24.279979 17.142449
-6.0251955 22.004042 19.829121
-1.6497959 39.87332 2.6694259
-4.5987522 36.435321 7.4409374
-4.2541873 38.217648 2.5709492
-8.8626308 27.509308 14.340038
-6.9884811 32.091853 11.3076
-9.9955928 28.256633 12.537761
-8.8476419 34.579956 2.3813122
-6.9316545 34.740978 7.1686632
-6.6638909 36.417846 2.4713503
-10.077507 32.944846 4.6079264
-5.6649757 36.611456 4.9811922
-12.062671 29.189299 8.5976414
-8.1006009 32.619467 9.2051445
-11.074663 28.823309 10.60631
-11.150515 31.119713 6.6910788
-9.1023355 30.466959 10.962372
-9.121298 32.936104 6.9432
23.268365 39.51675 3.0220754
20.408908 38.394017 8.6916086
20.396059 40.892715 3.0141695
13.619052 32.908613 17.592112
17.105063 36.086263 13.607164
14.310198 42.743802 2.983418
17.591077 39.6845 8.695351
17.382674 41.981951 3.0049503
19.068578 40.488126 5.9480968
1.1905001 16.757515 23.997459
3.7966327 20.567749 23.339604
0 18.318823 23.323753
10.091857 28.97015 20.453861
6.7640567 24.702366 22.260738
-2.4517598 21.319256 21.573262
2.5623184 22.280617 22.546077
-1.2209423 19.853815 22.512572
1.2460744 20.26249 22.975976
1.7184164 41.531783 2.7804561
5.1567905 40.856585 8.3438622
4.7341706 42.529595 2.8610193
0 40.108768 5.4038484
10.819714 33.584028 17.506665
8.2743035 37.996488 13.388104
12.54599 35.466374 15.736798
11.037804 43.139944 2.9707867
8.2343575 41.270036 8.5159085
7.8823405 43.076615 2.9232207
12.908845 42.200904 5.9025518
6.5305512 42.205474 5.7422895
-3.0613803 36.084556 9.973526
3.3001432 38.89886 10.751381
-1.6113907 38.237046 7.8269979
1.6762451 39.77599 8.1420147
15.920548 38.524603 11.347334
9.8664537 39.730196 11.211777
14.265934 37.129024 13.66262
14.55508 40.621432 8.7340523
11.287864 37.782268 13.594506
11.402339 41.172716 8.6795453
-7.4523135 26.405154 16.319282
-2.6421237 28.557509 17.649511
-6.2319026 25.319511 17.832968
-6.5709089 28.790501 15.058038
8.7797311 31.10848 19.226098
2.8011789 30.276663 18.712007
7.1165505 28.913735 20.364441
7.6435837 33.490436 17.516203
-3.7377828 22.788495 20.443161
-1.3523512 27.180659 19.099328
-4.9835739 24.099079 19.216299
-1.2825563 23.442574 21.046488
-3.8556441 26.297307 18.493001
-4.4174756 33.639315 11.955289
-1.455083 31.172512 16.355506
-5.5572655 31.231246 13.603929
-1.5432241 35.182999 12.484945
-4.0897942 30.030675 15.739662
4.0169738 24.490665 21.970148
1.3914757 27.967014 19.651885
5.5160781 26.674111 21.269597
1.3142555 24.021973 21.566667
4.1866788 28.555119 20.080757
0 25.675656 20.411393
4.9179054 37.450115 13.309633
1.5041291 32.223236 16.906797
6.3427128 35.645377 15.526668
1.601289 36.506785 12.9547
4.4951525 33.007152 17.299692
0 33.867016 14.823393
0 -12.980635 24.669214
0 -9.1278608 25.321127
0 -1.7961095 25.9151
0 -5.4179562 25.723277
0 12.980635 24.669214
0 9.1278608 25.321127
0 1.7961095 25.9151
0 5.4179562 25.723277
-23.268365 -39.51675 -3.0220754
-20.408908 -38.394017 -8.6916086
-20.396059 -40.892715 -3.0141695
-13.619052 -32.908613 -17.592112
-17.105063 -36.086263 -13.607164
-14.310198 -42.743802 -2.983418
-17.591077 -39.6845 -8.695351
-17.382674 -41.981951 -3.0049503
-19.068578 -40.488126 -5.9480968
-1.1905001 -16.757515 -23.997459
-3.7966327 -20.567749 -23.339604
-10.091857 -28.97015 -20.453861
-6.7640567 -24.702366 -22.260738
-1.7184164 -41.531783 -2.7804561
-5.1567905 -40.856585 -8.3438622
-4.7341706 -42.529595 -2.8610193
-10.819714 -33.584028 -17.506665
-8.2743035 -37.996488 -13.388104
-12.54599 -35.466374 -15.736798
-11.037804 -43.139944 -2.9707867
-8.2343575 -41.270036 -8.5159085
-7.8823405 -43.076615 -2.9232207
-12.908845 -42.200904 -5.9025518
-6.5305512 -42.205474 -5.7422895
-15.920548 -38.524603 -11.347334
-9.8664537 -39.730196 -11.211777
-14.265934 -37.129024 -13.66262
-14.55508 -40.621432 -8.7340523
-11.287864 -37.782268 -13.594506
-11.402339 -41.172716 -8.6795453
16.04266 -27.24531 -2.0836071
14.672799 -27.603029 -6.2487529
14.471349 -29.014073 -2.1386043
10.783141 -26.056012 -13.928885
12.891279 -27.196515 -10.255078
10.932698 -32.655387 -2.2792701
13.005275 -29.339183 -6.4285678
12.764494 -30.828304 -2.2066035
13.790915 -29.282116 -4.3018257
1.1708642 -16.481121 -23.601651
3.5747303 -19.365623 -21.97547
0 -18.318823 -23.323753
8.4580192 -24.279979 -17.142449
6.0251955 -22.004042 -19.829121
-2.5623184 -22.280617 -22.546077
2.4517598 -21.319256 -21.573262
-1.2460744 -20.26249 -22.975976
1.2209423 -19.853815 -22.512572
1.6497959 -39.87332 -2.6694259
4.5987522 -36.435321 -7.4409374
4.2541873 -38.217648 -2.5709492
0 -40.108768 -5.4038484
8.8626308 -27.509308 -14.340038
6.9884811 -32.091853 -11.3076
9.9955928 -28.256633 -12.537761
8.8476419 -34.579956 -2.3813122
6.9316545 -34.740978 -7.1686632
6.6638909 -36.417846 -2.4713503
10.077507 -32.944846 -4.6079264
5.6649757 -36.611456 -4.9811922
-3.3001432 -38.89886 -10.751381
3.0613803 -36.084556 -9.973526
-1.6762451 -39.77599 -8.1420147
1.6113907 -38.237046 -7.8269979
12.062671 -29.189299 -8.5976414
8.1006009 -32.619467 -9.2051445
11.074663 -28.823309 -10.60631
11.150515 -31.119713 -6.6910788
9.1023355 -30.466959 -10.962372
9.121298 -32.936104 -6.9432
-8.7797311 -31.10848 -19.226098
-2.8011789 -30.276663 -18.712007
-7.1165505 -28.913735 -20.364441
-7.6435837 -33.490436 -17.516203
7.4523135 -26.405154 -16.319282
2.6421237 -28.557509 -17.649511
6.2319026 -25.319511 -17.832968
6.5709089 -28.790501 -15.058038
-4.0169738 -24.490665 -21.970148
-1.3914757 -27.967014 -19.651885
-5.5160781 -26.674111 -21.269597
-1.3142555 -24.021973 -21.566667
-4.1866788 -28.555119 -20.080757
-4.9179054 -37.450115 -13.309633
-1.5041291 -32.223236 -16.906797
-6.3427128 -35.645377 -15.526668
-1.601289 -36.506785 -12.9547
-4.4951525 -33.007152 -17.299692
3.7377828 -22.788495 -20.443161
1.3523512 -27.180659 -19.099328
4.9835739 -24.099079 -19.216299
1.2825563 -23.442574 -21.046488
3.8556441 -26.297307 -18.493001
0 -25.675656 -20.411393
4.4174756 -33.639315 -11.955289
1.455083 -31.172512 -16.355506
5.5572655 -31.231246 -13.603929
1.5432241 -35.182999 -12.484945
4.0897942 -30.030675 -15.739662
0 -33.867016 -14.823393
-16.04266 27.24531 -2.0836071
-14.672799 27.603029 -6.2487529
-14.471349 29.014073 -2.1386043
-10.783141 26.056012 -13.928885
-12.891279 27.196515 -10.255078
-10.932698 32.655387 -2.2792701
-13.005275 29.339183 -6.4285678
-12.764494 30.828304 -2.2066035
-13.790915 29.282116 -4.3018257
-1.1708642 16.481121 -23.601651
-3.5747303 19.365623 -21.97547
-8.4580192 24.279979 -17.142449
-6.0251955 22.004042 -19.829121
-1.6497959 39.87332 -2.6694259
-4.5987522 36.435321 -7.4409374
-4.2541873 38.217648 -2.5709492
-8.8626308 27.509308 -14.340038
-6.9884811 32.091853 -11.3076
-9.9955928 28.256633 -12.537761
-8.8476419 34.579956 -2.3813122
-6.9316545 34.740978 -7.1686632
-6.6638909 36.417846 -2.4713503
-10.077507 32.944846 -4.6079264
-5.6649757 36.611456 -4.9811922
-12.062671 29.189299 -8.5976414
-8.1006009 32.619467 -9.2051445
-11.074663 28.823309 -10.60631
-11.150515 31.119713 -6.6910788
-9.1023355 30.466959 -10.962372
-9.121298 32.936104 -6.9432
23.268365 39.51675 -3.0220754
20.408908 38.394017 -8.6916086
20.396059 40.892715 -3.0141695
13.619052 32.908613 -17.592112
17.105063 36.086263 -13.607164
14.310198 42.743802 -2.983418
17.591077 39.6845 -8.695351
17.382674 41.981951 -3.0049503
19.068578 40.488126 -5.9480968
1.1905001 16.757515 -23.997459
3.7966327 20.567749 -23.339604
0 18.318823 -23.323753
10.091857 28.97015 -20.453861
6.7640567 24.702366 -22.260738
-2.4517598 21.319256 -21.573262
2.5623184 22.280617 -22.546077
-1.2209423 19.853815 -22.512572
1.2460744 20.26249 -22.975976
1.7184164 41.531783 -2.7804561
5.1567905 40.856585 -8.3438622
4.7341706 42.529595 -2.8610193
0 40.108768 -5.4038484
10.819714 33.584028 -17.506665
8.2743035 37.996488 -13.388104
12.54599 35.466374 -15.736798
11.037804 43.139944 -2.9707867
8.2343575 41.270036 -8.5159085
7.8823405 43.076615 -2.9232207
12.908845 42.200904 -5.9025518
6.5305512 42.205474 -5.7422895
-3.0613803 36.084556 -9.973526
3.3001432 38.89886 -10.751381
-1.6113907 38.237046 -7.8269979
1.6762451 39.77599 -8.1420147
15.920548 38.524603 -11.347334
9.8664537 39.730196 -11.211777
14.265934 37.129024 -13.66262
14.55508 40.621432 -8.7340523
11.287864 37.782268 -13.594506
11.402339 41.172716 -8.6795453
-7.4523135 26.405154 -16.319282
-2.6421237 28.557509 -17.649511
-6.2319026 25.319511 -17.832968
-6.5709089 28.790501 -15.058038
8.7797311 31.10848 -19.226098
2.8011789 30.276663 -18.712007
7.1165505 28.913735 -20.364441
7.6435837 33.490436 -17.516203
-3.7377828 22.788495 -20.443161
-1.3523512 27.180659 -19.099328
-4.9835739 24.099079 -19.216299
-1.2825563 23.442574 -21.046488
-3.8556441 26.297307 -18.493001
-4.4174756 33.639315 -11.955289
-1.455083 31.172512 -16.355506
-5.5572655 31.231246 -13.603929
-1.5432241 35.182999 -12.484945
-4.0897942 30.030675 -15.739662
4.0169738 24.490665 -21.970148
1.3914757 27.967014 -19.651885
5.5160781 26.674111 -21.269597
1.3142555 24.021973 -21.566667
4.1866788 28.555119 -20.080757
0 25.675656 -20.411393
4.9179054 37.450115 -13.309633
1.5041291 32.223236 -16.906797
6.3427128 35.645377 -15.526668
1.601289 36.506785 -12.9547
4.4951525 33.007152 -17.299692
0 33.867016 -14.823393
0 -12.980635 -24.669214
0 -9.1278608 -25.321127
0 -1.7961095 -25.9151
0 -5.4179562 -25.723277
0 12.980635 -24.669214
0 9.1278608 -25.321127
0 1.7961095 -25.9151
0 5.4179562 -25.723277
26.418105 37.831826 -1.876815
29.530484 33.510219 -5.4510778
25.157887 37.705885 -4.854798
31.301721 22.100026 -10.904069
31.039617 27.971603 -8.4993366
21.977311 36.19339 -10.340244
27.867953 32.927313 -8.231189
23.628394 37.099715 -7.7043613
26.703915 35.469492 -6.6171605
26.66115 2.038933 -15.698694
28.285759 6.4033089 -15.035714
30.755158 16.440929 -12.727857
29.689861 11.195252 -14.073138
14.864512 30.526546 -18.866443
20.499719 28.456397 -17.58702
16.667684 32.205238 -17.130393
29.443921 21.391728 -13.220815
25.392485 25.290512 -15.630396
29.424959 24.257019 -12.222286
20.204369 35.008908 -12.889078
22.321124 29.756784 -15.599382
18.458133 33.706718 -15.115275
23.219581 33.655787 -11.940545
19.591349 31.128209 -16.450446
28.695451 30.046873 -9.7697448
24.948006 28.084766 -14.569128
29.189679 27.177444 -11.066887
26.074904 31.986609 -10.89131
27.287046 26.265526 -13.452009
24.206358 30.910047 -13.359561
17.705524 -25.355047 -1.2578492
19.716501 -22.373636 -3.6394996
17.149849 -25.703679 -3.3094613
22.783347 -16.085778 -7.9366619
21.394656 -19.279968 -5.8583322
15.707696 -25.868259 -7.3904132
19.076284 -22.539537 -5.6344467
16.479859 -25.875566 -5.3734836
18.163089 -24.125135 -4.5007661
25.741834 -1.9686276 -15.15738
25.405367 -5.7512478 -13.504599
23.910341 -12.781864 -9.8951663
24.78657 -9.3463523 -11.748954
11.701155 -24.030109 -14.851424
15.485317 -21.495726 -13.285089
12.800135 -24.732373 -13.155477
21.951817 -15.948531 -9.8567343
18.882651 -18.806821 -11.623254
21.351941 -17.601874 -8.8689848
14.806273 -25.655414 -9.4454425
16.496184 -21.991428 -11.528554
13.844865 -25.282349 -11.337493
16.627574 -24.100955 -8.5506407
14.709476 -23.371521 -12.351239
19.931544 -20.870227 -6.7859571
18.23957 -20.532866 -10.651538
20.676583 -19.251211 -7.839257
18.339795 -22.497795 -7.6604074
19.832566 -19.090112 -9.7770877
17.472411 -22.311206 -9.6430754
1.840553 -14.171274 -24.067127
5.3502019 -12.562897 -23.6338
3.0132456 -15.614839 -23.403053
1.8072784 -12.229358 -24.519033
11.948814 -9.250255 -22.352
8.6982628 -10.934264 -23.067833
5.42631 -18.371605 -21.706926
6.5398488 -13.899894 -22.891075
4.2187154 -17.024858 -22.613278
4.8102292 -14.752423 -23.163261
1.7593399 -8.4388121 -25.206283
5.2846125 -10.691003 -24.118314
1.7821195 -10.30899 -24.897867
3.5748993 -11.460514 -24.333998
24.348501 -1.207915 -17.002648
21.367575 -3.4758446 -18.829922
24.32061 -3.1313852 -16.227046
15.141386 -7.4707023 -21.445742
18.286834 -5.5565625 -20.292592
24.026646 -6.864275 -14.589434
21.367001 -5.3413355 -18.083911
24.209385 -5.0274739 -15.418687
22.85335 -4.2635031 -17.205601
10.331288 -23.00869 -16.716375
11.498734 -18.68036 -18.605342
9.1433005 -22.012351 -18.146296
12.333243 -21.881893 -15.980503
13.21722 -10.413596 -21.385911
12.443155 -14.503945 -20.133448
11.607601 -11.294069 -21.822358
6.7064228 -19.697938 -20.625619
10.294724 -17.628566 -19.845039
7.923205 -20.898002 -19.457366
7.2741357 -17.415021 -21.363357
9.7544724 -19.786691 -19.045955
16.059614 -19.466615 -14.432287
13.424589 -17.652927 -17.911524
14.252304 -20.692841 -15.214643
12.908865 -19.742479 -17.001669
8.3071234 -13.021892 -22.563547
10.79231 -15.442695 -20.586998
9.9624661 -12.165741 -22.216072
7.8078348 -15.183114 -22.007272
11.221365 -13.363873 -21.233527
9.0707675 -16.435439 -20.987056
1.7325906 -1.0707999 -25.879775
5.1880065 -3.2063643 -25.403611
1.7350049 -2.8709381 -25.791178
11.939473 -7.3790001 -22.904168
8.6064544 -5.3190813 -24.425791
10.32214 -8.2292125 -23.263237
1.7534286 -6.5147729 -25.462215
5.195502 -5.0237295 -25.178588
1.7407775 -4.6939325 -25.652117
3.5057698 -7.6670971 -25.064863
3.4756013 -3.9527078 -25.545456
7.0290555 -9.8619123 -23.863894
6.9606815 -6.1254555 -24.665959
8.6779729 -9.0611745 -23.582933
5.2744101 -8.7896724 -24.530892
8.6485247 -7.1810897 -24.036245
5.2459361 -6.8915984 -24.884879
22.578356 -13.954191 -10.994242
20.542773 -12.696132 -14.798819
23.033472 -12.251809 -11.920876
21.082719 -15.396861 -11.882807
15.109982 -9.3384826 -20.797624
18.015769 -11.134358 -18.08841
16.683059 -8.4060251 -20.237372
14.744558 -11.379381 -20.18953
23.751367 -8.7444378 -13.707408
20.852879 -10.931693 -15.642138
23.427873 -10.50588 -12.829335
22.578198 -8.0103903 -15.577003
22.005424 -11.629292 -13.849687
17.864249 -18.125941 -13.585294
18.911145 -14.020469 -15.601361
19.502734 -16.795207 -12.752105
16.643421 -17.373447 -15.462213
20.05751 -14.747509 -13.814717
19.789734 -6.4346347 -18.899649
19.537358 -10.135113 -17.35525
18.252636 -7.4326287 -19.604073
21.246634 -7.2343922 -17.319871
18.160142 -9.3007991 -18.866427
21.072706 -9.1077863 -16.502513
13.916914 -15.48613 -18.771468
17.583169 -13.17849 -17.329313
14.346113 -13.438709 -19.511587
15.312701 -16.482487 -17.205455
16.214011 -12.31082 -18.827844
17.152638 -15.265694 -16.431889
1.8832927 14.500346 -24.625992
5.6882748 13.356731 -25.127192
3.141332 16.278591 -24.397864
1.8430684 12.471538 -25.004589
13.213109 10.229018 -24.717049
9.4960871 11.93718 -25.183667
5.931421 20.081736 -23.727527
7.1077947 15.107014 -24.879025
4.49698 18.14781 -24.10484
5.1286055 15.728846 -24.696376
1.7829169 8.551901 -25.544074
5.5643221 11.256868 -25.394873
1.8115896 10.479466 -25.309593
3.7095352 11.892134 -25.250451
24.852606 1.2329234 -17.354668
22.600294 3.6763698 -19.916241
25.68065 3.3064963 -17.134484
23.363928 0 -18.350377
16.713312 8.2462845 -23.672163
19.871777 6.0381567 -22.051376
27.192552 7.7687561 -16.511832
23.326428 5.8311543 -19.742267
26.467208 5.4963478 -16.85667
24.562882 4.5824319 -18.492656
20.28318 -2.3051444 -20.044363
21.019493 2.388825 -20.772007
21.829614 -1.1839029 -19.251515
22.245199 1.2064416 -19.618019
12.708367 28.302655 -20.56257
13.964404 22.685985 -22.594881
10.92371 26.29866 -21.679796
15.599647 27.677213 -20.212867
14.971473 11.79574 -24.224353
14.677881 17.108778 -23.74931
13.092139 12.738508 -24.613298
7.5472726 22.167661 -23.211655
12.153393 20.811329 -23.427976
9.1836014 24.222384 -22.552577
8.1625911 19.542074 -23.972655
11.610157 23.5509 -22.669246
20.958056 25.404247 -18.834368
16.599429 21.827744 -22.147497
18.38231 26.689174 -19.623514
16.178243 24.74258 -21.307615
9.1798499 14.389941 -24.93402
12.583076 18.005097 -24.002993
11.143161 13.607555 -24.848995
8.7068851 16.931407 -24.541348
12.885265 15.345463 -24.382026
10.403204 18.849698 -24.069918
1.7354829 1.0725874 -25.922977
5.2664331 3.2548347 -25.787635
1.742803 2.8838417 -25.907098
3.4789318 0 -25.821536
12.926283 7.9888821 -24.797221
8.9704616 5.5440501 -25.458872
11.154485 8.8927906 -25.139112
1.7715333 6.5820399 -25.72512
5.319931 5.1440446 -25.781599
1.7536319 4.7285938 -25.841539
3.5921666 7.8560463 -25.682566
3.5190017 4.0020659 -25.864446
6.9774893 -2.1417449 -25.244793
7.0713835 2.1705658 -25.584506
5.2392794 -1.0786417 -25.595327
5.265837 1.0841093 -25.725068
7.4912216 10.510341 -25.432964
7.2361273 6.3678499 -25.642032
9.3280645 9.7399729 -25.349598
5.502336 9.1695052 -25.590958
9.152866 7.5998571 -25.437926
5.4214704 7.1221982 -25.717553
29.234739 18.068063 -14.235483
25.403601 15.700289 -18.300513
28.896685 15.370529 -14.955357
27.540464 20.112998 -15.522572
17.114142 10.577121 -23.556182
21.352412 13.196516 -21.438506
18.816517 9.4810021 -22.825362
17.12827 13.219054 -23.453516
27.865118 10.25898 -16.081539
25.054754 13.13444 -18.794043
28.431706 12.749774 -15.569484
25.956133 9.2088288 -17.907486
26.99316 14.265181 -16.988848
23.443106 23.786523 -17.82787
23.598816 17.495845 -19.468607
25.592888 22.039877 -16.734228
21.321859 22.257095 -19.808615
25.587297 18.813346 -17.623387
21.912087 7.124718 -20.926545
22.986283 11.924262 -20.418968
20.42769 8.3183292 -21.940169
23.962339 8.1590787 -19.533665
20.927562 10.718146 -21.741477
24.54566 10.608824 -19.222262
16.897246 18.802513 -22.791412
21.436348 16.066426 -21.126862
17.061985 15.9828 -23.205338
19.11845 20.57897 -21.481621
19.310212 14.661674 -22.423179
21.473424 19.111155 -20.571118
13.852509 -6.3258443 -22.41383
14.362339 -2.1500356 -23.238752
15.452654 -5.400079 -21.939906
12.203625 -5.3253226 -23.332953
14.963065 6.8329874 -24.210748
14.741568 2.206806 -23.852358
16.597322 5.8000942 -23.565123
12.928262 5.641534 -24.718436
18.642162 -3.4084921 -20.780878
15.99976 -1.1328825 -22.769597
17.059965 -4.4243481 -21.39483
19.024435 -1.1593339 -21.190315
15.740611 -3.2817926 -22.383369
8.7910353 -3.2482849 -24.735865
12.618359 -1.1226042 -24.049757
10.502115 -4.2901605 -24.11025
8.8767441 -1.0972259 -25.014967
12.431003 -3.2300721 -23.717879
19.610472 3.5855358 -21.860277
16.238021 1.1497529 -23.108672
18.1603 4.7097102 -22.774756
19.351354 1.1792561 -21.554453
16.436016 3.4267791 -23.372246
17.664118 0 -22.219836
9.0182945 3.3322571 -25.375318
12.771819 1.1362569 -24.342241
10.932711 4.4660608 -25.098791
8.9532128 1.106678 -25.230458
12.873614 3.3450803 -24.562365
10.818858 0 -24.717852
26.418105 37.831826 1.876815
29.530484 33.510219 5.4510778
25.157887 37.705885 4.854798
28.562481 36.366104 0
31.301721 22.100026 10.904069
31.039617 27.971603 8.4993366
21.977311 36.19339 10.340244
27.867953 32.927313 8.231189
23.628394 37.099715 7.7043613
26.703915 35.469492 6.6171605
31.686621 32.064148 -3.6440289
31.686621 32.064148 3.6440289
30.357738 34.423146 -1.8668979
30.357738 34.423146 1.8668979
26.66115 2.038933 15.698694
28.285759 6.4033089 15.035714
30.755158 16.440929 12.727857
29.689861 11.195252 14.073138
14.864512 30.526546 18.866443
20.499719 28.456397 17.58702
16.667684 32.205238 17.130393
29.443921 21.391728 13.220815
25.392485 25.290512 15.630396
29.424959 24.257019 12.222286
20.204369 35.008908 12.889078
22.321124 29.756784 15.599382
18.458133 33.706718 15.115275
23.219581 33.655787 11.940545
19.591349 31.128209 16.450446
28.695451 30.046873 9.7697448
24.948006 28.084766 14.569128
29.189679 27.177444 11.066887
26.074904 31.986609 10.89131
27.287046 26.265526 13.452009
24.206358 30.910047 13.359561
32.937906 20.356746 -9.2960491
35.879793 22.174931 -3.3195771
33.110786 23.320497 -8.1495727
32.937906 20.356746 9.2960491
35.879793 22.174931 3.3195771
33.110786 23.320497 8.1495727
32.591865 29.237592 -5.3457374
35.648484 25.049507 -1.7736608
33.020285 26.329955 -6.8284365
33.540949 30.1127 -1.835044
34.682519 24.389716 -5.0850625
32.591865 29.237592 5.3457374
35.648484 25.049507 1.7736608
33.020285 26.329955 6.8284365
33.540949 30.1127 1.835044
34.682519 24.389716 5.0850625
34.894783 27.740329 0
17.705524 -25.355047 1.2578492
19.716501 -22.373636 3.6394996
17.149849 -25.703679 3.3094613
18.841016 -23.988615 0
22.783347 -16.085778 7.9366619
21.394656 -19.279968 5.8583322
15.707696 -25.868259 7.3904132
19.076284 -22.539537 5.6344467
16.479859 -25.875566 5.3734836
18.163089 -24.125135 4.5007661
20.857591 -21.106097 -2.3986674
20.857591 -21.106097 2.3986674
19.896456 -22.560924 -1.2235645
19.896456 -22.560924 1.2235645
25.741834 -1.9686276 15.15738
25.405367 -5.7512478 13.504599
23.910341 -12.781864 9.8951663
24.78657 -9.3463523 11.748954
11.701155 -24.030109 14.851424
15.485317 -21.495726 13.285089
12.800135 -24.732373 13.155477
21.951817 -15.948531 9.8567343
18.882651 -18.806821 11.623254
21.351941 -17.601874 8.8689848
14.806273 -25.655414 9.4454425
16.496184 -21.991428 11.528554
13.844865 -25.282349 11.337493
16.627574 -24.100955 8.5506407
14.709476 -23.371521 12.351239
19.931544 -20.870227 6.7859571
18.23957 -20.532866 10.651538
20.676583 -19.251211 7.839257
18.339795 -22.497795 7.6604074
19.832566 -19.090112 9.7770877
17.472411 -22.311206 9.6430754
24.016774 -14.843182 -6.7782422
24.765351 -15.305828 -2.2912755
23.340753 -16.439294 -5.7448699
24.016774 -14.843182 6.7782422
24.765351 -15.305828 2.2912755
23.340753 -16.439294 5.7448699
21.784418 -19.542421 -3.5730935
23.914432 -16.804213 -1.1898428
22.592785 -18.015199 -4.6720795
21.960585 -19.715975 -1.2014759
23.72179 -16.681826 -3.4780284
21.784418 -19.542421 3.5730935
23.914432 -16.804213 1.1898428
22.592785 -18.015199 4.6720795
21.960585 -19.715975 1.2014759
23.72179 -16.681826 3.4780284
22.985078 -18.272462 0
1.840553 -14.171274 24.067127
5.3502019 -12.562897 23.6338
3.0132456 -15.614839 23.403053
1.8072784 -12.229358 24.519033
11.948814 -9.250255 22.352
8.6982628 -10.934264 23.067833
5.42631 -18.371605 21.706926
6.5398488 -13.899894 22.891075
4.2187154 -17.024858 22.613278
4.8102292 -14.752423 23.163261
1.7593399 -8.4388121 25.206283
5.2846125 -10.691003 24.118314
1.7821195 -10.30899 24.897867
3.5748993 -11.460514 24.333998
24.348501 -1.207915 17.002648
21.367575 -3.4758446 18.829922
24.32061 -3.1313852 16.227046
15.141386 -7.4707023 21.445742
18.286834 -5.5565625 20.292592
24.026646 -6.864275 14.589434
21.367001 -5.3413355 18.083911
24.209385 -5.0274739 15.418687
22.85335 -4.2635031 17.205601
10.331288 -23.00869 16.716375
11.498734 -18.68036 18.605342
9.1433005 -22.012351 18.146296
12.333243 -21.881893 15.980503
13.21722 -10.413596 21.385911
12.443155 -14.503945 20.133448
11.607601 -11.294069 21.822358
6.7064228 -19.697938 20.625619
10.294724 -17.628566 19.845039
7.923205 -20.898002 19.457366
7.2741357 -17.415021 21.363357
9.7544724 -19.786691 19.045955
16.059614 -19.466615 14.432287
13.424589 -17.652927 17.911524
14.252304 -20.692841 15.214643
12.908865 -19.742479 17.001669
8.3071234 -13.021892 22.563547
10.79231 -15.442695 20.586998
9.9624661 -12.165741 22.216072
7.8078348 -15.183114 22.007272
11.221365 -13.363873 21.233527
9.0707675 -16.435439 20.987056
1.7325906 -1.0707999 25.879775
5.1880065 -3.2063643 25.403611
1.7350049 -2.8709381 25.791178
11.939473 -7.3790001 22.904168
8.6064544 -5.3190813 24.425791
10.32214 -8.2292125 23.263237
1.7534286 -6.5147729 25.462215
5.195502 -5.0237295 25.178588
1.7407775 -4.6939325 25.652117
3.5057698 -7.6670971 25.064863
3.4756013 -3.9527078 25.545456
7.0290555 -9.8619123 23.863894
6.9606815 -6.1254555 24.665959
8.6779729 -9.0611745 23.582933
5.2744101 -8.7896724 24.530892
8.6485247 -7.1810897 24.036245
5.2459361 -6.8915984 24.884879
22.578356 -13.954191 10.994242
20.542773 -12.696132 14.798819
23.033472 -12.251809 11.920876
21.082719 -15.396861 11.882807
15.109982 -9.3384826 20.797624
18.015769 -11.134358 18.08841
16.683059 -8.4060251 20.237372
14.744558 -11.379381 20.18953
23.751367 -8.7444378 13.707408
20.852879 -10.931693 15.642138
23.427873 -10.50588 12.829335
22.578198 -8.0103903 15.577003
22.005424 -11.629292 13.849687
17.864249 -18.125941 13.585294
18.911145 -14.020469 15.601361
19.502734 -16.795207 12.752105
16.643421 -17.373447 15.462213
20.05751 -14.747509 13.814717
19.789734 -6.4346347 18.899649
19.537358 -10.135113 17.35525
18.252636 -7.4326287 19.604073
21.246634 -7.2343922 17.319871
18.160142 -9.3007991 18.866427
21.072706 -9.1077863 16.502513
13.916914 -15.48613 18.771468
17.583169 -13.17849 17.329313
14.346113 -13.438709 19.511587
15.312701 -16.482487 17.205455
16.214011 -12.31082 18.827844
17.152638 -15.265694 16.431889
1.8832927 14.500346 24.625992
5.6882748 13.356731 25.127192
3.141332 16.278591 24.397864
1.8430684 12.471538 25.004589
13.213109 10.229018 24.717049
9.4960871 11.93718 25.183667
5.931421 20.081736 23.727527
7.1077947 15.107014 24.879025
4.49698 18.14781 24.10484
5.1286055 15.728846 24.696376
1.7829169 8.551901 25.544074
5.5643221 11.256868 25.394873
1.8115896 10.479466 25.309593
3.7095352 11.892134 25.250451
24.852606 1.2329234 17.354668
22.600294 3.6763698 19.916241
25.68065 3.3064963 17.134484
23.363928 0 18.350377
16.713312 8.2462845 23.672163
19.871777 6.0381567 22.051376
27.192552 7.7687561 16.511832
23.326428 5.8311543 19.742267
26.467208 5.4963478 16.85667
24.562882 4.5824319 18.492656
20.28318 -2.3051444 20.044363
21.019493 2.388825 20.772007
21.829614 -1.1839029 19.251515
22.245199 1.2064416 19.618019
12.708367 28.302655 20.56257
13.964404 22.685985 22.594881
10.92371 26.29866 21.679796
15.599647 27.677213 20.212867
14.971473 11.79574 24.224353
14.677881 17.108778 23.74931
13.092139 12.738508 24.613298
7.5472726 22.167661 23.211655
12.153393 20.811329 23.427976
9.1836014 24.222384 22.552577
8.1625911 19.542074 23.972655
11.610157 23.5509 22.669246
20.958056 25.404247 18.834368
16.599429 21.827744 22.147497
18.38231 26.689174 19.623514
16.178243 24.74258 21.307615
9.1798499 14.389941 24.93402
12.583076 18.005097 24.002993
11.143161 13.607555 24.848995
8.7068851 16.931407 24.541348
12.885265 15.345463 24.382026
10.403204 18.849698 24.069918
1.7354829 1.0725874 25.922977
5.2664331 3.2548347 25.787635
1.742803 2.8838417 25.907098
3.4789318 0 25.821536
12.926283 7.9888821 24.797221
8.9704616 5.5440501 25.458872
11.154485 8.8927906 25.139112
1.7715333 6.5820399 25.72512
5.319931 5.1440446 25.781599
1.7536319 4.7285938 25.841539
3.5921666 7.8560463 25.682566
3.5190017 4.0020659 25.864446
6.9774893 -2.1417449 25.244793
7.0713835 2.1705658 25.584506
5.2392794 -1.0786417 25.595327
5.265837 1.0841093 25.725068
7.4912216 10.510341 25.432964
7.2361273 6.3678499 25.642032
9.3280645 9.7399729 25.349598
5.502336 9.1695052 25.590958
9.152866 7.5998571 25.437926
5.4214704 7.1221982 25.717553
29.234739 18.068063 14.235483
25.403601 15.700289 18.300513
28.896685 15.370529 14.955357
27.540464 20.112998 15.522572
17.114142 10.577121 23.556182
21.352412 13.196516 21.438506
18.816517 9.4810021 22.825362
17.12827 13.219054 23.453516
27.865118 10.25898 16.081539
25.054754 13.13444 18.794043
28.431706 12.749774 15.569484
25.956133 9.2088288 17.907486
26.99316 14.265181 16.988848
23.443106 23.786523 17.82787
23.598816 17.495845 19.468607
25.592888 22.039877 16.734228
21.321859 22.257095 19.808615
25.587297 18.813346 17.623387
21.912087 7.124718 20.926545
22.986283 11.924262 20.418968
20.42769 8.3183292 21.940169
23.962339 8.1590787 19.533665
20.927562 10.718146 21.741477
24.54566 10.608824 19.222262
16.897246 18.802513 22.791412
21.436348 16.066426 21.126862
17.061985 15.9828 23.205338
19.11845 20.57897 21.481621
19.310212 14.661674 22.423179
21.473424 19.111155 20.571118
13.852509 -6.3258443 22.41383
14.362339 -2.1500356 23.238752
15.452654 -5.400079 21.939906
12.203625 -5.3253226 23.332953
14.963065 6.8329874 24.210748
14.741568 2.206806 23.852358
16.597322 5.8000942 23.565123
12.928262 5.641534 24.718436
18.642162 -3.4084921 20.780878
15.99976 -1.1328825 22.769597
17.059965 -4.4243481 21.39483
19.024435 -1.1593339 21.190315
15.740611 -3.2817926 22.383369
8.7910353 -3.2482849 24.735865
12.618359 -1.1226042 24.049757
10.502115 -4.2901605 24.11025
8.8767441 -1.0972259 25.014967
12.431003 -3.2300721 23.717879
19.610472 3.5855358 21.860277
16.238021 1.1497529 23.108672
18.1603 4.7097102 22.774756
19.351354 1.1792561 21.554453
16.436016 3.4267791 23.372246
17.664118 0 22.219836
9.0182945 3.3322571 25.375318
12.771819 1.1362569 24.342241
10.932711 4.4660608 25.098791
8.9532128 1.106678 25.230458
12.873614 3.3450803 24.562365
10.818858 0 24.717852
