27.644157 29.988271 -12.639245
21.743165 -27.683667 -2.863795
23.953435 -19.159695 -7.485685
19.912648 -27.630109 -7.425535
24.469463 -3.711752 -13.705197
24.534251 -11.152444 -10.903146
14.772728 -24.663014 -15.242581
21.861485 -18.596490 -11.493263
17.423691 -26.448456 -11.685740
21.173607 -22.969044 -9.680831
3.760898 -13.886663 -24.793456
10.806898 -10.565325 -23.774085
6.246916 -16.752009 -23.244514
3.683792 -10.023446 -25.862570
22.048450 -2.280848 -17.317182
16.966756 -6.628904 -21.211824
22.276633 -5.986800 -16.054471
11.592358 -22.049975 -18.756829
13.420834 -13.007137 -21.715365
8.934662 -19.541609 -21.198660
15.735572 -19.818383 -17.295067
10.020765 -14.941177 -22.680101
3.643410 -2.251751 -27.042333
10.731200 -6.632246 -24.758885
3.658298 -6.064000 -26.623132
7.345445 -8.379497 -25.485274
22.247668 -13.749815 -13.325977
17.046017 -10.535018 -20.038794
22.340001 -9.870498 -14.717126
19.383858 -16.915866 -15.390563
19.768778 -8.332005 -18.223498
16.483704 -14.997370 -18.888644
3.842039 14.186269 -25.328377
11.396594 11.141838 -25.071355
6.522954 17.492245 -24.271640
3.741624 10.180805 -26.268588
22.544855 2.332200 -17.707065
17.915183 6.999454 -22.397547
23.671553 6.361682 -17.059770
20.108467 0.000000 -19.871708
12.992034 24.712317 -21.021553
14.597322 14.147360 -23.618963
9.624548 21.050507 -22.835506
18.362561 23.126981 -20.182407
10.720438 15.984405 -24.263678
3.656444 2.259807 -27.139080
11.093794 6.856342 -25.595458
3.693478 6.122315 -26.879157
7.350076 0.000000 -26.592825
7.549625 8.612420 -26.193682
25.879669 15.994515 -15.501484
18.623142 11.509735 -21.892817
24.794776 10.955093 -16.334281
22.920993 20.002647 -18.199009
21.394223 9.017086 -19.721886
18.646463 16.965113 -21.366945
14.463821 -4.357445 -23.402954
14.906186 4.490714 -24.118716
17.362453 -2.271415 -21.840370
11.085217 -2.283680 -25.326403
17.687216 2.313902 -22.248891
11.216342 2.310694 -25.625983
30.950829 39.406978 4.076538
30.699401 24.555608 9.593866
26.930264 37.367511 10.042443
33.641279 34.042094 0.000000
25.449194 3.860366 14.253938
27.924830 12.693687 12.409937
17.578454 29.347162 18.137544
27.062876 23.021058 14.227796
22.033335 33.445709 14.777341
27.644157 29.988271 12.639245
32.144563 19.866433 -5.985063
32.144563 19.866433 5.985063
33.461622 26.601007 -3.480034
33.461622 26.601007 3.480034
21.743165 -27.683667 2.863795
23.953435 -19.159695 7.485685
19.912648 -27.630109 7.425535
23.842181 -24.126246 0.000000
24.469463 -3.711752 13.705197
24.534251 -11.152444 10.903146
14.772728 -24.663014 15.242581
21.861485 -18.596490 11.493263
17.423691 -26.448456 11.685740
21.173607 -22.969044 9.680831
25.892535 -16.002467 -4.820985
25.892535 -16.002467 4.820985
25.174793 -20.013222 -2.618198
25.174793 -20.013222 2.618198
3.760898 -13.886663 24.793456
10.806898 -10.565325 23.774085
6.246916 -16.752009 23.244514
3.683792 -10.023446 25.862570
22.048450 -2.280848 17.317182
16.966756 -6.628904 21.211824
22.276633 -5.986800 16.054471
11.592358 -22.049975 18.756829
13.420834 -13.007137 21.715365
8.934662 -19.541609 21.198660
15.735572 -19.818383 17.295067
10.020765 -14.941177 22.680101
3.643410 -2.251751 27.042333
10.731200 -6.632246 24.758885
3.658298 -6.064000 26.623132
7.345445 -8.379497 25.485274
22.247668 -13.749815 13.325977
17.046017 -10.535018 20.038794
22.340001 -9.870498 14.717126
19.383858 -16.915866 15.390563
19.768778 -8.332005 18.223498
16.483704 -14.997370 18.888644
3.842039 14.186269 25.328377
11.396594 11.141838 25.071355
6.522954 17.492245 24.271640
3.741624 10.180805 26.268588
22.544855 2.332200 17.707065
17.915183 6.999454 22.397547
23.671553 6.361682 17.059770
20.108467 0.000000 19.871708
12.992034 24.712317 21.021553
14.597322 14.147360 23.618963
9.624548 21.050507 22.835506
18.362561 23.126981 20.182407
10.720438 15.984405 24.263678
3.656444 2.259807 27.139080
11.093794 6.856342 25.595458
3.693478 6.122315 26.879157
7.350076 0.000000 26.592825
7.549625 8.612420 26.193682
25.879669 15.994515 15.501484
18.623142 11.509735 21.892817
24.794776 10.955093 16.334281
22.920993 20.002647 18.199009
21.394223 9.017086 19.721886
18.646463 16.965113 21.366945
14.463821 -4.357445 23.402954
14.906186 4.490714 24.118716
17.362453 -2.271415 21.840370
11.085217 -2.283680 25.326403
17.687216 2.313902 22.248891
11.216342 2.310694 25.625983
26.436086 0.000000 -11.653148
29.503309 0.000000 -4.109337
27.640517 3.937038 -10.712517
26.487886 -3.772861 -10.265797
26.436086 0.000000 11.653148
29.503309 0.000000 4.109337
27.640517 3.937038 10.712517
26.487886 -3.772861 10.265797
30.377343 13.166398 -8.137282
30.542644 4.115006 -2.543213
28.977221 8.351905 -9.527641
32.181849 14.085806 -2.901835
29.472995 4.049899 -6.713119
26.314813 -11.405583 -7.049038
29.063298 -3.915694 -2.420032
26.464233 -7.627604 -8.701376
27.381018 -11.984510 -2.468945
28.127328 -3.864990 -6.406613
30.377343 13.166398 8.137282
30.542644 4.115006 2.543213
28.977221 8.351905 9.527641
32.181849 14.085806 2.901835
29.472995 4.049899 6.713119
31.541470 8.717848 0.000000
26.314813 -11.405583 7.049038
29.063298 -3.915694 2.420032
26.464233 -7.627604 8.701376
27.381018 -11.984510 2.468945
28.127328 -3.864990 6.406613
28.439788 -7.860564 0.000000
-21.743165 27.683667 -2.863795
-23.953435 19.159695 -7.485685
-19.912648 27.630109 -7.425535
-24.469463 3.711752 -13.705197
-24.534251 11.152444 -10.903146
-14.772728 24.663014 -15.242581
-21.861485 18.596490 -11.493263
-17.423691 26.448456 -11.685740
-21.173607 22.969044 -9.680831
-30.950829 -39.406978 -4.076538
-30.699401 -24.555608 -9.593866
-26.930264 -37.367511 -10.042443
-25.449194 -3.860366 -14.253938
-27.924830 -12.693687 -12.409937
-17.578454 -29.347162 -18.137544
-27.062876 -23.021058 -14.227796
-22.033335 -33.445709 -14.777341
-27.644157 -29.988271 -12.639245
-3.842039 -14.186269 -25.328377
-11.396594 -11.141838 -25.071355
-6.522954 -17.492245 -24.271640
-3.741624 -10.180805 -26.268588
-22.544855 -2.332200 -17.707065
-17.915183 -6.999454 -22.397547
-23.671553 -6.361682 -17.059770
-12.992034 -24.712317 -21.021553
-14.597322 -14.147360 -23.618963
-9.624548 -21.050507 -22.835506
-18.362561 -23.126981 -20.182407
-10.720438 -15.984405 -24.263678
-3.656444 -2.259807 -27.139080
-11.093794 -6.856342 -25.595458
-3.693478 -6.122315 -26.879157
-7.549625 -8.612420 -26.193682
-25.879669 -15.994515 -15.501484
-18.623142 -11.509735 -21.892817
-24.794776 -10.955093 -16.334281
-22.920993 -20.002647 -18.199009
-21.394223 -9.017086 -19.721886
-18.646463 -16.965113 -21.366945
-3.760898 13.886663 -24.793456
-10.806898 10.565325 -23.774085
-6.246916 16.752009 -23.244514
-3.683792 10.023446 -25.862570
-22.048450 2.280848 -17.317182
-16.966756 6.628904 -21.211824
-22.276633 5.986800 -16.054471
-20.108467 0.000000 -19.871708
-11.592358 22.049975 -18.756829
-13.420834 13.007137 -21.715365
-8.934662 19.541609 -21.198660
-15.735572 19.818383 -17.295067
-10.020765 14.941177 -22.680101
-3.643410 2.251751 -27.042333
-10.731200 6.632246 -24.758885
-3.658298 6.064000 -26.623132
-7.350076 0.000000 -26.592825
-7.345445 8.379497 -25.485274
-22.247668 13.749815 -13.325977
-17.046017 10.535018 -20.038794
-22.340001 9.870498 -14.717126
-19.383858 16.915866 -15.390563
-19.768778 8.332005 -18.223498
-16.483704 14.997370 -18.888644
-14.906186 -4.490714 -24.118716
-14.463821 4.357445 -23.402954
-17.687216 -2.313902 -22.248891
-11.216342 -2.310694 -25.625983
-17.362453 2.271415 -21.840370
-11.085217 2.283680 -25.326403
-21.743165 27.683667 2.863795
-23.953435 19.159695 7.485685
-19.912648 27.630109 7.425535
-23.842181 24.126246 0.000000
-24.469463 3.711752 13.705197
-24.534251 11.152444 10.903146
-14.772728 24.663014 15.242581
-21.861485 18.596490 11.493263
-17.423691 26.448456 11.685740
-21.173607 22.969044 9.680831
-25.892535 16.002467 -4.820985
-25.892535 16.002467 4.820985
-25.174793 20.013222 -2.618198
-25.174793 20.013222 2.618198
-30.950829 -39.406978 4.076538
-30.699401 -24.555608 9.593866
-26.930264 -37.367511 10.042443
-33.641279 -34.042094 0.000000
-25.449194 -3.860366 14.253938
-27.924830 -12.693687 12.409937
-17.578454 -29.347162 18.137544
-27.062876 -23.021058 14.227796
-22.033335 -33.445709 14.777341
-27.644157 -29.988271 12.639245
-32.144563 -19.866433 -5.985063
-32.144563 -19.866433 5.985063
-33.461622 -26.601007 -3.480034
-33.461622 -26.601007 3.480034
-3.842039 -14.186269 25.328377
-11.396594 -11.141838 25.071355
-6.522954 -17.492245 24.271640
-3.741624 -10.180805 26.268588
-22.544855 -2.332200 17.707065
-17.915183 -6.999454 22.397547
-23.671553 -6.361682 17.059770
-12.992034 -24.712317 21.021553
-14.597322 -14.147360 23.618963
-9.624548 -21.050507 22.835506
-18.362561 -23.126981 20.182407
-10.720438 -15.984405 24.263678
-3.656444 -2.259807 27.139080
-11.093794 -6.856342 25.595458
-3.693478 -6.122315 26.879157
-7.549625 -8.612420 26.193682
-25.879669 -15.994515 15.501484
-18.623142 -11.509735 21.892817
-24.794776 -10.955093 16.334281
-22.920993 -20.002647 18.199009
-21.394223 -9.017086 19.721886
-18.646463 -16.965113 21.366945
-3.760898 13.886663 24.793456
-10.806898 10.565325 23.774085
-6.246916 16.752009 23.244514
-3.683792 10.023446 25.862570
-22.048450 2.280848 17.317182
-16.966756 6.628904 21.211824
-22.276633 5.986800 16.054471
-20.108467 0.000000 19.871708
-11.592358 22.049975 18.756829
-13.420834 13.007137 21.715365
-8.934662 19.541609 21.198660
-15.735572 19.818383 17.295067
-10.020765 14.941177 22.680101
-3.643410 2.251751 27.042333
-10.731200 6.632246 24.758885
-3.658298 6.064000 26.623132
-7.350076 0.000000 26.592825
-7.345445 8.379497 25.485274
-22.247668 13.749815 13.325977
-17.046017 10.535018 20.038794
-22.340001 9.870498 14.717126
-19.383858 16.915866 15.390563
-19.768778 8.332005 18.223498
-16.483704 14.997370 18.888644
-14.906186 -4.490714 24.118716
-14.463821 4.357445 23.402954
-17.687216 -2.313902 22.248891
-11.216342 -2.310694 25.625983
-17.362453 2.271415 21.840370
-11.085217 2.283680 25.326403
-26.436086 0.000000 -11.653148
-29.503309 0.000000 -4.109337
-26.487886 3.772861 -10.265797
-27.640517 -3.937038 -10.712517
-26.436086 0.000000 11.653148
-29.503309 0.000000 4.109337
-26.487886 3.772861 10.265797
-27.640517 -3.937038 10.712517
-26.314813 11.405583 -7.049038
-29.063298 3.915694 -2.420032
-26.464233 7.627604 -8.701376
-27.381018 11.984510 -2.468945
-28.127328 3.864990 -6.406613
-30.377343 -13.166398 -8.137282
-30.542644 -4.115006 -2.543213
-28.977221 -8.351905 -9.527641
-32.181849 -14.085806 -2.901835
-29.472995 -4.049899 -6.713119
-26.314813 11.405583 7.049038
-29.063298 3.915694 2.420032
-26.464233 7.627604 8.701376
-27.381018 11.984510 2.468945
-28.127328 3.864990 6.406613
-28.439788 7.860564 0.000000
-30.377343 -13.166398 8.137282
-30.542644 -4.115006 2.543213
-28.977221 -8.351905 9.527641
-32.181849 -14.085806 2.901835
-29.472995 -4.049899 6.713119
-31.541470 -8.717848 0.000000
-17.580939 33.411919 0.000000
-13.223630 36.682988 0.000000
-2.844868 41.047079 0.000000
-8.242381 39.133033 0.000000
23.515951 44.691190 0.000000
16.182589 44.891283 0.000000
2.957182 42.667596 0.000000
9.271868 44.020812 0.000000
-23.515951 -44.691190 0.000000
-16.182589 -44.891283 0.000000
-2.957182 -42.667596 0.000000
-9.271868 -44.020812 0.000000
17.580939 -33.411919 0.000000
13.223630 -36.682988 0.000000
2.844868 -41.047079 0.000000
8.242381 -39.133033 0.000000
-25.692758 -43.634106 3.336954
-21.756855 -40.929826 9.265663
-22.138385 -44.385961 3.271654
-13.310771 -32.163691 17.193895
-17.374245 -36.654152 13.821300
-14.865528 -44.402541 3.099194
-18.389595 -41.485912 9.090062
-18.454322 -44.570151 3.190206
-20.359198 -43.228486 6.350682
-1.207989 -17.003695 24.349999
-3.771400 -20.431054 23.184486
-9.732723 -27.939203 19.725979
-6.585109 -24.048848 21.671815
-1.740174 -42.057624 2.815660
-5.119050 -40.557572 8.282797
-4.762553 -42.784567 2.878172
-10.483275 -32.539732 16.962295
-8.082950 -37.117772 13.078488
-12.299595 -34.769839 15.427739
-11.254369 -43.986364 3.029075
-8.189391 -41.044669 8.469405
-7.949038 -43.441113 2.947956
-13.204093 -43.166115 6.037554
-6.533355 -42.223594 5.744755
-16.244509 -39.308526 11.578237
-9.756152 -39.286034 11.086436
-14.240133 -37.061873 13.637910
-14.891787 -41.561141 8.936100
-11.108898 -37.183241 13.378969
-11.459784 -41.380145 8.723273
18.773373 -31.882889 2.438270
16.795707 -31.596726 7.152843
16.845341 -33.773767 2.489438
11.592555 -28.011853 14.974428
14.288326 -30.143841 11.366436
12.355013 -36.903768 2.575797
14.751845 -33.279350 7.291906
14.681202 -35.457460 2.537946
15.878193 -33.714013 4.952914
1.198610 -16.871666 24.160929
3.667534 -19.868372 22.545974
0.000000 -18.576680 23.652059
8.882906 -25.499679 18.003597
6.231683 -22.758136 20.508679
-2.543159 -22.114016 22.377491
2.492884 -21.676853 21.935119
-1.250378 -20.332477 23.055335
1.238853 -20.145060 22.842820
1.700991 -41.110625 2.752261
4.809179 -38.102503 7.781415
4.479476 -40.241541 2.707099
0.000000 -40.750753 5.490343
9.403656 -29.188632 15.215435
7.380407 -33.891620 11.941750
10.763997 -30.428844 13.501594
9.773363 -38.198026 2.630467
7.417080 -37.173897 7.670687
7.186944 -39.276304 2.665328
11.225111 -36.696533 5.132667
6.020749 -38.910736 5.294022
-3.261326 -38.441319 10.624919
3.138287 -36.991061 10.224078
-1.678347 -39.825861 8.152223
1.643858 -39.007470 7.984701
13.440360 -32.523036 9.579586
8.706391 -35.058860 9.893536
12.126352 -31.560472 11.613522
12.453264 -34.755525 7.472818
9.802346 -32.810005 11.805427
9.983723 -36.050235 7.599684
-8.462436 -29.984234 18.531276
-2.735777 -29.569762 18.275118
-6.874204 -27.929107 19.670951
-7.379877 -32.335005 16.911888
7.790355 -27.602908 17.059536
2.664558 -28.799991 17.799373
6.449223 -26.202461 18.454845
6.842459 -29.980298 15.680327
-3.942727 -24.037998 21.564067
-1.370917 -27.553803 19.361529
-5.363723 -25.937369 20.682128
-1.305041 -23.853543 21.415452
-4.074686 -27.791278 19.543603
-4.806196 -36.599443 13.007307
-1.477570 -31.654250 16.608263
-6.151839 -34.572686 15.059418
-1.582364 -36.075316 12.801590
-4.362144 -32.030492 16.787806
3.815385 -23.261621 20.867593
1.353699 -27.207754 19.118368
5.116568 -24.742198 19.729114
1.290944 -23.595882 21.184127
3.924574 -26.767444 18.823615
0.000000 -25.565112 20.323514
4.553914 -34.678299 12.324540
1.455487 -31.181159 16.360043
5.759252 -32.366389 14.098383
1.554315 -35.435867 12.574677
4.172840 -30.640465 16.059265
0.000000 -33.618908 14.714798
-18.773373 31.882889 2.438270
-16.795707 31.596726 7.152843
-16.845341 33.773767 2.489438
-11.592555 28.011853 14.974428
-14.288326 30.143841 11.366436
-12.355013 36.903768 2.575797
-14.751845 33.279350 7.291906
-14.681202 35.457460 2.537946
-15.878193 33.714013 4.952914
-1.198610 16.871666 24.160929
-3.667534 19.868372 22.545974
-8.882906 25.499679 18.003597
-6.231683 22.758136 20.508679
-1.700991 41.110625 2.752261
-4.809179 38.102503 7.781415
-4.479476 40.241541 2.707099
-9.403656 29.188632 15.215435
-7.380407 33.891620 11.941750
-10.763997 30.428844 13.501594
-9.773363 38.198026 2.630467
-7.417080 37.173897 7.670687
-7.186944 39.276304 2.665328
-11.225111 36.696533 5.132667
-6.020749 38.910736 5.294022
-13.440360 32.523036 9.579586
-8.706391 35.058860 9.893536
-12.126352 31.560472 11.613522
-12.453264 34.755525 7.472818
-9.802346 32.810005 11.805427
-9.983723 36.050235 7.599684
25.692758 43.634106 3.336954
21.756855 40.929826 9.265663
22.138385 44.385961 3.271654
13.310771 32.163691 17.193895
17.374245 36.654152 13.821300
14.865528 44.402541 3.099194
18.389595 41.485912 9.090062
18.454322 44.570151 3.190206
20.359198 43.228486 6.350682
1.207989 17.003695 24.349999
3.771400 20.431054 23.184486
0.000000 18.576680 23.652059
9.732723 27.939203 19.725979
6.585109 24.048848 21.671815
-2.492884 21.676853 21.935119
2.543159 22.114016 22.377491
-1.238853 20.145060 22.842820
1.250378 20.332477 23.055335
1.740174 42.057624 2.815660
5.119050 40.557572 8.282797
4.762553 42.784567 2.878172
0.000000 40.750753 5.490343
10.483275 32.539732 16.962295
8.082950 37.117772 13.078488
12.299595 34.769839 15.427739
11.254369 43.986364 3.029075
8.189391 41.044669 8.469405
7.949038 43.441113 2.947956
13.204093 43.166115 6.037554
6.533355 42.223594 5.744755
-3.138287 36.991061 10.224078
3.261326 38.441319 10.624919
-1.643858 39.007470 7.984701
1.678347 39.825861 8.152223
16.244509 39.308526 11.578237
9.756152 39.286034 11.086436
14.240133 37.061873 13.637910
14.891787 41.561141 8.936100
11.108898 37.183241 13.378969
11.459784 41.380145 8.723273
-7.790355 27.602908 17.059536
-2.664558 28.799991 17.799373
-6.449223 26.202461 18.454845
-6.842459 29.980298 15.680327
8.462436 29.984234 18.531276
2.735777 29.569762 18.275118
6.874204 27.929107 19.670951
7.379877 32.335005 16.911888
-3.815385 23.261621 20.867593
-1.353699 27.207754 19.118368
-5.116568 24.742198 19.729114
-1.290944 23.595882 21.184127
-3.924574 26.767444 18.823615
-4.553914 34.678299 12.324540
-1.455487 31.181159 16.360043
-5.759252 32.366389 14.098383
-1.554315 35.435867 12.574677
-4.172840 30.640465 16.059265
3.942727 24.037998 21.564067
1.370917 27.553803 19.361529
5.363723 25.937369 20.682128
1.305041 23.853543 21.415452
4.074686 27.791278 19.543603
0.000000 25.565112 20.323514
4.806196 36.599443 13.007307
1.477570 31.654250 16.608263
6.151839 34.572686 15.059418
1.582364 36.075316 12.801590
4.362144 32.030492 16.787806
0.000000 33.618908 14.714798
0.000000 -13.373643 25.416110
0.000000 -9.500644 26.355244
0.000000 -1.890445 27.276217
0.000000 -5.680755 26.970989
0.000000 13.373643 25.416110
0.000000 9.500644 26.355244
0.000000 1.890445 27.276217
0.000000 5.680755 26.970989
-25.692758 -43.634106 -3.336954
-21.756855 -40.929826 -9.265663
-22.138385 -44.385961 -3.271654
-13.310771 -32.163691 -17.193895
-17.374245 -36.654152 -13.821300
-14.865528 -44.402541 -3.099194
-18.389595 -41.485912 -9.090062
-18.454322 -44.570151 -3.190206
-20.359198 -43.228486 -6.350682
-1.207989 -17.003695 -24.349999
-3.771400 -20.431054 -23.184486
-9.732723 -27.939203 -19.725979
-6.585109 -24.048848 -21.671815
-1.740174 -42.057624 -2.815660
-5.119050 -40.557572 -8.282797
-4.762553 -42.784567 -2.878172
-10.483275 -32.539732 -16.962295
-8.082950 -37.117772 -13.078488
-12.299595 -34.769839 -15.427739
-11.254369 -43.986364 -3.029075
-8.189391 -41.044669 -8.469405
-7.949038 -43.441113 -2.947956
-13.204093 -43.166115 -6.037554
-6.533355 -42.223594 -5.744755
-16.244509 -39.308526 -11.578237
-9.756152 -39.286034 -11.086436
-14.240133 -37.061873 -13.637910
-14.891787 -41.561141 -8.936100
-11.108898 -37.183241 -13.378969
-11.459784 -41.380145 -8.723273
18.773373 -31.882889 -2.438270
16.795707 -31.596726 -7.152843
16.845341 -33.773767 -2.489438
11.592555 -28.011853 -14.974428
14.288326 -30.143841 -11.366436
12.355013 -36.903768 -2.575797
14.751845 -33.279350 -7.291906
14.681202 -35.457460 -2.537946
15.878193 -33.714013 -4.952914
1.198610 -16.871666 -24.160929
3.667534 -19.868372 -22.545974
0.000000 -18.576680 -23.652059
8.882906 -25.499679 -18.003597
6.231683 -22.758136 -20.508679
-2.543159 -22.114016 -22.377491
2.492884 -21.676853 -21.935119
-1.250378 -20.332477 -23.055335
1.238853 -20.145060 -22.842820
1.700991 -41.110625 -2.752261
4.809179 -38.102503 -7.781415
4.479476 -40.241541 -2.707099
0.000000 -40.750753 -5.490343
9.403656 -29.188632 -15.215435
7.380407 -33.891620 -11.941750
10.763997 -30.428844 -13.501594
9.773363 -38.198026 -2.630467
7.417080 -37.173897 -7.670687
7.186944 -39.276304 -2.665328
11.225111 -36.696533 -5.132667
6.020749 -38.910736 -5.294022
-3.261326 -38.441319 -10.624919
3.138287 -36.991061 -10.224078
-1.678347 -39.825861 -8.152223
1.643858 -39.007470 -7.984701
13.440360 -32.523036 -9.579586
8.706391 -35.058860 -9.893536
12.126352 -31.560472 -11.613522
12.453264 -34.755525 -7.472818
9.802346 -32.810005 -11.805427
9.983723 -36.050235 -7.599684
-8.462436 -29.984234 -18.531276
-2.735777 -29.569762 -18.275118
-6.874204 -27.929107 -19.670951
-7.379877 -32.335005 -16.911888
7.790355 -27.602908 -17.059536
2.664558 -28.799991 -17.799373
6.449223 -26.202461 -18.454845
6.842459 -29.980298 -15.680327
-3.942727 -24.037998 -21.564067
-1.370917 -27.553803 -19.361529
-5.363723 -25.937369 -20.682128
-1.305041 -23.853543 -21.415452
-4.074686 -27.791278 -19.543603
-4.806196 -36.599443 -13.007307
-1.477570 -31.654250 -16.608263
-6.151839 -34.572686 -15.059418
-1.582364 -36.075316 -12.801590
-4.362144 -32.030492 -16.787806
3.815385 -23.261621 -20.867593
1.353699 -27.207754 -19.118368
5.116568 -24.742198 -19.729114
1.290944 -23.595882 -21.184127
3.924574 -26.767444 -18.823615
0.000000 -25.565112 -20.323514
4.553914 -34.678299 -12.324540
1.455487 -31.181159 -16.360043
5.759252 -32.366389 -14.098383
1.554315 -35.435867 -12.574677
4.172840 -30.640465 -16.059265
0.000000 -33.618908 -14.714798
-18.773373 31.882889 -2.438270
-16.795707 31.596726 -7.152843
-16.845341 33.773767 -2.489438
-11.592555 28.011853 -14.974428
-14.288326 30.143841 -11.366436
-12.355013 36.903768 -2.575797
-14.751845 33.279350 -7.291906
-14.681202 35.457460 -2.537946
-15.878193 33.714013 -4.952914
-1.198610 16.871666 -24.160929
-3.667534 19.868372 -22.545974
-8.882906 25.499679 -18.003597
-6.231683 22.758136 -20.508679
-1.700991 41.110625 -2.752261
-4.809179 38.102503 -7.781415
-4.479476 40.241541 -2.707099
-9.403656 29.188632 -15.215435
-7.380407 33.891620 -11.941750
-10.763997 30.428844 -13.501594
-9.773363 38.198026 -2.630467
-7.417080 37.173897 -7.670687
-7.186944 39.276304 -2.665328
-11.225111 36.696533 -5.132667
-6.020749 38.910736 -5.294022
-13.440360 32.523036 -9.579586
-8.706391 35.058860 -9.893536
-12.126352 31.560472 -11.613522
-12.453264 34.755525 -7.472818
-9.802346 32.810005 -11.805427
-9.983723 36.050235 -7.599684
25.692758 43.634106 -3.336954
21.756855 40.929826 -9.265663
22.138385 44.385961 -3.271654
13.310771 32.163691 -17.193895
17.374245 36.654152 -13.821300
14.865528 44.402541 -3.099194
18.389595 41.485912 -9.090062
18.454322 44.570151 -3.190206
20.359198 43.228486 -6.350682
1.207989 17.003695 -24.349999
3.771400 20.431054 -23.184486
0.000000 18.576680 -23.652059
9.732723 27.939203 -19.725979
6.585109 24.048848 -21.671815
-2.492884 21.676853 -21.935119
2.543159 22.114016 -22.377491
-1.238853 20.145060 -22.842820
1.250378 20.332477 -23.055335
1.740174 42.057624 -2.815660
5.119050 40.557572 -8.282797
4.762553 42.784567 -2.878172
0.000000 40.750753 -5.490343
10.483275 32.539732 -16.962295
8.082950 37.117772 -13.078488
12.299595 34.769839 -15.427739
11.254369 43.986364 -3.029075
8.189391 41.044669 -8.469405
7.949038 43.441113 -2.947956
13.204093 43.166115 -6.037554
6.533355 42.223594 -5.744755
-3.138287 36.991061 -10.224078
3.261326 38.441319 -10.624919
-1.643858 39.007470 -7.984701
1.678347 39.825861 -8.152223
16.244509 39.308526 -11.578237
9.756152 39.286034 -11.086436
14.240133 37.061873 -13.637910
14.891787 41.561141 -8.936100
11.108898 37.183241 -13.378969
11.459784 41.380145 -8.723273
-7.790355 27.602908 -17.059536
-2.664558 28.799991 -17.799373
-6.449223 26.202461 -18.454845
-6.842459 29.980298 -15.680327
8.462436 29.984234 -18.531276
2.735777 29.569762 -18.275118
6.874204 27.929107 -19.670951
7.379877 32.335005 -16.911888
-3.815385 23.261621 -20.867593
-1.353699 27.207754 -19.118368
-5.116568 24.742198 -19.729114
-1.290944 23.595882 -21.184127
-3.924574 26.767444 -18.823615
-4.553914 34.678299 -12.324540
-1.455487 31.181159 -16.360043
-5.759252 32.366389 -14.098383
-1.554315 35.435867 -12.574677
-4.172840 30.640465 -16.059265
3.942727 24.037998 -21.564067
1.370917 27.553803 -19.361529
5.363723 25.937369 -20.682128
1.305041 23.853543 -21.415452
4.074686 27.791278 -19.543603
0.000000 25.565112 -20.323514
4.806196 36.599443 -13.007307
1.477570 31.654250 -16.608263
6.151839 34.572686 -15.059418
1.582364 36.075316 -12.801590
4.362144 32.030492 -16.787806
0.000000 33.618908 -14.714798
0.000000 -13.373643 -25.416110
0.000000 -9.500644 -26.355244
0.000000 -1.890445 -27.276217
0.000000 -5.680755 -26.970989
0.000000 13.373643 -25.416110
0.000000 9.500644 -26.355244
0.000000 1.890445 -27.276217
0.000000 5.680755 -26.970989
29.395509 42.095593 -2.088338
31.655211 35.921290 -5.843285
27.786391 41.645408 -5.362029
30.009960 21.188001 -10.454079
31.300665 28.206848 -8.570817
23.402711 38.540813 -11.010889
29.768701 35.173137 -8.792601
25.697214 40.348036 -8.378928
29.150117 38.718661 -7.223323
24.862591 1.901387 -14.639661
26.042703 5.895528 -13.843385
28.600508 15.289108 -11.836166
27.275261 10.284771 -12.928605
14.525239 29.829797 -18.435829
20.495842 28.451015 -17.583694
16.543198 31.964707 -17.002451
28.362609 20.606128 -12.735287
25.326604 25.224896 -15.589843
28.957000 23.871248 -12.027909
20.980403 36.353573 -13.384137
22.728595 30.299993 -15.884148
18.712153 34.170589 -15.323291
24.490754 35.498297 -12.594239
19.752875 31.384853 -16.586076
29.795262 31.198480 -10.144190
25.389050 28.581263 -14.826688
29.473229 27.441446 -11.174391
27.527064 33.768003 -11.497867
27.433901 26.406883 -13.524405
25.124362 32.082282 -13.866210
20.713083 -29.661997 -1.471515
22.548075 -25.586813 -4.162184
19.970092 -29.930575 -3.853693
24.193470 -17.081371 -8.427884
23.618524 -21.284025 -6.467277
17.874164 -29.436112 -8.409728
21.674504 -25.609457 -6.401867
19.002305 -29.836140 -6.195961
20.932239 -27.803260 -5.186954
24.386465 -1.864975 -14.359307
24.526708 -5.552338 -13.037535
24.469861 -13.080968 -10.126720
24.561754 -9.261580 -11.642390
12.569813 -25.814030 -15.953948
16.816707 -23.343876 -14.427309
13.925015 -26.905863 -14.311585
23.188038 -16.846676 -10.411818
20.363716 -20.281938 -12.534927
22.972255 -18.937611 -9.542017
16.587551 -28.741905 -10.581782
18.114304 -24.148579 -12.659396
15.278303 -27.899975 -12.511328
18.724198 -27.139921 -9.628818
16.117728 -25.609058 -13.533719
22.251737 -23.299690 -7.575897
19.972110 -22.483241 -11.663306
22.667333 -21.104726 -8.594024
20.624337 -25.300289 -8.614645
21.564127 -20.756851 -10.630715
19.416503 -24.793694 -10.716026
1.899728 -14.626892 -24.840905
5.584795 -13.113748 -24.670084
3.110035 -16.116410 -24.154792
1.874210 -12.682266 -25.427082
12.445437 -9.634719 -23.281007
9.112751 -11.455301 -24.167056
5.618126 -19.021028 -22.474250
6.829413 -14.515337 -23.904620
4.358496 -17.588950 -23.362534
4.998624 -15.330209 -24.070462
1.839231 -8.822016 -26.350892
5.529325 -11.186068 -25.235152
1.856144 -10.737196 -25.932053
3.726928 -11.947893 -25.368845
23.182025 -1.150047 -16.188094
20.867633 -3.394519 -18.389355
23.308071 -3.001016 -15.551466
15.529557 -7.662224 -21.995534
18.333100 -5.570621 -20.343932
23.462595 -6.703129 -14.246932
21.001432 -5.249950 -17.774512
23.400306 -4.859455 -14.903394
22.176264 -4.137186 -16.695843
10.958838 -24.406300 -17.731773
12.145680 -19.731362 -19.652124
9.615909 -23.150149 -19.084262
13.189352 -23.400819 -17.089785
13.742509 -10.827462 -22.235846
13.051734 -15.213315 -21.118149
12.129021 -11.801405 -22.802630
6.969498 -20.470636 -21.434708
10.824689 -18.536073 -20.866648
8.276006 -21.828538 -20.323754
7.586542 -18.162954 -22.280861
10.262398 -20.817005 -20.037697
17.234878 -20.891207 -15.488460
14.197759 -18.669621 -18.943111
15.301904 -22.216749 -16.335113
13.731780 -21.001024 -18.085492
8.699327 -13.636693 -23.628837
11.331619 -16.214390 -21.615761
10.434999 -12.742778 -23.269810
8.164252 -15.876203 -23.011875
11.757393 -14.002246 -22.247822
9.506092 -17.224210 -21.994268
1.824100 -1.127356 -27.246654
5.452170 -3.369626 -26.697116
1.825923 -3.021382 -27.142698
12.406344 -7.667542 -23.799793
9.006256 -5.566173 -25.560461
10.782381 -8.596135 -24.300494
1.838829 -6.832074 -26.702347
5.459871 -5.279357 -26.459778
1.829562 -4.933335 -26.960441
3.676290 -8.040023 -26.284013
3.655874 -4.157727 -26.870450
7.367492 -10.336746 -25.012898
7.303991 -6.427570 -25.882513
9.091071 -9.492514 -24.705554
5.530049 -9.215689 -25.719851
9.057040 -7.520290 -25.171603
5.508398 -7.236395 -26.129905
23.357201 -14.435544 -11.373491
21.053990 -13.012082 -15.167095
23.441319 -12.468748 -12.131955
22.092042 -16.133976 -12.451689
15.569217 -9.622305 -21.429723
18.451619 -11.403727 -18.526017
17.021955 -8.576783 -20.648470
15.293067 -11.802702 -20.940596
23.486518 -8.646929 -13.554558
21.109923 -11.066443 -15.834950
23.483332 -10.530750 -12.859705
22.322581 -7.919701 -15.400649
22.310763 -11.790656 -14.041860
19.079867 -19.359367 -14.509740
19.614896 -14.542220 -16.181943
20.661510 -17.793112 -13.509785
17.644601 -18.418543 -16.392338
20.886919 -15.357341 -14.385976
19.714823 -6.410277 -18.828107
19.793493 -10.267984 -17.582777
18.410600 -7.496953 -19.773732
21.060239 -7.170925 -17.167925
18.449207 -9.448845 -19.166735
21.095840 -9.117785 -16.520630
14.623444 -16.272325 -19.724452
18.204256 -13.643991 -17.941432
14.978227 -14.030841 -20.371300
16.146238 -17.379701 -18.142023
16.790036 -12.748179 -19.496729
17.964392 -15.988148 -17.209534
1.920832 14.789382 -25.116863
5.760097 13.525377 -25.444456
3.172448 16.439835 -24.639531
1.892358 12.805065 -25.673286
13.177130 10.201165 -24.649746
9.552605 12.008226 -25.333552
5.863128 19.850519 -23.454333
7.123820 15.141076 -24.935118
4.493180 18.132477 -24.084473
5.158218 15.819664 -24.838971
1.851772 8.882171 -26.530574
5.677609 11.486052 -25.911901
1.871469 10.825851 -26.146170
3.796564 12.171134 -25.842850
23.449570 1.163320 -16.374922
21.551553 3.505772 -18.992051
24.030496 3.094032 -16.033478
22.309076 0.000000 -17.521881
16.454195 8.118437 -23.305160
19.248139 5.848661 -21.359336
25.188308 7.196155 -15.294817
22.096800 5.523771 -18.701574
24.610217 5.110713 -15.673973
23.108235 4.311054 -17.397496
19.886009 -2.260007 -19.651869
20.299404 2.306988 -20.060397
21.116564 -1.145231 -18.622677
21.345337 1.157639 -18.824432
12.296572 27.385551 -19.896271
13.557728 22.025315 -21.936865
10.558046 25.418329 -20.954078
15.205347 26.977639 -19.701963
14.767850 11.635309 -23.894884
14.347280 16.723424 -23.214387
12.979306 12.628722 -24.401171
7.383330 21.686132 -22.707448
11.843757 20.281112 -22.831095
8.913863 23.510931 -21.890169
8.037028 19.241462 -23.603888
11.262242 22.845162 -21.989928
20.694629 25.084935 -18.597634
16.132981 21.214380 -21.525148
18.065082 26.228592 -19.284866
15.739401 24.071426 -20.729637
9.168831 14.372669 -24.904092
12.330002 17.642974 -23.520239
11.092060 13.545153 -24.735041
8.634199 16.790062 -24.336475
12.698522 15.123065 -24.028664
10.215276 18.509188 -23.635107
1.825720 1.128357 -27.270851
5.496535 3.397046 -26.914354
1.830266 3.028569 -27.207257
3.657056 0.000000 -27.143619
12.980866 8.022617 -24.901932
9.215233 5.695327 -26.153552
11.259125 8.976214 -25.374942
1.848655 6.868582 -26.845036
5.529534 5.346717 -26.797381
1.836645 4.952434 -27.064814
3.723016 8.142214 -26.618089
3.680077 4.185252 -27.048338
7.309607 -2.243689 -26.446405
7.363588 2.260258 -26.641713
5.500077 -1.132334 -26.869395
5.515202 1.135447 -26.943284
7.619532 10.690363 -25.868583
7.459171 6.564130 -26.432413
9.455039 9.872554 -25.694659
5.653504 9.421423 -26.294031
9.343346 7.758017 -25.967313
5.605255 7.363637 -26.589363
27.621984 17.071325 -13.450173
24.102314 14.896049 -17.363079
27.001098 14.362242 -13.974304
26.488886 19.345023 -14.929873
16.753517 10.354243 -23.059812
20.472848 12.652916 -20.555396
18.279948 9.210643 -22.174477
16.710579 12.896693 -22.881577
25.791154 9.495417 -14.884611
23.638815 12.392163 -17.731920
26.387464 11.833065 -14.450037
24.228979 8.596062 -16.715899
25.333351 13.388015 -15.944204
23.102935 23.441369 -17.569178
22.639858 16.784887 -18.677484
24.989036 21.519856 -16.339392
20.814819 21.727815 -19.337561
24.562236 18.059659 -16.917371
20.929836 6.805339 -19.988472
21.851109 11.335384 -19.410580
19.678633 8.013307 -21.135652
22.603080 7.696256 -18.425621
20.088481 10.288407 -20.869764
23.118044 9.991797 -18.104263
16.424156 18.276078 -22.153296
20.612563 15.449004 -20.314970
16.605564 15.555249 -22.584579
18.570670 19.989343 -20.866131
18.673087 14.177924 -21.683344
20.770581 18.485632 -19.897808
14.261159 -6.512457 -23.075040
14.630495 -2.190178 -23.672639
15.749121 -5.503682 -22.360835
12.632752 -5.512581 -24.153429
14.913613 6.810405 -24.130733
14.853851 2.223615 -24.034035
16.420520 5.738309 -23.314097
13.057653 5.697997 -24.965828
18.535849 -3.389054 -20.662368
16.105203 -1.140348 -22.919655
17.182651 -4.456166 -21.548690
18.763577 -1.143438 -20.899759
15.941907 -3.323761 -22.669615
9.180781 -3.392296 -25.832514
12.948194 -1.151948 -24.678401
10.924565 -4.462733 -25.080090
9.244651 -1.142702 -26.051740
12.813929 -3.329572 -24.448487
19.090130 3.490398 -21.280239
16.244557 1.150216 -23.117974
17.822045 4.621987 -22.350551
18.949827 1.154787 -21.107214
16.349019 3.408641 -23.248534
17.543799 0.000000 -22.068486
9.312615 3.441008 -26.203464
13.038826 1.160011 -24.851140
11.176003 4.565447 -25.657330
9.289240 1.148213 -26.177394
13.074707 3.397332 -24.946042
11.169660 0.000000 -25.519330
29.395509 42.095593 2.088338
31.655211 35.921290 5.843285
27.786391 41.645408 5.362029
31.516119 40.126713 0.000000
30.009960 21.188001 10.454079
31.300665 28.206848 8.570817
23.402711 38.540813 11.010889
29.768701 35.173137 8.792601
25.697214 40.348036 8.378928
29.150117 38.718661 7.223323
33.108410 33.502876 -3.807538
33.108410 33.502876 3.807538
32.738832 37.123108 -2.013327
32.738832 37.123108 2.013327
24.862591 1.901387 14.639661
26.042703 5.895528 13.843385
28.600508 15.289108 11.836166
27.275261 10.284771 12.928605
14.525239 29.829797 18.435829
20.495842 28.451015 17.583694
16.543198 31.964707 17.002451
28.362609 20.606128 12.735287
25.326604 25.224896 15.589843
28.957000 23.871248 12.027909
20.980403 36.353573 13.384137
22.728595 30.299993 15.884148
18.712153 34.170589 15.323291
24.490754 35.498297 12.594239
19.752875 31.384853 16.586076
29.795262 31.198480 10.144190
25.389050 28.581263 14.826688
29.473229 27.441446 11.174391
27.527064 33.768003 11.497867
27.433901 26.406883 13.524405
25.124362 32.082282 13.866210
30.846573 19.064230 -8.705813
33.030745 20.414123 -3.055985
31.603452 22.258856 -7.778572
30.846573 19.064230 8.705813
33.030745 20.414123 3.055985
31.603452 22.258856 7.778572
32.878389 29.494628 -5.392733
33.571902 23.590332 -1.670342
32.317556 25.769608 -6.683116
33.809723 30.354002 -1.849749
32.864216 23.111035 -4.818468
32.878389 29.494628 5.392733
33.571902 23.590332 1.670342
32.317556 25.769608 6.683116
33.809723 30.354002 1.849749
32.864216 23.111035 4.818468
33.895903 26.946249 0.000000
20.713083 -29.661997 1.471515
22.548075 -25.586813 4.162184
19.970092 -29.930575 3.853693
21.926465 -27.917047 0.000000
24.193470 -17.081371 8.427884
23.618524 -21.284025 6.467277
17.874164 -29.436112 8.409728
21.674504 -25.609457 6.401867
19.002305 -29.836140 6.195961
20.932239 -27.803260 5.186954
23.665424 -23.947383 -2.721574
23.665424 -23.947383 2.721574
22.909072 -25.976979 -1.408830
22.909072 -25.976979 1.408830
24.386465 -1.864975 14.359307
24.526708 -5.552338 13.037535
24.469861 -13.080968 10.126720
24.561754 -9.261580 11.642390
12.569813 -25.814030 15.953948
16.816707 -23.343876 14.427309
13.925015 -26.905863 14.311585
23.188038 -16.846676 10.411818
20.363716 -20.281938 12.534927
22.972255 -18.937611 9.542017
16.587551 -28.741905 10.581782
18.114304 -24.148579 12.659396
15.278303 -27.899975 12.511328
18.724198 -27.139921 9.628818
16.117728 -25.609058 13.533719
22.251737 -23.299690 7.575897
19.972110 -22.483241 11.663306
22.667333 -21.104726 8.594024
20.624337 -25.300289 8.614645
21.564127 -20.756851 10.630715
19.416503 -24.793694 10.716026
25.221089 -15.587490 -7.118136
26.323265 -16.268672 -2.435413
25.000947 -17.608598 -6.153494
25.221089 -15.587490 7.118136
26.323265 -16.268672 2.435413
25.000947 -17.608598 6.153494
24.267395 -21.769856 -3.980353
25.902308 -18.201056 -1.288748
24.689376 -19.686994 -5.105645
24.602767 -22.088097 -1.346031
25.590588 -17.996016 -3.752027
24.267395 -21.769856 3.980353
25.902308 -18.201056 1.288748
24.689376 -19.686994 5.105645
24.602767 -22.088097 1.346031
25.590588 -17.996016 3.752027
25.343920 -20.147673 0.000000
1.899728 -14.626892 24.840905
5.584795 -13.113748 24.670084
3.110035 -16.116410 24.154792
1.874210 -12.682266 25.427082
12.445437 -9.634719 23.281007
9.112751 -11.455301 24.167056
5.618126 -19.021028 22.474250
6.829413 -14.515337 23.904620
4.358496 -17.588950 23.362534
4.998624 -15.330209 24.070462
1.839231 -8.822016 26.350892
5.529325 -11.186068 25.235152
1.856144 -10.737196 25.932053
3.726928 -11.947893 25.368845
23.182025 -1.150047 16.188094
20.867633 -3.394519 18.389355
23.308071 -3.001016 15.551466
15.529557 -7.662224 21.995534
18.333100 -5.570621 20.343932
23.462595 -6.703129 14.246932
21.001432 -5.249950 17.774512
23.400306 -4.859455 14.903394
22.176264 -4.137186 16.695843
10.958838 -24.406300 17.731773
12.145680 -19.731362 19.652124
9.615909 -23.150149 19.084262
13.189352 -23.400819 17.089785
13.742509 -10.827462 22.235846
13.051734 -15.213315 21.118149
12.129021 -11.801405 22.802630
6.969498 -20.470636 21.434708
10.824689 -18.536073 20.866648
8.276006 -21.828538 20.323754
7.586542 -18.162954 22.280861
10.262398 -20.817005 20.037697
17.234878 -20.891207 15.488460
14.197759 -18.669621 18.943111
15.301904 -22.216749 16.335113
13.731780 -21.001024 18.085492
8.699327 -13.636693 23.628837
11.331619 -16.214390 21.615761
10.434999 -12.742778 23.269810
8.164252 -15.876203 23.011875
11.757393 -14.002246 22.247822
9.506092 -17.224210 21.994268
1.824100 -1.127356 27.246654
5.452170 -3.369626 26.697116
1.825923 -3.021382 27.142698
12.406344 -7.667542 23.799793
9.006256 -5.566173 25.560461
10.782381 -8.596135 24.300494
1.838829 -6.832074 26.702347
5.459871 -5.279357 26.459778
1.829562 -4.933335 26.960441
3.676290 -8.040023 26.284013
3.655874 -4.157727 26.870450
7.367492 -10.336746 25.012898
7.303991 -6.427570 25.882513
9.091071 -9.492514 24.705554
5.530049 -9.215689 25.719851
9.057040 -7.520290 25.171603
5.508398 -7.236395 26.129905
23.357201 -14.435544 11.373491
21.053990 -13.012082 15.167095
23.441319 -12.468748 12.131955
22.092042 -16.133976 12.451689
15.569217 -9.622305 21.429723
18.451619 -11.403727 18.526017
17.021955 -8.576783 20.648470
15.293067 -11.802702 20.940596
23.486518 -8.646929 13.554558
21.109923 -11.066443 15.834950
23.483332 -10.530750 12.859705
22.322581 -7.919701 15.400649
22.310763 -11.790656 14.041860
19.079867 -19.359367 14.509740
19.614896 -14.542220 16.181943
20.661510 -17.793112 13.509785
17.644601 -18.418543 16.392338
20.886919 -15.357341 14.385976
19.714823 -6.410277 18.828107
19.793493 -10.267984 17.582777
18.410600 -7.496953 19.773732
21.060239 -7.170925 17.167925
18.449207 -9.448845 19.166735
21.095840 -9.117785 16.520630
14.623444 -16.272325 19.724452
18.204256 -13.643991 17.941432
14.978227 -14.030841 20.371300
16.146238 -17.379701 18.142023
16.790036 -12.748179 19.496729
17.964392 -15.988148 17.209534
1.920832 14.789382 25.116863
5.760097 13.525377 25.444456
3.172448 16.439835 24.639531
1.892358 12.805065 25.673286
13.177130 10.201165 24.649746
9.552605 12.008226 25.333552
5.863128 19.850519 23.454333
7.123820 15.141076 24.935118
4.493180 18.132477 24.084473
5.158218 15.819664 24.838971
1.851772 8.882171 26.530574
5.677609 11.486052 25.911901
1.871469 10.825851 26.146170
3.796564 12.171134 25.842850
23.449570 1.163320 16.374922
21.551553 3.505772 18.992051
24.030496 3.094032 16.033478
22.309076 0.000000 17.521881
16.454195 8.118437 23.305160
19.248139 5.848661 21.359336
25.188308 7.196155 15.294817
22.096800 5.523771 18.701574
24.610217 5.110713 15.673973
23.108235 4.311054 17.397496
19.886009 -2.260007 19.651869
20.299404 2.306988 20.060397
21.116564 -1.145231 18.622677
21.345337 1.157639 18.824432
12.296572 27.385551 19.896271
13.557728 22.025315 21.936865
10.558046 25.418329 20.954078
15.205347 26.977639 19.701963
14.767850 11.635309 23.894884
14.347280 16.723424 23.214387
12.979306 12.628722 24.401171
7.383330 21.686132 22.707448
11.843757 20.281112 22.831095
8.913863 23.510931 21.890169
8.037028 19.241462 23.603888
11.262242 22.845162 21.989928
20.694629 25.084935 18.597634
16.132981 21.214380 21.525148
18.065082 26.228592 19.284866
15.739401 24.071426 20.729637
9.168831 14.372669 24.904092
12.330002 17.642974 23.520239
11.092060 13.545153 24.735041
8.634199 16.790062 24.336475
12.698522 15.123065 24.028664
10.215276 18.509188 23.635107
1.825720 1.128357 27.270851
5.496535 3.397046 26.914354
1.830266 3.028569 27.207257
3.657056 0.000000 27.143619
12.980866 8.022617 24.901932
9.215233 5.695327 26.153552
11.259125 8.976214 25.374942
1.848655 6.868582 26.845036
5.529534 5.346717 26.797381
1.836645 4.952434 27.064814
3.723016 8.142214 26.618089
3.680077 4.185252 27.048338
7.309607 -2.243689 26.446405
7.363588 2.260258 26.641713
5.500077 -1.132334 26.869395
5.515202 1.135447 26.943284
7.619532 10.690363 25.868583
7.459171 6.564130 26.432413
9.455039 9.872554 25.694659
5.653504 9.421423 26.294031
9.343346 7.758017 25.967313
5.605255 7.363637 26.589363
27.621984 17.071325 13.450173
24.102314 14.896049 17.363079
27.001098 14.362242 13.974304
26.488886 19.345023 14.929873
16.753517 10.354243 23.059812
20.472848 12.652916 20.555396
18.279948 9.210643 22.174477
16.710579 12.896693 22.881577
25.791154 9.495417 14.884611
23.638815 12.392163 17.731920
26.387464 11.833065 14.450037
24.228979 8.596062 16.715899
25.333351 13.388015 15.944204
23.102935 23.441369 17.569178
22.639858 16.784887 18.677484
24.989036 21.519856 16.339392
20.814819 21.727815 19.337561
24.562236 18.059659 16.917371
20.929836 6.805339 19.988472
21.851109 11.335384 19.410580
19.678633 8.013307 21.135652
22.603080 7.696256 18.425621
20.088481 10.288407 20.869764
23.118044 9.991797 18.104263
16.424156 18.276078 22.153296
20.612563 15.449004 20.314970
16.605564 15.555249 22.584579
18.570670 19.989343 20.866131
18.673087 14.177924 21.683344
20.770581 18.485632 19.897808
14.261159 -6.512457 23.075040
14.630495 -2.190178 23.672639
15.749121 -5.503682 22.360835
12.632752 -5.512581 24.153429
14.913613 6.810405 24.130733
14.853851 2.223615 24.034035
16.420520 5.738309 23.314097
13.057653 5.697997 24.965828
18.535849 -3.389054 20.662368
16.105203 -1.140348 22.919655
17.182651 -4.456166 21.548690
18.763577 -1.143438 20.899759
15.941907 -3.323761 22.669615
9.180781 -3.392296 25.832514
12.948194 -1.151948 24.678401
10.924565 -4.462733 25.080090
9.244651 -1.142702 26.051740
12.813929 -3.329572 24.448487
19.090130 3.490398 21.280239
16.244557 1.150216 23.117974
17.822045 4.621987 22.350551
18.949827 1.154787 21.107214
16.349019 3.408641 23.248534
17.543799 0.000000 22.068486
9.312615 3.441008 26.203464
13.038826 1.160011 24.851140
11.176003 4.565447 25.657330
9.289240 1.148213 26.177394
13.074707 3.397332 24.946042
11.169660 0.000000 25.519330
25.394065 0.000000 -13.362043
27.391504 0.000000 -9.874199
25.983640 1.915234 -12.959860
25.467316 -1.877176 -12.702333
29.848853 0.000000 -2.068748
28.956042 0.000000 -6.098856
27.199045 5.959638 -12.056609
27.985988 1.953357 -9.369430
26.587511 3.905962 -12.521845
27.035766 1.935144 -11.194190
25.550047 -5.598323 -11.325652
27.382393 -1.911227 -9.167352
25.520720 -3.749240 -12.019421
26.475978 -1.895076 -10.962409
25.394065 0.000000 13.362043
27.391504 0.000000 9.874199
25.983640 1.915234 12.959860
25.467316 -1.877176 12.702333
29.848853 0.000000 2.068748
28.956042 0.000000 6.098856
27.199045 5.959638 12.056609
27.985988 1.953357 9.369430
26.587511 3.905962 12.521845
27.035766 1.935144 11.194190
25.550047 -5.598323 11.325652
27.382393 -1.911227 9.167352
25.520720 -3.749240 12.019421
26.475978 -1.895076 10.962409
29.950835 15.612756 -9.649214
30.623265 10.790141 -6.668674
29.226159 12.967950 -10.338556
31.259552 16.349403 -7.134425
30.299365 2.028472 -1.253665
30.686883 6.266973 -3.873202
30.031528 2.020259 -3.342952
27.866561 8.208032 -11.516041
29.945070 8.450436 -7.436451
28.527017 10.497281 -10.960820
28.299479 6.084698 -10.139996
29.665366 10.673949 -8.862851
32.831953 17.226177 -1.532543
31.464972 11.182535 -4.131943
32.273680 16.915265 -4.395263
31.451261 13.699765 -5.596415
28.856667 1.987184 -7.383279
30.093402 6.209654 -6.004352
29.535868 2.004333 -5.404598
28.628495 4.004207 -8.757177
30.116322 4.097493 -4.659969
29.284477 6.173407 -8.110019
25.396560 -13.238706 -8.181970
27.130266 -9.559379 -5.908021
25.488642 -11.309575 -9.016435
26.151106 -13.677579 -5.968515
29.553659 -1.978549 -1.222810
28.497654 -5.819882 -3.596885
29.304437 -1.971346 -3.262016
25.562729 -7.529444 -10.563967
27.238467 -7.686638 -6.764303
25.541195 -9.398568 -9.813589
26.493214 -5.696331 -9.492793
26.411026 -9.502999 -7.890581
26.992219 -14.162202 -1.259954
27.662539 -9.831165 -3.632612
26.702124 -13.995104 -3.636488
26.965283 -11.745731 -4.798183
28.202810 -1.942157 -7.215982
28.012611 -5.780291 -5.589185
28.841735 -1.957228 -5.277582
27.375048 -3.828890 -8.373760
28.689664 -3.903388 -4.439218
27.328329 -5.761035 -7.568285
29.950835 15.612756 9.649214
30.623265 10.790141 6.668674
29.226159 12.967950 10.338556
31.259552 16.349403 7.134425
30.299365 2.028472 1.253665
30.686883 6.266973 3.873202
30.031528 2.020259 3.342952
30.728850 4.140093 0.000000
27.866561 8.208032 11.516041
29.945070 8.450436 7.436451
28.527017 10.497281 10.960820
28.299479 6.084698 10.139996
29.665366 10.673949 8.862851
32.831953 17.226177 1.532543
31.464972 11.182535 4.131943
32.273680 16.915265 4.395263
32.450987 14.203606 0.000000
31.451261 13.699765 5.596415
28.856667 1.987184 7.383279
30.093402 6.209654 6.004352
29.535868 2.004333 5.404598
28.628495 4.004207 8.757177
30.116322 4.097493 4.659969
29.284477 6.173407 8.110019
31.328046 8.658859 -2.657842
31.328046 8.658859 2.657842
31.078862 6.361741 -1.309730
31.928277 11.329983 -1.400463
31.078862 6.361741 1.309730
31.928277 11.329983 1.400463
25.396560 -13.238706 8.181970
27.130266 -9.559379 5.908021
25.488642 -11.309575 9.016435
26.151106 -13.677579 5.968515
29.553659 -1.978549 1.222810
28.497654 -5.819882 3.596885
29.304437 -1.971346 3.262016
29.219756 -3.936774 0.000000
25.562729 -7.529444 10.563967
27.238467 -7.686638 6.764303
25.541195 -9.398568 9.813589
26.493214 -5.696331 9.492793
26.411026 -9.502999 7.890581
26.992219 -14.162202 1.259954
27.662539 -9.831165 3.632612
26.702124 -13.995104 3.636488
27.536461 -12.052546 0.000000
26.965283 -11.745731 4.798183
28.202810 -1.942157 7.215982
28.012611 -5.780291 5.589185
28.841735 -1.957228 5.277582
27.375048 -3.828890 8.373760
28.689664 -3.903388 4.439218
27.328329 -5.761035 7.568285
28.289889 -7.819133 -2.400088
28.289889 -7.819133 2.400088
28.795858 -5.894418 -1.213519
27.965326 -9.923701 -1.226637
28.795858 -5.894418 1.213519
27.965326 -9.923701 1.226637
-20.713083 29.661997 -1.471515
-22.548075 25.586813 -4.162184
-19.970092 29.930575 -3.853693
-24.193470 17.081371 -8.427884
-23.618524 21.284025 -6.467277
-17.874164 29.436112 -8.409728
-21.674504 25.609457 -6.401867
-19.002305 29.836140 -6.195961
-20.932239 27.803260 -5.186954
-24.386465 1.864975 -14.359307
-24.526708 5.552338 -13.037535
-24.469861 13.080968 -10.126720
-24.561754 9.261580 -11.642390
-12.569813 25.814030 -15.953948
-16.816707 23.343876 -14.427309
-13.925015 26.905863 -14.311585
-23.188038 16.846676 -10.411818
-20.363716 20.281938 -12.534927
-22.972255 18.937611 -9.542017
-16.587551 28.741905 -10.581782
-18.114304 24.148579 -12.659396
-15.278303 27.899975 -12.511328
-18.724198 27.139921 -9.628818
-16.117728 25.609058 -13.533719
-22.251737 23.299690 -7.575897
-19.972110 22.483241 -11.663306
-22.667333 21.104726 -8.594024
-20.624337 25.300289 -8.614645
-21.564127 20.756851 -10.630715
-19.416503 24.793694 -10.716026
-29.395509 -42.095593 -2.088338
-31.655211 -35.921290 -5.843285
-27.786391 -41.645408 -5.362029
-30.009960 -21.188001 -10.454079
-31.300665 -28.206848 -8.570817
-23.402711 -38.540813 -11.010889
-29.768701 -35.173137 -8.792601
-25.697214 -40.348036 -8.378928
-29.150117 -38.718661 -7.223323
-24.862591 -1.901387 -14.639661
-26.042703 -5.895528 -13.843385
-28.600508 -15.289108 -11.836166
-27.275261 -10.284771 -12.928605
-14.525239 -29.829797 -18.435829
-20.495842 -28.451015 -17.583694
-16.543198 -31.964707 -17.002451
-28.362609 -20.606128 -12.735287
-25.326604 -25.224896 -15.589843
-28.957000 -23.871248 -12.027909
-20.980403 -36.353573 -13.384137
-22.728595 -30.299993 -15.884148
-18.712153 -34.170589 -15.323291
-24.490754 -35.498297 -12.594239
-19.752875 -31.384853 -16.586076
