-1.947796431 9.247713595 0
6.30861522 11.98928836 0
4.365550334 12.11024755 0
0.7622501012 10.99809772 0
2.466037796 11.70821082 0
-6.30861522 -11.98928836 0
-4.365550334 -12.11024755 0
-0.7622501012 -10.99809772 0
-2.466037796 -11.70821082 0
3.928012414 -7.465041356 0
3.009662515 -8.348949228 0
0.7031816933 -10.14583135 0
1.947796431 -9.247713595 0
-6.926926445 -11.76402494 0.8996633198
-6.230768501 -11.72155939 2.653517782
-5.996614308 -12.02280501 0.8861914121
-4.491683889 -10.85355136 5.802033912
-5.407102598 -11.40727334 4.301377604
-4.033704521 -12.04846098 0.8409545532
-5.265755345 -11.87925369 2.602887292
-5.014691865 -12.11128627 0.8668918945
-5.644579272 -11.98508025 1.76072407
-0.4965835403 -6.989925019 10.00986367
-1.501901056 -8.136347808 9.232859284
-3.518011328 -10.09896505 7.130195465
-2.514208814 -9.181902243 8.27434578
-0.4475667915 -10.8170796 0.7241782809
-1.405619349 -11.13654074 2.274339882
-1.248273999 -11.21391521 0.7543741686
-3.493478958 -10.84364117 5.652567693
-2.43488174 -11.18123768 3.939721415
-3.954871517 -11.18006275 4.960709853
-3.032411868 -11.85182116 0.8161631604
-2.287716679 -11.4658794 2.365938819
-2.116794936 -11.56818336 0.7850281115
-3.645042902 -11.91617913 1.666690961
-1.76002295 -11.3746298 1.547581655
-4.835615338 -11.70124088 3.446573803
-2.849442997 -11.47412551 3.237973957
-4.40677958 -11.46924037 4.220414629
-4.253331377 -11.87052342 2.552292395
-3.401009007 -11.38371599 4.095995397
-3.246142565 -11.72149937 2.470987924
4.21431493 -7.157186714 0.5473516415
3.921051174 -7.376431044 1.669870901
3.788422041 -7.595529266 0.5598604321
3.161896151 -7.64029774 4.084309837
3.574672308 -7.541426001 2.843669993
2.841721995 -8.488072538 0.592447721
3.467441316 -7.822356407 1.713972326
3.329650846 -8.041641571 0.5755981439
3.633974563 -7.71598283 1.133552418
0.4795094086 -6.749589022 9.665692518
1.340567963 -7.262347386 8.241072417
0 -7.33524151 9.339320298
2.665543322 -7.651831198 5.402439939
2.065227333 -7.542219792 6.796732622
-0.9720721727 -8.452645087 8.553353149
0.8980755835 -7.809208393 7.902250303
-0.4862610568 -7.907120032 8.966015383
0.4678422298 -7.607610387 8.626396398
0.4265255497 -10.30854145 0.6901328365
1.220258538 -9.667950957 1.97441979
1.098062919 -9.864488469 0.6635965359
0 -10.51874687 1.417189211
2.610383222 -8.102541711 4.223688777
1.944169675 -8.927835331 3.145732614
2.851725947 -8.06157037 3.577002423
2.291968111 -8.957884792 0.6168752856
1.838874965 -9.216315454 1.901750204
1.721856179 -9.40986189 0.638562329
2.639529776 -8.629009446 1.206921437
1.477994585 -9.551944339 1.299595159
-0.9153426093 -10.78916334 2.982051404
0.8334306067 -9.823664773 2.715194165
-0.4502091122 -10.68311135 2.186797867
0.429172801 -10.18393608 2.084618326
3.273923661 -7.922253264 2.333481622
2.196607664 -8.845290841 2.496122372
3.073765202 -7.99989001 2.943774107
2.967535033 -8.282024365 1.780725842
2.529020999 -8.46503397 3.045819152
2.423202777 -8.749945285 1.844560021
-2.931136396 -10.38564825 6.418683616
-0.9095119847 -9.830499696 6.075582938
-2.450900169 -9.957728453 7.013399668
-2.427633364 -10.63669912 5.563217468
2.291851683 -8.120524674 5.018760255
0.8349051439 -9.024108425 5.577205725
1.994757426 -8.104472401 5.708119509
1.956742513 -8.573486292 4.484113742
-1.475760791 -8.997410948 8.071419997
-0.4663418193 -9.372918611 6.586170366
-1.962663871 -9.490857849 7.567889306
-0.4762376839 -8.704676127 7.814963742
-1.422870222 -9.704644355 6.824577036
-1.421813705 -10.82718806 3.847942811
-0.4642402639 -9.945505149 5.21817969
-1.918236706 -10.780288 4.695754943
-0.4561521336 -10.39952689 3.690348281
-1.406161328 -10.32520737 5.411642526
1.305793391 -7.96115456 7.141812515
0.4464135214 -8.972383411 6.304721954
1.665323677 -8.05300924 6.421367117
0.4568732311 -8.350732507 7.497197002
1.253570737 -8.549942214 6.012558231
0 -8.875629063 7.055864684
1.236845421 -9.418644597 3.347351647
0.4433589779 -9.498161494 4.983468678
1.603090013 -9.009196821 3.92429038
0.4351101403 -9.919803656 3.520114979
1.231778082 -9.044740364 4.7405248
0 -9.96471308 4.361496136
-4.21431493 7.157186714 0.5473516415
-3.921051174 7.376431044 1.669870901
-3.788422041 7.595529266 0.5598604321
-3.161896151 7.64029774 4.084309837
-3.574672308 7.541426001 2.843669993
-2.841721995 8.488072538 0.592447721
-3.467441316 7.822356407 1.713972326
-3.329650846 8.041641571 0.5755981439
-3.633974563 7.71598283 1.133552418
-0.4795094086 6.749589022 9.665692518
-1.340567963 7.262347386 8.241072417
-2.665543322 7.651831198 5.402439939
-2.065227333 7.542219792 6.796732622
-0.4265255497 10.30854145 0.6901328365
-1.220258538 9.667950957 1.97441979
-1.098062919 9.864488469 0.6635965359
-2.610383222 8.102541711 4.223688777
-1.944169675 8.927835331 3.145732614
-2.851725947 8.06157037 3.577002423
-2.291968111 8.957884792 0.6168752856
-1.838874965 9.216315454 1.901750204
-1.721856179 9.40986189 0.638562329
-2.639529776 8.629009446 1.206921437
-1.477994585 9.551944339 1.299595159
-3.273923661 7.922253264 2.333481622
-2.196607664 8.845290841 2.496122372
-3.073765202 7.99989001 2.943774107
-2.967535033 8.282024365 1.780725842
-2.529020999 8.46503397 3.045819152
-2.423202777 8.749945285 1.844560021
6.926926445 11.76402494 0.8996633198
6.230768501 11.72155939 2.653517782
5.996614308 12.02280501 0.8861914121
4.491683889 10.85355136 5.802033912
5.407102598 11.40727334 4.301377604
4.033704521 12.04846098 0.8409545532
5.265755345 11.87925369 2.602887292
5.014691865 12.11128627 0.8668918945
5.644579272 11.98508025 1.76072407
0.4965835403 6.989925019 10.00986367
1.501901056 8.136347808 9.232859284
0 7.33524151 9.339320298
3.518011328 10.09896505 7.130195465
2.514208814 9.181902243 8.27434578
-0.8980755835 7.809208393 7.902250303
0.9720721727 8.452645087 8.553353149
-0.4678422298 7.607610387 8.626396398
0.4862610568 7.907120032 8.966015383
0.4475667915 10.8170796 0.7241782809
1.405619349 11.13654074 2.274339882
1.248273999 11.21391521 0.7543741686
0 10.51874687 1.417189211
3.493478958 10.84364117 5.652567693
2.43488174 11.18123768 3.939721415
3.954871517 11.18006275 4.960709853
3.032411868 11.85182116 0.8161631604
2.287716679 11.4658794 2.365938819
2.116794936 11.56818336 0.7850281115
3.645042902 11.91617913 1.666690961
1.76002295 11.3746298 1.547581655
-0.8334306067 9.823664773 2.715194165
0.9153426093 10.78916334 2.982051404
-0.429172801 10.18393608 2.084618326
0.4502091122 10.68311135 2.186797867
4.835615338 11.70124088 3.446573803
2.849442997 11.47412551 3.237973957
4.40677958 11.46924037 4.220414629
4.253331377 11.87052342 2.552292395
3.401009007 11.38371599 4.095995397
3.246142565 11.72149937 2.470987924
-2.291851683 8.120524674 5.018760255
-0.8349051439 9.024108425 5.577205725
-1.994757426 8.104472401 5.708119509
-1.956742513 8.573486292 4.484113742
2.931136396 10.38564825 6.418683616
0.9095119847 9.830499696 6.075582938
2.450900169 9.957728453 7.013399668
2.427633364 10.63669912 5.563217468
-1.305793391 7.96115456 7.141812515
-0.4464135214 8.972383411 6.304721954
-1.665323677 8.05300924 6.421367117
-0.4568732311 8.350732507 7.497197002
-1.253570737 8.549942214 6.012558231
-1.236845421 9.418644597 3.347351647
-0.4433589779 9.498161494 4.983468678
-1.603090013 9.009196821 3.92429038
-0.4351101403 9.919803656 3.520114979
-1.231778082 9.044740364 4.7405248
1.475760791 8.997410948 8.071419997
0.4663418193 9.372918611 6.586170366
1.962663871 9.490857849 7.567889306
0.4762376839 8.704676127 7.814963742
1.422870222 9.704644355 6.824577036
0 8.875629063 7.055864684
1.421813705 10.82718806 3.847942811
0.4642402639 9.945505149 5.21817969
1.918236706 10.780288 4.695754943
0.4561521336 10.39952689 3.690348281
1.406161328 10.32520737 5.411642526
0 9.96471308 4.361496136
0 -5.731397315 10.89230722
0 -4.273143233 11.85390578
0 -0.8948192301 12.91086655
0 -2.642653432 12.54674343
0 5.731397315 10.89230722
0 4.273143233 11.85390578
0 0.8948192301 12.91086655
0 2.642653432 12.54674343
-6.926926445 -11.76402494 -0.8996633198
-6.230768501 -11.72155939 -2.653517782
-5.996614308 -12.02280501 -0.8861914121
-4.491683889 -10.85355136 -5.802033912
-5.407102598 -11.40727334 -4.301377604
-4.033704521 -12.04846098 -0.8409545532
-5.265755345 -11.87925369 -2.602887292
-5.014691865 -12.11128627 -0.8668918945
-5.644579272 -11.98508025 -1.76072407
-0.4965835403 -6.989925019 -10.00986367
-1.501901056 -8.136347808 -9.232859284
-3.518011328 -10.09896505 -7.130195465
-2.514208814 -9.181902243 -8.27434578
-0.4475667915 -10.8170796 -0.7241782809
-1.405619349 -11.13654074 -2.274339882
-1.248273999 -11.21391521 -0.7543741686
-3.493478958 -10.84364117 -5.652567693
-2.43488174 -11.18123768 -3.939721415
-3.954871517 -11.18006275 -4.960709853
-3.032411868 -11.85182116 -0.8161631604
-2.287716679 -11.4658794 -2.365938819
-2.116794936 -11.56818336 -0.7850281115
-3.645042902 -11.91617913 -1.666690961
-1.76002295 -11.3746298 -1.547581655
-4.835615338 -11.70124088 -3.446573803
-2.849442997 -11.47412551 -3.237973957
-4.40677958 -11.46924037 -4.220414629
-4.253331377 -11.87052342 -2.552292395
-3.401009007 -11.38371599 -4.095995397
-3.246142565 -11.72149937 -2.470987924
4.21431493 -7.157186714 -0.5473516415
3.921051174 -7.376431044 -1.669870901
3.788422041 -7.595529266 -0.5598604321
3.161896151 -7.64029774 -4.084309837
3.574672308 -7.541426001 -2.843669993
2.841721995 -8.488072538 -0.592447721
3.467441316 -7.822356407 -1.713972326
3.329650846 -8.041641571 -0.5755981439
3.633974563 -7.71598283 -1.133552418
0.4795094086 -6.749589022 -9.665692518
1.340567963 -7.262347386 -8.241072417
0 -7.33524151 -9.339320298
2.665543322 -7.651831198 -5.402439939
2.065227333 -7.542219792 -6.796732622
-0.9720721727 -8.452645087 -8.553353149
0.8980755835 -7.809208393 -7.902250303
-0.4862610568 -7.907120032 -8.966015383
0.4678422298 -7.607610387 -8.626396398
0.4265255497 -10.30854145 -0.6901328365
1.220258538 -9.667950957 -1.97441979
1.098062919 -9.864488469 -0.6635965359
0 -10.51874687 -1.417189211
2.610383222 -8.102541711 -4.223688777
1.944169675 -8.927835331 -3.145732614
2.851725947 -8.06157037 -3.577002423
2.291968111 -8.957884792 -0.6168752856
1.838874965 -9.216315454 -1.901750204
1.721856179 -9.40986189 -0.638562329
2.639529776 -8.629009446 -1.206921437
1.477994585 -9.551944339 -1.299595159
-0.9153426093 -10.78916334 -2.982051404
0.8334306067 -9.823664773 -2.715194165
-0.4502091122 -10.68311135 -2.186797867
0.429172801 -10.18393608 -2.084618326
3.273923661 -7.922253264 -2.333481622
2.196607664 -8.845290841 -2.496122372
3.073765202 -7.99989001 -2.943774107
2.967535033 -8.282024365 -1.780725842
2.529020999 -8.46503397 -3.045819152
2.423202777 -8.749945285 -1.844560021
-2.931136396 -10.38564825 -6.418683616
-0.9095119847 -9.830499696 -6.075582938
-2.450900169 -9.957728453 -7.013399668
-2.427633364 -10.63669912 -5.563217468
2.291851683 -8.120524674 -5.018760255
0.8349051439 -9.024108425 -5.577205725
1.994757426 -8.104472401 -5.708119509
1.956742513 -8.573486292 -4.484113742
-1.475760791 -8.997410948 -8.071419997
-0.4663418193 -9.372918611 -6.586170366
-1.962663871 -9.490857849 -7.567889306
-0.4762376839 -8.704676127 -7.814963742
-1.422870222 -9.704644355 -6.824577036
-1.421813705 -10.82718806 -3.847942811
-0.4642402639 -9.945505149 -5.21817969
-1.918236706 -10.780288 -4.695754943
-0.4561521336 -10.39952689 -3.690348281
-1.406161328 -10.32520737 -5.411642526
1.305793391 -7.96115456 -7.141812515
0.4464135214 -8.972383411 -6.304721954
1.665323677 -8.05300924 -6.421367117
0.4568732311 -8.350732507 -7.497197002
1.253570737 -8.549942214 -6.012558231
0 -8.875629063 -7.055864684
1.236845421 -9.418644597 -3.347351647
0.4433589779 -9.498161494 -4.983468678
1.603090013 -9.009196821 -3.92429038
0.4351101403 -9.919803656 -3.520114979
1.231778082 -9.044740364 -4.7405248
0 -9.96471308 -4.361496136
-4.21431493 7.157186714 -0.5473516415
-3.921051174 7.376431044 -1.669870901
-3.788422041 7.595529266 -0.5598604321
-3.161896151 7.64029774 -4.084309837
-3.574672308 7.541426001 -2.843669993
-2.841721995 8.488072538 -0.592447721
-3.467441316 7.822356407 -1.713972326
-3.329650846 8.041641571 -0.5755981439
-3.633974563 7.71598283 -1.133552418
-0.4795094086 6.749589022 -9.665692518
-1.340567963 7.262347386 -8.241072417
-2.665543322 7.651831198 -5.402439939
-2.065227333 7.542219792 -6.796732622
-0.4265255497 10.30854145 -0.6901328365
-1.220258538 9.667950957 -1.97441979
-1.098062919 9.864488469 -0.6635965359
-2.610383222 8.102541711 -4.223688777
-1.944169675 8.927835331 -3.145732614
-2.851725947 8.06157037 -3.577002423
-2.291968111 8.957884792 -0.6168752856
-1.838874965 9.216315454 -1.901750204
-1.721856179 9.40986189 -0.638562329
-2.639529776 8.629009446 -1.206921437
-1.477994585 9.551944339 -1.299595159
-3.273923661 7.922253264 -2.333481622
-2.196607664 8.845290841 -2.496122372
-3.073765202 7.99989001 -2.943774107
-2.967535033 8.282024365 -1.780725842
-2.529020999 8.46503397 -3.045819152
-2.423202777 8.749945285 -1.844560021
6.926926445 11.76402494 -0.8996633198
6.230768501 11.72155939 -2.653517782
5.996614308 12.02280501 -0.8861914121
4.491683889 10.85355136 -5.802033912
5.407102598 11.40727334 -4.301377604
4.033704521 12.04846098 -0.8409545532
5.265755345 11.87925369 -2.602887292
5.014691865 12.11128627 -0.8668918945
5.644579272 11.98508025 -1.76072407
0.4965835403 6.989925019 -10.00986367
1.501901056 8.136347808 -9.232859284
0 7.33524151 -9.339320298
3.518011328 10.09896505 -7.130195465
2.514208814 9.181902243 -8.27434578
-0.8980755835 7.809208393 -7.902250303
0.9720721727 8.452645087 -8.553353149
-0.4678422298 7.607610387 -8.626396398
0.4862610568 7.907120032 -8.966015383
0.4475667915 10.8170796 -0.7241782809
1.405619349 11.13654074 -2.274339882
1.248273999 11.21391521 -0.7543741686
0 10.51874687 -1.417189211
3.493478958 10.84364117 -5.652567693
2.43488174 11.18123768 -3.939721415
3.954871517 11.18006275 -4.960709853
3.032411868 11.85182116 -0.8161631604
2.287716679 11.4658794 -2.365938819
2.116794936 11.56818336 -0.7850281115
3.645042902 11.91617913 -1.666690961
1.76002295 11.3746298 -1.547581655
-0.8334306067 9.823664773 -2.715194165
0.9153426093 10.78916334 -2.982051404
-0.429172801 10.18393608 -2.084618326
0.4502091122 10.68311135 -2.186797867
4.835615338 11.70124088 -3.446573803
2.849442997 11.47412551 -3.237973957
4.40677958 11.46924037 -4.220414629
4.253331377 11.87052342 -2.552292395
3.401009007 11.38371599 -4.095995397
3.246142565 11.72149937 -2.470987924
-2.291851683 8.120524674 -5.018760255
-0.8349051439 9.024108425 -5.577205725
-1.994757426 8.104472401 -5.708119509
-1.956742513 8.573486292 -4.484113742
2.931136396 10.38564825 -6.418683616
0.9095119847 9.830499696 -6.075582938
2.450900169 9.957728453 -7.013399668
2.427633364 10.63669912 -5.563217468
-1.305793391 7.96115456 -7.141812515
-0.4464135214 8.972383411 -6.304721954
-1.665323677 8.05300924 -6.421367117
-0.4568732311 8.350732507 -7.497197002
-1.253570737 8.549942214 -6.012558231
-1.236845421 9.418644597 -3.347351647
-0.4433589779 9.498161494 -4.983468678
-1.603090013 9.009196821 -3.92429038
-0.4351101403 9.919803656 -3.520114979
-1.231778082 9.044740364 -4.7405248
1.475760791 8.997410948 -8.071419997
0.4663418193 9.372918611 -6.586170366
1.962663871 9.490857849 -7.567889306
0.4762376839 8.704676127 -7.814963742
1.422870222 9.704644355 -6.824577036
0 8.875629063 -7.055864684
1.421813705 10.82718806 -3.847942811
0.4642402639 9.945505149 -5.21817969
1.918236706 10.780288 -4.695754943
0.4561521336 10.39952689 -3.690348281
1.406161328 10.32520737 -5.411642526
0 9.96471308 -4.361496136
0 -5.731397315 -10.89230722
0 -4.273143233 -11.85390578
0 -0.8948192301 -12.91086655
0 -2.642653432 -12.54674343
0 5.731397315 -10.89230722
0 4.273143233 -11.85390578
0 0.8948192301 -12.91086655
0 2.642653432 -12.54674343
7.879231231 11.2833872 -0.5597623049
8.919167099 10.12117681 -1.646402883
7.592095975 11.37880559 -1.465071107
9.75012601 6.88390384 -3.396491977
9.531997428 8.589836899 -2.610072653
6.890930624 11.34834646 -3.242157516
8.649558256 10.21986472 -2.554767778
7.260280321 11.39960349 -2.367313731
8.173510219 10.85647005 -2.02537452
8.440858782 0.6455215009 -4.970170348
8.946550715 2.025313409 -4.75567154
9.664141908 5.166205716 -3.999453181
9.37097906 3.533545506 -4.441889284
5.094402277 10.46213308 -6.465953841
7.104142432 9.861515552 -6.094751791
5.575138122 10.77226124 -5.729908458
9.51501261 6.91288907 -4.272400406
8.628156763 8.593507206 -5.311079536
9.446726781 7.787587138 -3.923899858
6.473877821 11.21754386 -4.129914479
7.542732937 10.05538405 -5.27132843
6.038700954 11.02737721 -4.94506287
7.470387529 10.8280063 -3.841606745
6.612457502 10.50636994 -5.552342324
9.02950233 9.454749875 -3.074213134
8.359282112 9.410310377 -4.881650639
9.287684999 8.647424147 -3.521304747
8.337476212 10.22774966 -3.482506976
8.984665644 8.648314957 -4.429273806
7.965863049 10.17192273 -4.396383512
4.661943758 -6.676097575 -0.3311973347
5.251055441 -5.958724617 -0.9693004649
4.533932885 -6.795322536 -0.8749275686
6.2916178 -4.442085353 -2.191708021
5.790514064 -5.218168778 -1.58557139
4.246723696 -6.993727618 -1.998067881
5.12723933 -6.058077281 -1.514401712
4.395507297 -6.901529706 -1.433215292
4.839050458 -6.427471793 -1.199104086
7.998099798 -0.6116611496 -4.709463751
7.620306952 -1.725079345 -4.050687024
6.761992806 -3.614790244 -2.798414375
7.205336138 -2.716939496 -3.415364091
3.504663952 -7.197362653 -4.448214749
4.526733113 -6.283721001 -3.883553155
3.713374517 -7.174968495 -3.816460792
6.176060903 -4.4870591 -2.773155033
5.404947967 -5.383242398 -3.327026772
5.931812592 -4.890001428 -2.463905131
4.081021437 -7.071347073 -2.603427187
4.692453446 -6.255613438 -3.279376781
3.90566197 -7.132197494 -3.19832761
4.555514852 -6.603023378 -2.342649095
4.2239158 -6.711275192 -3.546733791
5.412882562 -5.667804144 -1.842887244
5.142207487 -5.788746908 -3.002944527
5.676404136 -5.285092486 -2.152134664
4.999876263 -6.133448711 -2.08841423
5.548021902 -5.340325695 -2.735072073
4.855046018 -6.19959854 -2.679514339
0.780654682 -6.010623577 -10.20786437
2.221156192 -5.21553318 -9.811659975
1.225434475 -6.350283002 -9.517613578
0.7934125032 -5.36880487 -10.76408966
4.612940928 -3.571139494 -8.629179362
3.495484919 -4.394044729 -9.270042206
2.017257242 -6.829733872 -8.069655606
2.597429003 -5.520614892 -9.091638542
1.64085262 -6.621750954 -8.795344839
1.935843424 -5.937010263 -9.321893908
0.8189937068 -3.928367598 -11.73382519
2.267760515 -4.587779151 -10.34977679
0.8072626641 -4.669755872 -11.27821044
1.554286641 -4.982776294 -10.57988042
7.866217788 -0.3902385093 -5.493009127
7.202480657 -1.17162116 -6.347100709
7.701304414 -0.9915767074 -5.138416485
5.590972401 -2.758564522 -7.918862131
6.448507169 -1.959416973 -7.155799867
7.32751944 -2.093430291 -4.449408404
7.044495354 -1.76098708 -5.962091926
7.519440904 -1.561534638 -4.789048048
7.381863298 -1.377154615 -5.557583156
3.229931279 -7.1933419 -5.226138591
3.811360578 -6.191776328 -6.166910959
2.973883236 -7.159576803 -5.902131979
3.797284887 -6.737220535 -4.920240379
4.874872051 -3.840819141 -7.88770867
4.359663916 -5.081695608 -7.054084395
4.369294455 -4.251275611 -8.214298998
2.378526431 -6.986148655 -7.31516375
3.559782991 -6.095731235 -6.86215899
2.68900087 -7.092425914 -6.603498624
2.670023943 -6.392309124 -7.84157409
3.273024926 -6.639245144 -6.390697812
4.805494809 -5.824966644 -4.318551993
4.364757516 -5.739523301 -5.823601316
4.323874082 -6.277808653 -4.615829093
4.085770743 -6.248670356 -5.381179558
3.244959906 -5.086660771 -8.813858076
3.845762613 -5.50289376 -7.336029339
3.823529709 -4.669132245 -8.526383889
2.960341602 -5.756679548 -8.344060085
4.111945086 -4.897043545 -7.780791194
3.282009209 -5.946714115 -7.593592316
0.8601821648 -0.5316218143 -12.84857498
2.458912704 -1.519691627 -12.04032068
0.8541646047 -1.413398697 -12.69731899
4.740457978 -2.929764153 -9.093889377
3.764719909 -2.326724862 -10.68456971
4.189654346 -3.340155972 -9.442317711
0.8360138814 -3.106166191 -12.14008116
2.417903835 -2.337963639 -11.71771373
0.8453964888 -2.2795757 -12.45777247
1.616425606 -3.535112881 -11.55680179
1.671533562 -1.900990117 -12.28566868
2.966993526 -4.162754151 -10.07304875
3.106640262 -2.733868294 -11.00872977
3.595765637 -3.754547356 -9.771717717
2.332809257 -3.887568222 -10.84972355
3.687316114 -3.061672219 -10.247902
2.384517248 -3.132545837 -11.31131284
6.455958669 -3.990001887 -3.143646738
6.241294752 -3.857332291 -4.496169645
6.682687491 -3.554610004 -3.458596571
6.086187219 -4.444786089 -3.430344402
5.434089756 -3.358452167 -7.479569255
5.914699006 -3.655485019 -5.938547441
5.871277562 -2.958336746 -7.122148876
5.180503643 -3.998147788 -7.093595603
7.114804557 -2.61942674 -4.106101655
6.455563643 -3.384196567 -4.84243986
6.903846552 -3.095927035 -3.780614733
7.004838004 -2.48520662 -4.832732179
6.581266172 -3.478027417 -4.142091238
5.27423183 -5.351493811 -4.010915509
5.830180883 -4.32241776 -4.809796465
5.690906873 -4.900849299 -3.721070161
5.097346885 -5.320930677 -4.73558071
5.971179567 -4.390376625 -4.11268167
6.668431656 -2.168241408 -6.368504717
6.294904366 -3.265516512 -5.591832719
6.284473433 -2.559091096 -6.749779893
6.857510483 -2.334954305 -5.590118301
6.104500322 -3.12644758 -6.341916846
6.659232456 -2.878171666 -5.214995748
4.65099064 -5.175417921 -6.273367875
5.648379012 -4.233429353 -5.566830762
4.917654929 -4.606609185 -6.688310171
4.889916118 -5.263472469 -5.494342991
5.437388134 -4.128448255 -6.31394022
5.380046819 -4.788193548 -5.153978986
0.821961591 6.328664686 -10.74799477
2.551043522 5.990147014 -11.26889307
1.339052904 6.939061259 -10.40005676
0.8312430029 5.624793489 -11.27732948
5.695412413 4.409142133 -10.65410028
4.241182186 5.331433167 -11.24763482
2.390171058 8.092290808 -9.561426712
3.10326821 6.595733191 -10.86219982
1.866158817 7.530986495 -10.00303752
2.220562668 6.810211604 -10.69293588
0.8479738941 4.067373341 -12.14902795
2.563227319 5.185521475 -11.69825051
0.8410441937 4.865171198 -11.75016984
1.697608243 5.44224076 -11.55545685
8.131141946 0.4033812434 -5.678006652
7.935510196 1.290862427 -6.993074301
8.400129917 1.081553555 -5.604682496
7.810859577 0 -6.134765654
6.790359463 3.350337537 -9.617632953
7.51581301 2.283724154 -8.340171195
8.888024333 2.539257591 -5.396976492
8.18378554 2.045787509 -6.926327471
8.655009703 1.797354034 -5.512279151
8.317282501 1.551665686 -6.261832178
7.100353176 -0.8069415138 -7.016752886
7.567473492 0.8600288414 -7.478373279
7.465685221 -0.4048924556 -6.583980357
7.713085239 0.4183098979 -6.802162186
4.501546185 10.02534047 -7.283654729
5.35165527 8.694074396 -8.659160122
3.990487736 9.607036041 -7.919741096
5.563977219 9.871722216 -7.209389393
6.246668832 4.921631781 -10.10732249
5.947243013 6.932203786 -9.622841334
5.584628138 5.433781963 -10.49913339
2.943390913 8.645254557 -9.05240582
4.81371441 8.242948898 -9.279350369
3.466435417 9.142963342 -8.5126791
3.328195121 7.968037922 -9.77455228
4.428562292 8.983222356 -8.6469257
7.455299168 9.036919339 -6.699850559
6.320602587 8.311400047 -8.433153367
6.569664439 9.538459141 -7.013258867
5.979646979 9.145114879 -7.875516301
4.008498844 6.283551849 -10.88775853
5.147952112 7.366194018 -9.820036109
4.827920261 5.89565137 -10.76615187
3.688528874 7.172712339 -10.39653888
5.401513876 6.432831203 -10.22096616
4.263990546 7.725978554 -9.865604812
0.8643188113 0.5341784025 -12.91036424
2.560855307 1.58269562 -12.53949319
0.8651394009 1.431558853 -12.86046142
1.7128562 0 -12.71326415
5.625956476 3.477032321 -10.79259136
4.16484601 2.574016392 -11.8201589
4.980010157 3.970258473 -11.22356028
0.859646384 3.193971528 -12.48325788
2.574635793 2.489513761 -12.47727257
0.8629381846 2.326876137 -12.7162671
1.722454545 3.76699752 -12.31486664
1.729911673 1.967381971 -12.7147442
3.249029299 -0.9972916467 -11.75509843
3.364859972 1.032845947 -12.17417774
2.520595438 -0.518930008 -12.31380465
2.555740622 0.5261655564 -12.48549858
3.444199409 4.832284014 -11.69317973
3.425186979 3.014191954 -12.13753594
4.243300031 4.430675556 -11.53143288
2.591014557 4.317860891 -12.05061733
4.21784685 3.502185362 -11.72236928
2.59551815 3.409738212 -12.31222705
9.497176327 5.869577767 -4.624528891
8.850694935 5.470030294 -6.37595683
9.413512351 5.007171924 -4.871923396
9.226727888 6.738345419 -5.200440476
6.907420029 4.269020352 -9.507484933
7.986205189 4.935746248 -8.018406067
7.354643221 3.705754168 -8.921544485
6.876935074 5.307399559 -9.416496883
9.10338643 3.351554305 -5.253753605
8.754205395 4.589212264 -6.566694327
9.278210246 4.160675027 -5.080839803
8.780243664 3.115092692 -6.05760848
9.108931899 4.813832788 -5.732943482
8.23087522 8.351448935 -6.25936556
8.470331282 6.279789787 -6.987874008
8.806487835 7.583900193 -5.758231479
7.740802674 8.080335779 -7.191426569
8.876048739 6.526214203 -6.113425753
7.981293885 2.59511873 -7.622318167
8.332334739 4.322444805 -7.401704507
7.711355875 3.140129776 -8.282309629
8.40518134 2.86192991 -6.851751543
7.871305419 4.03132484 -8.177436614
8.598693111 3.71642153 -6.733831309
6.594962553 7.338584406 -8.895443878
7.982660151 5.982960372 -7.867410809
6.774460669 6.345970424 -9.213679049
7.189948552 7.739211746 -8.078675069
7.46008498 5.664222244 -8.662712582
7.914686768 7.044000432 -7.582114181
5.349781067 -2.443014633 -8.6561276
5.76645284 -0.8632353505 -9.330316689
5.825890715 -2.03591371 -8.271685699
4.95395615 -2.161768671 -9.471810392
6.273998706 2.865065029 -10.15154315
6.09174484 0.9119314139 -9.856650201
6.716782267 2.347244356 -9.536586684
5.622352557 2.453438272 -10.74976358
6.692679062 -1.223674812 -7.460494422
6.254435619 -0.4428529362 -8.900819862
6.275458388 -1.627483564 -7.870025723
6.937807549 -0.4227844821 -7.727658085
6.049404711 -1.261252936 -8.602338425
3.923807246 -1.44984559 -11.04065238
5.318490449 -0.4731645049 -10.13669082
4.478219722 -1.829372604 -10.28088112
4.034224048 -0.498657516 -11.36858049
5.149227517 -1.337975406 -9.824529547
7.350669943 1.343980427 -8.193973086
6.443554268 0.4562437126 -9.169958619
7.075106873 1.83486519 -8.872861493
7.160567876 0.4363593195 -7.97577907
6.597793606 1.375587674 -9.382155133
6.720439413 0 -8.45369491
4.179932997 1.544483978 -11.7613288
5.463993734 0.4861093414 -10.41401045
4.918661377 2.009294972 -11.29202586
4.121725796 0.5094733269 -11.61516339
5.565080353 1.446030617 -10.61796089
4.77778251 0 -10.91580283
7.879231231 11.2833872 0.5597623049
8.919167099 10.12117681 1.646402883
7.592095975 11.37880559 1.465071107
8.482196328 10.79963737 0
9.75012601 6.88390384 3.396491977
9.531997428 8.589836899 2.610072653
6.890930624 11.34834646 3.242157516
8.649558256 10.21986472 2.554767778
7.260280321 11.39960349 2.367313731
8.173510219 10.85647005 2.02537452
9.376576438 9.488292573 -1.078326244
9.376576438 9.488292573 1.078326244
8.986902659 10.19039893 -0.5526640252
8.986902659 10.19039893 0.5526640252
8.440858782 0.6455215009 4.970170348
8.946550715 2.025313409 4.75567154
9.664141908 5.166205716 3.999453181
9.37097906 3.533545506 4.441889284
5.094402277 10.46213308 6.465953841
7.104142432 9.861515552 6.094751791
5.575138122 10.77226124 5.729908458
9.51501261 6.91288907 4.272400406
8.628156763 8.593507206 5.311079536
9.446726781 7.787587138 3.923899858
6.473877821 11.21754386 4.129914479
7.542732937 10.05538405 5.27132843
6.038700954 11.02737721 4.94506287
7.470387529 10.8280063 3.841606745
6.612457502 10.50636994 5.552342324
9.02950233 9.454749875 3.074213134
8.359282112 9.410310377 4.881650639
9.287684999 8.647424147 3.521304747
8.337476212 10.22774966 3.482506976
8.984665644 8.648314957 4.429273806
7.965863049 10.17192273 4.396383512
9.926280898 6.134778977 -2.801489374
10.14007238 6.266909381 -0.9381534656
9.924137772 6.989741173 -2.442632479
9.926280898 6.134778977 2.801489374
10.14007238 6.266909381 0.9381534656
9.924137772 6.989741173 2.442632479
9.668800589 8.673711902 -1.585882527
10.09951199 7.096733618 -0.5024928725
9.841984079 7.847872894 -2.035275091
9.731992729 8.737277437 -0.532442748
10.04107206 7.061162396 -1.472196394
9.668800589 8.673711902 1.585882527
10.09951199 7.096733618 0.5024928725
9.841984079 7.847872894 2.035275091
9.731992729 8.737277437 0.532442748
10.04107206 7.061162396 1.472196394
9.970214796 7.926028225 0
4.661943758 -6.676097575 0.3311973347
5.251055441 -5.958724617 0.9693004649
4.533932885 -6.795322536 0.8749275686
4.969891078 -6.327726846 0
6.2916178 -4.442085353 2.191708021
5.790514064 -5.218168778 1.58557139
4.246723696 -6.993727618 1.998067881
5.12723933 -6.058077281 1.514401712
4.395507297 -6.901529706 1.433215292
4.839050458 -6.427471793 1.199104086
5.54660256 -5.612686914 -0.6378710978
5.54660256 -5.612686914 0.6378710978
5.266071644 -5.971286534 -0.3238455408
5.266071644 -5.971286534 0.3238455408
7.998099798 -0.6116611496 4.709463751
7.620306952 -1.725079345 4.050687024
6.761992806 -3.614790244 2.798414375
7.205336138 -2.716939496 3.415364091
3.504663952 -7.197362653 4.448214749
4.526733113 -6.283721001 3.883553155
3.713374517 -7.174968495 3.816460792
6.176060903 -4.4870591 2.773155033
5.404947967 -5.383242398 3.327026772
5.931812592 -4.890001428 2.463905131
4.081021437 -7.071347073 2.603427187
4.692453446 -6.255613438 3.279376781
3.90566197 -7.132197494 3.19832761
4.555514852 -6.603023378 2.342649095
4.2239158 -6.711275192 3.546733791
5.412882562 -5.667804144 1.842887244
5.142207487 -5.788746908 3.002944527
5.676404136 -5.285092486 2.152134664
4.999876263 -6.133448711 2.08841423
5.548021902 -5.340325695 2.735072073
4.855046018 -6.19959854 2.679514339
6.585959359 -4.070346733 -1.858752069
6.647288135 -4.10825 -0.6150031444
6.342214595 -4.466930982 -1.561012122
6.585959359 -4.070346733 1.858752069
6.647288135 -4.10825 0.6150031444
6.342214595 -4.466930982 1.561012122
5.829180843 -5.229256182 -0.9561057712
6.391734947 -4.491349711 -0.3180154899
6.088662754 -4.855022219 -1.259106247
5.841471045 -5.244409298 -0.3195901376
6.375363124 -4.483333462 -0.9347394929
5.829180843 -5.229256182 0.9561057712
6.391734947 -4.491349711 0.3180154899
6.088662754 -4.855022219 1.259106247
5.841471045 -5.244409298 0.3195901376
6.375363124 -4.483333462 0.9347394929
6.124448423 -4.868756798 0
0.780654682 -6.010623577 10.20786437
2.221156192 -5.21553318 9.811659975
1.225434475 -6.350283002 9.517613578
0.7934125032 -5.36880487 10.76408966
4.612940928 -3.571139494 8.629179362
3.495484919 -4.394044729 9.270042206
2.017257242 -6.829733872 8.069655606
2.597429003 -5.520614892 9.091638542
1.64085262 -6.621750954 8.795344839
1.935843424 -5.937010263 9.321893908
0.8189937068 -3.928367598 11.73382519
2.267760515 -4.587779151 10.34977679
0.8072626641 -4.669755872 11.27821044
1.554286641 -4.982776294 10.57988042
7.866217788 -0.3902385093 5.493009127
7.202480657 -1.17162116 6.347100709
7.701304414 -0.9915767074 5.138416485
5.590972401 -2.758564522 7.918862131
6.448507169 -1.959416973 7.155799867
7.32751944 -2.093430291 4.449408404
7.044495354 -1.76098708 5.962091926
7.519440904 -1.561534638 4.789048048
7.381863298 -1.377154615 5.557583156
3.229931279 -7.1933419 5.226138591
3.811360578 -6.191776328 6.166910959
2.973883236 -7.159576803 5.902131979
3.797284887 -6.737220535 4.920240379
4.874872051 -3.840819141 7.88770867
4.359663916 -5.081695608 7.054084395
4.369294455 -4.251275611 8.214298998
2.378526431 -6.986148655 7.31516375
3.559782991 -6.095731235 6.86215899
2.68900087 -7.092425914 6.603498624
2.670023943 -6.392309124 7.84157409
3.273024926 -6.639245144 6.390697812
4.805494809 -5.824966644 4.318551993
4.364757516 -5.739523301 5.823601316
4.323874082 -6.277808653 4.615829093
4.085770743 -6.248670356 5.381179558
3.244959906 -5.086660771 8.813858076
3.845762613 -5.50289376 7.336029339
3.823529709 -4.669132245 8.526383889
2.960341602 -5.756679548 8.344060085
4.111945086 -4.897043545 7.780791194
3.282009209 -5.946714115 7.593592316
0.8601821648 -0.5316218143 12.84857498
2.458912704 -1.519691627 12.04032068
0.8541646047 -1.413398697 12.69731899
4.740457978 -2.929764153 9.093889377
3.764719909 -2.326724862 10.68456971
4.189654346 -3.340155972 9.442317711
0.8360138814 -3.106166191 12.14008116
2.417903835 -2.337963639 11.71771373
0.8453964888 -2.2795757 12.45777247
1.616425606 -3.535112881 11.55680179
1.671533562 -1.900990117 12.28566868
2.966993526 -4.162754151 10.07304875
3.106640262 -2.733868294 11.00872977
3.595765637 -3.754547356 9.771717717
2.332809257 -3.887568222 10.84972355
3.687316114 -3.061672219 10.247902
2.384517248 -3.132545837 11.31131284
6.455958669 -3.990001887 3.143646738
6.241294752 -3.857332291 4.496169645
6.682687491 -3.554610004 3.458596571
6.086187219 -4.444786089 3.430344402
5.434089756 -3.358452167 7.479569255
5.914699006 -3.655485019 5.938547441
5.871277562 -2.958336746 7.122148876
5.180503643 -3.998147788 7.093595603
7.114804557 -2.61942674 4.106101655
6.455563643 -3.384196567 4.84243986
6.903846552 -3.095927035 3.780614733
7.004838004 -2.48520662 4.832732179
6.581266172 -3.478027417 4.142091238
5.27423183 -5.351493811 4.010915509
5.830180883 -4.32241776 4.809796465
5.690906873 -4.900849299 3.721070161
5.097346885 -5.320930677 4.73558071
5.971179567 -4.390376625 4.11268167
6.668431656 -2.168241408 6.368504717
6.294904366 -3.265516512 5.591832719
6.284473433 -2.559091096 6.749779893
6.857510483 -2.334954305 5.590118301
6.104500322 -3.12644758 6.341916846
6.659232456 -2.878171666 5.214995748
4.65099064 -5.175417921 6.273367875
5.648379012 -4.233429353 5.566830762
4.917654929 -4.606609185 6.688310171
4.889916118 -5.263472469 5.494342991
5.437388134 -4.128448255 6.31394022
5.380046819 -4.788193548 5.153978986
0.821961591 6.328664686 10.74799477
2.551043522 5.990147014 11.26889307
1.339052904 6.939061259 10.40005676
0.8312430029 5.624793489 11.27732948
5.695412413 4.409142133 10.65410028
4.241182186 5.331433167 11.24763482
2.390171058 8.092290808 9.561426712
3.10326821 6.595733191 10.86219982
1.866158817 7.530986495 10.00303752
2.220562668 6.810211604 10.69293588
0.8479738941 4.067373341 12.14902795
2.563227319 5.185521475 11.69825051
0.8410441937 4.865171198 11.75016984
1.697608243 5.44224076 11.55545685
8.131141946 0.4033812434 5.678006652
7.935510196 1.290862427 6.993074301
8.400129917 1.081553555 5.604682496
7.810859577 0 6.134765654
6.790359463 3.350337537 9.617632953
7.51581301 2.283724154 8.340171195
8.888024333 2.539257591 5.396976492
8.18378554 2.045787509 6.926327471
8.655009703 1.797354034 5.512279151
8.317282501 1.551665686 6.261832178
7.100353176 -0.8069415138 7.016752886
7.567473492 0.8600288414 7.478373279
7.465685221 -0.4048924556 6.583980357
7.713085239 0.4183098979 6.802162186
4.501546185 10.02534047 7.283654729
5.35165527 8.694074396 8.659160122
3.990487736 9.607036041 7.919741096
5.563977219 9.871722216 7.209389393
6.246668832 4.921631781 10.10732249
5.947243013 6.932203786 9.622841334
5.584628138 5.433781963 10.49913339
2.943390913 8.645254557 9.05240582
4.81371441 8.242948898 9.279350369
3.466435417 9.142963342 8.5126791
3.328195121 7.968037922 9.77455228
4.428562292 8.983222356 8.6469257
7.455299168 9.036919339 6.699850559
6.320602587 8.311400047 8.433153367
6.569664439 9.538459141 7.013258867
5.979646979 9.145114879 7.875516301
4.008498844 6.283551849 10.88775853
5.147952112 7.366194018 9.820036109
4.827920261 5.89565137 10.76615187
3.688528874 7.172712339 10.39653888
5.401513876 6.432831203 10.22096616
4.263990546 7.725978554 9.865604812
0.8643188113 0.5341784025 12.91036424
2.560855307 1.58269562 12.53949319
0.8651394009 1.431558853 12.86046142
1.7128562 0 12.71326415
5.625956476 3.477032321 10.79259136
4.16484601 2.574016392 11.8201589
4.980010157 3.970258473 11.22356028
0.859646384 3.193971528 12.48325788
2.574635793 2.489513761 12.47727257
0.8629381846 2.326876137 12.7162671
1.722454545 3.76699752 12.31486664
1.729911673 1.967381971 12.7147442
3.249029299 -0.9972916467 11.75509843
3.364859972 1.032845947 12.17417774
2.520595438 -0.518930008 12.31380465
2.555740622 0.5261655564 12.48549858
3.444199409 4.832284014 11.69317973
3.425186979 3.014191954 12.13753594
4.243300031 4.430675556 11.53143288
2.591014557 4.317860891 12.05061733
4.21784685 3.502185362 11.72236928
2.59551815 3.409738212 12.31222705
9.497176327 5.869577767 4.624528891
8.850694935 5.470030294 6.37595683
9.413512351 5.007171924 4.871923396
9.226727888 6.738345419 5.200440476
6.907420029 4.269020352 9.507484933
7.986205189 4.935746248 8.018406067
7.354643221 3.705754168 8.921544485
6.876935074 5.307399559 9.416496883
9.10338643 3.351554305 5.253753605
8.754205395 4.589212264 6.566694327
9.278210246 4.160675027 5.080839803
8.780243664 3.115092692 6.05760848
9.108931899 4.813832788 5.732943482
8.23087522 8.351448935 6.25936556
8.470331282 6.279789787 6.987874008
8.806487835 7.583900193 5.758231479
7.740802674 8.080335779 7.191426569
8.876048739 6.526214203 6.113425753
7.981293885 2.59511873 7.622318167
8.332334739 4.322444805 7.401704507
7.711355875 3.140129776 8.282309629
8.40518134 2.86192991 6.851751543
7.871305419 4.03132484 8.177436614
8.598693111 3.71642153 6.733831309
6.594962553 7.338584406 8.895443878
7.982660151 5.982960372 7.867410809
6.774460669 6.345970424 9.213679049
7.189948552 7.739211746 8.078675069
7.46008498 5.664222244 8.662712582
7.914686768 7.044000432 7.582114181
5.349781067 -2.443014633 8.6561276
5.76645284 -0.8632353505 9.330316689
5.825890715 -2.03591371 8.271685699
4.95395615 -2.161768671 9.471810392
6.273998706 2.865065029 10.15154315
6.09174484 0.9119314139 9.856650201
6.716782267 2.347244356 9.536586684
5.622352557 2.453438272 10.74976358
6.692679062 -1.223674812 7.460494422
6.254435619 -0.4428529362 8.900819862
6.275458388 -1.627483564 7.870025723
6.937807549 -0.4227844821 7.727658085
6.049404711 -1.261252936 8.602338425
3.923807246 -1.44984559 11.04065238
5.318490449 -0.4731645049 10.13669082
4.478219722 -1.829372604 10.28088112
4.034224048 -0.498657516 11.36858049
5.149227517 -1.337975406 9.824529547
7.350669943 1.343980427 8.193973086
6.443554268 0.4562437126 9.169958619
7.075106873 1.83486519 8.872861493
7.160567876 0.4363593195 7.97577907
6.597793606 1.375587674 9.382155133
6.720439413 0 8.45369491
4.179932997 1.544483978 11.7613288
5.463993734 0.4861093414 10.41401045
4.918661377 2.009294972 11.29202586
4.121725796 0.5094733269 11.61516339
5.565080353 1.446030617 10.61796089
4.77778251 0 10.91580283
8.343264454 0 -4.390122543
8.609621468 0 -3.103630684
8.613881654 0.6349223782 -4.296345649
8.160487183 -0.6015030317 -4.070206094
8.857808211 0 -0.6139120945
8.777047884 0 -1.848662631
9.118098448 1.997884984 -4.041809096
8.873927262 0.6193794833 -2.970902307
8.874746832 1.303786044 -4.17971436
8.758408698 0.626902324 -3.626429091
7.760704004 -1.700463543 -3.440112454
8.404704644 -0.586628836 -2.813811257
7.964556757 -1.170070329 -3.75104472
8.295734217 -0.5937853827 -3.434858195
8.343264454 0 4.390122543
8.609621468 0 3.103630684
8.613881654 0.6349223782 4.296345649
8.160487183 -0.6015030317 4.070206094
8.857808211 0 0.6139120945
8.777047884 0 1.848662631
9.118098448 1.997884984 4.041809096
8.873927262 0.6193794833 2.970902307
8.874746832 1.303786044 4.17971436
8.758408698 0.626902324 3.626429091
7.760704004 -1.700463543 3.440112454
8.404704644 -0.586628836 2.813811257
7.964556757 -1.170070329 3.75104472
8.295734217 -0.5937853827 3.434858195
9.844360436 5.131663146 -3.171542243
9.792240437 3.450306706 -2.132406816
9.71869072 4.312283917 -3.437921053
9.995601393 5.227909865 -2.281314453
9.103016395 0.6094257424 -0.3766458224
9.512319086 1.942636153 -1.20061517
9.080240185 0.6108391683 -1.010764529
9.352247736 2.754683231 -3.864878354
9.600901113 2.709353993 -2.384253197
9.55067404 3.514426687 -3.669616643
9.265132607 1.992104869 -3.31979289
9.691135206 3.486984851 -2.895332083
10.1483761 5.324621451 -0.4737099552
9.88378461 3.512660697 -1.297927065
10.09749948 5.292296384 -1.375150424
9.97431392 4.344682988 -1.774822257
8.969465892 0.6176728058 -2.294931256
9.457771494 1.951573702 -1.887051209
9.035582139 0.6131633432 -1.653368893
9.133173822 1.27743785 -2.793748739
9.283179336 1.263028185 -1.43640795
9.378522695 1.97706928 -2.597280497
6.867376583 -3.579822534 -2.212452
7.498137919 -2.641977156 -1.63283168
7.097231676 -3.149115338 -2.510597662
6.912104045 -3.615175866 -1.577562193
8.617542099 -0.5769243692 -0.3565588691
8.080237214 -1.650171824 -1.019862274
8.596064718 -0.5782680761 -0.9568686653
7.541227048 -2.22125122 -3.116462053
7.72863648 -2.181004872 -1.919301743
7.323083456 -2.694724982 -2.813718572
7.87156114 -1.692471758 -2.820461812
7.420419168 -2.669954415 -2.216930961
6.956195956 -3.649757344 -0.3247040947
7.525413517 -2.674504285 -0.988228524
6.941692457 -3.638276382 -0.9453698253
7.226770661 -3.147888447 -1.285926382
8.491703378 -0.5847721943 -2.172690741
8.035199577 -1.658031619 -1.603214149
8.554290503 -0.5805024272 -1.565300121
8.189850753 -1.145497233 -2.505195418
8.320322475 -1.132026154 -1.287422867
7.96280455 -1.678624317 -2.205212658
9.844360436 5.131663146 3.171542243
9.792240437 3.450306706 2.132406816
9.71869072 4.312283917 3.437921053
9.995601393 5.227909865 2.281314453
9.103016395 0.6094257424 0.3766458224
9.512319086 1.942636153 1.20061517
9.080240185 0.6108391683 1.010764529
9.336421541 1.257894694 0
9.352247736 2.754683231 3.864878354
9.600901113 2.709353993 2.384253197
9.55067404 3.514426687 3.669616643
9.265132607 1.992104869 3.31979289
9.691135206 3.486984851 2.895332083
10.1483761 5.324621451 0.4737099552
9.88378461 3.512660697 1.297927065
10.09749948 5.292296384 1.375150424
10.07206471 4.408483309 0
9.97431392 4.344682988 1.774822257
8.969465892 0.6176728058 2.294931256
9.457771494 1.951573702 1.887051209
9.035582139 0.6131633432 1.653368893
9.133173822 1.27743785 2.793748739
9.283179336 1.263028185 1.43640795
9.378522695 1.97706928 2.597280497
9.733148083 2.690175967 -0.8257512547
9.733148083 2.690175967 0.8257512547
9.550210946 1.954896868 -0.4024662712
9.927055213 3.522688247 -0.4354282137
9.550210946 1.954896868 0.4024662712
9.927055213 3.522688247 0.4354282137
6.867376583 -3.579822534 2.212452
7.498137919 -2.641977156 1.63283168
7.097231676 -3.149115338 2.510597662
6.912104045 -3.615175866 1.577562193
8.617542099 -0.5769243692 0.3565588691
8.080237214 -1.650171824 1.019862274
8.596064718 -0.5782680761 0.9568686653
8.366686842 -1.127242482 0
7.541227048 -2.22125122 3.116462053
7.72863648 -2.181004872 1.919301743
7.323083456 -2.694724982 2.813718572
7.87156114 -1.692471758 2.820461812
7.420419168 -2.669954415 2.216930961
6.956195956 -3.649757344 0.3247040947
7.525413517 -2.674504285 0.988228524
6.941692457 -3.638276382 0.9453698253
7.255275609 -3.175591337 0
7.226770661 -3.147888447 1.285926382
8.491703378 -0.5847721943 2.172690741
8.035199577 -1.658031619 1.603214149
8.554290503 -0.5805024272 1.565300121
8.189850753 -1.145497233 2.505195418
8.320322475 -1.132026154 1.287422867
7.96280455 -1.678624317 2.205212658
7.826010994 -2.16305624 -0.6639515132
7.826010994 -2.16305624 0.6639515132
8.100794211 -1.658206014 -0.3413847566
7.546877851 -2.678064878 -0.3310270238
8.100794211 -1.658206014 0.3413847566
7.546877851 -2.678064878 0.3310270238
-4.661943758 6.676097575 -0.3311973347
-5.251055441 5.958724617 -0.9693004649
-4.533932885 6.795322536 -0.8749275686
-6.2916178 4.442085353 -2.191708021
-5.790514064 5.218168778 -1.58557139
-4.246723696 6.993727618 -1.998067881
-5.12723933 6.058077281 -1.514401712
-4.395507297 6.901529706 -1.433215292
-4.839050458 6.427471793 -1.199104086
-7.998099798 0.6116611496 -4.709463751
-7.620306952 1.725079345 -4.050687024
-6.761992806 3.614790244 -2.798414375
-7.205336138 2.716939496 -3.415364091
-3.504663952 7.197362653 -4.448214749
-4.526733113 6.283721001 -3.883553155
-3.713374517 7.174968495 -3.816460792
-6.176060903 4.4870591 -2.773155033
-5.404947967 5.383242398 -3.327026772
-5.931812592 4.890001428 -2.463905131
-4.081021437 7.071347073 -2.603427187
-4.692453446 6.255613438 -3.279376781
-3.90566197 7.132197494 -3.19832761
-4.555514852 6.603023378 -2.342649095
-4.2239158 6.711275192 -3.546733791
-5.412882562 5.667804144 -1.842887244
-5.142207487 5.788746908 -3.002944527
-5.676404136 5.285092486 -2.152134664
-4.999876263 6.133448711 -2.08841423
-5.548021902 5.340325695 -2.735072073
-4.855046018 6.19959854 -2.679514339
-7.879231231 -11.2833872 -0.5597623049
-8.919167099 -10.12117681 -1.646402883
-7.592095975 -11.37880559 -1.465071107
-9.75012601 -6.88390384 -3.396491977
-9.531997428 -8.589836899 -2.610072653
-6.890930624 -11.34834646 -3.242157516
-8.649558256 -10.21986472 -2.554767778
-7.260280321 -11.39960349 -2.367313731
-8.173510219 -10.85647005 -2.02537452
-8.440858782 -0.6455215009 -4.970170348
-8.946550715 -2.025313409 -4.75567154
-9.664141908 -5.166205716 -3.999453181
-9.37097906 -3.533545506 -4.441889284
-5.094402277 -10.46213308 -6.465953841
-7.104142432 -9.861515552 -6.094751791
-5.575138122 -10.77226124 -5.729908458
-9.51501261 -6.91288907 -4.272400406
-8.628156763 -8.593507206 -5.311079536
-9.446726781 -7.787587138 -3.923899858
-6.473877821 -11.21754386 -4.129914479
-7.542732937 -10.05538405 -5.27132843
-6.038700954 -11.02737721 -4.94506287
-7.470387529 -10.8280063 -3.841606745
-6.612457502 -10.50636994 -5.552342324
-9.02950233 -9.454749875 -3.074213134
-8.359282112 -9.410310377 -4.881650639
-9.287684999 -8.647424147 -3.521304747
-8.337476212 -10.22774966 -3.482506976
-8.984665644 -8.648314957 -4.429273806
-7.965863049 -10.17192273 -4.396383512
-0.821961591 -6.328664686 -10.74799477
-2.551043522 -5.990147014 -11.26889307
-1.339052904 -6.939061259 -10.40005676
-0.8312430029 -5.624793489 -11.27732948
-5.695412413 -4.409142133 -10.65410028
-4.241182186 -5.331433167 -11.24763482
-2.390171058 -8.092290808 -9.561426712
-3.10326821 -6.595733191 -10.86219982
-1.866158817 -7.530986495 -10.00303752
-2.220562668 -6.810211604 -10.69293588
-0.8479738941 -4.067373341 -12.14902795
-2.563227319 -5.185521475 -11.69825051
-0.8410441937 -4.865171198 -11.75016984
-1.697608243 -5.44224076 -11.55545685
-8.131141946 -0.4033812434 -5.678006652
-7.935510196 -1.290862427 -6.993074301
-8.400129917 -1.081553555 -5.604682496
-6.790359463 -3.350337537 -9.617632953
-7.51581301 -2.283724154 -8.340171195
-8.888024333 -2.539257591 -5.396976492
-8.18378554 -2.045787509 -6.926327471
-8.655009703 -1.797354034 -5.512279151
-8.317282501 -1.551665686 -6.261832178
-4.501546185 -10.02534047 -7.283654729
-5.35165527 -8.694074396 -8.659160122
-3.990487736 -9.607036041 -7.919741096
-5.563977219 -9.871722216 -7.209389393
-6.246668832 -4.921631781 -10.10732249
-5.947243013 -6.932203786 -9.622841334
-5.584628138 -5.433781963 -10.49913339
-2.943390913 -8.645254557 -9.05240582
-4.81371441 -8.242948898 -9.279350369
-3.466435417 -9.142963342 -8.5126791
-3.328195121 -7.968037922 -9.77455228
-4.428562292 -8.983222356 -8.6469257
-7.455299168 -9.036919339 -6.699850559
-6.320602587 -8.311400047 -8.433153367
-6.569664439 -9.538459141 -7.013258867
-5.979646979 -9.145114879 -7.875516301
-4.008498844 -6.283551849 -10.88775853
-5.147952112 -7.366194018 -9.820036109
-4.827920261 -5.89565137 -10.76615187
-3.688528874 -7.172712339 -10.39653888
-5.401513876 -6.432831203 -10.22096616
-4.263990546 -7.725978554 -9.865604812
-0.8643188113 -0.5341784025 -12.91036424
-2.560855307 -1.58269562 -12.53949319
-0.8651394009 -1.431558853 -12.86046142
-5.625956476 -3.477032321 -10.79259136
-4.16484601 -2.574016392 -11.8201589
-4.980010157 -3.970258473 -11.22356028
-0.859646384 -3.193971528 -12.48325788
-2.574635793 -2.489513761 -12.47727257
-0.8629381846 -2.326876137 -12.7162671
-1.722454545 -3.76699752 -12.31486664
-1.729911673 -1.967381971 -12.7147442
-3.444199409 -4.832284014 -11.69317973
-3.425186979 -3.014191954 -12.13753594
-4.243300031 -4.430675556 -11.53143288
-2.591014557 -4.317860891 -12.05061733
-4.21784685 -3.502185362 -11.72236928
-2.59551815 -3.409738212 -12.31222705
-9.497176327 -5.869577767 -4.624528891
-8.850694935 -5.470030294 -6.37595683
-9.413512351 -5.007171924 -4.871923396
-9.226727888 -6.738345419 -5.200440476
-6.907420029 -4.269020352 -9.507484933
-7.986205189 -4.935746248 -8.018406067
-7.354643221 -3.705754168 -8.921544485
-6.876935074 -5.307399559 -9.416496883
-9.10338643 -3.351554305 -5.253753605
-8.754205395 -4.589212264 -6.566694327
-9.278210246 -4.160675027 -5.080839803
-8.780243664 -3.115092692 -6.05760848
