10.079917 2.0765771 -23.029593
28.311684 36.046787 3.7289357
30.724634 24.575792 9.6017512
24.359898 33.80096 9.0839392
32.108772 32.491329 0
30.940406 4.6933232 17.329532
31.400991 14.273833 13.954761
15.888275 26.525415 16.393608
26.334583 22.401534 13.84491
19.932045 30.256037 13.368046
25.634461 27.808161 11.720387
35.387699 21.870801 -6.5889091
35.387699 21.870801 6.5889091
34.321321 27.284443 -3.5694436
34.321321 27.284443 3.5694436
26.155815 -33.301907 3.4449859
34.720784 -27.772202 10.850587
23.314783 -32.350794 8.69421
31.712782 -32.09062 0
32.536123 -4.9353762 18.223284
36.682169 -16.674479 16.301743
16.007123 -26.723831 16.516236
29.160913 -24.805754 15.330799
19.742975 -29.969035 13.24124
26.824212 -29.098799 12.264356
42.738879 -26.41408 -7.9576407
42.738879 -26.41408 7.9576407
37.654275 -29.934044 -3.9160734
37.654275 -29.934044 3.9160734
3.3916065 -12.5231 22.358929
10.24563 -10.016602 22.539351
5.8190574 -15.604645 21.652471
3.2681086 -8.8923876 22.944205
25.934342 -2.6828326 20.36922
17.67658 -6.9062322 22.099246
27.721048 -7.4499753 19.978187
11.825155 -22.492782 19.133503
13.477406 -13.061964 21.8069
8.6842504 -18.993918 20.604527
17.248658 -21.72406 18.958109
9.6321268 -14.361709 21.800492
3.1633148 -1.9550361 23.478945
9.9540784 -6.1519588 22.965921
3.2035705 -5.3102437 23.313872
6.6346631 -7.5686547 23.019191
29.943513 -18.506109 17.935658
18.344184 -11.337329 21.564881
29.197259 -12.900245 19.234545
23.440469 -20.455982 18.611467
22.81594 -9.6163011 21.03247
18.000919 -16.377778 20.627218
3.3736551 12.456816 22.240586
10.083618 9.8582124 22.182941
5.7647997 15.459145 21.45058
3.2540207 8.854055 22.845299
25.444668 2.6321772 19.984622
17.246226 6.7380931 21.561217
26.240229 7.0520081 18.910981
21.590083 0 21.33588
11.66398 22.186209 18.872716
13.131306 12.726533 21.246899
8.5731123 18.75084 20.340837
16.662111 20.985326 18.313432
9.4689106 14.11835 21.431083
3.1599317 1.9529452 23.453835
9.8490285 6.0870343 22.723551
3.1945974 5.2953699 23.248571
6.4576189 0 23.363885
6.5816611 7.5081914 22.835299
26.693725 16.497629 15.98909
17.657783 10.91311 20.757969
26.638664 11.76978 17.548996
21.833638 19.053735 17.335661
21.737957 9.1619606 20.038751
17.238158 15.683795 19.753172
14.025486 -4.2253896 22.693713
13.865345 4.1771448 22.4346
17.654642 -2.3096403 22.207916
10.119324 -2.0846954 23.119627
17.499516 2.2893462 22.012783
10.079917 2.0765771 23.029593
35.833162 0 -15.795423
47.418345 0 -6.6046145
36.224829 5.1597637 -14.039503
39.008074 -5.5562013 -15.118193
35.833162 0 15.795423
47.418345 0 6.6046145
36.224829 5.1597637 14.039503
39.008074 -5.5562013 15.118193
36.023342 15.613534 -9.6496945
46.178125 6.2215719 -3.8451429
36.271048 10.454154 -11.925833
39.986855 17.502011 -3.6056125
41.647294 5.7227749 -9.4860811
44.681129 -19.366063 -11.968885
52.283727 -7.0441789 -4.353542
42.418977 -12.22613 -13.947258
51.388797 -22.492573 -4.633725
46.053957 -6.3282966 -10.489795
36.023342 15.613534 9.6496945
46.178125 6.2215719 3.8451429
36.271048 10.454154 11.925833
39.986855 17.502011 3.6056125
41.647294 5.7227749 9.4860811
43.985426 12.157273 0
44.681129 -19.366063 11.968885
52.283727 -7.0441789 4.353542
42.418977 -12.22613 13.947258
51.388797 -22.492573 4.633725
46.053957 -6.3282966 10.489795
55.672857 -15.387599 0
-26.155815 33.301907 -3.4449859
-34.720784 27.772202 -10.850587
-23.314783 32.350794 -8.69421
-32.536123 4.9353762 -18.223284
-36.682169 16.674479 -16.301743
-16.007123 26.723831 -16.516236
-29.160913 24.805754 -15.330799
-19.742975 29.969035 -13.24124
-26.824212 29.098799 -12.264356
-28.311684 -36.046787 -3.7289357
-30.724634 -24.575792 -9.6017512
-24.359898 -33.80096 -9.0839392
-30.940406 -4.6933232 -17.329532
-31.400991 -14.273833 -13.954761
-15.888275 -26.525415 -16.393608
-26.334583 -22.401534 -13.84491
-19.932045 -30.256037 -13.368046
-25.634461 -27.808161 -11.720387
-3.3736551 -12.456816 -22.240586
-10.083618 -9.8582124 -22.182941
-5.7647997 -15.459145 -21.45058
-3.2540207 -8.854055 -22.845299
-25.444668 -2.6321772 -19.984622
-17.246226 -6.7380931 -21.561217
-26.240229 -7.0520081 -18.910981
-11.66398 -22.186209 -18.872716
-13.131306 -12.726533 -21.246899
-8.5731123 -18.75084 -20.340837
-16.662111 -20.985326 -18.313432
-9.4689106 -14.11835 -21.431083
-3.1599317 -1.9529452 -23.453835
-9.8490285 -6.0870343 -22.723551
-3.1945974 -5.2953699 -23.248571
-6.5816611 -7.5081914 -22.835299
-26.693725 -16.497629 -15.98909
-17.657783 -10.91311 -20.757969
-26.638664 -11.76978 -17.548996
-21.833638 -19.053735 -17.335661
-21.737957 -9.1619606 -20.038751
-17.238158 -15.683795 -19.753172
-3.3916065 12.5231 -22.358929
-10.24563 10.016602 -22.539351
-5.8190574 15.604645 -21.652471
-3.2681086 8.8923876 -22.944205
-25.934342 2.6828326 -20.36922
-17.67658 6.9062322 -22.099246
-27.721048 7.4499753 -19.978187
-21.590083 0 -21.33588
-11.825155 22.492782 -19.133503
-13.477406 13.061964 -21.8069
-8.6842504 18.993918 -20.604527
-17.248658 21.72406 -18.958109
-9.6321268 14.361709 -21.800492
-3.1633148 1.9550361 -23.478945
-9.9540784 6.1519588 -22.965921
-3.2035705 5.3102437 -23.313872
-6.4576189 0 -23.363885
-6.6346631 7.5686547 -23.019191
-29.943513 18.506109 -17.935658
-18.344184 11.337329 -21.564881
-29.197259 12.900245 -19.234545
-23.440469 20.455982 -18.611467
-22.81594 9.6163011 -21.03247
-18.000919 16.377778 -20.627218
-13.865345 -4.1771448 -22.4346
-14.025486 4.2253896 -22.693713
-17.499516 -2.2893462 -22.012783
-10.079917 -2.0765771 -23.029593
-17.654642 2.3096403 -22.207916
-10.119324 2.0846954 -23.119627
-26.155815 33.301907 3.4449859
-34.720784 27.772202 10.850587
-23.314783 32.350794 8.69421
-31.712782 32.09062 0
-32.536123 4.9353762 18.223284
-36.682169 16.674479 16.301743
-16.007123 26.723831 16.516236
-29.160913 24.805754 15.330799
-19.742975 29.969035 13.24124
-26.824212 29.098799 12.264356
-42.738879 26.41408 -7.9576407
-42.738879 26.41408 7.9576407
-37.654275 29.934044 -3.9160734
-37.654275 29.934044 3.9160734
-28.311684 -36.046787 3.7289357
-30.724634 -24.575792 9.6017512
-24.359898 -33.80096 9.0839392
-32.108772 -32.491329 0
-30.940406 -4.6933232 17.329532
-31.400991 -14.273833 13.954761
-15.888275 -26.525415 16.393608
-26.334583 -22.401534 13.84491
-19.932045 -30.256037 13.368046
-25.634461 -27.808161 11.720387
-35.387699 -21.870801 -6.5889091
-35.387699 -21.870801 6.5889091
-34.321321 -27.284443 -3.5694436
-34.321321 -27.284443 3.5694436
-3.3736551 -12.456816 22.240586
-10.083618 -9.8582124 22.182941
-5.7647997 -15.459145 21.45058
-3.2540207 -8.854055 22.845299
-25.444668 -2.6321772 19.984622
-17.246226 -6.7380931 21.561217
-26.240229 -7.0520081 18.910981
-11.66398 -22.186209 18.872716
-13.131306 -12.726533 21.246899
-8.5731123 -18.75084 20.340837
-16.662111 -20.985326 18.313432
-9.4689106 -14.11835 21.431083
-3.1599317 -1.9529452 23.453835
-9.8490285 -6.0870343 22.723551
-3.1945974 -5.2953699 23.248571
-6.5816611 -7.5081914 22.835299
-26.693725 -16.497629 15.98909
-17.657783 -10.91311 20.757969
-26.638664 -11.76978 17.548996
-21.833638 -19.053735 17.335661
-21.737957 -9.1619606 20.038751
-17.238158 -15.683795 19.753172
-3.3916065 12.5231 22.358929
-10.24563 10.016602 22.539351
-5.8190574 15.604645 21.652471
-3.2681086 8.8923876 22.944205
-25.934342 2.6828326 20.36922
-17.67658 6.9062322 22.099246
-27.721048 7.4499753 19.978187
-21.590083 0 21.33588
-11.825155 22.492782 19.133503
-13.477406 13.061964 21.8069
-8.6842504 18.993918 20.604527
-17.248658 21.72406 18.958109
-9.6321268 14.361709 21.800492
-3.1633148 1.9550361 23.478945
-9.9540784 6.1519588 22.965921
-3.2035705 5.3102437 23.313872
-6.4576189 0 23.363885
-6.6346631 7.5686547 23.019191
-29.943513 18.506109 17.935658
-18.344184 11.337329 21.564881
-29.197259 12.900245 19.234545
-23.440469 20.455982 18.611467
-22.81594 9.6163011 21.03247
-18.000919 16.377778 20.627218
-13.865345 -4.1771448 22.4346
-14.025486 4.2253896 22.693713
-17.499516 -2.2893462 22.012783
-10.079917 -2.0765771 23.029593
-17.654642 2.3096403 22.207916
-10.119324 2.0846954 23.119627
-35.833162 0 -15.795423
-47.418345 0 -6.6046145
-39.008074 5.5562013 -15.118193
-36.224829 -5.1597637 -14.039503
-35.833162 0 15.795423
-47.418345 0 6.6046145
-39.008074 5.5562013 15.118193
-36.224829 -5.1597637 14.039503
-44.681129 19.366063 -11.968885
-52.283727 7.0441789 -4.353542
-42.418977 12.22613 -13.947258
-51.388797 22.492573 -4.633725
-46.053957 6.3282966 -10.489795
-36.023342 -15.613534 -9.6496945
-46.178125 -6.2215719 -3.8451429
-36.271048 -10.454154 -11.925833
-39.986855 -17.502011 -3.6056125
-41.647294 -5.7227749 -9.4860811
-44.681129 19.366063 11.968885
-52.283727 7.0441789 4.353542
-42.418977 12.22613 13.947258
-51.388797 22.492573 4.633725
-46.053957 6.3282966 10.489795
-55.672857 15.387599 0
-36.023342 -15.613534 9.6496945
-46.178125 -6.2215719 3.8451429
-36.271048 -10.454154 11.925833
-39.986855 -17.502011 3.6056125
-41.647294 -5.7227749 9.4860811
-43.985426 -12.157273 0
-18.658559 35.459897 0
-13.251999 36.761685 0
-2.7191986 39.233858 0
-8.004176 38.002086 0
22.01924 41.846746 0
15.345239 42.568435 0
2.8061552 40.488507 0
8.7874124 41.720722 0
-22.01924 -41.846746 0
-15.345239 -42.568435 0
-2.8061552 -40.488507 0
-8.7874124 -41.720722 0
18.658559 -35.459897 0
13.251999 -36.761685 0
2.7191986 -39.233858 0
8.004176 -38.002086 0
-23.759548 -40.350928 3.0858699
-19.981767 -37.590462 8.5097004
-20.733009 -41.568277 3.0639647
-12.186191 -29.446295 15.741244
-15.932728 -33.613009 12.674566
-14.087695 -42.079196 2.93703
-17.106206 -38.590658 8.4556771
-17.429102 -42.09408 3.0129762
-18.99873 -40.339818 5.9263089
-1.0785697 -15.18198 21.741227
-3.3874155 -18.35087 20.823962
-8.8654358 -25.449528 17.968188
-5.956506 -21.753187 19.603062
-1.6552756 -40.005755 2.6782921
-4.8861589 -38.712406 7.9059711
-4.5207234 -40.612085 2.732026
-9.6944904 -30.091372 15.686015
-7.6501352 -35.13024 12.378179
-11.396447 -32.216721 14.294893
-10.672623 -41.712679 2.8724996
-7.788131 -39.03358 8.0544246
-7.5389851 -41.200194 2.795885
-12.500564 -40.866174 5.7158659
-6.2128592 -40.152303 5.4629441
-15.085456 -36.503845 10.752124
-9.2353532 -37.188883 10.494624
-13.210925 -34.383221 12.652228
-13.995792 -39.06053 8.3984412
-10.418579 -34.872635 12.547586
-10.846894 -39.167062 8.2567369
20.510824 -34.833609 2.6639285
18.094919 -34.040852 7.7061423
17.71586 -35.519098 2.6180845
11.986848 -28.964609 15.483747
15.168721 -32.001196 12.066795
12.323576 -36.809866 2.569243
15.383448 -34.70421 7.6041097
14.979627 -36.178205 2.5895344
16.610619 -35.269165 5.1813811
1.0803658 -15.207262 21.777432
3.4026824 -18.433576 20.917815
0 -16.78101 21.36579
8.862067 -25.439857 17.961361
5.9858884 -21.860492 19.69976
-2.3108588 -20.094053 20.333461
2.3164391 -20.142576 20.382562
-1.1326203 -18.417607 20.884032
1.1342702 -18.444435 20.914452
1.625231 -39.279619 2.629679
4.677288 -37.05755 7.568011
4.3047527 -38.671904 2.6015076
0 -38.994781 5.2537611
9.5079445 -29.51234 15.384177
7.3368676 -33.691682 11.871301
11.016741 -31.143327 13.818618
9.5824017 -37.451678 2.5790703
7.2862815 -36.518344 7.5354157
6.9644749 -38.060523 2.5828239
11.179703 -36.548086 5.111904
5.8412567 -37.750719 5.1361953
-3.1266401 -36.853776 10.186133
3.0530105 -35.985901 9.9462585
-1.6093902 -38.189574 7.8172806
1.5857321 -37.628187 7.7023665
13.961971 -33.785231 9.9513627
8.677489 -34.942477 9.8606933
12.524409 -32.596469 11.994745
12.655349 -35.319518 7.5940827
9.906736 -33.159415 11.931149
9.9488936 -35.92447 7.573172
-7.7999883 -27.63704 17.08063
-2.5710305 -27.789094 17.174605
-6.3149391 -25.656879 18.070582
-6.8924979 -30.199546 15.794998
7.738831 -27.420347 16.946706
2.5616946 -27.688187 17.11224
6.3022678 -25.605397 18.034322
6.7809476 -29.710788 15.539367
-3.5957803 -21.922735 19.666502
-1.2844218 -25.815358 18.139957
-4.9094489 -23.740633 18.930478
-1.201747 -21.96554 19.720424
-3.7787687 -25.772981 18.12428
-4.5856436 -34.919924 12.410412
-1.4072531 -30.147843 15.817886
-5.8163862 -32.687477 14.238245
-1.5218688 -34.696135 12.312178
-4.1140782 -30.208988 15.83312
3.604733 -21.977318 19.715468
1.283453 -25.795886 18.126275
4.9154517 -23.76966 18.953625
1.202664 -21.982303 19.735473
3.7716581 -25.724483 18.090175
0 -23.884189 18.98723
4.4659946 -34.00879 12.086599
1.4018577 -30.032257 15.75724
5.6827925 -31.936695 13.911214
1.5080617 -34.381355 12.200476
4.0701809 -29.886658 15.66418
0 -32.382038 14.173427
-20.510824 34.833609 2.6639285
-18.094919 34.040852 7.7061423
-17.71586 35.519098 2.6180845
-11.986848 28.964609 15.483747
-15.168721 32.001196 12.066795
-12.323576 36.809866 2.569243
-15.383448 34.70421 7.6041097
-14.979627 36.178205 2.5895344
-16.610619 35.269165 5.1813811
-1.0803658 15.207262 21.777432
-3.4026824 18.433576 20.917815
-8.862067 25.439857 17.961361
-5.9858884 21.860492 19.69976
-1.625231 39.279619 2.629679
-4.677288 37.05755 7.568011
-4.3047527 38.671904 2.6015076
-9.5079445 29.51234 15.384177
-7.3368676 33.691682 11.871301
-11.016741 31.143327 13.818618
-9.5824017 37.451678 2.5790703
-7.2862815 36.518344 7.5354157
-6.9644749 38.060523 2.5828239
-11.179703 36.548086 5.111904
-5.8412567 37.750719 5.1361953
-13.961971 33.785231 9.9513627
-8.677489 34.942477 9.8606933
-12.524409 32.596469 11.994745
-12.655349 35.319518 7.5940827
-9.906736 33.159415 11.931149
-9.9488936 35.92447 7.573172
23.759548 40.350928 3.0858699
19.981767 37.590462 8.5097004
20.733009 41.568277 3.0639647
12.186191 29.446295 15.741244
15.932728 33.613009 12.674566
14.087695 42.079196 2.93703
17.106206 38.590658 8.4556771
17.429102 42.09408 3.0129762
18.99873 40.339818 5.9263089
1.0785697 15.18198 21.741227
3.3874155 18.35087 20.823962
0 16.78101 21.36579
8.8654358 25.449528 17.968188
5.956506 21.753187 19.603062
-2.3164391 20.142576 20.382562
2.3108588 20.094053 20.333461
-1.1342702 18.444435 20.914452
1.1326203 18.417607 20.884032
1.6552756 40.005755 2.6782921
4.8861589 38.712406 7.9059711
4.5207234 40.612085 2.732026
0 38.994781 5.2537611
9.6944904 30.091372 15.686015
7.6501352 35.13024 12.378179
11.396447 32.216721 14.294893
10.672623 41.712679 2.8724996
7.788131 39.03358 8.0544246
7.5389851 41.200194 2.795885
12.500564 40.866174 5.7158659
6.2128592 40.152303 5.4629441
-3.0530105 35.985901 9.9462585
3.1266401 36.853776 10.186133
-1.5857321 37.628187 7.7023665
1.6093902 38.189574 7.8172806
15.085456 36.503845 10.752124
9.2353532 37.188883 10.494624
13.210925 34.383221 12.652228
13.995792 39.06053 8.3984412
10.418579 34.872635 12.547586
10.846894 39.167062 8.2567369
-7.738831 27.420347 16.946706
-2.5616946 27.688187 17.11224
-6.3022678 25.605397 18.034322
-6.7809476 29.710788 15.539367
7.7999883 27.63704 17.08063
2.5710305 27.789094 17.174605
6.3149391 25.656879 18.070582
6.8924979 30.199546 15.794998
-3.604733 21.977318 19.715468
-1.283453 25.795886 18.126275
-4.9154517 23.76966 18.953625
-1.202664 21.982303 19.735473
-3.7716581 25.724483 18.090175
-4.4659946 34.00879 12.086599
-1.4018577 30.032257 15.75724
-5.6827925 31.936695 13.911214
-1.5080617 34.381355 12.200476
-4.0701809 29.886658 15.66418
3.5957803 21.922735 19.666502
1.2844218 25.815358 18.139957
4.9094489 23.740633 18.930478
1.201747 21.96554 19.720424
3.7787687 25.772981 18.12428
0 23.884189 18.98723
4.5856436 34.919924 12.410412
1.4072531 30.147843 15.817886
5.8163862 32.687477 14.238245
1.5218688 34.696135 12.312178
4.1140782 30.208988 15.83312
0 32.382038 14.173427
0 -11.823076 22.469316
0 -8.2957174 23.012721
0 -1.6298373 23.516048
0 -4.9186076 23.352479
0 11.823076 22.469316
0 8.2957174 23.012721
0 1.6298373 23.516048
0 4.9186076 23.352479
-23.759548 -40.350928 -3.0858699
-19.981767 -37.590462 -8.5097004
-20.733009 -41.568277 -3.0639647
-12.186191 -29.446295 -15.741244
-15.932728 -33.613009 -12.674566
-14.087695 -42.079196 -2.93703
-17.106206 -38.590658 -8.4556771
-17.429102 -42.09408 -3.0129762
-18.99873 -40.339818 -5.9263089
-1.0785697 -15.18198 -21.741227
-3.3874155 -18.35087 -20.823962
-8.8654358 -25.449528 -17.968188
-5.956506 -21.753187 -19.603062
-1.6552756 -40.005755 -2.6782921
-4.8861589 -38.712406 -7.9059711
-4.5207234 -40.612085 -2.732026
-9.6944904 -30.091372 -15.686015
-7.6501352 -35.13024 -12.378179
-11.396447 -32.216721 -14.294893
-10.672623 -41.712679 -2.8724996
-7.788131 -39.03358 -8.0544246
-7.5389851 -41.200194 -2.795885
-12.500564 -40.866174 -5.7158659
-6.2128592 -40.152303 -5.4629441
-15.085456 -36.503845 -10.752124
-9.2353532 -37.188883 -10.494624
-13.210925 -34.383221 -12.652228
-13.995792 -39.06053 -8.3984412
-10.418579 -34.872635 -12.547586
-10.846894 -39.167062 -8.2567369
20.510824 -34.833609 -2.6639285
18.094919 -34.040852 -7.7061423
17.71586 -35.519098 -2.6180845
11.986848 -28.964609 -15.483747
15.168721 -32.001196 -12.066795
12.323576 -36.809866 -2.569243
15.383448 -34.70421 -7.6041097
14.979627 -36.178205 -2.5895344
16.610619 -35.269165 -5.1813811
1.0803658 -15.207262 -21.777432
3.4026824 -18.433576 -20.917815
0 -16.78101 -21.36579
8.862067 -25.439857 -17.961361
5.9858884 -21.860492 -19.69976
-2.3108588 -20.094053 -20.333461
2.3164391 -20.142576 -20.382562
-1.1326203 -18.417607 -20.884032
1.1342702 -18.444435 -20.914452
1.625231 -39.279619 -2.629679
4.677288 -37.05755 -7.568011
4.3047527 -38.671904 -2.6015076
0 -38.994781 -5.2537611
9.5079445 -29.51234 -15.384177
7.3368676 -33.691682 -11.871301
11.016741 -31.143327 -13.818618
9.5824017 -37.451678 -2.5790703
7.2862815 -36.518344 -7.5354157
6.9644749 -38.060523 -2.5828239
11.179703 -36.548086 -5.111904
5.8412567 -37.750719 -5.1361953
-3.1266401 -36.853776 -10.186133
3.0530105 -35.985901 -9.9462585
-1.6093902 -38.189574 -7.8172806
1.5857321 -37.628187 -7.7023665
13.961971 -33.785231 -9.9513627
8.677489 -34.942477 -9.8606933
12.524409 -32.596469 -11.994745
12.655349 -35.319518 -7.5940827
9.906736 -33.159415 -11.931149
9.9488936 -35.92447 -7.573172
-7.7999883 -27.63704 -17.08063
-2.5710305 -27.789094 -17.174605
-6.3149391 -25.656879 -18.070582
-6.8924979 -30.199546 -15.794998
7.738831 -27.420347 -16.946706
2.5616946 -27.688187 -17.11224
6.3022678 -25.605397 -18.034322
6.7809476 -29.710788 -15.539367
-3.5957803 -21.922735 -19.666502
-1.2844218 -25.815358 -18.139957
-4.9094489 -23.740633 -18.930478
-1.201747 -21.96554 -19.720424
-3.7787687 -25.772981 -18.12428
-4.5856436 -34.919924 -12.410412
-1.4072531 -30.147843 -15.817886
-5.8163862 -32.687477 -14.238245
-1.5218688 -34.696135 -12.312178
-4.1140782 -30.208988 -15.83312
3.604733 -21.977318 -19.715468
1.283453 -25.795886 -18.126275
4.9154517 -23.76966 -18.953625
1.202664 -21.982303 -19.735473
3.7716581 -25.724483 -18.090175
0 -23.884189 -18.98723
4.4659946 -34.00879 -12.086599
1.4018577 -30.032257 -15.75724
5.6827925 -31.936695 -13.911214
1.5080617 -34.381355 -12.200476
4.0701809 -29.886658 -15.66418
0 -32.382038 -14.173427
-20.510824 34.833609 -2.6639285
-18.094919 34.040852 -7.7061423
-17.71586 35.519098 -2.6180845
-11.986848 28.964609 -15.483747
-15.168721 32.001196 -12.066795
-12.323576 36.809866 -2.569243
-15.383448 34.70421 -7.6041097
-14.979627 36.178205 -2.5895344
-16.610619 35.269165 -5.1813811
-1.0803658 15.207262 -21.777432
-3.4026824 18.433576 -20.917815
-8.862067 25.439857 -17.961361
-5.9858884 21.860492 -19.69976
-1.625231 39.279619 -2.629679
-4.677288 37.05755 -7.568011
-4.3047527 38.671904 -2.6015076
-9.5079445 29.51234 -15.384177
-7.3368676 33.691682 -11.871301
-11.016741 31.143327 -13.818618
-9.5824017 37.451678 -2.5790703
-7.2862815 36.518344 -7.5354157
-6.9644749 38.060523 -2.5828239
-11.179703 36.548086 -5.111904
-5.8412567 37.750719 -5.1361953
-13.961971 33.785231 -9.9513627
-8.677489 34.942477 -9.8606933
-12.524409 32.596469 -11.994745
-12.655349 35.319518 -7.5940827
-9.906736 33.159415 -11.931149
-9.9488936 35.92447 -7.573172
23.759548 40.350928 -3.0858699
19.981767 37.590462 -8.5097004
20.733009 41.568277 -3.0639647
12.186191 29.446295 -15.741244
15.932728 33.613009 -12.674566
14.087695 42.079196 -2.93703
17.106206 38.590658 -8.4556771
17.429102 42.09408 -3.0129762
18.99873 40.339818 -5.9263089
1.0785697 15.18198 -21.741227
3.3874155 18.35087 -20.823962
0 16.78101 -21.36579
8.8654358 25.449528 -17.968188
5.956506 21.753187 -19.603062
-2.3164391 20.142576 -20.382562
2.3108588 20.094053 -20.333461
-1.1342702 18.444435 -20.914452
1.1326203 18.417607 -20.884032
1.6552756 40.005755 -2.6782921
4.8861589 38.712406 -7.9059711
4.5207234 40.612085 -2.732026
0 38.994781 -5.2537611
9.6944904 30.091372 -15.686015
7.6501352 35.13024 -12.378179
11.396447 32.216721 -14.294893
10.672623 41.712679 -2.8724996
7.788131 39.03358 -8.0544246
7.5389851 41.200194 -2.795885
12.500564 40.866174 -5.7158659
6.2128592 40.152303 -5.4629441
-3.0530105 35.985901 -9.9462585
3.1266401 36.853776 -10.186133
-1.5857321 37.628187 -7.7023665
1.6093902 38.189574 -7.8172806
15.085456 36.503845 -10.752124
9.2353532 37.188883 -10.494624
13.210925 34.383221 -12.652228
13.995792 39.06053 -8.3984412
10.418579 34.872635 -12.547586
10.846894 39.167062 -8.2567369
-7.738831 27.420347 -16.946706
-2.5616946 27.688187 -17.11224
-6.3022678 25.605397 -18.034322
-6.7809476 29.710788 -15.539367
7.7999883 27.63704 -17.08063
2.5710305 27.789094 -17.174605
6.3149391 25.656879 -18.070582
6.8924979 30.199546 -15.794998
-3.604733 21.977318 -19.715468
-1.283453 25.795886 -18.126275
-4.9154517 23.76966 -18.953625
-1.202664 21.982303 -19.735473
-3.7716581 25.724483 -18.090175
-4.4659946 34.00879 -12.086599
-1.4018577 30.032257 -15.75724
-5.6827925 31.936695 -13.911214
-1.5080617 34.381355 -12.200476
-4.0701809 29.886658 -15.66418
3.5957803 21.922735 -19.666502
1.2844218 25.815358 -18.139957
4.9094489 23.740633 -18.930478
1.201747 21.96554 -19.720424
3.7787687 25.772981 -18.12428
0 23.884189 -18.98723
4.5856436 34.919924 -12.410412
1.4072531 30.147843 -15.817886
5.8163862 32.687477 -14.238245
1.5218688 34.696135 -12.312178
4.1140782 30.208988 -15.83312
0 32.382038 -14.173427
0 -11.823076 -22.469316
0 -8.2957174 -23.012721
0 -1.6298373 -23.516048
0 -4.9186076 -23.352479
0 11.823076 -22.469316
0 8.2957174 -23.012721
0 1.6298373 -23.516048
0 4.9186076 -23.352479
26.935686 38.573024 -1.9135854
29.250192 33.192154 -5.3993383
25.355454 38.001993 -4.8929232
30.992701 21.881848 -10.79642
30.371875 27.369862 -8.316494
21.238329 34.976395 -9.9925556
27.245891 32.192317 -8.0474542
23.354234 36.669246 -7.6149674
26.47067 35.159684 -6.5593629
30.592072 2.3395535 -18.013311
31.185328 7.0597109 -16.577023
31.32812 16.74722 -12.964974
31.406348 11.842494 -14.886761
13.173752 27.054311 -16.720484
18.586785 25.800984 -15.945885
15.024616 29.030507 -15.441711
28.782299 20.911043 -12.923736
23.824024 23.72835 -14.664927
28.548123 23.534182 -11.858073
19.046995 33.003481 -12.150749
20.648912 27.527521 -14.430737
16.99835 31.040984 -13.919866
22.139973 32.090941 -11.385362
17.872091 28.396523 -15.006821
27.813306 29.123183 -9.4694067
23.432731 26.378972 -13.684238
28.231036 26.284886 -10.703429
25.081631 30.768141 -10.476426
26.025626 25.051329 -12.830152
22.853481 29.182506 -12.612904
23.820508 -34.11196 -1.6922746
28.473459 -32.310742 -5.2559599
22.685839 -34.000854 -4.3777591
36.138029 -25.514616 -12.588814
32.85979 -29.611867 -8.9977405
19.918865 -32.803433 -9.3717528
26.907513 -31.792508 -7.9475097
21.375958 -33.563091 -6.9699236
24.838427 -32.991656 -6.1548975
31.332911 -2.3962097 -18.449533
33.723399 -7.6342777 -17.926172
37.094798 -19.82994 -15.351483
35.883821 -13.530829 -17.009104
13.147874 -27.001167 -16.687639
19.009272 -26.387454 -16.308343
14.860654 -28.713701 -15.273198
32.974251 -23.956598 -14.805992
25.562697 -25.46004 -15.73517
32.037605 -26.410803 -13.307504
18.27551 -31.666697 -11.658591
21.056208 -28.070497 -14.715381
16.594687 -30.303848 -13.589309
21.605811 -31.316697 -11.110673
17.886359 -28.419193 -15.018802
28.916949 -30.278803 -9.8451566
24.544343 -27.63035 -14.333397
30.639958 -28.527746 -11.616741
25.156994 -30.860591 -10.507905
28.151842 -27.097948 -13.878337
23.170024 -29.586712 -12.787605
1.701285 -13.098985 -22.246055
5.081355 -11.931613 -22.446205
2.8224381 -14.626062 -21.921103
1.6649311 -11.266132 -22.58783
12.029534 -9.3127453 -22.502999
8.4988888 -10.683639 -22.539092
5.2668273 -17.831652 -21.068945
6.3217761 -13.436399 -22.127767
4.0167469 -16.209803 -21.530681
4.5765808 -14.03585 -22.038146
1.6119277 -7.7317377 -23.094289
4.9849636 -10.0848 -22.750753
1.6369738 -9.4693688 -22.870047
3.332291 -10.682753 -22.682586
28.051324 -1.39161 -19.588344
23.814882 -3.8739459 -20.986583
29.11342 -3.7484804 -19.424875
15.739365 -7.7657427 -22.292698
19.671611 -5.9773352 -21.829256
31.13693 -8.8956423 -18.906933
24.592121 -6.1475528 -20.813483
30.151968 -6.2615484 -19.203452
26.841658 -5.0075587 -20.208278
11.171165 -24.87917 -18.075325
12.372696 -20.100162 -20.019442
9.5886271 -23.084468 -19.030116
13.870594 -24.609491 -17.972488
13.698 -10.792394 -22.16383
13.188973 -15.373283 -21.340206
11.81437 -11.495253 -22.211085
6.663722 -19.572519 -20.494293
10.733505 -18.37993 -20.690874
8.0755642 -21.299859 -19.831521
7.2111545 -17.264238 -21.178388
10.211758 -20.714284 -19.938822
19.675078 -23.84909 -17.681394
14.959569 -19.671378 -19.959543
16.714939 -24.268326 -17.843558
14.475539 -22.138508 -19.065062
8.1690483 -12.805452 -22.188512
11.180533 -15.998202 -21.327556
9.9631733 -12.166604 -22.217649
7.7132704 -14.999224 -21.740731
11.532052 -13.73388 -21.821422
9.1911854 -16.653625 -21.265667
1.5747447 -0.97324576 -23.522024
4.7799166 -2.9541509 -23.405356
1.5796989 -2.613951 -23.482524
11.846687 -7.3216549 -22.726171
8.1583189 -5.0421184 -23.153947
10.110113 -8.0601768 -22.785388
1.6027962 -5.9551062 -23.274824
4.8124748 -4.6533658 -23.322351
1.5879636 -4.2818764 -23.40025
3.2387947 -7.0832241 -23.156097
3.1862069 -3.6235873 -23.418424
6.7143245 -9.420338 -22.795371
6.542793 -5.7577102 -23.185124
8.3923507 -8.7629399 -22.806737
4.944687 -8.2401971 -22.997374
8.2794285 -6.8746198 -23.010442
4.8880532 -6.4214468 -23.187209
33.425243 -20.657936 -16.275996
26.664433 -16.479526 -19.208805
33.289804 -17.707288 -17.228997
29.802734 -21.76515 -16.79765
16.014979 -9.8978016 -22.043277
20.876598 -12.902447 -20.960774
18.033337 -9.086384 -21.875325
15.865322 -12.244351 -21.724177
32.050086 -11.799741 -18.496771
26.378097 -13.828175 -19.786707
32.791961 -14.705066 -17.957203
28.506911 -10.113805 -19.667302
29.6769 -15.683467 -18.67793
22.959976 -23.296316 -17.460462
23.653343 -17.53627 -19.513591
26.275672 -22.627872 -17.180675
20.259416 -21.14805 -18.821575
26.628679 -19.579035 -18.340644
22.292529 -7.2484187 -21.289875
23.273996 -12.073514 -20.674546
20.13806 -8.2003894 -21.629095
25.248814 -8.597118 -20.582376
20.545103 -10.522268 -21.344144
25.854777 -11.174634 -20.247462
15.359087 -17.090916 -20.716705
20.761536 -15.560658 -20.461792
15.649663 -14.659809 -21.284495
17.701634 -19.053918 -19.889676
18.226286 -13.838681 -21.164514
20.614694 -18.346893 -19.748471
1.6967676 13.064203 -22.186985
5.0410526 11.836978 -22.268175
2.8099462 14.561328 -21.824082
1.6607866 11.238087 -22.531603
11.809034 9.142044 -22.090523
8.3866101 10.542497 -22.241329
5.2269434 17.696619 -20.909397
6.2564633 13.297582 -21.899156
3.992084 16.110274 -21.398482
4.5430519 13.93302 -21.876691
1.6088395 7.7169248 -23.050044
4.949138 10.012324 -22.58725
1.6333131 9.4481931 -22.818904
3.3159796 10.630462 -22.571556
27.728496 1.3755946 -19.362912
23.265183 3.7845267 -20.502167
28.191915 3.6298327 -18.810035
25.733534 0 -20.211501
15.381319 7.5890844 -21.785574
19.175691 5.8266469 -21.278941
28.808236 8.230348 -17.492906
23.681402 5.9198907 -20.042698
28.548889 5.9286428 -18.182469
25.880218 4.828193 -19.484438
21.694983 -2.4655932 -21.439544
21.41581 2.4338658 -21.163658
23.699335 -1.2853049 -20.90042
23.512001 1.2751451 -20.73521
11.119629 24.764395 -17.991938
12.124041 19.696208 -19.61711
9.5167618 22.911453 -18.887488
13.705046 24.315773 -17.757983
13.371242 10.534948 -21.635125
12.847877 14.975695 -20.788301
11.573715 11.261098 -21.758651
6.606713 19.405073 -20.318962
10.540667 18.049716 -20.31914
8.0057846 21.115811 -19.66016
7.1299217 17.069758 -20.939816
10.071928 20.430642 -19.665799
18.908756 22.920194 -16.992724
14.526941 19.102486 -19.382317
16.325237 23.702521 -17.427544
14.153267 21.645635 -18.640613
8.057679 12.630874 -21.886014
10.951812 15.670925 -20.891256
9.7945408 11.960678 -21.841602
7.6133007 14.804823 -21.458955
11.288078 13.443324 -21.359765
9.047989 16.394166 -20.934353
1.5743269 0.97298753 -23.515783
4.768263 2.9469486 -23.348293
1.578583 2.6121044 -23.465936
3.1655049 0 -23.4952
11.668991 7.2118331 -22.385287
8.1005219 5.0063979 -22.989915
9.9747982 7.9522985 -22.480426
1.6003244 5.9459222 -23.23893
4.794344 4.6358344 -23.234485
1.5861582 4.2770081 -23.373645
3.227092 7.0576304 -23.072428
3.1799644 3.6164879 -23.372542
6.4568953 -1.9819482 -23.361267
6.4422913 1.9774655 -23.308429
4.7989225 -0.98798277 -23.444061
4.794927 0.9871602 -23.424542
6.6508476 9.3312786 -22.579864
6.5017028 5.7215505 -23.039516
8.295819 8.6621456 -22.544406
4.9137837 8.1886975 -22.853645
8.20151 6.8099221 -22.793888
4.8632218 6.3888257 -23.069417
28.965532 17.901683 -14.104397
24.39261 15.075462 -17.572205
29.041017 15.447301 -15.030055
26.557677 19.395261 -14.968645
15.566884 9.6208633 -21.426511
19.839687 12.261601 -19.919682
17.469527 8.8022994 -21.191396
15.366405 11.859302 -21.041017
28.964327 10.663671 -16.715915
24.350215 12.7651 -18.265555
29.043733 13.024229 -15.904636
26.475945 9.3932499 -18.266112
26.697423 14.108891 -16.802718
21.584273 21.90046 -16.414276
22.00121 16.311401 -18.15061
24.084437 20.740841 -15.747908
19.252469 20.096936 -17.886093
24.272515 17.846639 -16.717824
21.483809 6.9854631 -20.517529
21.94179 11.382425 -19.491133
19.450171 7.9202753 -20.890274
23.95433 8.1563514 -19.527136
19.670982 10.074583 -20.436026
24.176058 10.449079 -18.932819
14.860093 16.535658 -20.043651
19.649891 14.727487 -19.366197
15.131554 14.17447 -20.579834
16.987223 18.284932 -19.086959
17.475145 13.268362 -20.292283
19.496817 17.351993 -18.677567
13.965822 -6.3775897 -22.597175
14.042174 -2.1021071 -22.720715
15.797316 -5.5205245 -22.429263
11.958448 -5.218334 -22.864181
13.736122 6.2726956 -22.225513
13.960005 2.0898063 -22.587762
15.527438 5.4262128 -22.046085
11.822797 5.1591396 -22.60482
19.625013 -3.5881945 -21.876486
15.791681 -1.1181492 -22.473475
17.695873 -4.5892653 -22.19232
19.597764 -1.1942722 -21.828916
15.81358 -3.2970061 -22.487133
8.2580523 -3.0513478 -23.236178
12.035952 -1.0707898 -22.939728
10.051299 -4.1060001 -23.075288
8.2549587 -1.020369 -23.262754
12.020128 -3.1233105 -22.933946
19.31651 3.5317884 -21.53259
15.733634 1.1140391 -22.390868
17.395889 4.5114671 -21.816111
19.49225 1.1878423 -21.71139
15.645963 3.2620593 -22.248779
17.603687 0 -22.14382
8.220997 3.0376559 -23.131913
12.006135 1.0681371 -22.882898
9.9767726 4.0755558 -22.904194
8.242342 1.0188095 -23.2272
11.935173 3.1012356 -22.771854
10.113178 0 -23.105584
26.935686 38.573024 1.9135854
29.250192 33.192154 5.3993383
25.355454 38.001993 4.8929232
28.945474 36.853736 0
30.992701 21.881848 10.79642
30.371875 27.369862 8.316494
21.238329 34.976395 9.9925556
27.245891 32.192317 8.0474542
23.354234 36.669246 7.6149674
26.47067 35.159684 6.5593629
31.466014 31.840912 -3.6186585
31.466014 31.840912 3.6186585
30.436481 34.512433 -1.8717403
30.436481 34.512433 1.8717403
30.592072 2.3395535 18.013311
31.185328 7.0597109 16.577023
31.32812 16.74722 12.964974
31.406348 11.842494 14.886761
13.173752 27.054311 16.720484
18.586785 25.800984 15.945885
15.024616 29.030507 15.441711
28.782299 20.911043 12.923736
23.824024 23.72835 14.664927
28.548123 23.534182 11.858073
19.046995 33.003481 12.150749
20.648912 27.527521 14.430737
16.99835 31.040984 13.919866
22.139973 32.090941 11.385362
17.872091 28.396523 15.006821
27.813306 29.123183 9.4694067
23.432731 26.378972 13.684238
28.231036 26.284886 10.703429
25.081631 30.768141 10.476426
26.025626 25.051329 12.830152
22.853481 29.182506 12.612904
33.359321 20.617194 -9.4149846
36.992753 22.862779 -3.4225475
33.086329 23.303272 -8.1435531
33.359321 20.617194 9.4149846
36.992753 22.862779 3.4225475
33.086329 23.303272 8.1435531
32.21905 28.903146 -5.284588
36.148805 25.401073 -1.7985539
32.716777 26.087941 -6.7656725
33.407562 29.992946 -1.8277463
34.951493 24.578866 -5.1244988
32.21905 28.903146 5.284588
36.148805 25.401073 1.7985539
32.716777 26.087941 6.7656725
33.407562 29.992946 1.8277463
34.951493 24.578866 5.1244988
34.983163 27.810588 0
23.820508 -34.11196 1.6922746
28.473459 -32.310742 5.2559599
22.685839 -34.000854 4.3777591
26.33868 -33.534733 0
36.138029 -25.514616 12.588814
32.85979 -29.611867 8.9977405
19.918865 -32.803433 9.3717528
26.907513 -31.792508 7.9475097
21.375958 -33.563091 6.9699236
24.838427 -32.991656 6.1548975
31.473255 -31.84824 -3.6194913
31.473255 -31.84824 3.6194913
28.911743 -32.783508 -1.7779741
28.911743 -32.783508 1.7779741
31.332911 -2.3962097 18.449533
33.723399 -7.6342777 17.926172
37.094798 -19.82994 15.351483
35.883821 -13.530829 17.009104
13.147874 -27.001167 16.687639
19.009272 -26.387454 16.308343
14.860654 -28.713701 15.273198
32.974251 -23.956598 14.805992
25.562697 -25.46004 15.73517
32.037605 -26.410803 13.307504
18.27551 -31.666697 11.658591
21.056208 -28.070497 14.715381
16.594687 -30.303848 13.589309
21.605811 -31.316697 11.110673
17.886359 -28.419193 15.018802
28.916949 -30.278803 9.8451566
24.544343 -27.63035 14.333397
30.639958 -28.527746 11.616741
25.156994 -30.860591 10.507905
28.151842 -27.097948 13.878337
23.170024 -29.586712 12.787605
40.188287 -24.837727 -11.34232
44.30377 -27.381236 -4.0989585
38.663518 -27.231382 -9.516269
40.188287 -24.837727 11.34232
44.30377 -27.381236 4.0989585
38.663518 -27.231382 9.516269
34.134941 -30.621859 -5.5988337
41.251753 -28.986817 -2.0524469
36.54203 -29.13815 -7.5567166
34.693221 -31.147197 -1.8980855
40.40129 -28.411316 -5.9235341
34.134941 -30.621859 5.5988337
41.251753 -28.986817 2.0524469
36.54203 -29.13815 7.5567166
34.693221 -31.147197 1.8980855
40.40129 -28.411316 5.9235341
38.001144 -30.209795 0
1.701285 -13.098985 22.246055
5.081355 -11.931613 22.446205
2.8224381 -14.626062 21.921103
1.6649311 -11.266132 22.58783
12.029534 -9.3127453 22.502999
8.4988888 -10.683639 22.539092
5.2668273 -17.831652 21.068945
6.3217761 -13.436399 22.127767
4.0167469 -16.209803 21.530681
4.5765808 -14.03585 22.038146
1.6119277 -7.7317377 23.094289
4.9849636 -10.0848 22.750753
1.6369738 -9.4693688 22.870047
3.332291 -10.682753 22.682586
28.051324 -1.39161 19.588344
23.814882 -3.8739459 20.986583
29.11342 -3.7484804 19.424875
15.739365 -7.7657427 22.292698
19.671611 -5.9773352 21.829256
31.13693 -8.8956423 18.906933
24.592121 -6.1475528 20.813483
30.151968 -6.2615484 19.203452
26.841658 -5.0075587 20.208278
11.171165 -24.87917 18.075325
12.372696 -20.100162 20.019442
9.5886271 -23.084468 19.030116
13.870594 -24.609491 17.972488
13.698 -10.792394 22.16383
13.188973 -15.373283 21.340206
11.81437 -11.495253 22.211085
6.663722 -19.572519 20.494293
10.733505 -18.37993 20.690874
8.0755642 -21.299859 19.831521
7.2111545 -17.264238 21.178388
10.211758 -20.714284 19.938822
19.675078 -23.84909 17.681394
14.959569 -19.671378 19.959543
16.714939 -24.268326 17.843558
14.475539 -22.138508 19.065062
8.1690483 -12.805452 22.188512
11.180533 -15.998202 21.327556
9.9631733 -12.166604 22.217649
7.7132704 -14.999224 21.740731
11.532052 -13.73388 21.821422
9.1911854 -16.653625 21.265667
1.5747447 -0.97324576 23.522024
4.7799166 -2.9541509 23.405356
1.5796989 -2.613951 23.482524
11.846687 -7.3216549 22.726171
8.1583189 -5.0421184 23.153947
10.110113 -8.0601768 22.785388
1.6027962 -5.9551062 23.274824
4.8124748 -4.6533658 23.322351
1.5879636 -4.2818764 23.40025
3.2387947 -7.0832241 23.156097
3.1862069 -3.6235873 23.418424
6.7143245 -9.420338 22.795371
6.542793 -5.7577102 23.185124
8.3923507 -8.7629399 22.806737
4.944687 -8.2401971 22.997374
8.2794285 -6.8746198 23.010442
4.8880532 -6.4214468 23.187209
33.425243 -20.657936 16.275996
26.664433 -16.479526 19.208805
33.289804 -17.707288 17.228997
29.802734 -21.76515 16.79765
16.014979 -9.8978016 22.043277
20.876598 -12.902447 20.960774
18.033337 -9.086384 21.875325
15.865322 -12.244351 21.724177
32.050086 -11.799741 18.496771
26.378097 -13.828175 19.786707
32.791961 -14.705066 17.957203
28.506911 -10.113805 19.667302
29.6769 -15.683467 18.67793
22.959976 -23.296316 17.460462
23.653343 -17.53627 19.513591
26.275672 -22.627872 17.180675
20.259416 -21.14805 18.821575
26.628679 -19.579035 18.340644
22.292529 -7.2484187 21.289875
23.273996 -12.073514 20.674546
20.13806 -8.2003894 21.629095
25.248814 -8.597118 20.582376
20.545103 -10.522268 21.344144
25.854777 -11.174634 20.247462
15.359087 -17.090916 20.716705
20.761536 -15.560658 20.461792
15.649663 -14.659809 21.284495
17.701634 -19.053918 19.889676
18.226286 -13.838681 21.164514
20.614694 -18.346893 19.748471
1.6967676 13.064203 22.186985
5.0410526 11.836978 22.268175
2.8099462 14.561328 21.824082
1.6607866 11.238087 22.531603
11.809034 9.142044 22.090523
8.3866101 10.542497 22.241329
5.2269434 17.696619 20.909397
6.2564633 13.297582 21.899156
3.992084 16.110274 21.398482
4.5430519 13.93302 21.876691
1.6088395 7.7169248 23.050044
4.949138 10.012324 22.58725
1.6333131 9.4481931 22.818904
3.3159796 10.630462 22.571556
27.728496 1.3755946 19.362912
23.265183 3.7845267 20.502167
28.191915 3.6298327 18.810035
25.733534 0 20.211501
15.381319 7.5890844 21.785574
19.175691 5.8266469 21.278941
28.808236 8.230348 17.492906
23.681402 5.9198907 20.042698
28.548889 5.9286428 18.182469
25.880218 4.828193 19.484438
21.694983 -2.4655932 21.439544
21.41581 2.4338658 21.163658
23.699335 -1.2853049 20.90042
23.512001 1.2751451 20.73521
11.119629 24.764395 17.991938
12.124041 19.696208 19.61711
9.5167618 22.911453 18.887488
13.705046 24.315773 17.757983
13.371242 10.534948 21.635125
12.847877 14.975695 20.788301
11.573715 11.261098 21.758651
6.606713 19.405073 20.318962
10.540667 18.049716 20.31914
8.0057846 21.115811 19.66016
7.1299217 17.069758 20.939816
10.071928 20.430642 19.665799
18.908756 22.920194 16.992724
14.526941 19.102486 19.382317
16.325237 23.702521 17.427544
14.153267 21.645635 18.640613
8.057679 12.630874 21.886014
10.951812 15.670925 20.891256
9.7945408 11.960678 21.841602
7.6133007 14.804823 21.458955
11.288078 13.443324 21.359765
9.047989 16.394166 20.934353
1.5743269 0.97298753 23.515783
4.768263 2.9469486 23.348293
1.578583 2.6121044 23.465936
3.1655049 0 23.4952
11.668991 7.2118331 22.385287
8.1005219 5.0063979 22.989915
9.9747982 7.9522985 22.480426
1.6003244 5.9459222 23.23893
4.794344 4.6358344 23.234485
1.5861582 4.2770081 23.373645
3.227092 7.0576304 23.072428
3.1799644 3.6164879 23.372542
6.4568953 -1.9819482 23.361267
6.4422913 1.9774655 23.308429
4.7989225 -0.98798277 23.444061
4.794927 0.9871602 23.424542
6.6508476 9.3312786 22.579864
6.5017028 5.7215505 23.039516
8.295819 8.6621456 22.544406
4.9137837 8.1886975 22.853645
8.20151 6.8099221 22.793888
4.8632218 6.3888257 23.069417
28.965532 17.901683 14.104397
24.39261 15.075462 17.572205
29.041017 15.447301 15.030055
26.557677 19.395261 14.968645
15.566884 9.6208633 21.426511
19.839687 12.261601 19.919682
17.469527 8.8022994 21.191396
15.366405 11.859302 21.041017
28.964327 10.663671 16.715915
24.350215 12.7651 18.265555
29.043733 13.024229 15.904636
26.475945 9.3932499 18.266112
26.697423 14.108891 16.802718
21.584273 21.90046 16.414276
22.00121 16.311401 18.15061
24.084437 20.740841 15.747908
19.252469 20.096936 17.886093
24.272515 17.846639 16.717824
21.483809 6.9854631 20.517529
21.94179 11.382425 19.491133
19.450171 7.9202753 20.890274
23.95433 8.1563514 19.527136
19.670982 10.074583 20.436026
24.176058 10.449079 18.932819
14.860093 16.535658 20.043651
19.649891 14.727487 19.366197
15.131554 14.17447 20.579834
16.987223 18.284932 19.086959
17.475145 13.268362 20.292283
19.496817 17.351993 18.677567
13.965822 -6.3775897 22.597175
14.042174 -2.1021071 22.720715
15.797316 -5.5205245 22.429263
11.958448 -5.218334 22.864181
13.736122 6.2726956 22.225513
13.960005 2.0898063 22.587762
15.527438 5.4262128 22.046085
11.822797 5.1591396 22.60482
19.625013 -3.5881945 21.876486
15.791681 -1.1181492 22.473475
17.695873 -4.5892653 22.19232
19.597764 -1.1942722 21.828916
15.81358 -3.2970061 22.487133
8.2580523 -3.0513478 23.236178
12.035952 -1.0707898 22.939728
10.051299 -4.1060001 23.075288
8.2549587 -1.020369 23.262754
12.020128 -3.1233105 22.933946
19.31651 3.5317884 21.53259
15.733634 1.1140391 22.390868
17.395889 4.5114671 21.816111
19.49225 1.1878423 21.71139
15.645963 3.2620593 22.248779
17.603687 0 22.14382
8.220997 3.0376559 23.131913
12.006135 1.0681371 22.882898
9.9767726 4.0755558 22.904194
8.242342 1.0188095 23.2272
11.935173 3.1012356 22.771854
10.113178 0 23.105584
32.95391 0 -17.33994
38.748679 0 -13.968279
33.32086 2.4560542 -16.619445
34.316179 -2.5294183 -17.11588
49.646851 0 -3.4408966
44.624998 0 -9.3991246
33.729075 7.3904458 -14.951197
38.864453 2.7126485 -13.011431
33.578405 4.9329921 -15.814326
36.097807 2.5837798 -14.946338
37.116549 -8.1326821 -16.452773
40.522585 -2.8283822 -13.566557
35.721177 -5.247786 -16.823501
37.404207 -2.6772882 -15.487255
32.95391 0 17.33994
38.748679 0 13.968279
33.32086 2.4560542 16.619445
34.316179 -2.5294183 17.11588
49.646851 0 3.4408966
44.624998 0 9.3991246
33.729075 7.3904458 14.951197
38.864453 2.7126485 13.011431
33.578405 4.9329921 15.814326
36.097807 2.5837798 14.946338
37.116549 -8.1326821 16.452773
40.522585 -2.8283822 13.566557
35.721177 -5.247786 16.823501
37.404207 -2.6772882 15.487255
33.595055 17.512413 -10.823266
38.501934 13.566199 -8.384372
33.728362 14.965624 -11.93118
35.775306 18.711238 -8.1650638
48.563354 3.2512034 -2.0093542
43.622478 8.9087216 -5.5058927
46.925481 3.1567361 -5.2234975
33.81304 9.9595537 -13.973463
38.704089 10.922212 -9.6116341
33.801594 12.438203 -12.987449
36.301272 7.8051707 -13.007122
36.187572 13.020716 -10.811431
39.001114 20.462995 -1.8205096
40.646359 14.445567 -5.3376325
37.737267 19.778838 -5.1393336
38.224574 16.650133 -6.8016532
41.748153 2.8749425 -10.6817
41.408899 8.5445625 -8.262064
44.462362 3.0172589 -8.1359103
38.944857 5.4471354 -11.912852
44.126405 6.0036428 -6.8277813
38.886862 8.1976686 -10.769296
40.933091 -21.33758 -13.18735
47.877661 -16.869747 -10.426077
40.651164 -18.037343 -14.380074
44.503722 -23.276383 -10.157166
51.855661 -3.4716157 -2.1455765
51.7543 -10.569428 -6.5322659
49.877928 -3.3553509 -5.5521484
38.553134 -11.355738 -15.932338
46.382124 -13.088937 -11.51837
39.761886 -14.631452 -15.277548
40.748939 -8.7614676 -14.600766
43.832381 -15.771408 -13.095401
48.710594 -25.557337 -2.2737326
51.854643 -18.428949 -6.8094912
47.255273 -24.76741 -6.4355644
48.564532 -21.154086 -8.641538
43.828639 -3.018213 -11.214014
48.282067 -9.9628133 -9.633425
46.969935 -3.1874252 -8.5947566
42.50686 -5.9453452 -13.002433
49.415454 -6.7232474 -7.6461683
44.522817 -9.385774 -12.330113
33.595055 17.512413 10.823266
38.501934 13.566199 8.384372
33.728362 14.965624 11.93118
35.775306 18.711238 8.1650638
48.563354 3.2512034 2.0093542
43.622478 8.9087216 5.5058927
46.925481 3.1567361 5.2234975
47.20433 6.3598323 0
33.81304 9.9595537 13.973463
38.704089 10.922212 9.6116341
33.801594 12.438203 12.987449
36.301272 7.8051707 13.007122
36.187572 13.020716 10.811431
39.001114 20.462995 1.8205096
40.646359 14.445567 5.3376325
37.737267 19.778838 5.1393336
40.757101 17.839143 0
38.224574 16.650133 6.8016532
41.748153 2.8749425 10.6817
41.408899 8.5445625 8.262064
44.462362 3.0172589 8.1359103
38.944857 5.4471354 11.912852
44.126405 6.0036428 6.8277813
38.886862 8.1976686 10.769296
43.126771 11.919946 -3.6588353
43.126771 11.919946 3.6588353
45.321027 9.2770656 -1.9099248
42.143626 14.954974 -1.8485365
45.321027 9.2770656 1.9099248
42.143626 14.954974 1.8485365
40.933091 -21.33758 13.18735
47.877661 -16.869747 10.426077
40.651164 -18.037343 14.380074
44.503722 -23.276383 10.157166
51.855661 -3.4716157 2.1455765
51.7543 -10.569428 6.5322659
49.877928 -3.3553509 5.5521484
53.807824 -7.2495202 0
38.553134 -11.355738 15.932338
46.382124 -13.088937 11.51837
39.761886 -14.631452 15.277548
40.748939 -8.7614676 14.600766
43.832381 -15.771408 13.095401
48.710594 -25.557337 2.2737326
51.854643 -18.428949 6.8094912
47.255273 -24.76741 6.4355644
52.514462 -22.98527 0
48.564532 -21.154086 8.641538
43.828639 -3.018213 11.214014
48.282067 -9.9628133 9.633425
46.969935 -3.1874252 8.5947566
42.50686 -5.9453452 13.002433
49.415454 -6.7232474 7.6461683
44.522817 -9.385774 12.330113
54.052829 -14.939834 -4.5857919
54.052829 -14.939834 4.5857919
54.660099 -11.188743 -2.3034932
54.545907 -19.356015 -2.392535
54.660099 -11.188743 2.3034932
54.545907 -19.356015 2.392535
-23.820508 34.11196 -1.6922746
-28.473459 32.310742 -5.2559599
-22.685839 34.000854 -4.3777591
-36.138029 25.514616 -12.588814
-32.85979 29.611867 -8.9977405
-19.918865 32.803433 -9.3717528
-26.907513 31.792508 -7.9475097
-21.375958 33.563091 -6.9699236
-24.838427 32.991656 -6.1548975
-31.332911 2.3962097 -18.449533
-33.723399 7.6342777 -17.926172
-37.094798 19.82994 -15.351483
-35.883821 13.530829 -17.009104
-13.147874 27.001167 -16.687639
-19.009272 26.387454 -16.308343
-14.860654 28.713701 -15.273198
-32.974251 23.956598 -14.805992
-25.562697 25.46004 -15.73517
-32.037605 26.410803 -13.307504
-18.27551 31.666697 -11.658591
-21.056208 28.070497 -14.715381
-16.594687 30.303848 -13.589309
-21.605811 31.316697 -11.110673
-17.886359 28.419193 -15.018802
-28.916949 30.278803 -9.8451566
-24.544343 27.63035 -14.333397
-30.639958 28.527746 -11.616741
-25.156994 30.860591 -10.507905
-28.151842 27.097948 -13.878337
-23.170024 29.586712 -12.787605
-26.935686 -38.573024 -1.9135854
-29.250192 -33.192154 -5.3993383
-25.355454 -38.001993 -4.8929232
-30.992701 -21.881848 -10.79642
-30.371875 -27.369862 -8.316494
-21.238329 -34.976395 -9.9925556
-27.245891 -32.192317 -8.0474542
-23.354234 -36.669246 -7.6149674
-26.47067 -35.159684 -6.5593629
-30.592072 -2.3395535 -18.013311
-31.185328 -7.0597109 -16.577023
-31.32812 -16.74722 -12.964974
-31.406348 -11.842494 -14.886761
-13.173752 -27.054311 -16.720484
-18.586785 -25.800984 -15.945885
-15.024616 -29.030507 -15.441711
-28.782299 -20.911043 -12.923736
-23.824024 -23.72835 -14.664927
-28.548123 -23.534182 -11.858073
-19.046995 -33.003481 -12.150749
-20.648912 -27.527521 -14.430737
-16.99835 -31.040984 -13.919866
-22.139973 -32.090941 -11.385362
-17.872091 -28.396523 -15.006821
-27.813306 -29.123183 -9.4694067
-23.432731 -26.378972 -13.684238
-28.231036 -26.284886 -10.703429
-25.081631 -30.768141 -10.476426
-26.025626 -25.051329 -12.830152
-22.853481 -29.182506 -12.612904
-1.6967676 -13.064203 -22.186985
-5.0410526 -11.836978 -22.268175
-2.8099462 -14.561328 -21.824082
-1.6607866 -11.238087 -22.531603
-11.809034 -9.142044 -22.090523
-8.3866101 -10.542497 -22.241329
-5.2269434 -17.696619 -20.909397
-6.2564633 -13.297582 -21.899156
-3.992084 -16.110274 -21.398482
-4.5430519 -13.93302 -21.876691
-1.6088395 -7.7169248 -23.050044
-4.949138 -10.012324 -22.58725
-1.6333131 -9.4481931 -22.818904
-3.3159796 -10.630462 -22.571556
-27.728496 -1.3755946 -19.362912
-23.265183 -3.7845267 -20.502167
-28.191915 -3.6298327 -18.810035
-15.381319 -7.5890844 -21.785574
-19.175691 -5.8266469 -21.278941
-28.808236 -8.230348 -17.492906
-23.681402 -5.9198907 -20.042698
-28.548889 -5.9286428 -18.182469
-25.880218 -4.828193 -19.484438
-11.119629 -24.764395 -17.991938
-12.124041 -19.696208 -19.61711
-9.5167618 -22.911453 -18.887488
-13.705046 -24.315773 -17.757983
-13.371242 -10.534948 -21.635125
-12.847877 -14.975695 -20.788301
-11.573715 -11.261098 -21.758651
-6.606713 -19.405073 -20.318962
-10.540667 -18.049716 -20.31914
-8.0057846 -21.115811 -19.66016
-7.1299217 -17.069758 -20.939816
-10.071928 -20.430642 -19.665799
-18.908756 -22.920194 -16.992724
-14.526941 -19.102486 -19.382317
-16.325237 -23.702521 -17.427544
-14.153267 -21.645635 -18.640613
-8.057679 -12.630874 -21.886014
-10.951812 -15.670925 -20.891256
-9.7945408 -11.960678 -21.841602
-7.6133007 -14.804823 -21.458955
-11.288078 -13.443324 -21.359765
-9.047989 -16.394166 -20.934353
-1.5743269 -0.97298753 -23.515783
-4.768263 -2.9469486 -23.348293
-1.578583 -2.6121044 -23.465936
