-13.848519 33.463088 17.88852
-16.287759 34.36201 12.956995
-13.304061 39.738522 2.7736564
-16.13545 36.400686 7.9758279
-15.658676 37.818217 2.7069219
-17.081017 36.267957 5.3281133
-1.7112735 24.087937 34.494929
-5.0231181 27.21207 30.87936
-11.125663 31.937841 22.549147
-8.1703743 29.838245 26.888977
-2.019835 48.816659 3.2681616
-5.6202228 44.5283 9.0937114
-5.1555979 46.315503 3.1157021
-11.322673 35.145196 18.32047
-8.6837963 39.876922 14.050678
-12.636815 35.723129 15.850723
-10.70637 41.844576 2.8815826
-8.4552083 42.376925 8.7443108
-8.0495877 43.990613 2.9852456
-12.276743 40.134472 5.6135244
-6.8724034 44.414787 6.0428789
-15.027109 36.362657 10.710538
-9.9752336 40.16823 11.33539
-13.882717 36.131649 13.29561
-13.719651 38.289855 8.2327377
-11.344573 37.972085 13.662804
-11.156151 40.283757 8.4921453
39.598032 67.249485 5.1429588
34.06083 64.076533 14.505597
34.104811 68.377832 5.0400757
20.316822 49.092874 26.243808
27.090679 57.152749 21.550773
21.929938 65.503559 4.5719961
28.335088 63.922396 14.006165
28.072822 67.800374 4.8529606
31.4314 66.737986 9.8044549
1.7569102 24.730321 35.41485
5.4964346 29.776198 33.789048
0 26.469378 33.70114
14.536656 41.729593 29.46244
9.6819805 35.358638 31.863723
-3.4022216 29.583988 29.936463
3.6271711 31.540035 31.915815
-1.727985 28.098866 31.861773
1.7809643 28.960367 32.838644
2.1558637 52.104289 3.4882608
6.7438662 53.430782 10.911805
6.1412413 55.170066 3.7113597
0 49.743597 6.7019475
15.479376 48.047463 25.046157
11.334455 52.04903 18.339533
18.372823 51.938302 23.045563
15.878007 62.057301 4.2735106
11.246929 56.368839 11.631487
10.712844 58.545184 3.9729328
19.208823 62.796457 8.7832086
8.6894906 56.15821 7.6406368
-3.7858668 44.624095 12.333796
4.2454515 50.04123 13.831056
-1.9893008 47.204557 9.6626181
2.1145462 50.176533 10.270972
24.834067 60.093573 17.700425
13.830878 55.694122 15.716763
21.532891 56.042263 20.622254
22.258161 62.119784 13.356433
16.191203 54.194522 19.499829
16.44306 59.37426 12.51658
-9.6646116 34.243803 21.163834
-3.4478574 37.266316 23.03185
-8.1999304 33.315384 23.464599
-8.3897221 36.759649 19.22607
12.346116 43.744953 27.035868
3.7428304 40.454544 25.002283
9.9463044 40.410703 28.461954
10.511371 46.055676 24.088088
-5.0864529 31.011061 27.81948
-1.7967123 36.111791 25.375064
-6.6645151 32.22761 25.697886
-1.7575496 32.124505 28.841032
-5.0892253 34.710911 24.409683
-5.502823 41.904294 14.892632
-1.8762951 40.196217 21.090038
-6.9983865 39.330194 17.131727
-1.9384588 44.193708 15.682461
-5.2363787 38.449853 20.152318
5.6403051 34.387784 30.848679
1.8695814 37.576373 26.404198
7.7100047 37.283286 29.729218
1.8194955 33.256754 29.857553
5.7178896 38.998697 27.424973
0 34.795163 27.661134
6.4691518 49.26294 17.507868
1.9661071 42.120277 22.099549
8.5287787 47.930837 20.878057
2.0466824 46.661031 16.558009
5.9982503 44.044148 23.084397
0 43.347456 18.972926
0 -19.742153 37.519226
0 -14.391141 39.92172
0 -2.9636004 42.7602
0 -8.7927006 41.745829
0 19.742153 37.519226
0 14.391141 39.92172
0 2.9636004 42.7602
0 8.7927006 41.745829
-39.598032 -67.249485 -5.1429588
-34.06083 -64.076533 -14.505597
-34.104811 -68.377832 -5.0400757
-20.316822 -49.092874 -26.243808
-27.090679 -57.152749 -21.550773
-21.929938 -65.503559 -4.5719961
-28.335088 -63.922396 -14.006165
-28.072822 -67.800374 -4.8529606
-31.4314 -66.737986 -9.8044549
-1.7569102 -24.730321 -35.41485
-5.4964346 -29.776198 -33.789048
-14.536656 -41.729593 -29.46244
-9.6819805 -35.358638 -31.863723
-2.1558637 -52.104289 -3.4882608
-6.7438662 -53.430782 -10.911805
-6.1412413 -55.170066 -3.7113597
-15.479376 -48.047463 -25.046157
-11.334455 -52.04903 -18.339533
-18.372823 -51.938302 -23.045563
-15.878007 -62.057301 -4.2735106
-11.246929 -56.368839 -11.631487
-10.712844 -58.545184 -3.9729328
-19.208823 -62.796457 -8.7832086
-8.6894906 -56.15821 -7.6406368
-24.834067 -60.093573 -17.700425
-13.830878 -55.694122 -15.716763
-21.532891 -56.042263 -20.622254
-22.258161 -62.119784 -13.356433
-16.191203 -54.194522 -19.499829
-16.44306 -59.37426 -12.51658
20.110436 -34.153628 -2.6119263
18.389883 -34.595749 -7.8317596
17.932526 -35.953499 -2.6501038
13.848519 -33.463088 -17.88852
16.287759 -34.36201 -12.956995
13.304061 -39.738522 -2.7736564
16.13545 -36.400686 -7.9758279
15.658676 -37.818217 -2.7069219
17.081017 -36.267957 -5.3281133
1.7112735 -24.087937 -34.494929
5.0231181 -27.21207 -30.87936
0 -26.469378 -33.70114
11.125663 -31.937841 -22.549147
8.1703743 -29.838245 -26.888977
-3.6271711 -31.540035 -31.915815
3.4022216 -29.583988 -29.936463
-1.7809643 -28.960367 -32.838644
1.727985 -28.098866 -31.861773
2.019835 -48.816659 -3.2681616
5.6202228 -44.5283 -9.0937114
5.1555979 -46.315503 -3.1157021
0 -49.743597 -6.7019475
11.322673 -35.145196 -18.32047
8.6837963 -39.876922 -14.050678
12.636815 -35.723129 -15.850723
10.70637 -41.844576 -2.8815826
8.4552083 -42.376925 -8.7443108
8.0495877 -43.990613 -2.9852456
12.276743 -40.134472 -5.6135244
6.8724034 -44.414787 -6.0428789
-4.2454515 -50.04123 -13.831056
3.7858668 -44.624095 -12.333796
-2.1145462 -50.176533 -10.270972
1.9893008 -47.204557 -9.6626181
15.027109 -36.362657 -10.710538
9.9752336 -40.16823 -11.33539
13.882717 -36.131649 -13.29561
13.719651 -38.289855 -8.2327377
11.344573 -37.972085 -13.662804
11.156151 -40.283757 -8.4921453
-12.346116 -43.744953 -27.035868
-3.7428304 -40.454544 -25.002283
-9.9463044 -40.410703 -28.461954
-10.511371 -46.055676 -24.088088
9.6646116 -34.243803 -21.163834
3.4478574 -37.266316 -23.03185
8.1999304 -33.315384 -23.464599
8.3897221 -36.759649 -19.22607
-5.6403051 -34.387784 -30.848679
-1.8695814 -37.576373 -26.404198
-7.7100047 -37.283286 -29.729218
-1.8194955 -33.256754 -29.857553
-5.7178896 -38.998697 -27.424973
-6.4691518 -49.26294 -17.507868
-1.9661071 -42.120277 -22.099549
-8.5287787 -47.930837 -20.878057
-2.0466824 -46.661031 -16.558009
-5.9982503 -44.044148 -23.084397
5.0864529 -31.011061 -27.81948
1.7967123 -36.111791 -25.375064
6.6645151 -32.22761 -25.697886
1.7575496 -32.124505 -28.841032
5.0892253 -34.710911 -24.409683
0 -34.795163 -27.661134
5.502823 -41.904294 -14.892632
1.8762951 -40.196217 -21.090038
6.9983865 -39.330194 -17.131727
1.9384588 -44.193708 -15.682461
5.2363787 -38.449853 -20.152318
0 -43.347456 -18.972926
-20.110436 34.153628 -2.6119263
-18.389883 34.595749 -7.8317596
-17.932526 35.953499 -2.6501038
-13.848519 33.463088 -17.88852
-16.287759 34.36201 -12.956995
-13.304061 39.738522 -2.7736564
-16.13545 36.400686 -7.9758279
-15.658676 37.818217 -2.7069219
-17.081017 36.267957 -5.3281133
-1.7112735 24.087937 -34.494929
-5.0231181 27.21207 -30.87936
-11.125663 31.937841 -22.549147
-8.1703743 29.838245 -26.888977
-2.019835 48.816659 -3.2681616
-5.6202228 44.5283 -9.0937114
-5.1555979 46.315503 -3.1157021
-11.322673 35.145196 -18.32047
-8.6837963 39.876922 -14.050678
-12.636815 35.723129 -15.850723
-10.70637 41.844576 -2.8815826
-8.4552083 42.376925 -8.7443108
-8.0495877 43.990613 -2.9852456
-12.276743 40.134472 -5.6135244
-6.8724034 44.414787 -6.0428789
-15.027109 36.362657 -10.710538
-9.9752336 40.16823 -11.33539
-13.882717 36.131649 -13.29561
-13.719651 38.289855 -8.2327377
-11.344573 37.972085 -13.662804
-11.156151 40.283757 -8.4921453
39.598032 67.249485 -5.1429588
34.06083 64.076533 -14.505597
34.104811 68.377832 -5.0400757
20.316822 49.092874 -26.243808
27.090679 57.152749 -21.550773
21.929938 65.503559 -4.5719961
28.335088 63.922396 -14.006165
28.072822 67.800374 -4.8529606
31.4314 66.737986 -9.8044549
1.7569102 24.730321 -35.41485
5.4964346 29.776198 -33.789048
0 26.469378 -33.70114
14.536656 41.729593 -29.46244
9.6819805 35.358638 -31.863723
-3.4022216 29.583988 -29.936463
3.6271711 31.540035 -31.915815
-1.727985 28.098866 -31.861773
1.7809643 28.960367 -32.838644
2.1558637 52.104289 -3.4882608
6.7438662 53.430782 -10.911805
6.1412413 55.170066 -3.7113597
0 49.743597 -6.7019475
15.479376 48.047463 -25.046157
11.334455 52.04903 -18.339533
18.372823 51.938302 -23.045563
15.878007 62.057301 -4.2735106
11.246929 56.368839 -11.631487
10.712844 58.545184 -3.9729328
19.208823 62.796457 -8.7832086
8.6894906 56.15821 -7.6406368
-3.7858668 44.624095 -12.333796
4.2454515 50.04123 -13.831056
-1.9893008 47.204557 -9.6626181
2.1145462 50.176533 -10.270972
24.834067 60.093573 -17.700425
13.830878 55.694122 -15.716763
21.532891 56.042263 -20.622254
22.258161 62.119784 -13.356433
16.191203 54.194522 -19.499829
16.44306 59.37426 -12.51658
-9.6646116 34.243803 -21.163834
-3.4478574 37.266316 -23.03185
-8.1999304 33.315384 -23.464599
-8.3897221 36.759649 -19.22607
12.346116 43.744953 -27.035868
3.7428304 40.454544 -25.002283
9.9463044 40.410703 -28.461954
10.511371 46.055676 -24.088088
-5.0864529 31.011061 -27.81948
-1.7967123 36.111791 -25.375064
-6.6645151 32.22761 -25.697886
-1.7575496 32.124505 -28.841032
-5.0892253 34.710911 -24.409683
-5.502823 41.904294 -14.892632
-1.8762951 40.196217 -21.090038
-6.9983865 39.330194 -17.131727
-1.9384588 44.193708 -15.682461
-5.2363787 38.449853 -20.152318
5.6403051 34.387784 -30.848679
1.8695814 37.576373 -26.404198
7.7100047 37.283286 -29.729218
1.8194955 33.256754 -29.857553
5.7178896 38.998697 -27.424973
0 34.795163 -27.661134
6.4691518 49.26294 -17.507868
1.9661071 42.120277 -22.099549
8.5287787 47.930837 -20.878057
2.0466824 46.661031 -16.558009
5.9982503 44.044148 -23.084397
0 43.347456 -18.972926
0 -19.742153 -37.519226
0 -14.391141 -39.92172
0 -2.9636004 -42.7602
0 -8.7927006 -41.745829
0 19.742153 -37.519226
0 14.391141 -39.92172
0 2.9636004 -42.7602
0 8.7927006 -41.745829
45.376753 64.9814 -3.2236896
50.597849 57.416771 -9.3399354
43.131722 64.64453 -8.3232667
49.875915 35.214007 -17.374457
51.394139 46.314246 -14.072857
37.107826 61.111117 -17.459096
47.695767 56.354819 -14.087611
40.329015 63.321906 -13.149827
45.906338 60.975122 -11.375471
41.346639 3.1620177 -24.345845
43.818826 9.9196727 -23.292546
47.910589 25.611789 -19.82754
45.924832 17.317025 -21.768592
22.652398 46.520158 -28.751039
33.600328 46.641823 -28.826232
26.075676 50.383325 -26.799558
47.398138 34.435905 -21.28256
42.220025 42.050475 -25.988623
48.080439 39.636016 -19.971238
33.428226 57.922407 -21.325041
37.253652 49.663667 -26.035157
29.733987 54.297752 -24.349017
39.371964 57.067974 -20.246822
31.915031 50.709002 -26.798384
48.500313 50.784452 -16.512571
41.896695 47.164445 -24.466817
48.525578 45.180393 -18.397841
44.462901 54.543534 -18.57185
45.432314 43.731506 -22.39729
40.95263 52.294019 -22.601878
22.504262 -32.227041 -1.5987648
25.693822 -29.156503 -4.7428625
21.747788 -32.594932 -4.1967404
31.452106 -22.206202 -10.956456
28.672836 -25.838759 -7.8512594
19.939512 -32.837436 -9.3814673
24.833365 -29.341803 -7.3348811
20.888897 -32.79834 -6.8111107
23.327506 -30.984775 -5.7804952
39.461546 -3.0178536 -23.235859
38.119206 -8.6293972 -20.262829
34.004914 -18.178166 -14.072751
36.262171 -13.673494 -17.188444
15.251232 -31.320734 -19.357278
20.457372 -28.397614 -17.550691
16.526152 -31.931771 -16.984932
30.351419 -22.051047 -13.628297
25.457928 -25.355692 -15.670679
29.071283 -23.96546 -12.075379
18.865817 -32.689546 -12.035168
21.652932 -28.866002 -15.132408
17.739098 -32.393676 -14.526461
21.405333 -31.026111 -11.007578
19.131897 -30.398198 -16.064654
26.333911 -27.574116 -8.9657273
24.209609 -27.253528 -14.137919
27.724746 -25.813498 -10.511476
23.900487 -29.319208 -9.9830704
26.645967 -25.648447 -13.135969
22.833148 -29.156541 -12.601682
2.742481 -21.115637 -35.860766
7.9748496 -18.725875 -35.22783
4.4019267 -22.811077 -34.188558
2.7453001 -18.576693 -37.245009
17.981505 -13.920504 -33.637031
13.009492 -16.353751 -34.501232
7.6327622 -25.841887 -30.53342
9.5701159 -20.340469 -33.497753
6.0445797 -24.393234 -32.400328
7.0301198 -21.560573 -33.852961
2.7708088 -13.290402 -39.697724
8.0289266 -16.242871 -36.643022
2.7582125 -15.955375 -38.534794
5.4287621 -17.40368 -36.953064
37.755412 -1.8730241 -26.364744
33.042746 -5.3750343 -29.118528
37.286607 -4.8008141 -24.878138
22.983341 -11.339893 -32.552819
28.036947 -8.5191918 -31.112128
35.911454 -10.259697 -21.806114
32.556489 -8.1384903 -27.554107
36.661214 -7.6132994 -23.349118
34.959152 -6.5219519 -26.319695
13.650761 -30.401449 -22.087395
15.761502 -25.605474 -25.502646
12.242836 -29.474435 -24.297805
16.360829 -29.027717 -21.199149
19.581899 -15.428206 -31.684178
17.724239 -20.659663 -28.678421
17.126082 -16.66349 -32.197133
9.2639593 -27.209871 -28.491329
14.311889 -24.507513 -27.588889
10.768941 -28.403827 -26.445766
10.247788 -24.534248 -30.096655
13.30622 -26.991318 -25.980869
21.601448 -26.184133 -19.412564
18.48375 -24.305569 -24.66162
19.021118 -27.616655 -20.305455
17.443246 -26.677241 -22.973691
12.180419 -19.093506 -33.084072
15.306594 -21.902174 -29.198272
14.647908 -17.887403 -32.6645
11.222183 -21.822654 -31.631002
16.230123 -19.32896 -30.711305
12.814445 -23.218655 -29.64881
2.858796 -1.7668331 -42.70195
8.4225622 -5.2054297 -41.241948
2.844107 -4.7061856 -42.278191
18.308677 -11.315384 -35.122573
13.603587 -8.4074794 -38.608045
15.777082 -12.578105 -35.557162
2.8070375 -10.429402 -40.762078
8.3223371 -8.0471858 -40.331945
2.8241695 -7.6152529 -41.616994
5.5220934 -12.076784 -39.480777
5.639491 -6.4136412 -41.449911
10.694383 -15.004444 -36.307811
10.981553 -9.6638542 -38.914369
13.228787 -13.812943 -35.950055
8.1653091 -13.607283 -37.976249
13.432257 -11.153144 -37.331339
8.268152 -10.86189 -39.221211
31.796985 -19.651617 -15.483136
29.324034 -18.12325 -21.124757
32.938818 -17.520594 -17.047345
29.315473 -21.4093 -16.523016
22.515465 -13.915323 -30.990652
26.203517 -16.194664 -26.309171
24.994447 -12.59385 -30.319495
21.543099 -16.626278 -29.498682
34.989021 -12.881756 -20.192891
30.257996 -15.862133 -22.697093
34.014391 -15.253247 -18.626618
33.543477 -11.900699 -23.142097
31.680193 -16.742155 -19.938755
24.2703 -24.625834 -18.456929
26.701686 -19.796271 -22.02842
26.789346 -23.070233 -17.516547
22.818485 -23.819367 -21.199024
28.086106 -20.650624 -19.344455
29.989709 -9.7511576 -28.640858
28.619604 -14.846578 -25.423108
27.50431 -11.199989 -29.540747
31.865276 -10.849996 -25.975996
26.884179 -13.768854 -27.929759
31.088716 -13.436783 -24.346278
19.550724 -21.755187 -26.370487
25.081983 -18.79881 -24.719863
20.549491 -19.249719 -27.948559
21.231514 -22.853457 -23.855873
23.389902 -17.759262 -27.160548
23.985941 -21.347273 -22.978059
2.8500166 21.943603 -37.266903
8.8793063 20.849644 -39.223146
4.7076272 24.395237 -36.562849
2.8423854 19.233643 -38.562149
21.785204 16.865164 -40.752405
15.292378 19.223483 -40.555457
8.7458018 29.610254 -34.985924
11.019057 23.42007 -38.569401
6.679436 26.955231 -35.803303
7.8143683 23.965773 -37.629444
2.8455748 13.649023 -40.768906
8.8351432 17.873883 -40.322494
2.8447003 16.45568 -39.74311
5.8049262 18.609597 -39.513577
38.896733 1.9296444 -27.161733
36.227986 5.8931745 -31.925483
40.291262 5.1876766 -26.882885
36.654713 0 -28.789158
27.729352 13.681557 -39.274906
32.567804 9.8959194 -36.139944
42.6725 12.191289 -25.911549
37.498019 9.3737769 -31.73636
41.549722 8.628478 -26.462555
39.009745 7.2776273 -29.369265
31.761469 -3.60963 -31.387506
33.786894 3.8398156 -33.389083
34.249586 -1.8574851 -30.204676
35.326903 1.9159121 -31.154761
18.925909 42.149668 -30.622764
21.611562 35.109236 -34.968242
16.086771 38.728646 -31.926689
24.134622 42.82014 -31.271854
24.648857 19.420366 -39.882688
23.535647 27.433535 -38.081476
21.328934 20.752819 -40.09852
11.074827 32.528705 -34.060656
18.703262 32.02725 -36.054096
13.463645 35.511295 -33.063269
12.282312 29.405105 -36.071834
17.482189 35.462162 -34.134598
34.364264 41.654543 -30.882118
26.412305 34.731378 -35.240156
29.448354 42.755902 -31.436755
25.393734 38.83651 -33.444912
14.493336 22.719136 -39.366344
19.787455 28.313828 -37.74579
17.890408 21.847007 -39.895201
13.430982 26.117884 -37.856752
20.653174 24.596508 -39.080783
16.002385 28.994924 -37.024755
2.8701101 1.7738256 -42.870948
8.715552 5.3865073 -42.676603
2.8738386 4.7553829 -42.720156
5.7464857 0 -42.651911
21.440748 13.251111 -41.131003
14.864169 9.1865615 -42.185674
18.385966 14.658009 -41.436862
2.8689595 10.65947 -41.661272
8.7660196 8.4761995 -42.482132
2.8709464 7.741385 -42.3063
5.8040238 12.693364 -41.496467
5.8000747 6.5962688 -42.630192
11.358128 -3.4863848 -41.094094
11.710615 3.5945809 -42.369404
8.6066198 -1.7718961 -42.045714
8.7088488 1.7929426 -42.545131
12.071166 16.936099 -40.982038
11.922588 10.491973 -42.249033
15.221114 15.893248 -41.364328
8.8747483 14.789546 -41.275799
15.082572 12.523443 -41.917947
8.8559489 11.634081 -42.009513
46.44163 28.702506 -22.614159
41.088478 25.394076 -29.59975
45.580171 24.244697 -23.589824
44.600324 32.571936 -25.137983
28.333805 17.511254 -38.999109
35.051196 21.66283 -35.192524
31.104649 15.672573 -37.731472
28.19353 21.758869 -38.60503
43.726258 16.098507 -25.235333
40.410636 21.184445 -30.312779
44.674214 20.033485 -24.464042
41.279568 14.645343 -28.479331
43.071666 22.762251 -27.108274
38.752064 39.319742 -29.469933
38.58056 28.603109 -31.828282
42.059789 36.22071 -27.501315
34.962703 36.496264 -32.481349
41.65146 30.624702 -28.687664
35.647286 11.59072 -34.043973
37.453464 19.429192 -33.270324
33.553463 13.663256 -36.037783
38.580306 13.136437 -31.449967
34.382738 17.609275 -35.719953
39.548212 17.093042 -30.9711
27.248968 30.321453 -36.754062
35.169093 26.359044 -34.661341
27.828545 26.068367 -37.848516
31.067471 33.440815 -34.907622
31.75072 24.107384 -36.869199
35.210336 31.336884 -33.730809
21.340054 -9.7450837 -34.528933
22.938389 -3.4338664 -37.115094
23.907589 -8.3547377 -33.944349
19.073544 -8.323164 -36.468024
24.859568 11.352294 -40.223626
24.206161 3.6236512 -39.166391
27.476095 9.6017864 -39.010965
21.483654 9.3748691 -41.07608
29.092171 -5.3191489 -32.42976
25.634687 -1.8150953 -36.481267
26.512163 -6.8756905 -33.248791
30.176242 -1.8389162 -33.611725
24.802921 -5.1712124 -35.270101
14.132978 -5.222131 -39.766809
20.409506 -1.8157509 -38.899168
16.655141 -6.803699 -38.236071
14.484938 -1.7904368 -40.819048
19.78471 -5.1408596 -37.748472
31.903004 5.8330756 -35.563066
26.403806 1.8695536 -37.575816
29.841035 7.7390033 -37.423515
31.131925 1.8971548 -34.67621
27.021196 5.6337052 -38.42452
28.38145 0 -35.701255
14.956349 5.5263665 -42.083579
20.946418 1.8635178 -39.922487
18.153586 7.4158202 -41.676128
14.769056 1.8255557 -41.619701
21.306862 5.5363755 -40.652679
17.700323 0 -40.439938
45.376753 64.9814 3.2236896
50.597849 57.416771 9.3399354
43.131722 64.64453 8.3232667
49.212568 62.658051 0
49.875915 35.214007 17.374457
51.394139 46.314246 14.072857
37.107826 61.111117 17.459096
47.695767 56.354819 14.087611
40.329015 63.321906 13.149827
45.906338 60.975122 11.375471
53.715405 54.355391 -6.1773859
53.715405 54.355391 6.1773859
52.157812 59.142614 -3.2075285
52.157812 59.142614 3.2075285
41.346639 3.1620177 24.345845
43.818826 9.9196727 23.292546
47.910589 25.611789 19.82754
45.924832 17.317025 21.768592
22.652398 46.520158 28.751039
33.600328 46.641823 28.826232
26.075676 50.383325 26.799558
47.398138 34.435905 21.28256
42.220025 42.050475 25.988623
48.080439 39.636016 19.971238
33.428226 57.922407 21.325041
37.253652 49.663667 26.035157
29.733987 54.297752 24.349017
39.371964 57.067974 20.246822
31.915031 50.709002 26.798384
48.500313 50.784452 16.512571
41.896695 47.164445 24.466817
48.525578 45.180393 18.397841
44.462901 54.543534 18.57185
45.432314 43.731506 22.39729
40.95263 52.294019 22.601878
51.163524 31.620797 -14.439856
54.411873 33.628387 -5.0341541
52.286609 36.826359 -12.869326
51.163524 31.620797 14.439856
54.411873 33.628387 5.0341541
52.286609 36.826359 12.869326
53.950238 48.397815 -8.8489506
55.41383 38.938237 -2.7570693
53.30647 42.505901 -11.023522
55.564161 49.8849 -3.0399462
54.26247 38.158885 -7.9558251
53.950238 48.397815 8.8489506
55.41383 38.938237 2.7570693
53.30647 42.505901 11.023522
55.564161 49.8849 3.0399462
54.26247 38.158885 7.9558251
55.981726 44.503829 0
22.504262 -32.227041 1.5987648
25.693822 -29.156503 4.7428625
21.747788 -32.594932 4.1967404
24.211266 -30.826083 0
31.452106 -22.206202 10.956456
28.672836 -25.838759 7.8512594
19.939512 -32.837436 9.3814673
24.833365 -29.341803 7.3348811
20.888897 -32.79834 6.8111107
23.327506 -30.984775 5.7804952
27.485619 -27.813094 -3.1609047
27.485619 -27.813094 3.1609047
25.881085 -29.346994 -1.5915989
25.881085 -29.346994 1.5915989
39.461546 -3.0178536 23.235859
38.119206 -8.6293972 20.262829
34.004914 -18.178166 14.072751
36.262171 -13.673494 17.188444
15.251232 -31.320734 19.357278
20.457372 -28.397614 17.550691
16.526152 -31.931771 16.984932
30.351419 -22.051047 13.628297
25.457928 -25.355692 15.670679
29.071283 -23.96546 12.075379
18.865817 -32.689546 12.035168
21.652932 -28.866002 15.132408
17.739098 -32.393676 14.526461
21.405333 -31.026111 11.007578
19.131897 -30.398198 16.064654
26.333911 -27.574116 8.9657273
24.209609 -27.253528 14.137919
27.724746 -25.813498 10.511476
23.900487 -29.319208 9.9830704
26.645967 -25.648447 13.135969
22.833148 -29.156541 12.601682
33.524592 -20.719337 -9.461629
34.416046 -21.270286 -3.1841521
32.112198 -22.617174 -7.9037897
33.524592 -20.719337 9.461629
34.416046 -21.270286 3.1841521
32.112198 -22.617174 7.9037897
29.121461 -26.124353 -4.7765197
32.788691 -23.039985 -1.6313742
30.633226 -24.426545 -6.3348043
29.308922 -26.313232 -1.6035074
32.561783 -22.898355 -4.7741256
29.121461 -26.124353 4.7765197
32.788691 -23.039985 1.6313742
30.633226 -24.426545 6.3348043
29.308922 -26.313232 1.6035074
32.561783 -22.898355 4.7741256
31.090031 -24.715662 0
2.742481 -21.115637 35.860766
7.9748496 -18.725875 35.22783
4.4019267 -22.811077 34.188558
2.7453001 -18.576693 37.245009
17.981505 -13.920504 33.637031
13.009492 -16.353751 34.501232
7.6327622 -25.841887 30.53342
9.5701159 -20.340469 33.497753
6.0445797 -24.393234 32.400328
7.0301198 -21.560573 33.852961
2.7708088 -13.290402 39.697724
8.0289266 -16.242871 36.643022
2.7582125 -15.955375 38.534794
5.4287621 -17.40368 36.953064
37.755412 -1.8730241 26.364744
33.042746 -5.3750343 29.118528
37.286607 -4.8008141 24.878138
22.983341 -11.339893 32.552819
28.036947 -8.5191918 31.112128
35.911454 -10.259697 21.806114
32.556489 -8.1384903 27.554107
36.661214 -7.6132994 23.349118
34.959152 -6.5219519 26.319695
13.650761 -30.401449 22.087395
15.761502 -25.605474 25.502646
12.242836 -29.474435 24.297805
16.360829 -29.027717 21.199149
19.581899 -15.428206 31.684178
17.724239 -20.659663 28.678421
17.126082 -16.66349 32.197133
9.2639593 -27.209871 28.491329
14.311889 -24.507513 27.588889
10.768941 -28.403827 26.445766
10.247788 -24.534248 30.096655
13.30622 -26.991318 25.980869
21.601448 -26.184133 19.412564
18.48375 -24.305569 24.66162
19.021118 -27.616655 20.305455
17.443246 -26.677241 22.973691
12.180419 -19.093506 33.084072
15.306594 -21.902174 29.198272
14.647908 -17.887403 32.6645
11.222183 -21.822654 31.631002
16.230123 -19.32896 30.711305
12.814445 -23.218655 29.64881
2.858796 -1.7668331 42.70195
8.4225622 -5.2054297 41.241948
2.844107 -4.7061856 42.278191
18.308677 -11.315384 35.122573
13.603587 -8.4074794 38.608045
15.777082 -12.578105 35.557162
2.8070375 -10.429402 40.762078
8.3223371 -8.0471858 40.331945
2.8241695 -7.6152529 41.616994
5.5220934 -12.076784 39.480777
5.639491 -6.4136412 41.449911
10.694383 -15.004444 36.307811
10.981553 -9.6638542 38.914369
13.228787 -13.812943 35.950055
8.1653091 -13.607283 37.976249
13.432257 -11.153144 37.331339
8.268152 -10.86189 39.221211
31.796985 -19.651617 15.483136
29.324034 -18.12325 21.124757
32.938818 -17.520594 17.047345
29.315473 -21.4093 16.523016
22.515465 -13.915323 30.990652
26.203517 -16.194664 26.309171
24.994447 -12.59385 30.319495
21.543099 -16.626278 29.498682
34.989021 -12.881756 20.192891
30.257996 -15.862133 22.697093
34.014391 -15.253247 18.626618
33.543477 -11.900699 23.142097
31.680193 -16.742155 19.938755
24.2703 -24.625834 18.456929
26.701686 -19.796271 22.02842
26.789346 -23.070233 17.516547
22.818485 -23.819367 21.199024
28.086106 -20.650624 19.344455
29.989709 -9.7511576 28.640858
28.619604 -14.846578 25.423108
27.50431 -11.199989 29.540747
31.865276 -10.849996 25.975996
26.884179 -13.768854 27.929759
31.088716 -13.436783 24.346278
19.550724 -21.755187 26.370487
25.081983 -18.79881 24.719863
20.549491 -19.249719 27.948559
21.231514 -22.853457 23.855873
23.389902 -17.759262 27.160548
23.985941 -21.347273 22.978059
2.8500166 21.943603 37.266903
8.8793063 20.849644 39.223146
4.7076272 24.395237 36.562849
2.8423854 19.233643 38.562149
21.785204 16.865164 40.752405
15.292378 19.223483 40.555457
8.7458018 29.610254 34.985924
11.019057 23.42007 38.569401
6.679436 26.955231 35.803303
7.8143683 23.965773 37.629444
2.8455748 13.649023 40.768906
8.8351432 17.873883 40.322494
2.8447003 16.45568 39.74311
5.8049262 18.609597 39.513577
38.896733 1.9296444 27.161733
36.227986 5.8931745 31.925483
40.291262 5.1876766 26.882885
36.654713 0 28.789158
27.729352 13.681557 39.274906
32.567804 9.8959194 36.139944
42.6725 12.191289 25.911549
37.498019 9.3737769 31.73636
41.549722 8.628478 26.462555
39.009745 7.2776273 29.369265
31.761469 -3.60963 31.387506
33.786894 3.8398156 33.389083
34.249586 -1.8574851 30.204676
35.326903 1.9159121 31.154761
18.925909 42.149668 30.622764
21.611562 35.109236 34.968242
16.086771 38.728646 31.926689
24.134622 42.82014 31.271854
24.648857 19.420366 39.882688
23.535647 27.433535 38.081476
21.328934 20.752819 40.09852
11.074827 32.528705 34.060656
18.703262 32.02725 36.054096
13.463645 35.511295 33.063269
12.282312 29.405105 36.071834
17.482189 35.462162 34.134598
34.364264 41.654543 30.882118
26.412305 34.731378 35.240156
29.448354 42.755902 31.436755
25.393734 38.83651 33.444912
14.493336 22.719136 39.366344
19.787455 28.313828 37.74579
17.890408 21.847007 39.895201
13.430982 26.117884 37.856752
20.653174 24.596508 39.080783
16.002385 28.994924 37.024755
2.8701101 1.7738256 42.870948
8.715552 5.3865073 42.676603
2.8738386 4.7553829 42.720156
5.7464857 0 42.651911
21.440748 13.251111 41.131003
14.864169 9.1865615 42.185674
18.385966 14.658009 41.436862
2.8689595 10.65947 41.661272
8.7660196 8.4761995 42.482132
2.8709464 7.741385 42.3063
5.8040238 12.693364 41.496467
5.8000747 6.5962688 42.630192
11.358128 -3.4863848 41.094094
11.710615 3.5945809 42.369404
8.6066198 -1.7718961 42.045714
8.7088488 1.7929426 42.545131
12.071166 16.936099 40.982038
11.922588 10.491973 42.249033
15.221114 15.893248 41.364328
8.8747483 14.789546 41.275799
15.082572 12.523443 41.917947
8.8559489 11.634081 42.009513
46.44163 28.702506 22.614159
41.088478 25.394076 29.59975
45.580171 24.244697 23.589824
44.600324 32.571936 25.137983
28.333805 17.511254 38.999109
35.051196 21.66283 35.192524
31.104649 15.672573 37.731472
28.19353 21.758869 38.60503
43.726258 16.098507 25.235333
40.410636 21.184445 30.312779
44.674214 20.033485 24.464042
41.279568 14.645343 28.479331
43.071666 22.762251 27.108274
38.752064 39.319742 29.469933
38.58056 28.603109 31.828282
42.059789 36.22071 27.501315
34.962703 36.496264 32.481349
41.65146 30.624702 28.687664
35.647286 11.59072 34.043973
37.453464 19.429192 33.270324
33.553463 13.663256 36.037783
38.580306 13.136437 31.449967
34.382738 17.609275 35.719953
39.548212 17.093042 30.9711
27.248968 30.321453 36.754062
35.169093 26.359044 34.661341
27.828545 26.068367 37.848516
31.067471 33.440815 34.907622
31.75072 24.107384 36.869199
35.210336 31.336884 33.730809
21.340054 -9.7450837 34.528933
22.938389 -3.4338664 37.115094
23.907589 -8.3547377 33.944349
19.073544 -8.323164 36.468024
24.859568 11.352294 40.223626
24.206161 3.6236512 39.166391
27.476095 9.6017864 39.010965
21.483654 9.3748691 41.07608
29.092171 -5.3191489 32.42976
25.634687 -1.8150953 36.481267
26.512163 -6.8756905 33.248791
30.176242 -1.8389162 33.611725
24.802921 -5.1712124 35.270101
14.132978 -5.222131 39.766809
20.409506 -1.8157509 38.899168
16.655141 -6.803699 38.236071
14.484938 -1.7904368 40.819048
19.78471 -5.1408596 37.748472
31.903004 5.8330756 35.563066
26.403806 1.8695536 37.575816
29.841035 7.7390033 37.423515
31.131925 1.8971548 34.67621
27.021196 5.6337052 38.42452
28.38145 0 35.701255
14.956349 5.5263665 42.083579
20.946418 1.8635178 39.922487
18.153586 7.4158202 41.676128
14.769056 1.8255557 41.619701
21.306862 5.5363755 40.652679
17.700323 0 40.439938
41.650388 0 -21.915919
44.494268 0 -16.039471
43.042057 3.1725958 -21.468086
41.12938 -3.0316139 -20.5141
47.446161 0 -3.2883724
46.446375 0 -9.7827514
45.471627 9.96338 -20.156356
45.799403 3.1966918 -15.333183
44.315424 6.5103638 -20.871109
44.537343 3.1878581 -18.440738
39.63647 -8.6848272 -17.569787
43.830587 -3.059273 -14.674043
40.453806 -5.9430549 -19.052414
42.595559 -3.0488706 -17.63674
41.650388 0 21.915919
44.494268 0 16.039471
43.042057 3.1725958 21.468086
41.12938 -3.0316139 20.5141
47.446161 0 3.2883724
46.446375 0 9.7827514
45.471627 9.96338 20.156356
45.799403 3.1966918 15.333183
44.315424 6.5103638 20.871109
44.537343 3.1878581 18.440738
39.63647 -8.6848272 17.569787
43.830587 -3.059273 14.674043
40.453806 -5.9430549 19.052414
42.595559 -3.0488706 17.63674
49.82876 25.97471 -16.053254
50.394479 17.75655 -10.974152
48.742323 21.627474 -17.242267
51.664084 27.021403 -11.791389
48.509209 3.2475786 -2.0071139
49.834318 10.177323 -6.2899318
48.222708 3.2440022 -5.367898
46.615355 13.730447 -19.264105
49.306694 13.914245 -12.244647
47.67186 17.542139 -18.316765
46.958141 10.096514 -16.825588
49.184272 17.697082 -14.694336
53.853646 28.255779 -2.513802
51.447381 18.28421 -6.7560101
53.0769 27.818638 -7.2283957
51.714113 22.526003 -9.2019721
46.882844 3.2285376 -11.995464
49.161837 10.14435 -9.8089601
47.673643 3.2351795 -8.723524
47.041855 6.5796454 -14.389644
48.796799 6.6390759 -7.5504423
48.204128 10.161824 -13.349612
35.125693 -18.310303 -11.31639
39.603553 -13.954355 -8.624266
36.391402 -16.147243 -12.873212
35.809064 -18.728894 -8.1727685
46.430547 -3.108417 -1.9211074
43.460606 -8.8756637 -5.4854619
46.15746 -3.1050703 -5.1380054
38.653233 -11.385222 -15.973705
40.856206 -11.529535 -10.146083
37.578308 -13.827946 -14.43856
40.934433 -8.801351 -14.667231
38.701088 -13.925109 -11.562371
36.514348 -19.158245 -1.7044313
40.100613 -14.25161 -5.2659657
36.278162 -19.014092 -4.9406222
38.028808 -16.56486 -6.7668189
44.869776 -3.0899098 -11.4804
42.890887 -8.8503648 -8.557756
45.633135 -3.0967087 -8.3501434
43.026803 -6.0180687 -13.161479
44.635351 -6.0728878 -6.9065318
42.027773 -8.8597981 -11.639137
49.82876 25.97471 16.053254
50.394479 17.75655 10.974152
48.742323 21.627474 17.242267
51.664084 27.021403 11.791389
48.509209 3.2475786 2.0071139
49.834318 10.177323 6.2899318
48.222708 3.2440022 5.367898
49.461069 6.6638825 0
46.615355 13.730447 19.264105
49.306694 13.914245 12.244647
47.67186 17.542139 18.316765
46.958141 10.096514 16.825588
49.184272 17.697082 14.694336
53.853646 28.255779 2.513802
51.447381 18.28421 6.7560101
53.0769 27.818638 7.2283957
53.010757 23.202496 0
51.714113 22.526003 9.2019721
46.882844 3.2285376 11.995464
49.161837 10.14435 9.8089601
47.673643 3.2351795 8.723524
47.041855 6.5796454 14.389644
48.796799 6.6390759 7.5504423
48.204128 10.161824 13.349612
50.932231 14.077322 -4.3210433
50.932231 14.077322 4.3210433
50.272768 10.290671 -2.1186017
52.003639 18.453872 -2.281024
50.272768 10.290671 2.1186017
52.003639 18.453872 2.281024
35.125693 -18.310303 11.31639
39.603553 -13.954355 8.624266
36.391402 -16.147243 12.873212
35.809064 -18.728894 8.1727685
46.430547 -3.108417 1.9211074
43.460606 -8.8756637 5.4854619
46.15746 -3.1050703 5.1380054
45.23068 -6.0939228 0
38.653233 -11.385222 15.973705
40.856206 -11.529535 10.146083
37.578308 -13.827946 14.43856
40.934433 -8.801351 14.667231
38.701088 -13.925109 11.562371
36.514348 -19.158245 1.7044313
40.100613 -14.25161 5.2659657
36.278162 -19.014092 4.9406222
38.524994 -16.862162 0
38.028808 -16.56486 6.7668189
44.869776 -3.0899098 11.4804
42.890887 -8.8503648 8.557756
45.633135 -3.0967087 8.3501434
43.026803 -6.0180687 13.161479
44.635351 -6.0728878 6.9065318
42.027773 -8.8597981 11.639137
42.091084 -11.63369 -3.5709686
42.091084 -11.63369 3.5709686
43.772198 -8.9600255 -1.8446539
40.409645 -14.339658 -1.7724792
43.772198 -8.9600255 1.8446539
40.409645 -14.339658 1.7724792
-22.504262 32.227041 -1.5987648
-25.693822 29.156503 -4.7428625
-21.747788 32.594932 -4.1967404
-31.452106 22.206202 -10.956456
-28.672836 25.838759 -7.8512594
-19.939512 32.837436 -9.3814673
-24.833365 29.341803 -7.3348811
-20.888897 32.79834 -6.8111107
-23.327506 30.984775 -5.7804952
-39.461546 3.0178536 -23.235859
-38.119206 8.6293972 -20.262829
-34.004914 18.178166 -14.072751
-36.262171 13.673494 -17.188444
-15.251232 31.320734 -19.357278
-20.457372 28.397614 -17.550691
-16.526152 31.931771 -16.984932
-30.351419 22.051047 -13.628297
-25.457928 25.355692 -15.670679
-29.071283 23.96546 -12.075379
-18.865817 32.689546 -12.035168
-21.652932 28.866002 -15.132408
-17.739098 32.393676 -14.526461
-21.405333 31.026111 -11.007578
-19.131897 30.398198 -16.064654
-26.333911 27.574116 -8.9657273
-24.209609 27.253528 -14.137919
-27.724746 25.813498 -10.511476
-23.900487 29.319208 -9.9830704
-26.645967 25.648447 -13.135969
-22.833148 29.156541 -12.601682
-45.376753 -64.9814 -3.2236896
-50.597849 -57.416771 -9.3399354
-43.131722 -64.64453 -8.3232667
-49.875915 -35.214007 -17.374457
-51.394139 -46.314246 -14.072857
-37.107826 -61.111117 -17.459096
-47.695767 -56.354819 -14.087611
-40.329015 -63.321906 -13.149827
-45.906338 -60.975122 -11.375471
-41.346639 -3.1620177 -24.345845
-43.818826 -9.9196727 -23.292546
-47.910589 -25.611789 -19.82754
-45.924832 -17.317025 -21.768592
-22.652398 -46.520158 -28.751039
-33.600328 -46.641823 -28.826232
-26.075676 -50.383325 -26.799558
-47.398138 -34.435905 -21.28256
-42.220025 -42.050475 -25.988623
-48.080439 -39.636016 -19.971238
-33.428226 -57.922407 -21.325041
-37.253652 -49.663667 -26.035157
-29.733987 -54.297752 -24.349017
-39.371964 -57.067974 -20.246822
-31.915031 -50.709002 -26.798384
-48.500313 -50.784452 -16.512571
-41.896695 -47.164445 -24.466817
-48.525578 -45.180393 -18.397841
-44.462901 -54.543534 -18.57185
-45.432314 -43.731506 -22.39729
-40.95263 -52.294019 -22.601878
-2.8500166 -21.943603 -37.266903
-8.8793063 -20.849644 -39.223146
-4.7076272 -24.395237 -36.562849
-2.8423854 -19.233643 -38.562149
-21.785204 -16.865164 -40.752405
-15.292378 -19.223483 -40.555457
-8.7458018 -29.610254 -34.985924
-11.019057 -23.42007 -38.569401
-6.679436 -26.955231 -35.803303
-7.8143683 -23.965773 -37.629444
-2.8455748 -13.649023 -40.768906
-8.8351432 -17.873883 -40.322494
-2.8447003 -16.45568 -39.74311
-5.8049262 -18.609597 -39.513577
-38.896733 -1.9296444 -27.161733
-36.227986 -5.8931745 -31.925483
-40.291262 -5.1876766 -26.882885
-27.729352 -13.681557 -39.274906
-32.567804 -9.8959194 -36.139944
-42.6725 -12.191289 -25.911549
-37.498019 -9.3737769 -31.73636
-41.549722 -8.628478 -26.462555
-39.009745 -7.2776273 -29.369265
-18.925909 -42.149668 -30.622764
-21.611562 -35.109236 -34.968242
-16.086771 -38.728646 -31.926689
-24.134622 -42.82014 -31.271854
-24.648857 -19.420366 -39.882688
-23.535647 -27.433535 -38.081476
-21.328934 -20.752819 -40.09852
-11.074827 -32.528705 -34.060656
-18.703262 -32.02725 -36.054096
-13.463645 -35.511295 -33.063269
-12.282312 -29.405105 -36.071834
-17.482189 -35.462162 -34.134598
-34.364264 -41.654543 -30.882118
-26.412305 -34.731378 -35.240156
-29.448354 -42.755902 -31.436755
-25.393734 -38.83651 -33.444912
-14.493336 -22.719136 -39.366344
-19.787455 -28.313828 -37.74579
-17.890408 -21.847007 -39.895201
-13.430982 -26.117884 -37.856752
-20.653174 -24.596508 -39.080783
-16.002385 -28.994924 -37.024755
-2.8701101 -1.7738256 -42.870948
-8.715552 -5.3865073 -42.676603
-2.8738386 -4.7553829 -42.720156
-21.440748 -13.251111 -41.131003
-14.864169 -9.1865615 -42.185674
-18.385966 -14.658009 -41.436862
-2.8689595 -10.65947 -41.661272
-8.7660196 -8.4761995 -42.482132
-2.8709464 -7.741385 -42.3063
-5.8040238 -12.693364 -41.496467
-5.8000747 -6.5962688 -42.630192
-12.071166 -16.936099 -40.982038
-11.922588 -10.491973 -42.249033
-15.221114 -15.893248 -41.364328
-8.8747483 -14.789546 -41.275799
-15.082572 -12.523443 -41.917947
-8.8559489 -11.634081 -42.009513
-46.44163 -28.702506 -22.614159
-41.088478 -25.394076 -29.59975
-45.580171 -24.244697 -23.589824
-44.600324 -32.571936 -25.137983
-28.333805 -17.511254 -38.999109
-35.051196 -21.66283 -35.192524
-31.104649 -15.672573 -37.731472
-28.19353 -21.758869 -38.60503
-43.726258 -16.098507 -25.235333
-40.410636 -21.184445 -30.312779
-44.674214 -20.033485 -24.464042
-41.279568 -14.645343 -28.479331
-43.071666 -22.762251 -27.108274
-38.752064 -39.319742 -29.469933
-38.58056 -28.603109 -31.828282
-42.059789 -36.22071 -27.501315
-34.962703 -36.496264 -32.481349
-41.65146 -30.624702 -28.687664
-35.647286 -11.59072 -34.043973
-37.453464 -19.429192 -33.270324
-33.553463 -13.663256 -36.037783
-38.580306 -13.136437 -31.449967
-34.382738 -17.609275 -35.719953
-39.548212 -17.093042 -30.9711
-27.248968 -30.321453 -36.754062
-35.169093 -26.359044 -34.661341
-27.828545 -26.068367 -37.848516
-31.067471 -33.440815 -34.907622
-31.75072 -24.107384 -36.869199
-35.210336 -31.336884 -33.730809
-2.742481 21.115637 -35.860766
-7.9748496 18.725875 -35.22783
-4.4019267 22.811077 -34.188558
-2.7453001 18.576693 -37.245009
-17.981505 13.920504 -33.637031
-13.009492 16.353751 -34.501232
-7.6327622 25.841887 -30.53342
-9.5701159 20.340469 -33.497753
-6.0445797 24.393234 -32.400328
-7.0301198 21.560573 -33.852961
-2.7708088 13.290402 -39.697724
-8.0289266 16.242871 -36.643022
-2.7582125 15.955375 -38.534794
-5.4287621 17.40368 -36.953064
-37.755412 1.8730241 -26.364744
-33.042746 5.3750343 -29.118528
-37.286607 4.8008141 -24.878138
-36.654713 0 -28.789158
-22.983341 11.339893 -32.552819
-28.036947 8.5191918 -31.112128
-35.911454 10.259697 -21.806114
-32.556489 8.1384903 -27.554107
-36.661214 7.6132994 -23.349118
-34.959152 6.5219519 -26.319695
-33.786894 -3.8398156 -33.389083
-31.761469 3.60963 -31.387506
-35.326903 -1.9159121 -31.154761
-34.249586 1.8574851 -30.204676
-13.650761 30.401449 -22.087395
-15.761502 25.605474 -25.502646
-12.242836 29.474435 -24.297805
-16.360829 29.027717 -21.199149
-19.581899 15.428206 -31.684178
-17.724239 20.659663 -28.678421
-17.126082 16.66349 -32.197133
-9.2639593 27.209871 -28.491329
-14.311889 24.507513 -27.588889
-10.768941 28.403827 -26.445766
-10.247788 24.534248 -30.096655
-13.30622 26.991318 -25.980869
-21.601448 26.184133 -19.412564
-18.48375 24.305569 -24.66162
-19.021118 27.616655 -20.305455
-17.443246 26.677241 -22.973691
-12.180419 19.093506 -33.084072
-15.306594 21.902174 -29.198272
-14.647908 17.887403 -32.6645
-11.222183 21.822654 -31.631002
-16.230123 19.32896 -30.711305
-12.814445 23.218655 -29.64881
-2.858796 1.7668331 -42.70195
-8.4225622 5.2054297 -41.241948
-2.844107 4.7061856 -42.278191
-5.7464857 0 -42.651911
-18.308677 11.315384 -35.122573
-13.603587 8.4074794 -38.608045
-15.777082 12.578105 -35.557162
-2.8070375 10.429402 -40.762078
-8.3223371 8.0471858 -40.331945
-2.8241695 7.6152529 -41.616994
-5.5220934 12.076784 -39.480777
-5.639491 6.4136412 -41.449911
-11.710615 -3.5945809 -42.369404
-11.358128 3.4863848 -41.094094
-8.7088488 -1.7929426 -42.545131
-8.6066198 1.7718961 -42.045714
-10.694383 15.004444 -36.307811
-10.981553 9.6638542 -38.914369
-13.228787 13.812943 -35.950055
-8.1653091 13.607283 -37.976249
-13.432257 11.153144 -37.331339
-8.268152 10.86189 -39.221211
-31.796985 19.651617 -15.483136
-29.324034 18.12325 -21.124757
-32.938818 17.520594 -17.047345
-29.315473 21.4093 -16.523016
-22.515465 13.915323 -30.990652
-26.203517 16.194664 -26.309171
-24.994447 12.59385 -30.319495
-21.543099 16.626278 -29.498682
-34.989021 12.881756 -20.192891
-30.257996 15.862133 -22.697093
-34.014391 15.253247 -18.626618
-33.543477 11.900699 -23.142097
-31.680193 16.742155 -19.938755
-24.2703 24.625834 -18.456929
-26.701686 19.796271 -22.02842
-26.789346 23.070233 -17.516547
-22.818485 23.819367 -21.199024
-28.086106 20.650624 -19.344455
-29.989709 9.7511576 -28.640858
-28.619604 14.846578 -25.423108
-27.50431 11.199989 -29.540747
-31.865276 10.849996 -25.975996
-26.884179 13.768854 -27.929759
-31.088716 13.436783 -24.346278
-19.550724 21.755187 -26.370487
-25.081983 18.79881 -24.719863
-20.549491 19.249719 -27.948559
-21.231514 22.853457 -23.855873
-23.389902 17.759262 -27.160548
-23.985941 21.347273 -22.978059
-24.859568 -11.352294 -40.223626
-24.206161 -3.6236512 -39.166391
-27.476095 -9.6017864 -39.010965
-21.483654 -9.3748691 -41.07608
-21.340054 9.7450837 -34.528933
-22.938389 3.4338664 -37.115094
-23.907589 8.3547377 -33.944349
-19.073544 8.323164 -36.468024
-31.903004 -5.8330756 -35.563066
-26.403806 -1.8695536 -37.575816
-29.841035 -7.7390033 -37.423515
-31.131925 -1.8971548 -34.67621
-27.021196 -5.6337052 -38.42452
-14.956349 -5.5263665 -42.083579
-20.946418 -1.8635178 -39.922487
-18.153586 -7.4158202 -41.676128
-14.769056 -1.8255557 -41.619701
-21.306862 -5.5363755 -40.652679
-29.092171 5.3191489 -32.42976
-25.634687 1.8150953 -36.481267
-26.512163 6.8756905 -33.248791
-30.176242 1.8389162 -33.611725
-24.802921 5.1712124 -35.270101
-28.38145 0 -35.701255
-14.132978 5.222131 -39.766809
-20.409506 1.8157509 -38.899168
-16.655141 6.803699 -38.236071
-14.484938 1.7904368 -40.819048
-19.78471 5.1408596 -37.748472
-17.700323 0 -40.439938
-22.504262 32.227041 1.5987648
-25.693822 29.156503 4.7428625
-21.747788 32.594932 4.1967404
-24.211266 30.826083 0
-31.452106 22.206202 10.956456
-28.672836 25.838759 7.8512594
-19.939512 32.837436 9.3814673
-24.833365 29.341803 7.3348811
-20.888897 32.79834 6.8111107
-23.327506 30.984775 5.7804952
-27.485619 27.813094 -3.1609047
-27.485619 27.813094 3.1609047
-25.881085 29.346994 -1.5915989
-25.881085 29.346994 1.5915989
-39.461546 3.0178536 23.235859
-38.119206 8.6293972 20.262829
-34.004914 18.178166 14.072751
-36.262171 13.673494 17.188444
-15.251232 31.320734 19.357278
-20.457372 28.397614 17.550691
-16.526152 31.931771 16.984932
-30.351419 22.051047 13.628297
-25.457928 25.355692 15.670679
-29.071283 23.96546 12.075379
-18.865817 32.689546 12.035168
-21.652932 28.866002 15.132408
-17.739098 32.393676 14.526461
-21.405333 31.026111 11.007578
-19.131897 30.398198 16.064654
-26.333911 27.574116 8.9657273
-24.209609 27.253528 14.137919
-27.724746 25.813498 10.511476
-23.900487 29.319208 9.9830704
-26.645967 25.648447 13.135969
-22.833148 29.156541 12.601682
-33.524592 20.719337 -9.461629
-34.416046 21.270286 -3.1841521
-32.112198 22.617174 -7.9037897
-33.524592 20.719337 9.461629
-34.416046 21.270286 3.1841521
-32.112198 22.617174 7.9037897
-29.121461 26.124353 -4.7765197
-32.788691 23.039985 -1.6313742
-30.633226 24.426545 -6.3348043
-29.308922 26.313232 -1.6035074
-32.561783 22.898355 -4.7741256
-29.121461 26.124353 4.7765197
-32.788691 23.039985 1.6313742
-30.633226 24.426545 6.3348043
-29.308922 26.313232 1.6035074
-32.561783 22.898355 4.7741256
-31.090031 24.715662 0
-45.376753 -64.9814 3.2236896
-50.597849 -57.416771 9.3399354
-43.131722 -64.64453 8.3232667
-49.212568 -62.658051 0
-49.875915 -35.214007 17.374457
-51.394139 -46.314246 14.072857
-37.107826 -61.111117 17.459096
-47.695767 -56.354819 14.087611
-40.329015 -63.321906 13.149827
-45.906338 -60.975122 11.375471
-53.715405 -54.355391 -6.1773859
-53.715405 -54.355391 6.1773859
-52.157812 -59.142614 -3.2075285
-52.157812 -59.142614 3.2075285
-41.346639 -3.1620177 24.345845
-43.818826 -9.9196727 23.292546
-47.910589 -25.611789 19.82754
-45.924832 -17.317025 21.768592
-22.652398 -46.520158 28.751039
-33.600328 -46.641823 28.826232
-26.075676 -50.383325 26.799558
-47.398138 -34.435905 21.28256
-42.220025 -42.050475 25.988623
-48.080439 -39.636016 19.971238
-33.428226 -57.922407 21.325041
-37.253652 -49.663667 26.035157
-29.733987 -54.297752 24.349017
-39.371964 -57.067974 20.246822
-31.915031 -50.709002 26.798384
-48.500313 -50.784452 16.512571
-41.896695 -47.164445 24.466817
-48.525578 -45.180393 18.397841
-44.462901 -54.543534 18.57185
-45.432314 -43.731506 22.39729
-40.95263 -52.294019 22.601878
-51.163524 -31.620797 -14.439856
-54.411873 -33.628387 -5.0341541
-52.286609 -36.826359 -12.869326
-51.163524 -31.620797 14.439856
-54.411873 -33.628387 5.0341541
-52.286609 -36.826359 12.869326
-53.950238 -48.397815 -8.8489506
-55.41383 -38.938237 -2.7570693
-53.30647 -42.505901 -11.023522
-55.564161 -49.8849 -3.0399462
-54.26247 -38.158885 -7.9558251
-53.950238 -48.397815 8.8489506
-55.41383 -38.938237 2.7570693
-53.30647 -42.505901 11.023522
-55.564161 -49.8849 3.0399462
-54.26247 -38.158885 7.9558251
-55.981726 -44.503829 0
-2.8500166 -21.943603 37.266903
-8.8793063 -20.849644 39.223146
-4.7076272 -24.395237 36.562849
-2.8423854 -19.233643 38.562149
-21.785204 -16.865164 40.752405
-15.292378 -19.223483 40.555457
-8.7458018 -29.610254 34.985924
-11.019057 -23.42007 38.569401
-6.679436 -26.955231 35.803303
-7.8143683 -23.965773 37.629444
-2.8455748 -13.649023 40.768906
-8.8351432 -17.873883 40.322494
-2.8447003 -16.45568 39.74311
-5.8049262 -18.609597 39.513577
-38.896733 -1.9296444 27.161733
-36.227986 -5.8931745 31.925483
-40.291262 -5.1876766 26.882885
-27.729352 -13.681557 39.274906
-32.567804 -9.8959194 36.139944
-42.6725 -12.191289 25.911549
-37.498019 -9.3737769 31.73636
-41.549722 -8.628478 26.462555
-39.009745 -7.2776273 29.369265
-18.925909 -42.149668 30.622764
-21.611562 -35.109236 34.968242
-16.086771 -38.728646 31.926689
-24.134622 -42.82014 31.271854
-24.648857 -19.420366 39.882688
-23.535647 -27.433535 38.081476
-21.328934 -20.752819 40.09852
-11.074827 -32.528705 34.060656
-18.703262 -32.02725 36.054096
-13.463645 -35.511295 33.063269
-12.282312 -29.405105 36.071834
-17.482189 -35.462162 34.134598
-34.364264 -41.654543 30.882118
-26.412305 -34.731378 35.240156
-29.448354 -42.755902 31.436755
-25.393734 -38.83651 33.444912
-14.493336 -22.719136 39.366344
-19.787455 -28.313828 37.74579
-17.890408 -21.847007 39.895201
-13.430982 -26.117884 37.856752
-20.653174 -24.596508 39.080783
-16.002385 -28.994924 37.024755
-2.8701101 -1.7738256 42.870948
-8.715552 -5.3865073 42.676603
-2.8738386 -4.7553829 42.720156
-21.440748 -13.251111 41.131003
-14.864169 -9.1865615 42.185674
-18.385966 -14.658009 41.436862
-2.8689595 -10.65947 41.661272
-8.7660196 -8.4761995 42.482132
-2.8709464 -7.741385 42.3063
-5.8040238 -12.693364 41.496467
-5.8000747 -6.5962688 42.630192
-12.071166 -16.936099 40.982038
-11.922588 -10.491973 42.249033
-15.221114 -15.893248 41.364328
-8.8747483 -14.789546 41.275799
-15.082572 -12.523443 41.917947
-8.8559489 -11.634081 42.009513
-46.44163 -28.702506 22.614159
-41.088478 -25.394076 29.59975
-45.580171 -24.244697 23.589824
-44.600324 -32.571936 25.137983
-28.333805 -17.511254 38.999109
-35.051196 -21.66283 35.192524
-31.104649 -15.672573 37.731472
-28.19353 -21.758869 38.60503
-43.726258 -16.098507 25.235333
-40.410636 -21.184445 30.312779
-44.674214 -20.033485 24.464042
-41.279568 -14.645343 28.479331
-43.071666 -22.762251 27.108274
-38.752064 -39.319742 29.469933
-38.58056 -28.603109 31.828282
-42.059789 -36.22071 27.501315
-34.962703 -36.496264 32.481349
-41.65146 -30.624702 28.687664
-35.647286 -11.59072 34.043973
-37.453464 -19.429192 33.270324
-33.553463 -13.663256 36.037783
-38.580306 -13.136437 31.449967
-34.382738 -17.609275 35.719953
-39.548212 -17.093042 30.9711
-27.248968 -30.321453 36.754062
-35.169093 -26.359044 34.661341
-27.828545 -26.068367 37.848516
-31.067471 -33.440815 34.907622
-31.75072 -24.107384 36.869199
-35.210336 -31.336884 33.730809
-2.742481 21.115637 35.860766
-7.9748496 18.725875 35.22783
-4.4019267 22.811077 34.188558
-2.7453001 18.576693 37.245009
-17.981505 13.920504 33.637031
-13.009492 16.353751 34.501232
-7.6327622 25.841887 30.53342
-9.5701159 20.340469 33.497753
-6.0445797 24.393234 32.400328
-7.0301198 21.560573 33.852961
-2.7708088 13.290402 39.697724
-8.0289266 16.242871 36.643022
-2.7582125 15.955375 38.534794
-5.4287621 17.40368 36.953064
-37.755412 1.8730241 26.364744
-33.042746 5.3750343 29.118528
-37.286607 4.8008141 24.878138
-36.654713 0 28.789158
-22.983341 11.339893 32.552819
