-2.136458782 -42.94029283 30.17332124
-9.008399805 -43.56193806 34.73573521
-2.174600649 -39.74736775 35.68475533
-6.544160655 -44.63425461 31.38805482
-6.183983264 -47.09136613 16.73609831
-2.077241745 -44.50113461 23.34873024
-8.529631996 -47.93563233 20.88014554
-1.975328949 -45.03428791 15.98074689
-6.32983831 -46.47894366 24.36052073
5.917505167 -36.07781565 32.36477742
2.036541022 -40.93206412 28.76217739
7.547812291 -36.49897192 29.10381586
2.083574259 -38.08358667 34.19103073
5.694222139 -38.83727404 27.31145613
0 -40.70163856 32.35660842
5.407347746 -41.17724476 14.63424133
1.980346833 -42.42533697 22.25960656
7.108949052 -39.951544 17.40237925
1.888786555 -43.06126205 15.28060422
5.508920265 -40.45107981 21.20119974
0 -43.82960447 19.18395934
-19.59501862 33.27829298 2.544984366
-18.02851894 33.91593756 7.677864387
-17.34649539 34.77854685 2.563499078
-14.29810468 34.54945125 18.46926237
-16.27442613 34.33388288 12.94638872
-12.59640966 37.62480604 2.626123952
-15.72721842 35.47973753 7.774037016
-15.00020316 36.22789984 2.593091438
-16.55569243 35.15254064 5.164247811
-2.05654945 28.94805261 41.45481667
-5.948558786 32.22552048 36.56845835
-12.01054806 34.4780314 24.34260362
-9.27542206 33.87388435 30.525726
-1.79379928 43.35368476 2.902428204
-5.239161191 41.50919815 8.47714088
-4.662306672 41.88400282 2.817589505
-11.75712304 36.49371441 19.02342468
-8.579185353 39.3965378 13.8814135
-12.84100387 36.30035222 16.10684295
-9.995462726 39.06607737 2.690244203
-7.98812281 40.03592475 8.261254558
-7.402411789 40.45382735 2.745235851
-11.65188809 38.09172881 5.327810147
-6.341098682 40.98108496 5.575704561
-14.79361938 35.79765797 10.54411847
-9.674711065 38.95808731 10.99388986
-13.85621895 36.06268543 13.2702324
-13.26416252 37.01864204 7.959413014
-11.27922083 37.75333914 13.5840971
-10.67281064 38.53846243 8.124223039
35.52358436 60.32983539 4.613772947
30.88070233 58.09395523 13.15126581
28.77940336 57.70075195 4.253076618
21.38310332 51.66939969 27.6211536
26.21855405 55.31284218 20.85699303
17.69067536 52.84110688 3.688186359
24.69365961 55.70753442 12.20619049
22.84214455 55.16744778 3.948731147
26.71969979 56.73367858 8.334725459
2.106305345 29.64841811 42.45776923
6.566043614 35.57066182 40.36441448
0 31.96454419 40.69765338
16.35738017 46.95624747 33.15262715
11.34610153 41.43601536 37.34040178
-4.047962471 35.19902231 35.61839699
4.36356995 37.94338439 38.39545645
-2.082162602 33.8581702 38.39234432
2.15213493 34.99599439 39.68254216
1.870248071 45.20134791 3.026124947
5.954266579 47.17488587 9.634205703
5.216741295 46.86478658 3.152653087
0 44.24518765 5.961147592
16.22012106 50.34671016 26.24470718
10.71848546 49.22043299 17.34287379
18.36736275 51.9228671 23.0387149
12.95129069 50.61857944 3.48579507
9.781934023 49.02638377 10.11640018
8.906294232 48.67247317 3.302961105
15.89599817 51.96634629 7.268423768
7.415660508 47.92573473 6.520562791
-3.588501039 42.29774016 11.69080785
3.911818165 46.10868619 12.74412743
-1.824016108 43.28248067 8.859781881
1.903544289 45.16962242 9.246073608
22.53679013 54.53461278 16.06304576
12.46313322 50.18649434 14.16252258
20.48385873 53.31201508 19.61758592
19.10672665 53.3245181 11.46535475
15.30545399 51.22977943 18.43307941
14.14588101 51.07937562 10.7679501
-10.34164093 36.64266364 22.64641157
-3.774785931 40.7999373 25.21574799
-9.022375908 36.6568865 25.81807656
-8.777940548 38.46063162 20.11571966
13.58928962 48.14978322 29.75820258
4.141150712 44.75980691 27.663082
11.32264511 46.00261847 32.40043657
11.0593328 48.45657389 25.34380781
-5.917505167 36.07781565 32.36477742
-2.036541022 40.93206412 28.76217739
-7.547812291 36.49897192 29.10381586
-2.083574259 38.08358667 34.19103073
-5.694222139 38.83727404 27.31145613
-5.407347746 41.17724476 14.63424133
-1.980346833 42.42533697 22.25960656
-7.108949052 39.951544 17.40237925
-1.888786555 43.06126205 15.28060422
-5.508920265 40.45107981 21.20119974
6.709878951 40.90875614 36.69852964
2.136458782 42.94029283 30.17332124
9.008399805 43.56193806 34.73573521
2.174600649 39.74736775 35.68475533
6.544160655 44.63425461 31.38805482
0 40.70163856 32.35660842
6.183983264 47.09136613 16.73609831
2.077241745 44.50113461 23.34873024
8.529631996 47.93563233 20.88014554
1.975328949 45.03428791 15.98074689
6.32983831 46.47894366 24.36052073
0 43.82960447 19.18395934
0 -23.38986698 44.45157142
0 -16.72062269 46.38381519
0 -3.345327425 48.26793445
0 -10.03521885 47.64503533
0 23.38986698 44.45157142
0 16.72062269 46.38381519
0 3.345327425 48.26793445
0 10.03521885 47.64503533
-35.52358436 -60.32983539 -4.613772947
-30.88070233 -58.09395523 -13.15126581
-28.77940336 -57.70075195 -4.253076618
-21.38310332 -51.66939969 -27.6211536
-26.21855405 -55.31284218 -20.85699303
-17.69067536 -52.84110688 -3.688186359
-24.69365961 -55.70753442 -12.20619049
-22.84214455 -55.16744778 -3.948731147
-26.71969979 -56.73367858 -8.334725459
-2.106305345 -29.64841811 -42.45776923
-6.566043614 -35.57066182 -40.36441448
-16.35738017 -46.95624747 -33.15262715
-11.34610153 -41.43601536 -37.34040178
-1.870248071 -45.20134791 -3.026124947
-5.954266579 -47.17488587 -9.634205703
-5.216741295 -46.86478658 -3.152653087
-16.22012106 -50.34671016 -26.24470718
-10.71848546 -49.22043299 -17.34287379
-18.36736275 -51.9228671 -23.0387149
-12.95129069 -50.61857944 -3.48579507
-9.781934023 -49.02638377 -10.11640018
-8.906294232 -48.67247317 -3.302961105
-15.89599817 -51.96634629 -7.268423768
-7.415660508 -47.92573473 -6.520562791
-22.53679013 -54.53461278 -16.06304576
-12.46313322 -50.18649434 -14.16252258
-20.48385873 -53.31201508 -19.61758592
-19.10672665 -53.3245181 -11.46535475
-15.30545399 -51.22977943 -18.43307941
-14.14588101 -51.07937562 -10.7679501
19.59501862 -33.27829298 -2.544984366
18.02851894 -33.91593756 -7.677864387
17.34649539 -34.77854685 -2.563499078
14.29810468 -34.54945125 -18.46926237
16.27442613 -34.33388288 -12.94638872
12.59640966 -37.62480604 -2.626123952
15.72721842 -35.47973753 -7.774037016
15.00020316 -36.22789984 -2.593091438
16.55569243 -35.15254064 -5.164247811
2.05654945 -28.94805261 -41.45481667
5.948558786 -32.22552048 -36.56845835
0 -31.96454419 -40.69765338
12.01054806 -34.4780314 -24.34260362
9.27542206 -33.87388435 -30.525726
-4.36356995 -37.94338439 -38.39545645
4.047962471 -35.19902231 -35.61839699
-2.15213493 -34.99599439 -39.68254216
2.082162602 -33.8581702 -38.39234432
1.79379928 -43.35368476 -2.902428204
5.239161191 -41.50919815 -8.47714088
4.662306672 -41.88400282 -2.817589505
0 -44.24518765 -5.961147592
11.75712304 -36.49371441 -19.02342468
8.579185353 -39.3965378 -13.8814135
12.84100387 -36.30035222 -16.10684295
9.995462726 -39.06607737 -2.690244203
7.98812281 -40.03592475 -8.261254558
7.402411789 -40.45382735 -2.745235851
11.65188809 -38.09172881 -5.327810147
6.341098682 -40.98108496 -5.575704561
-3.911818165 -46.10868619 -12.74412743
3.588501039 -42.29774016 -11.69080785
-1.903544289 -45.16962242 -9.246073608
1.824016108 -43.28248067 -8.859781881
14.79361938 -35.79765797 -10.54411847
9.674711065 -38.95808731 -10.99388986
13.85621895 -36.06268543 -13.2702324
13.26416252 -37.01864204 -7.959413014
11.27922083 -37.75333914 -13.5840971
10.67281064 -38.53846243 -8.124223039
-13.58928962 -48.14978322 -29.75820258
-4.141150712 -44.75980691 -27.663082
-11.32264511 -46.00261847 -32.40043657
-11.0593328 -48.45657389 -25.34380781
10.34164093 -36.64266364 -22.64641157
3.774785931 -40.7999373 -25.21574799
9.022375908 -36.6568865 -25.81807656
8.777940548 -38.46063162 -20.11571966
-6.709878951 -40.90875614 -36.69852964
-2.136458782 -42.94029283 -30.17332124
-9.008399805 -43.56193806 -34.73573521
-2.174600649 -39.74736775 -35.68475533
-6.544160655 -44.63425461 -31.38805482
-6.183983264 -47.09136613 -16.73609831
-2.077241745 -44.50113461 -23.34873024
-8.529631996 -47.93563233 -20.88014554
-1.975328949 -45.03428791 -15.98074689
-6.32983831 -46.47894366 -24.36052073
5.917505167 -36.07781565 -32.36477742
2.036541022 -40.93206412 -28.76217739
7.547812291 -36.49897192 -29.10381586
2.083574259 -38.08358667 -34.19103073
5.694222139 -38.83727404 -27.31145613
0 -40.70163856 -32.35660842
5.407347746 -41.17724476 -14.63424133
1.980346833 -42.42533697 -22.25960656
7.108949052 -39.951544 -17.40237925
1.888786555 -43.06126205 -15.28060422
5.508920265 -40.45107981 -21.20119974
0 -43.82960447 -19.18395934
-19.59501862 33.27829298 -2.544984366
-18.02851894 33.91593756 -7.677864387
-17.34649539 34.77854685 -2.563499078
-14.29810468 34.54945125 -18.46926237
-16.27442613 34.33388288 -12.94638872
-12.59640966 37.62480604 -2.626123952
-15.72721842 35.47973753 -7.774037016
-15.00020316 36.22789984 -2.593091438
-16.55569243 35.15254064 -5.164247811
-2.05654945 28.94805261 -41.45481667
-5.948558786 32.22552048 -36.56845835
-12.01054806 34.4780314 -24.34260362
-9.27542206 33.87388435 -30.525726
-1.79379928 43.35368476 -2.902428204
-5.239161191 41.50919815 -8.47714088
-4.662306672 41.88400282 -2.817589505
-11.75712304 36.49371441 -19.02342468
-8.579185353 39.3965378 -13.8814135
-12.84100387 36.30035222 -16.10684295
-9.995462726 39.06607737 -2.690244203
-7.98812281 40.03592475 -8.261254558
-7.402411789 40.45382735 -2.745235851
-11.65188809 38.09172881 -5.327810147
-6.341098682 40.98108496 -5.575704561
-14.79361938 35.79765797 -10.54411847
-9.674711065 38.95808731 -10.99388986
-13.85621895 36.06268543 -13.2702324
-13.26416252 37.01864204 -7.959413014
-11.27922083 37.75333914 -13.5840971
-10.67281064 38.53846243 -8.124223039
35.52358436 60.32983539 -4.613772947
30.88070233 58.09395523 -13.15126581
28.77940336 57.70075195 -4.253076618
21.38310332 51.66939969 -27.6211536
26.21855405 55.31284218 -20.85699303
17.69067536 52.84110688 -3.688186359
24.69365961 55.70753442 -12.20619049
22.84214455 55.16744778 -3.948731147
26.71969979 56.73367858 -8.334725459
2.106305345 29.64841811 -42.45776923
6.566043614 35.57066182 -40.36441448
0 31.96454419 -40.69765338
16.35738017 46.95624747 -33.15262715
11.34610153 41.43601536 -37.34040178
-4.047962471 35.19902231 -35.61839699
4.36356995 37.94338439 -38.39545645
-2.082162602 33.8581702 -38.39234432
2.15213493 34.99599439 -39.68254216
1.870248071 45.20134791 -3.026124947
5.954266579 47.17488587 -9.634205703
5.216741295 46.86478658 -3.152653087
0 44.24518765 -5.961147592
16.22012106 50.34671016 -26.24470718
10.71848546 49.22043299 -17.34287379
18.36736275 51.9228671 -23.0387149
12.95129069 50.61857944 -3.48579507
9.781934023 49.02638377 -10.11640018
8.906294232 48.67247317 -3.302961105
15.89599817 51.96634629 -7.268423768
7.415660508 47.92573473 -6.520562791
-3.588501039 42.29774016 -11.69080785
3.911818165 46.10868619 -12.74412743
-1.824016108 43.28248067 -8.859781881
1.903544289 45.16962242 -9.246073608
22.53679013 54.53461278 -16.06304576
12.46313322 50.18649434 -14.16252258
20.48385873 53.31201508 -19.61758592
19.10672665 53.3245181 -11.46535475
15.30545399 51.22977943 -18.43307941
14.14588101 51.07937562 -10.7679501
-10.34164093 36.64266364 -22.64641157
-3.774785931 40.7999373 -25.21574799
-9.022375908 36.6568865 -25.81807656
-8.777940548 38.46063162 -20.11571966
13.58928962 48.14978322 -29.75820258
4.141150712 44.75980691 -27.663082
11.32264511 46.00261847 -32.40043657
11.0593328 48.45657389 -25.34380781
-5.917505167 36.07781565 -32.36477742
-2.036541022 40.93206412 -28.76217739
-7.547812291 36.49897192 -29.10381586
-2.083574259 38.08358667 -34.19103073
-5.694222139 38.83727404 -27.31145613
-5.407347746 41.17724476 -14.63424133
-1.980346833 42.42533697 -22.25960656
-7.108949052 39.951544 -17.40237925
-1.888786555 43.06126205 -15.28060422
-5.508920265 40.45107981 -21.20119974
6.709878951 40.90875614 -36.69852964
2.136458782 42.94029283 -30.17332124
9.008399805 43.56193806 -34.73573521
2.174600649 39.74736775 -35.68475533
6.544160655 44.63425461 -31.38805482
0 40.70163856 -32.35660842
6.183983264 47.09136613 -16.73609831
2.077241745 44.50113461 -23.34873024
8.529631996 47.93563233 -20.88014554
1.975328949 45.03428791 -15.98074689
6.32983831 46.47894366 -24.36052073
0 43.82960447 -19.18395934
0 -23.38986698 -44.45157142
0 -16.72062269 -46.38381519
0 -3.345327425 -48.26793445
0 -10.03521885 -47.64503533
0 23.38986698 -44.45157142
0 16.72062269 -46.38381519
0 3.345327425 -48.26793445
0 10.03521885 -47.64503533
44.18774026 63.27868394 -3.139218867
57.11550068 64.81278741 -10.54303882
41.48950297 62.18322187 -8.006362439
54.00423524 38.12873413 -18.81257243
60.84350586 54.82961947 -16.66030357
36.0262775 59.32996586 -16.95023107
53.24430517 62.91068052 -15.72644882
38.75886788 60.85656558 -12.63785916
47.68363436 63.33581712 -11.81588026
35.81633223 2.73908297 -21.08947407
39.02468777 8.834379409 -20.74415077
47.68436796 25.49085648 -19.73391936
42.85818908 16.16067653 -20.31498839
24.51053682 50.33613057 -31.10943956
36.45681469 50.60701534 -31.27685555
27.43253995 53.00505214 -28.19408941
50.84761825 36.94203664 -22.83143426
47.34211407 47.15199428 -29.14153511
53.99713765 44.51355738 -22.42886512
33.17537925 57.48429028 -21.16374187
40.5590533 54.07017071 -28.34517576
30.34398543 55.41168142 -24.84854223
40.94783845 59.35213547 -21.05720644
33.90435496 53.86978982 -28.46877805
56.74358457 59.41594337 -19.3191016
47.18993631 53.12321578 -27.55796248
56.58278683 52.68216539 -21.45262634
49.22923711 60.39049468 -20.56271673
52.00522088 50.05834913 -25.63761099
44.9353306 57.37968475 -24.79994262
22.02509053 -31.54084672 -1.564723141
25.14085205 -28.52901016 -4.640788859
21.29688351 -31.91912985 -4.109727908
29.46551093 -20.8036023 -10.26441826
27.63487065 -24.90338813 -7.567041505
19.67515714 -32.40208211 -9.257089077
24.32256656 -28.73826994 -7.184009575
20.50824149 -32.20066043 -6.686992725
22.8905845 -30.40443316 -5.672227153
33.86448739 -2.589814057 -19.94018327
32.88627704 -7.444770615 -17.48118764
30.81283527 -16.47176202 -12.75172625
31.90054594 -12.02884245 -15.12101268
15.82403144 -32.49706518 -20.08429082
20.50030072 -28.45720455 -17.58751964
16.86121884 -32.57918463 -17.3292999
28.38577909 -20.62296185 -12.74569137
24.62037017 -24.52149796 -15.1551192
27.61493197 -22.76488926 -11.47045216
18.77104021 -32.52532295 -11.97470711
21.49947102 -28.66142016 -15.02516048
17.84521651 -32.58746135 -14.61336109
21.16911741 -30.68372769 -10.88610516
19.26382751 -30.60781838 -16.17543322
25.62452701 -26.831323 -8.724208114
23.67982125 -26.65712972 -13.82853372
26.69888294 -24.85835438 -10.12253358
23.46157797 -28.78078928 -9.799741176
25.68286981 -24.72140377 -12.66117928
22.51306494 -28.74781495 -12.42502751
3.268125311 -25.16281718 -42.73410598
9.214963841 -21.6378073 -40.70586852
5.236190186 -27.134286 -40.6680535
3.247300712 -21.97359357 -44.05556489
18.54953493 -14.36024823 -34.69961279
14.2562837 -17.92104663 -37.80773044
8.849978696 -29.96296061 -35.40266394
10.90622823 -23.18026244 -38.1744736
7.121319685 -28.73847708 -38.17190013
8.209148471 -25.17651899 -39.53047554
3.219978624 -15.44488021 -46.13303615
9.241575018 -18.69611227 -42.17739835
3.234627258 -18.71128234 -45.19075209
6.358358123 -20.38380521 -43.28073526
32.63131067 -1.618820426 -22.78656556
29.24058761 -4.756540532 -25.76792124
32.17565547 -4.142756706 -21.46804094
22.34715032 -11.02599899 -31.65173957
25.85747484 -7.856946385 -28.69360461
31.25744373 -8.930072453 -18.98011107
28.85168257 -7.21236053 -24.41855307
31.71498816 -6.586134952 -20.19892224
30.50017177 -5.690088072 -22.96266322
14.49552783 -32.28281925 -23.45425671
16.62244576 -27.00412729 -26.89568222
13.28349695 -31.97980857 -26.36315749
16.9949848 -30.15284973 -22.02084198
19.78952512 -15.59179115 -32.02012427
18.3100223 -21.34246165 -29.62623842
17.83640811 -17.35462958 -33.53255104
10.51490466 -30.88411636 -32.33861454
15.37960704 -26.33586126 -29.64711864
11.95332845 -31.52773114 -29.3543185
11.56816721 -27.69536992 -33.97446697
14.40305152 -29.21621192 -28.12247139
21.46591661 -26.01984878 -19.29076623
18.92349796 -24.88382391 -25.24834591
19.32096667 -28.0520037 -20.62554977
18.02569121 -27.56801823 -23.74080368
13.47874127 -21.12870003 -36.61053327
16.28236408 -23.29840104 -31.05961355
15.73120761 -19.21028325 -35.08023354
12.55252147 -24.40963015 -35.38071191
17.0817231 -20.34315636 -32.32273726
14.04587058 -25.44989107 -32.49796333
3.223315027 -1.992118243 -48.14678393
9.453217308 -5.8424096 -46.28865745
3.222950409 -5.333063305 -47.90976962
18.84238481 -11.64523424 -36.14641536
14.78732306 -9.139068255 -41.96758004
16.73629001 -13.34282363 -37.71895114
3.231181747 -12.0052881 -46.92124082
9.404210281 -9.093290386 -45.574949
3.223440792 -8.691871087 -47.50066091
6.371973004 -13.93546585 -45.55707898
6.401452704 -7.280199813 -47.05028292
12.01237696 -16.85361684 -40.78244785
12.23540539 -10.76725466 -43.35753744
14.45727581 -15.09567979 -39.28855005
9.345971044 -15.57482676 -43.46742102
14.63961133 -12.15564109 -40.68685663
9.40455041 -12.35477968 -44.61188607
29.16636287 -18.02580358 -14.20218843
26.97707294 -16.672748 -19.43402792
29.74031457 -15.8192673 -15.39197368
27.36881058 -19.98763826 -15.4258229
21.98084405 -13.58490872 -30.25479017
24.61482651 -15.21279941 -24.71407502
23.73943891 -11.96149453 -28.7971087
21.2643842 -16.41117477 -29.11704203
30.75800731 -11.32404217 -17.7510856
27.48378322 -14.40780852 -20.61610337
30.26911755 -13.57373439 -16.57566849
29.60472074 -10.50329043 -20.42469598
28.62348759 -15.12676619 -18.01493726
23.58312235 -23.92859043 -17.9343484
25.14570014 -18.64268417 -20.74475939
25.50255376 -21.96208364 -16.67516161
22.38295796 -23.36473666 -20.79440664
26.27863661 -19.32166176 -18.09955066
27.12894394 -8.820979601 -25.90876182
26.26791292 -13.62662535 -23.33407569
25.45926846 -10.36723091 -27.34428909
28.3945169 -9.668217008 -23.14669572
25.04295995 -12.82586574 -26.01693197
27.93725524 -12.07469734 -21.87829727
19.7741344 -22.00378747 -26.67182738
23.89504761 -17.90920824 -23.5500638
20.53037239 -19.23180935 -27.92255668
21.10897892 -22.72156142 -23.71819221
22.63158242 -17.18349226 -26.2799813
23.18483461 -20.63429543 -22.21061534
3.37005996 25.94765947 -44.06700655
10.10799364 23.73474518 -44.65070804
5.563607121 28.83098235 -43.21101107
3.327448555 22.51593205 -45.14291675
22.75945061 17.61938299 -42.57487459
16.68134961 20.96950725 -44.2390165
10.25122807 34.70710536 -41.00809673
12.48085142 26.52699039 -43.68604096
7.870733773 31.76277883 -42.18893082
9.050808647 27.75779443 -43.5834205
3.2662013 15.6665909 -46.79527421
9.967462411 20.16461436 -45.49025808
3.296410384 19.06867793 -46.05391984
6.678151795 21.40900885 -45.45754018
33.7720865 1.675413655 -23.58317357
32.38209196 5.267566267 -28.53633471
35.22816241 4.535780357 -23.50471566
31.99098989 0 -25.12620078
27.49116231 13.56403494 -38.93754227
30.48694333 9.263637717 -33.83084788
38.47401019 10.99180411 -23.36214672
33.84491037 8.460570546 -28.64455958
36.79430859 7.640938745 -23.43388478
34.57952564 6.451129124 -26.03388623
28.48681303 -3.237471639 -28.15140636
30.46392135 3.462166205 -30.105236
30.22486308 -1.639209084 -26.65527663
31.27190328 1.695994049 -27.57866034
21.05789202 46.89778323 -34.07238502
23.78389279 38.63831336 -38.48314692
18.23122194 43.89137816 -36.18268422
26.43568147 46.90272691 -34.25339718
25.52863293 20.11352523 -41.30619577
25.1718473 29.34071717 -40.7289045
22.59316599 21.98290285 -42.47528352
12.87260599 37.80909803 -39.58973062
20.73674863 35.50936859 -39.97402831
15.48024853 40.83022696 -38.01553246
14.05964819 33.66022901 -41.29167951
19.65451307 39.86866382 -38.37613722
37.4238097 45.36316277 -33.63163928
28.53643606 37.52454496 -38.07424031
31.98355293 46.43674204 -34.14313445
27.72181376 42.39701314 -36.51111796
16.03450814 25.13501118 -43.55242688
21.59554961 30.90102722 -41.1948426
19.36537219 23.64817083 -43.18433752
15.1096727 29.38226581 -42.58833401
22.20219119 26.44128138 -42.01189706
17.87159585 32.38177121 -41.34955276
3.227974975 1.99499825 -48.21638975
9.642008831 5.959089177 -47.21309469
3.235836949 5.35438685 -48.10133046
6.438370268 0 -47.78725845
22.22947149 13.73856893 -42.64405581
15.96891305 9.869331029 -45.3210249
19.50089355 15.54687348 -43.94959998
3.264357235 12.1285499 -47.40299492
9.708587861 9.387604703 -47.0500322
3.24566234 8.751790548 -47.82811791
6.559072946 14.34465228 -46.89476933
6.487942565 7.378562404 -47.68597808
12.51507921 -3.841511666 -45.27998195
12.78815008 3.925330948 -46.26796166
9.588335847 -1.974007856 -46.84166795
9.65190371 1.987094951 -47.15221451
13.33623932 18.7110235 -45.27700774
13.03244412 11.46865513 -46.181934
16.48354331 17.21142316 -44.79505854
9.927652008 16.54418352 -46.17277622
16.24803982 13.49116012 -45.15705042
9.843743061 12.93174808 -46.69526184
47.33748854 29.25617686 -23.05038633
40.96111877 25.31536362 -29.50800213
44.74368065 23.79975647 -23.15690217
47.06803651 34.37412396 -26.52885455
28.46729134 17.59375361 -39.1828414
34.7044607 21.44853627 -34.84439125
30.37695412 15.30591233 -36.84874159
28.9133786 22.31442513 -39.5907096
40.38768969 14.86936057 -23.30857554
39.00784169 20.44905933 -29.26051665
42.43171233 19.02786865 -23.23602583
37.88873756 13.44232962 -26.13995086
41.8466012 22.11483664 -26.33724813
42.47167747 43.09384313 -32.29860108
39.68121283 29.41911795 -32.73630116
45.67941803 39.33783293 -29.86805498
37.65330177 39.30488016 -34.98099179
43.32616987 31.85605144 -29.84112982
32.94105616 10.71078863 -31.45946189
36.0851173 18.71935451 -32.05480622
31.83508199 12.96351647 -34.19217196
35.40676882 12.05586014 -28.86295644
33.25175286 17.03003633 -34.54498165
37.1276128 16.04684082 -29.07547441
29.00598004 32.27657945 -39.12396249
35.91920046 26.92124541 -35.40061842
29.11403942 27.27255233 -39.59686655
33.13501929 35.66630952 -37.23073291
32.39903753 24.59963252 -37.62203122
37.04970137 32.97390284 -35.49288486
21.192452 -9.677680205 -34.29010763
22.56693736 -3.378260192 -36.51407167
23.06867231 -8.06157007 -32.75324172
19.49909716 -8.508863642 -37.28166854
24.98073652 11.40762661 -40.41968076
23.88241864 3.575187139 -38.6425651
26.82315906 9.373611682 -38.08391747
22.05538992 9.624358699 -42.16922095
26.66438612 -4.87525808 -29.72344887
24.55309867 -1.738512074 -34.942035
24.89647765 -6.456677052 -31.22256693
27.57177281 -1.680201938 -30.71074422
23.80719791 -4.963612073 -33.85416965
15.26670761 -5.641043844 -42.95685315
20.71800558 -1.843196851 -39.48714751
17.53380758 -7.162638106 -40.25327082
15.57966839 -1.925752919 -43.90403504
20.13067462 -5.230754991 -38.40855874
29.45788934 5.386016104 -32.83743582
25.33447766 1.793838566 -36.05403201
28.29523815 7.33811495 -35.48493804
28.50713649 1.737202258 -31.75259652
26.08851847 5.439249329 -37.09823951
26.53108793 0 -33.37366937
16.02357598 5.920706477 -45.0864992
21.27454523 1.892709925 -40.54787525
19.05151018 7.782626346 -43.73753935
15.83730971 1.957599139 -44.63007706
21.72123994 5.644047526 -41.44329667
18.51252002 0 -42.29556663
44.18774026 63.27868394 3.139218867
57.11550068 64.81278741 10.54303882
41.48950297 62.18322187 8.006362439
51.18455795 65.16881283 0
54.00423524 38.12873413 18.81257243
60.84350586 54.82961947 16.66030357
36.0262775 59.32996586 16.95023107
53.24430517 62.91068052 15.72644882
38.75886788 60.85656558 12.63785916
47.68363436 63.33581712 11.81588026
63.94858939 64.71049745 -7.354223865
63.94858939 64.71049745 7.354223865
58.33677953 66.14904802 -3.587514032
58.33677953 66.14904802 3.587514032
35.81633223 2.73908297 21.08947407
39.02468777 8.834379409 20.74415077
47.68436796 25.49085648 19.73391936
42.85818908 16.16067653 20.31498839
24.51053682 50.33613057 31.10943956
36.45681469 50.60701534 31.27685555
27.43253995 53.00505214 28.19408941
50.84761825 36.94203664 22.83143426
47.34211407 47.15199428 29.14153511
53.99713765 44.51355738 22.42886512
33.17537925 57.48429028 21.16374187
40.5590533 54.07017071 28.34517576
30.34398543 55.41168142 24.84854223
40.94783845 59.35213547 21.05720644
33.90435496 53.86978982 28.46877805
56.74358457 59.41594337 19.3191016
47.18993631 53.12321578 27.55796248
56.58278683 52.68216539 21.45262634
49.22923711 60.39049468 20.56271673
52.00522088 50.05834913 25.63761099
44.9353306 57.37968475 24.79994262
54.0015267 33.37477895 -15.24082431
60.11603112 37.1537505 -5.561899442
57.82444127 40.72675 -14.23235566
54.0015267 33.37477895 15.24082431
60.11603112 37.1537505 5.561899442
57.82444127 40.72675 14.23235566
65.10327769 58.40301176 -10.67827902
63.99014807 44.96465129 -3.183776933
61.98201799 49.4236726 -12.81758397
67.97718254 61.02917663 -3.719069555
61.46710406 43.22538483 -9.012150141
65.10327769 58.40301176 10.67827902
63.99014807 44.96465129 3.183776933
61.98201799 49.4236726 12.81758397
67.97718254 61.02917663 3.719069555
61.46710406 43.22538483 9.012150141
67.31435915 53.51294044 0
22.02509053 -31.54084672 1.564723141
25.14085205 -28.52901016 4.640788859
21.29688351 -31.91912985 4.109727908
23.72400561 -30.20569764 0
29.46551093 -20.8036023 10.26441826
27.63487065 -24.90338813 7.567041505
19.67515714 -32.40208211 9.257089077
24.32256656 -28.73826994 7.184009575
20.50824149 -32.20066043 6.686992725
22.8905845 -30.40443316 5.672227153
26.80349092 -27.12283801 -3.082458495
26.80349092 -27.12283801 3.082458495
25.33733456 -28.73042656 -1.558160118
25.33733456 -28.73042656 1.558160118
33.86448739 -2.589814057 19.94018327
32.88627704 -7.444770615 17.48118764
30.81283527 -16.47176202 12.75172625
31.90054594 -12.02884245 15.12101268
15.82403144 -32.49706518 20.08429082
20.50030072 -28.45720455 17.58751964
16.86121884 -32.57918463 17.3292999
28.38577909 -20.62296185 12.74569137
24.62037017 -24.52149796 15.1551192
27.61493197 -22.76488926 11.47045216
18.77104021 -32.52532295 11.97470711
21.49947102 -28.66142016 15.02516048
17.84521651 -32.58746135 14.61336109
21.16911741 -30.68372769 10.88610516
19.26382751 -30.60781838 16.17543322
25.62452701 -26.831323 8.724208114
23.67982125 -26.65712972 13.82853372
26.69888294 -24.85835438 10.12253358
23.46157797 -28.78078928 9.799741176
25.68286981 -24.72140377 12.66117928
22.51306494 -28.74781495 12.42502751
31.11100354 -19.22765761 -8.78044322
32.40376449 -20.02662782 -2.997977017
30.28600529 -21.33095519 -7.454308061
31.11100354 -19.22765761 8.78044322
32.40376449 -20.02662782 2.997977017
30.28600529 -21.33095519 7.454308061
28.17543146 -25.27568678 -4.621351328
31.25718975 -21.9638285 -1.555175644
29.30798437 -23.36981388 -6.060750565
28.43418413 -25.52790187 -1.555650066
30.91328574 -21.73908618 -4.532427169
28.17543146 -25.27568678 4.621351328
31.25718975 -21.9638285 1.555175644
29.30798437 -23.36981388 6.060750565
28.43418413 -25.52790187 1.555650066
30.91328574 -21.73908618 4.532427169
29.93713352 -23.79914276 0
3.268125311 -25.16281718 42.73410598
9.214963841 -21.6378073 40.70586852
5.236190186 -27.134286 40.6680535
3.247300712 -21.97359357 44.05556489
18.54953493 -14.36024823 34.69961279
14.2562837 -17.92104663 37.80773044
8.849978696 -29.96296061 35.40266394
10.90622823 -23.18026244 38.1744736
7.121319685 -28.73847708 38.17190013
8.209148471 -25.17651899 39.53047554
3.219978624 -15.44488021 46.13303615
9.241575018 -18.69611227 42.17739835
3.234627258 -18.71128234 45.19075209
6.358358123 -20.38380521 43.28073526
32.63131067 -1.618820426 22.78656556
29.24058761 -4.756540532 25.76792124
32.17565547 -4.142756706 21.46804094
22.34715032 -11.02599899 31.65173957
25.85747484 -7.856946385 28.69360461
31.25744373 -8.930072453 18.98011107
28.85168257 -7.21236053 24.41855307
31.71498816 -6.586134952 20.19892224
30.50017177 -5.690088072 22.96266322
14.49552783 -32.28281925 23.45425671
16.62244576 -27.00412729 26.89568222
13.28349695 -31.97980857 26.36315749
16.9949848 -30.15284973 22.02084198
19.78952512 -15.59179115 32.02012427
18.3100223 -21.34246165 29.62623842
17.83640811 -17.35462958 33.53255104
10.51490466 -30.88411636 32.33861454
15.37960704 -26.33586126 29.64711864
11.95332845 -31.52773114 29.3543185
11.56816721 -27.69536992 33.97446697
14.40305152 -29.21621192 28.12247139
21.46591661 -26.01984878 19.29076623
18.92349796 -24.88382391 25.24834591
19.32096667 -28.0520037 20.62554977
18.02569121 -27.56801823 23.74080368
13.47874127 -21.12870003 36.61053327
16.28236408 -23.29840104 31.05961355
15.73120761 -19.21028325 35.08023354
12.55252147 -24.40963015 35.38071191
17.0817231 -20.34315636 32.32273726
14.04587058 -25.44989107 32.49796333
3.223315027 -1.992118243 48.14678393
9.453217308 -5.8424096 46.28865745
3.222950409 -5.333063305 47.90976962
18.84238481 -11.64523424 36.14641536
14.78732306 -9.139068255 41.96758004
16.73629001 -13.34282363 37.71895114
3.231181747 -12.0052881 46.92124082
9.404210281 -9.093290386 45.574949
3.223440792 -8.691871087 47.50066091
6.371973004 -13.93546585 45.55707898
6.401452704 -7.280199813 47.05028292
12.01237696 -16.85361684 40.78244785
12.23540539 -10.76725466 43.35753744
14.45727581 -15.09567979 39.28855005
9.345971044 -15.57482676 43.46742102
14.63961133 -12.15564109 40.68685663
9.40455041 -12.35477968 44.61188607
29.16636287 -18.02580358 14.20218843
26.97707294 -16.672748 19.43402792
29.74031457 -15.8192673 15.39197368
27.36881058 -19.98763826 15.4258229
21.98084405 -13.58490872 30.25479017
24.61482651 -15.21279941 24.71407502
23.73943891 -11.96149453 28.7971087
21.2643842 -16.41117477 29.11704203
30.75800731 -11.32404217 17.7510856
27.48378322 -14.40780852 20.61610337
30.26911755 -13.57373439 16.57566849
29.60472074 -10.50329043 20.42469598
28.62348759 -15.12676619 18.01493726
23.58312235 -23.92859043 17.9343484
25.14570014 -18.64268417 20.74475939
25.50255376 -21.96208364 16.67516161
22.38295796 -23.36473666 20.79440664
26.27863661 -19.32166176 18.09955066
27.12894394 -8.820979601 25.90876182
26.26791292 -13.62662535 23.33407569
25.45926846 -10.36723091 27.34428909
28.3945169 -9.668217008 23.14669572
25.04295995 -12.82586574 26.01693197
27.93725524 -12.07469734 21.87829727
19.7741344 -22.00378747 26.67182738
23.89504761 -17.90920824 23.5500638
20.53037239 -19.23180935 27.92255668
21.10897892 -22.72156142 23.71819221
22.63158242 -17.18349226 26.2799813
23.18483461 -20.63429543 22.21061534
3.37005996 25.94765947 44.06700655
10.10799364 23.73474518 44.65070804
5.563607121 28.83098235 43.21101107
3.327448555 22.51593205 45.14291675
22.75945061 17.61938299 42.57487459
16.68134961 20.96950725 44.2390165
10.25122807 34.70710536 41.00809673
12.48085142 26.52699039 43.68604096
7.870733773 31.76277883 42.18893082
9.050808647 27.75779443 43.5834205
3.2662013 15.6665909 46.79527421
9.967462411 20.16461436 45.49025808
3.296410384 19.06867793 46.05391984
6.678151795 21.40900885 45.45754018
33.7720865 1.675413655 23.58317357
32.38209196 5.267566267 28.53633471
35.22816241 4.535780357 23.50471566
31.99098989 0 25.12620078
27.49116231 13.56403494 38.93754227
30.48694333 9.263637717 33.83084788
38.47401019 10.99180411 23.36214672
33.84491037 8.460570546 28.64455958
36.79430859 7.640938745 23.43388478
34.57952564 6.451129124 26.03388623
28.48681303 -3.237471639 28.15140636
30.46392135 3.462166205 30.105236
30.22486308 -1.639209084 26.65527663
31.27190328 1.695994049 27.57866034
21.05789202 46.89778323 34.07238502
23.78389279 38.63831336 38.48314692
18.23122194 43.89137816 36.18268422
26.43568147 46.90272691 34.25339718
25.52863293 20.11352523 41.30619577
25.1718473 29.34071717 40.7289045
22.59316599 21.98290285 42.47528352
12.87260599 37.80909803 39.58973062
20.73674863 35.50936859 39.97402831
15.48024853 40.83022696 38.01553246
14.05964819 33.66022901 41.29167951
19.65451307 39.86866382 38.37613722
37.4238097 45.36316277 33.63163928
28.53643606 37.52454496 38.07424031
31.98355293 46.43674204 34.14313445
27.72181376 42.39701314 36.51111796
16.03450814 25.13501118 43.55242688
21.59554961 30.90102722 41.1948426
19.36537219 23.64817083 43.18433752
15.1096727 29.38226581 42.58833401
22.20219119 26.44128138 42.01189706
17.87159585 32.38177121 41.34955276
3.227974975 1.99499825 48.21638975
9.642008831 5.959089177 47.21309469
3.235836949 5.35438685 48.10133046
6.438370268 0 47.78725845
22.22947149 13.73856893 42.64405581
15.96891305 9.869331029 45.3210249
19.50089355 15.54687348 43.94959998
3.264357235 12.1285499 47.40299492
9.708587861 9.387604703 47.0500322
3.24566234 8.751790548 47.82811791
6.559072946 14.34465228 46.89476933
6.487942565 7.378562404 47.68597808
12.51507921 -3.841511666 45.27998195
12.78815008 3.925330948 46.26796166
9.588335847 -1.974007856 46.84166795
9.65190371 1.987094951 47.15221451
13.33623932 18.7110235 45.27700774
13.03244412 11.46865513 46.181934
16.48354331 17.21142316 44.79505854
9.927652008 16.54418352 46.17277622
16.24803982 13.49116012 45.15705042
9.843743061 12.93174808 46.69526184
47.33748854 29.25617686 23.05038633
40.96111877 25.31536362 29.50800213
44.74368065 23.79975647 23.15690217
47.06803651 34.37412396 26.52885455
28.46729134 17.59375361 39.1828414
34.7044607 21.44853627 34.84439125
30.37695412 15.30591233 36.84874159
28.9133786 22.31442513 39.5907096
40.38768969 14.86936057 23.30857554
39.00784169 20.44905933 29.26051665
42.43171233 19.02786865 23.23602583
37.88873756 13.44232962 26.13995086
41.8466012 22.11483664 26.33724813
42.47167747 43.09384313 32.29860108
39.68121283 29.41911795 32.73630116
45.67941803 39.33783293 29.86805498
37.65330177 39.30488016 34.98099179
43.32616987 31.85605144 29.84112982
32.94105616 10.71078863 31.45946189
36.0851173 18.71935451 32.05480622
31.83508199 12.96351647 34.19217196
35.40676882 12.05586014 28.86295644
33.25175286 17.03003633 34.54498165
37.1276128 16.04684082 29.07547441
29.00598004 32.27657945 39.12396249
35.91920046 26.92124541 35.40061842
29.11403942 27.27255233 39.59686655
33.13501929 35.66630952 37.23073291
32.39903753 24.59963252 37.62203122
37.04970137 32.97390284 35.49288486
21.192452 -9.677680205 34.29010763
22.56693736 -3.378260192 36.51407167
23.06867231 -8.06157007 32.75324172
19.49909716 -8.508863642 37.28166854
24.98073652 11.40762661 40.41968076
23.88241864 3.575187139 38.6425651
26.82315906 9.373611682 38.08391747
22.05538992 9.624358699 42.16922095
26.66438612 -4.87525808 29.72344887
24.55309867 -1.738512074 34.942035
24.89647765 -6.456677052 31.22256693
27.57177281 -1.680201938 30.71074422
23.80719791 -4.963612073 33.85416965
15.26670761 -5.641043844 42.95685315
20.71800558 -1.843196851 39.48714751
17.53380758 -7.162638106 40.25327082
15.57966839 -1.925752919 43.90403504
20.13067462 -5.230754991 38.40855874
29.45788934 5.386016104 32.83743582
25.33447766 1.793838566 36.05403201
28.29523815 7.33811495 35.48493804
28.50713649 1.737202258 31.75259652
26.08851847 5.439249329 37.09823951
26.53108793 0 33.37366937
16.02357598 5.920706477 45.0864992
21.27454523 1.892709925 40.54787525
19.05151018 7.782626346 43.73753935
15.83730971 1.957599139 44.63007706
21.72123994 5.644047526 41.44329667
18.51252002 0 42.29556663
35.80465361 0 -18.8399658
38.63426175 0 -13.92703276
37.30446293 2.749682347 -18.60634653
35.2528274 -2.598457921 -17.5830523
43.19023532 0 -2.99340505
41.30196143 0 -8.699211133
40.6800907 8.913496912 -18.03239585
40.27009724 2.810759125 -13.48202676
38.93052989 5.719270929 -18.33500131
38.80009603 2.777202025 -16.06522392
34.19820054 -7.493236855 -15.15914736
37.98067989 -2.650963118 -12.71555267
34.71902659 -5.100560409 -16.35152154
36.63413829 -2.622168846 -15.16840666
35.80465361 0 18.8399658
38.63426175 0 13.92703276
37.30446293 2.749682347 18.60634653
35.2528274 -2.598457921 17.5830523
43.19023532 0 2.99340505
41.30196143 0 8.699211133
40.6800907 8.913496912 18.03239585
40.27009724 2.810759125 13.48202676
38.93052989 5.719270929 18.33500131
38.80009603 2.777202025 16.06522392
34.19820054 -7.493236855 15.15914736
37.98067989 -2.650963118 12.71555267
34.71902659 -5.100560409 16.35152154
36.63413829 -2.622168846 15.16840666
50.10465002 26.1185262 -16.14213693
48.78177215 17.18831116 -10.62296051
47.3141831 20.99379399 -16.73707199
53.075544 27.75962637 -12.11352883
44.83363895 3.001507689 -1.855033769
47.09626852 9.618150217 -5.944343743
44.18482407 2.972368641 -4.918421978
42.70139441 12.57759829 -17.64663422
46.34892081 13.07956745 -11.51012403
44.8557249 16.50586712 -17.23473274
42.41782112 9.120295582 -15.19874425
46.86139948 16.86128473 -14.00035295
57.66714208 30.25663403 -2.691809903
50.91600739 18.09536175 -6.686230692
55.83700968 29.26526561 -7.604287343
52.04551081 22.6703558 -9.260940822
41.77370376 2.876702038 -10.68823713
45.73447878 9.437128621 -9.125120387
43.09499279 2.924467892 -7.885703369
42.11321719 5.890287286 -12.88202214
45.03039428 6.126635619 -6.967657741
44.13810694 9.304673896 -12.22357167
31.94723224 -16.65343679 -10.29238997
35.40224969 -12.47402168 -7.709369374
32.5628023 -14.44845327 -11.51887089
32.86194589 -17.18748921 -7.500142229
41.98971045 -2.811113301 -1.737363566
38.77720802 -7.919205139 -4.89433794
41.43612162 -2.787459974 -4.612450894
33.66491064 -9.915922615 -13.91224742
36.06664211 -10.17793014 -8.95665998
33.13061434 -12.1912982 -12.7296412
35.48393153 -7.629433466 -12.71425986
34.31869721 -12.34827239 -10.25308418
33.98962095 -17.83357879 -1.58658111
36.22248409 -12.87333761 -4.756694354
33.58505289 -17.60258114 -4.573855119
34.57850928 -15.06195436 -6.152875112
39.32150964 -2.707834277 -10.06081773
37.88500678 -7.817421151 -7.558963323
40.49219688 -2.747839644 -7.409432807
37.37275367 -5.227248604 -11.43196062
39.65340479 -5.395066289 -6.135663639
36.73753119 -7.744572007 -10.1740622
50.10465002 26.1185262 16.14213693
48.78177215 17.18831116 10.62296051
47.3141831 20.99379399 16.73707199
53.075544 27.75962637 12.11352883
44.83363895 3.001507689 1.855033769
47.09626852 9.618150217 5.944343743
44.18482407 2.972368641 4.918421978
46.53214948 6.269269622 0
42.70139441 12.57759829 17.64663422
46.34892081 13.07956745 11.51012403
44.8557249 16.50586712 17.23473274
42.41782112 9.120295582 15.19874425
46.86139948 16.86128473 14.00035295
57.66714208 30.25663403 2.691809903
50.91600739 18.09536175 6.686230692
55.83700968 29.26526561 7.604287343
55.02661098 24.08482304 0
52.04551081 22.6703558 9.260940822
41.77370376 2.876702038 10.68823713
45.73447878 9.437128621 9.125120387
43.09499279 2.924467892 7.885703369
42.11321719 5.890287286 12.88202214
45.03039428 6.126635619 6.967657741
44.13810694 9.304673896 12.22357167
49.57649725 13.70260683 -4.206024039
49.57649725 13.70260683 4.206024039
48.13594609 9.853270339 -2.028551499
52.25910453 18.54452598 -2.292229473
48.13594609 9.853270339 2.028551499
52.25910453 18.54452598 2.292229473
31.94723224 -16.65343679 10.29238997
35.40224969 -12.47402168 7.709369374
32.5628023 -14.44845327 11.51887089
32.86194589 -17.18748921 7.500142229
41.98971045 -2.811113301 1.737363566
38.77720802 -7.919205139 4.89433794
41.43612162 -2.787459974 4.612450894
40.74975436 -5.490208382 0
33.66491064 -9.915922615 13.91224742
36.06664211 -10.17793014 8.95665998
33.13061434 -12.1912982 12.7296412
35.48393153 -7.629433466 12.71425986
34.31869721 -12.34827239 10.25308418
33.98962095 -17.83357879 1.58658111
36.22248409 -12.87333761 4.756694354
33.58505289 -17.60258114 4.573855119
35.44303074 -15.51320549 0
34.57850928 -15.06195436 6.152875112
39.32150964 -2.707834277 10.06081773
37.88500678 -7.817421151 7.558963323
40.49219688 -2.747839644 7.409432807
37.37275367 -5.227248604 11.43196062
39.65340479 -5.395066289 6.135663639
36.73753119 -7.744572007 10.1740622
37.87497946 -10.46838686 -3.213278124
37.87497946 -10.46838686 3.213278124
39.3609849 -8.057064553 -1.658755907
36.74445901 -13.0390404 -1.611714029
39.3609849 -8.057064553 1.658755907
36.74445901 -13.0390404 1.611714029
-22.02509053 31.54084672 -1.564723141
-25.14085205 28.52901016 -4.640788859
-21.29688351 31.91912985 -4.109727908
-29.46551093 20.8036023 -10.26441826
-27.63487065 24.90338813 -7.567041505
-19.67515714 32.40208211 -9.257089077
-24.32256656 28.73826994 -7.184009575
-20.50824149 32.20066043 -6.686992725
-22.8905845 30.40443316 -5.672227153
-33.86448739 2.589814057 -19.94018327
-32.88627704 7.444770615 -17.48118764
-30.81283527 16.47176202 -12.75172625
-31.90054594 12.02884245 -15.12101268
-15.82403144 32.49706518 -20.08429082
-20.50030072 28.45720455 -17.58751964
-16.86121884 32.57918463 -17.3292999
-28.38577909 20.62296185 -12.74569137
-24.62037017 24.52149796 -15.1551192
-27.61493197 22.76488926 -11.47045216
-18.77104021 32.52532295 -11.97470711
-21.49947102 28.66142016 -15.02516048
-17.84521651 32.58746135 -14.61336109
-21.16911741 30.68372769 -10.88610516
-19.26382751 30.60781838 -16.17543322
-25.62452701 26.831323 -8.724208114
-23.67982125 26.65712972 -13.82853372
-26.69888294 24.85835438 -10.12253358
-23.46157797 28.78078928 -9.799741176
-25.68286981 24.72140377 -12.66117928
-22.51306494 28.74781495 -12.42502751
-44.18774026 -63.27868394 -3.139218867
-57.11550068 -64.81278741 -10.54303882
-41.48950297 -62.18322187 -8.006362439
-54.00423524 -38.12873413 -18.81257243
-60.84350586 -54.82961947 -16.66030357
-36.0262775 -59.32996586 -16.95023107
-53.24430517 -62.91068052 -15.72644882
-38.75886788 -60.85656558 -12.63785916
-47.68363436 -63.33581712 -11.81588026
-35.81633223 -2.73908297 -21.08947407
-39.02468777 -8.834379409 -20.74415077
-47.68436796 -25.49085648 -19.73391936
-42.85818908 -16.16067653 -20.31498839
-24.51053682 -50.33613057 -31.10943956
-36.45681469 -50.60701534 -31.27685555
-27.43253995 -53.00505214 -28.19408941
-50.84761825 -36.94203664 -22.83143426
-47.34211407 -47.15199428 -29.14153511
-53.99713765 -44.51355738 -22.42886512
-33.17537925 -57.48429028 -21.16374187
-40.5590533 -54.07017071 -28.34517576
-30.34398543 -55.41168142 -24.84854223
-40.94783845 -59.35213547 -21.05720644
-33.90435496 -53.86978982 -28.46877805
-56.74358457 -59.41594337 -19.3191016
-47.18993631 -53.12321578 -27.55796248
-56.58278683 -52.68216539 -21.45262634
-49.22923711 -60.39049468 -20.56271673
-52.00522088 -50.05834913 -25.63761099
-44.9353306 -57.37968475 -24.79994262
-3.37005996 -25.94765947 -44.06700655
-10.10799364 -23.73474518 -44.65070804
-5.563607121 -28.83098235 -43.21101107
-3.327448555 -22.51593205 -45.14291675
-22.75945061 -17.61938299 -42.57487459
-16.68134961 -20.96950725 -44.2390165
-10.25122807 -34.70710536 -41.00809673
-12.48085142 -26.52699039 -43.68604096
-7.870733773 -31.76277883 -42.18893082
-9.050808647 -27.75779443 -43.5834205
-3.2662013 -15.6665909 -46.79527421
-9.967462411 -20.16461436 -45.49025808
-3.296410384 -19.06867793 -46.05391984
-6.678151795 -21.40900885 -45.45754018
-33.7720865 -1.675413655 -23.58317357
-32.38209196 -5.267566267 -28.53633471
-35.22816241 -4.535780357 -23.50471566
-27.49116231 -13.56403494 -38.93754227
-30.48694333 -9.263637717 -33.83084788
-38.47401019 -10.99180411 -23.36214672
-33.84491037 -8.460570546 -28.64455958
-36.79430859 -7.640938745 -23.43388478
-34.57952564 -6.451129124 -26.03388623
-21.05789202 -46.89778323 -34.07238502
-23.78389279 -38.63831336 -38.48314692
-18.23122194 -43.89137816 -36.18268422
-26.43568147 -46.90272691 -34.25339718
-25.52863293 -20.11352523 -41.30619577
-25.1718473 -29.34071717 -40.7289045
-22.59316599 -21.98290285 -42.47528352
-12.87260599 -37.80909803 -39.58973062
-20.73674863 -35.50936859 -39.97402831
-15.48024853 -40.83022696 -38.01553246
-14.05964819 -33.66022901 -41.29167951
-19.65451307 -39.86866382 -38.37613722
-37.4238097 -45.36316277 -33.63163928
-28.53643606 -37.52454496 -38.07424031
-31.98355293 -46.43674204 -34.14313445
-27.72181376 -42.39701314 -36.51111796
-16.03450814 -25.13501118 -43.55242688
-21.59554961 -30.90102722 -41.1948426
-19.36537219 -23.64817083 -43.18433752
-15.1096727 -29.38226581 -42.58833401
-22.20219119 -26.44128138 -42.01189706
-17.87159585 -32.38177121 -41.34955276
-3.227974975 -1.99499825 -48.21638975
-9.642008831 -5.959089177 -47.21309469
-3.235836949 -5.35438685 -48.10133046
-22.22947149 -13.73856893 -42.64405581
-15.96891305 -9.869331029 -45.3210249
-19.50089355 -15.54687348 -43.94959998
-3.264357235 -12.1285499 -47.40299492
-9.708587861 -9.387604703 -47.0500322
-3.24566234 -8.751790548 -47.82811791
-6.559072946 -14.34465228 -46.89476933
-6.487942565 -7.378562404 -47.68597808
-13.33623932 -18.7110235 -45.27700774
-13.03244412 -11.46865513 -46.181934
-16.48354331 -17.21142316 -44.79505854
-9.927652008 -16.54418352 -46.17277622
-16.24803982 -13.49116012 -45.15705042
-9.843743061 -12.93174808 -46.69526184
-47.33748854 -29.25617686 -23.05038633
-40.96111877 -25.31536362 -29.50800213
-44.74368065 -23.79975647 -23.15690217
-47.06803651 -34.37412396 -26.52885455
-28.46729134 -17.59375361 -39.1828414
-34.7044607 -21.44853627 -34.84439125
-30.37695412 -15.30591233 -36.84874159
-28.9133786 -22.31442513 -39.5907096
-40.38768969 -14.86936057 -23.30857554
-39.00784169 -20.44905933 -29.26051665
-42.43171233 -19.02786865 -23.23602583
-37.88873756 -13.44232962 -26.13995086
-41.8466012 -22.11483664 -26.33724813
-42.47167747 -43.09384313 -32.29860108
-39.68121283 -29.41911795 -32.73630116
-45.67941803 -39.33783293 -29.86805498
-37.65330177 -39.30488016 -34.98099179
-43.32616987 -31.85605144 -29.84112982
-32.94105616 -10.71078863 -31.45946189
-36.0851173 -18.71935451 -32.05480622
-31.83508199 -12.96351647 -34.19217196
-35.40676882 -12.05586014 -28.86295644
-33.25175286 -17.03003633 -34.54498165
-37.1276128 -16.04684082 -29.07547441
-29.00598004 -32.27657945 -39.12396249
-35.91920046 -26.92124541 -35.40061842
-29.11403942 -27.27255233 -39.59686655
-33.13501929 -35.66630952 -37.23073291
-32.39903753 -24.59963252 -37.62203122
-37.04970137 -32.97390284 -35.49288486
-3.268125311 25.16281718 -42.73410598
-9.214963841 21.6378073 -40.70586852
-5.236190186 27.134286 -40.6680535
-3.247300712 21.97359357 -44.05556489
-18.54953493 14.36024823 -34.69961279
-14.2562837 17.92104663 -37.80773044
-8.849978696 29.96296061 -35.40266394
-10.90622823 23.18026244 -38.1744736
-7.121319685 28.73847708 -38.17190013
-8.209148471 25.17651899 -39.53047554
-3.219978624 15.44488021 -46.13303615
-9.241575018 18.69611227 -42.17739835
-3.234627258 18.71128234 -45.19075209
-6.358358123 20.38380521 -43.28073526
-32.63131067 1.618820426 -22.78656556
-29.24058761 4.756540532 -25.76792124
-32.17565547 4.142756706 -21.46804094
-31.99098989 0 -25.12620078
-22.34715032 11.02599899 -31.65173957
-25.85747484 7.856946385 -28.69360461
-31.25744373 8.930072453 -18.98011107
-28.85168257 7.21236053 -24.41855307
-31.71498816 6.586134952 -20.19892224
-30.50017177 5.690088072 -22.96266322
-30.46392135 -3.462166205 -30.105236
-28.48681303 3.237471639 -28.15140636
-31.27190328 -1.695994049 -27.57866034
-30.22486308 1.639209084 -26.65527663
-14.49552783 32.28281925 -23.45425671
-16.62244576 27.00412729 -26.89568222
-13.28349695 31.97980857 -26.36315749
-16.9949848 30.15284973 -22.02084198
-19.78952512 15.59179115 -32.02012427
-18.3100223 21.34246165 -29.62623842
-17.83640811 17.35462958 -33.53255104
-10.51490466 30.88411636 -32.33861454
-15.37960704 26.33586126 -29.64711864
-11.95332845 31.52773114 -29.3543185
-11.56816721 27.69536992 -33.97446697
-14.40305152 29.21621192 -28.12247139
-21.46591661 26.01984878 -19.29076623
-18.92349796 24.88382391 -25.24834591
-19.32096667 28.0520037 -20.62554977
-18.02569121 27.56801823 -23.74080368
-13.47874127 21.12870003 -36.61053327
-16.28236408 23.29840104 -31.05961355
-15.73120761 19.21028325 -35.08023354
-12.55252147 24.40963015 -35.38071191
-17.0817231 20.34315636 -32.32273726
-14.04587058 25.44989107 -32.49796333
-3.223315027 1.992118243 -48.14678393
-9.453217308 5.8424096 -46.28865745
-3.222950409 5.333063305 -47.90976962
-6.438370268 0 -47.78725845
-18.84238481 11.64523424 -36.14641536
-14.78732306 9.139068255 -41.96758004
-16.73629001 13.34282363 -37.71895114
-3.231181747 12.0052881 -46.92124082
-9.404210281 9.093290386 -45.574949
-3.223440792 8.691871087 -47.50066091
-6.371973004 13.93546585 -45.55707898
-6.401452704 7.280199813 -47.05028292
-12.78815008 -3.925330948 -46.26796166
-12.51507921 3.841511666 -45.27998195
-9.65190371 -1.987094951 -47.15221451
-9.588335847 1.974007856 -46.84166795
-12.01237696 16.85361684 -40.78244785
-12.23540539 10.76725466 -43.35753744
-14.45727581 15.09567979 -39.28855005
-9.345971044 15.57482676 -43.46742102
-14.63961133 12.15564109 -40.68685663
-9.40455041 12.35477968 -44.61188607
-29.16636287 18.02580358 -14.20218843
-26.97707294 16.672748 -19.43402792
-29.74031457 15.8192673 -15.39197368
-27.36881058 19.98763826 -15.4258229
