1.8886502 -16.422741 16.618408
-0.98608953 -16.034861 18.182196
0.95273131 -15.492421 17.567114
1.178891 -28.49219 1.9074857
3.2343388 -25.625249 5.2332701
2.9733834 -26.711498 1.7969161
0 -29.266935 3.9431298
6.3406684 -19.681221 10.259417
4.9309259 -22.64334 7.9784056
7.0633304 -19.967394 8.8597398
6.0517461 -23.65253 1.6288065
4.8152756 -24.133832 4.9799206
4.5933668 -25.102531 1.703482
6.9000793 -22.55737 3.155052
3.9379816 -25.450283 3.4626526
-2.430455 -28.647826 7.9180644
2.1920282 -25.837484 7.1413049
-1.2292607 -29.169398 5.9708802
1.1608341 -27.545688 5.638512
8.3566017 -20.221337 5.9561488
5.6454471 -22.733064 6.4152225
7.7409375 -20.146838 7.4135693
7.669431 -21.404436 4.602188
6.3812489 -21.359051 7.6852387
6.292309 -22.720905 4.7897525
-6.9687906 -24.691928 15.260451
-2.1877781 -23.646694 14.614461
-5.8703233 -23.850456 16.798287
-5.9200474 -25.938745 13.56651
5.4186493 -19.199443 11.865908
1.9701506 -21.294458 13.160699
4.5966897 -18.675827 13.153707
4.7426595 -20.780009 10.868382
-3.2163704 -19.609551 17.591385
-1.0781109 -21.668754 15.226218
-4.4687913 -21.609744 17.231335
-1.0297556 -18.821882 16.898081
-3.3333493 -22.735011 15.987895
-3.6651842 -27.910576 9.9193159
-1.1511993 -24.662355 12.939775
-4.8081227 -27.021142 11.770062
-1.2102057 -27.590723 9.79077
-3.5647245 -26.175176 13.71892
2.8382238 -17.304069 15.523177
1.0254836 -20.611008 14.48296
3.7302553 -18.038403 14.383593
0.98753252 -18.050127 16.205208
2.8779619 -19.629054 13.803699
0 -19.800986 15.741203
3.1604455 -24.066963 8.5533102
1.0839461 -23.221578 12.183832
3.9881622 -22.413051 9.762837
1.1282937 -25.723262 9.1280879
2.9909566 -21.962094 11.510762
0 -25.332957 11.088086
-11.016057 18.708611 1.4307562
-10.121734 19.041392 4.3105759
-9.8909575 19.830699 1.4617051
-7.6904131 18.582851 9.933922
-9.0094003 19.00698 7.1670237
-7.4524 22.259923 1.5536908
-8.9466002 20.183037 4.422346
-8.7016143 21.015796 1.5042517
-9.4453765 20.055276 2.9463138
-0.92388552 13.004641 18.623187
-2.7571783 14.936644 16.949612
-6.1858651 17.757429 12.537318
-4.5275383 16.534591 14.900281
-1.178891 28.49219 1.9074857
-3.2343388 25.625249 5.2332701
-2.9733834 26.711498 1.7969161
-6.3406684 19.681221 10.259417
-4.9309259 22.64334 7.9784056
-7.0633304 19.967394 8.8597398
-6.0517461 23.65253 1.6288065
-4.8152756 24.133832 4.9799206
-4.5933668 25.102531 1.703482
-6.9000793 22.55737 3.155052
-3.9379816 25.450283 3.4626526
-8.3566017 20.221337 5.9561488
-5.6454471 22.733064 6.4152225
-7.7409375 20.146838 7.4135693
-7.669431 21.404436 4.602188
-6.3812489 21.359051 7.6852387
-6.292309 22.720905 4.7897525
17.42124 29.586557 2.2626558
15.090544 28.388906 6.4266592
14.780822 29.634545 2.1843388
10.402915 25.137248 13.437737
12.705397 26.804362 10.107208
9.9383578 29.685347 2.0719681
12.696088 28.641675 6.2757353
12.282712 29.664721 2.1233175
13.761101 29.218813 4.2925258
0.94995975 13.371662 19.148777
3.055211 16.551196 18.781752
0 14.465332 18.41744
8.1700338 23.453275 16.558769
5.5618372 20.311855 18.304193
-1.8886502 16.422741 16.618408
2.0363121 17.706734 17.917699
-0.95273131 15.492421 17.567114
0.98608953 16.034861 18.182196
1.229864 29.724138 1.9899618
3.6750029 29.116574 5.9462796
3.3080519 29.718006 1.9991676
0 29.266935 3.9431298
8.261661 25.643918 13.367648
6.048737 27.776448 9.787062
9.3494098 26.429933 11.727235
7.5988559 29.699224 2.0452058
5.7951844 29.045068 5.9933347
5.4364633 29.710013 2.0161502
8.9893209 29.387407 4.1103549
4.5607025 29.474787 4.0102088
-2.1920282 25.837484 7.1413049
2.430455 28.647826 7.9180644
-1.1608341 27.545688 5.638512
1.2292607 29.169398 5.9708802
11.545551 27.937969 8.229065
7.0485681 28.383146 8.0096636
10.452132 27.20309 10.010106
10.32229 28.808238 6.1940862
8.2220959 27.520658 9.9022575
8.0143524 28.939033 6.1005848
-5.4186493 19.199443 11.865908
-1.9701506 21.294458 13.160699
-4.5966897 18.675827 13.153707
-4.7426595 20.780009 10.868382
6.9687906 24.691928 15.260451
2.1877781 23.646694 14.614461
5.8703233 23.850456 16.798287
5.9200474 25.938745 13.56651
-2.8382238 17.304069 15.523177
-1.0254836 20.611008 14.48296
-3.7302553 18.038403 14.383593
-0.98753252 18.050127 16.205208
-2.8779619 19.629054 13.803699
-3.1604455 24.066963 8.5533102
-1.0839461 23.221578 12.183832
-3.9881622 22.413051 9.762837
-1.1282937 25.723262 9.1280879
-2.9909566 21.962094 11.510762
3.2163704 19.609551 17.591385
1.0781109 21.668754 15.226218
4.4687913 21.609744 17.231335
1.0297556 18.821882 16.898081
3.3333493 22.735011 15.987895
0 19.800986 15.741203
3.6651842 27.910576 9.9193159
1.1511993 24.662355 12.939775
4.8081227 27.021142 11.770062
1.2102057 27.590723 9.79077
3.5647245 26.175176 13.71892
0 25.332957 11.088086
0 -10.389438 19.744741
0 -7.3590591 20.414386
0 -1.4583605 21.041901
0 -4.3888537 20.837322
0 10.389438 19.744741
0 7.3590591 20.414386
0 1.4583605 21.041901
0 4.3888537 20.837322
-17.42124 -29.586557 -2.2626558
-15.090544 -28.388906 -6.4266592
-14.780822 -29.634545 -2.1843388
-10.402915 -25.137248 -13.437737
-12.705397 -26.804362 -10.107208
-9.9383578 -29.685347 -2.0719681
-12.696088 -28.641675 -6.2757353
-12.282712 -29.664721 -2.1233175
-13.761101 -29.218813 -4.2925258
-0.94995975 -13.371662 -19.148777
-3.055211 -16.551196 -18.781752
-8.1700338 -23.453275 -16.558769
-5.5618372 -20.311855 -18.304193
-1.229864 -29.724138 -1.9899618
-3.6750029 -29.116574 -5.9462796
-3.3080519 -29.718006 -1.9991676
-8.261661 -25.643918 -13.367648
-6.048737 -27.776448 -9.787062
-9.3494098 -26.429933 -11.727235
-7.5988559 -29.699224 -2.0452058
-5.7951844 -29.045068 -5.9933347
-5.4364633 -29.710013 -2.0161502
-8.9893209 -29.387407 -4.1103549
-4.5607025 -29.474787 -4.0102088
-11.545551 -27.937969 -8.229065
-7.0485681 -28.383146 -8.0096636
-10.452132 -27.20309 -10.010106
-10.32229 -28.808238 -6.1940862
-8.2220959 -27.520658 -9.9022575
-8.0143524 -28.939033 -6.1005848
11.016057 -18.708611 -1.4307562
10.121734 -19.041392 -4.3105759
9.8909575 -19.830699 -1.4617051
7.6904131 -18.582851 -9.933922
9.0094003 -19.00698 -7.1670237
7.4524 -22.259923 -1.5536908
8.9466002 -20.183037 -4.422346
8.7016143 -21.015796 -1.5042517
9.4453765 -20.055276 -2.9463138
0.92388552 -13.004641 -18.623187
2.7571783 -14.936644 -16.949612
0 -14.465332 -18.41744
6.1858651 -17.757429 -12.537318
4.5275383 -16.534591 -14.900281
-2.0363121 -17.706734 -17.917699
1.8886502 -16.422741 -16.618408
-0.98608953 -16.034861 -18.182196
0.95273131 -15.492421 -17.567114
1.178891 -28.49219 -1.9074857
3.2343388 -25.625249 -5.2332701
2.9733834 -26.711498 -1.7969161
0 -29.266935 -3.9431298
6.3406684 -19.681221 -10.259417
4.9309259 -22.64334 -7.9784056
7.0633304 -19.967394 -8.8597398
6.0517461 -23.65253 -1.6288065
4.8152756 -24.133832 -4.9799206
4.5933668 -25.102531 -1.703482
6.9000793 -22.55737 -3.155052
3.9379816 -25.450283 -3.4626526
-2.430455 -28.647826 -7.9180644
2.1920282 -25.837484 -7.1413049
-1.2292607 -29.169398 -5.9708802
1.1608341 -27.545688 -5.638512
8.3566017 -20.221337 -5.9561488
5.6454471 -22.733064 -6.4152225
7.7409375 -20.146838 -7.4135693
7.669431 -21.404436 -4.602188
6.3812489 -21.359051 -7.6852387
6.292309 -22.720905 -4.7897525
-6.9687906 -24.691928 -15.260451
-2.1877781 -23.646694 -14.614461
-5.8703233 -23.850456 -16.798287
-5.9200474 -25.938745 -13.56651
5.4186493 -19.199443 -11.865908
1.9701506 -21.294458 -13.160699
4.5966897 -18.675827 -13.153707
4.7426595 -20.780009 -10.868382
-3.2163704 -19.609551 -17.591385
-1.0781109 -21.668754 -15.226218
-4.4687913 -21.609744 -17.231335
-1.0297556 -18.821882 -16.898081
-3.3333493 -22.735011 -15.987895
-3.6651842 -27.910576 -9.9193159
-1.1511993 -24.662355 -12.939775
-4.8081227 -27.021142 -11.770062
-1.2102057 -27.590723 -9.79077
-3.5647245 -26.175176 -13.71892
2.8382238 -17.304069 -15.523177
1.0254836 -20.611008 -14.48296
3.7302553 -18.038403 -14.383593
0.98753252 -18.050127 -16.205208
2.8779619 -19.629054 -13.803699
0 -19.800986 -15.741203
3.1604455 -24.066963 -8.5533102
1.0839461 -23.221578 -12.183832
3.9881622 -22.413051 -9.762837
1.1282937 -25.723262 -9.1280879
2.9909566 -21.962094 -11.510762
0 -25.332957 -11.088086
-11.016057 18.708611 -1.4307562
-10.121734 19.041392 -4.3105759
-9.8909575 19.830699 -1.4617051
-7.6904131 18.582851 -9.933922
-9.0094003 19.00698 -7.1670237
-7.4524 22.259923 -1.5536908
-8.9466002 20.183037 -4.422346
-8.7016143 21.015796 -1.5042517
-9.4453765 20.055276 -2.9463138
-0.92388552 13.004641 -18.623187
-2.7571783 14.936644 -16.949612
-6.1858651 17.757429 -12.537318
-4.5275383 16.534591 -14.900281
-1.178891 28.49219 -1.9074857
-3.2343388 25.625249 -5.2332701
-2.9733834 26.711498 -1.7969161
-6.3406684 19.681221 -10.259417
-4.9309259 22.64334 -7.9784056
-7.0633304 19.967394 -8.8597398
-6.0517461 23.65253 -1.6288065
-4.8152756 24.133832 -4.9799206
-4.5933668 25.102531 -1.703482
-6.9000793 22.55737 -3.155052
-3.9379816 25.450283 -3.4626526
-8.3566017 20.221337 -5.9561488
-5.6454471 22.733064 -6.4152225
-7.7409375 20.146838 -7.4135693
-7.669431 21.404436 -4.602188
-6.3812489 21.359051 -7.6852387
-6.292309 22.720905 -4.7897525
17.42124 29.586557 -2.2626558
15.090544 28.388906 -6.4266592
14.780822 29.634545 -2.1843388
10.402915 25.137248 -13.437737
12.705397 26.804362 -10.107208
9.9383578 29.685347 -2.0719681
12.696088 28.641675 -6.2757353
12.282712 29.664721 -2.1233175
13.761101 29.218813 -4.2925258
0.94995975 13.371662 -19.148777
3.055211 16.551196 -18.781752
0 14.465332 -18.41744
8.1700338 23.453275 -16.558769
5.5618372 20.311855 -18.304193
-1.8886502 16.422741 -16.618408
2.0363121 17.706734 -17.917699
-0.95273131 15.492421 -17.567114
0.98608953 16.034861 -18.182196
1.229864 29.724138 -1.9899618
3.6750029 29.116574 -5.9462796
3.3080519 29.718006 -1.9991676
0 29.266935 -3.9431298
8.261661 25.643918 -13.367648
6.048737 27.776448 -9.787062
9.3494098 26.429933 -11.727235
7.5988559 29.699224 -2.0452058
5.7951844 29.045068 -5.9933347
5.4364633 29.710013 -2.0161502
8.9893209 29.387407 -4.1103549
4.5607025 29.474787 -4.0102088
-2.1920282 25.837484 -7.1413049
2.430455 28.647826 -7.9180644
-1.1608341 27.545688 -5.638512
1.2292607 29.169398 -5.9708802
11.545551 27.937969 -8.229065
7.0485681 28.383146 -8.0096636
10.452132 27.20309 -10.010106
10.32229 28.808238 -6.1940862
8.2220959 27.520658 -9.9022575
8.0143524 28.939033 -6.1005848
-5.4186493 19.199443 -11.865908
-1.9701506 21.294458 -13.160699
-4.5966897 18.675827 -13.153707
-4.7426595 20.780009 -10.868382
6.9687906 24.691928 -15.260451
2.1877781 23.646694 -14.614461
5.8703233 23.850456 -16.798287
5.9200474 25.938745 -13.56651
-2.8382238 17.304069 -15.523177
-1.0254836 20.611008 -14.48296
-3.7302553 18.038403 -14.383593
-0.98753252 18.050127 -16.205208
-2.8779619 19.629054 -13.803699
-3.1604455 24.066963 -8.5533102
-1.0839461 23.221578 -12.183832
-3.9881622 22.413051 -9.762837
-1.1282937 25.723262 -9.1280879
-2.9909566 21.962094 -11.510762
3.2163704 19.609551 -17.591385
1.0781109 21.668754 -15.226218
4.4687913 21.609744 -17.231335
1.0297556 18.821882 -16.898081
3.3333493 22.735011 -15.987895
0 19.800986 -15.741203
3.6651842 27.910576 -9.9193159
1.1511993 24.662355 -12.939775
4.8081227 27.021142 -11.770062
1.2102057 27.590723 -9.79077
3.5647245 26.175176 -13.71892
0 25.332957 -11.088086
0 -10.389438 -19.744741
0 -7.3590591 -20.414386
0 -1.4583605 -21.041901
0 -4.3888537 -20.837322
0 10.389438 -19.744741
0 7.3590591 -20.414386
0 1.4583605 -21.041901
0 4.3888537 -20.837322
20.721476 29.674016 -1.4721108
24.535973 27.842613 -4.5291333
19.426378 29.115672 -3.7487704
26.137821 18.454146 -9.1052053
25.898158 23.338335 -7.0914909
16.668436 27.450456 -7.842438
22.596456 26.698788 -6.6741786
18.038035 28.322109 -5.8815482
21.217292 28.181882 -5.2575897
23.959126 1.8322936 -14.107681
25.850174 5.851943 -13.741043
26.107797 13.956567 -10.804571
25.995872 9.8023478 -12.322169
11.604044 23.830676 -14.728168
16.271761 22.587416 -13.959791
12.789855 24.712511 -13.144912
24.643923 17.904412 -11.065535
20.787229 20.70375 -12.795621
24.44605 20.152562 -10.154189
15.298342 26.508041 -9.7593506
17.649671 23.529166 -12.334682
14.024847 25.611018 -11.484879
18.032662 26.13757 -9.2731999
15.222665 24.186916 -12.782154
23.543943 24.652753 -8.0158458
20.123101 22.653216 -11.751481
24.108078 22.446151 -9.1402636
20.838649 25.56319 -8.7041617
22.394786 21.556413 -11.040215
19.189869 24.504296 -10.590946
12.239949 -17.528117 -0.86955973
13.853109 -15.720051 -2.5571669
11.852768 -17.764573 -2.2872666
16.778066 -11.845857 -5.8447007
15.355902 -13.838096 -4.2047872
10.916531 -17.977917 -5.1361879
13.413361 -15.848524 -3.9618234
11.409995 -17.915207 -3.7203851
12.653964 -16.807635 -3.1356192
21.891425 -1.6741644 -12.890171
20.712245 -4.6888224 -11.0099
18.140274 -9.6973314 -7.5072549
19.452947 -7.3351859 -9.2207907
8.4111745 -17.273631 -10.675691
11.122514 -15.439562 -9.5421739
9.1037193 -17.590173 -9.3564459
16.195639 -11.766527 -7.2721138
13.682046 -13.627101 -8.4220113
15.544883 -12.814717 -6.4568994
10.352824 -17.938747 -6.6044308
11.758288 -15.675233 -8.2174189
9.7549233 -17.813636 -7.9882593
11.66021 -16.900974 -5.9962003
10.460352 -16.620194 -8.7833387
14.167408 -14.834627 -4.823481
13.064289 -14.706887 -7.6292791
14.866106 -13.841288 -5.6362904
12.932647 -15.864739 -5.4018787
14.305077 -13.769551 -7.052138
12.377841 -15.805751 -6.8313675
1.4578633 -11.224768 -19.063065
4.2035169 -9.8703469 -18.568473
2.3638007 -12.249373 -18.358992
1.4393821 -9.7399039 -19.527847
9.3533629 -7.2409693 -17.496831
6.8063839 -8.5560533 -18.050562
4.1621802 -14.091699 -16.650014
5.089245 -10.816758 -17.813606
3.2737905 -13.211561 -17.548265
3.7561262 -11.519609 -18.087315
1.4137226 -6.7810313 -20.25458
4.1802579 -8.4568453 -19.078177
1.4261844 -8.2500201 -19.925123
2.8360976 -9.0920422 -19.305045
20.673277 -1.0255893 -14.436226
17.480375 -2.8435171 -15.404373
20.2511 -2.6074179 -13.511813
11.924619 -5.8835617 -16.889623
14.602471 -4.437047 -16.204116
19.270013 -5.5053324 -11.701117
17.21544 -4.3035257 -14.570246
19.775863 -4.1067807 -12.595026
18.688379 -3.4864893 -14.069919
7.5311519 -16.77254 -12.18566
8.5564033 -13.900373 -13.844551
6.7488521 -16.247755 -13.394142
8.9610518 -15.898881 -11.611067
10.259837 -8.0835312 -16.600766
9.4565903 -11.022756 -15.301085
8.9988146 -8.755748 -16.917824
5.0783562 -14.916022 -15.618497
7.7473118 -13.266407 -14.934417
5.9240456 -15.62508 -14.547941
5.5545181 -13.298082 -16.313024
7.2696284 -14.74625 -14.194208
11.678045 -14.155508 -10.494703
9.9759019 -13.118007 -13.310172
10.347077 -15.022863 -11.045728
9.4848068 -14.505814 -12.492
6.4483327 -10.108131 -17.514758
8.2044673 -11.739755 -15.650527
7.7238176 -9.4319984 -17.223937
6.0118502 -11.690642 -16.945085
8.6145207 -10.259301 -16.30075
6.9057256 -12.512572 -15.977793
1.4062777 -0.86912739 -21.005625
4.1895562 -2.5892882 -20.514596
1.4060476 -2.3266075 -20.901164
9.4317954 -5.8291701 -18.093548
6.8846525 -4.2549492 -19.539182
8.1424171 -6.4914528 -18.350748
1.4139718 -5.2535387 -20.532831
4.1784491 -4.0403022 -20.249718
1.4076652 -3.7957095 -20.743371
2.810321 -6.1461547 -20.09268
2.8075677 -3.1929712 -20.63545
5.549078 -7.7854729 -18.839318
5.5663124 -4.8983995 -19.724855
6.8443024 -7.1465329 -18.599819
4.1978307 -6.9955798 -19.523801
6.8716522 -5.7057073 -19.097906
4.1984428 -5.5155041 -19.915939
16.942738 -10.471188 -8.2500503
15.581893 -9.6301396 -11.225048
17.548453 -9.3342545 -9.0821273
15.638984 -11.421262 -8.8145661
11.770391 -7.274502 -16.200958
13.839925 -8.5535442 -13.895729
13.059533 -6.5802536 -15.841856
11.351181 -8.76048 -15.543023
18.701389 -6.8852094 -10.792961
16.043439 -8.4104431 -12.034486
18.139389 -8.1343386 -9.9333091
17.845187 -6.3311923 -12.311635
16.844399 -8.9018253 -10.601461
13.045927 -13.237036 -9.9210864
14.213783 -10.537908 -11.726121
14.335988 -12.34575 -9.3737636
12.26207 -12.799918 -11.391813
14.971966 -11.008305 -10.312021
15.745978 -5.1198069 -15.03777
15.115967 -7.8414914 -13.427679
14.38884 -5.8592582 -15.454199
16.851103 -5.7377316 -13.736714
14.131068 -7.2372909 -14.680655
16.456251 -7.1125188 -12.887263
10.466809 -11.647005 -14.117883
13.319513 -9.9829026 -13.127213
10.91509 -10.224702 -14.845188
11.394817 -12.265304 -12.803294
12.379769 -9.3995928 -14.37549
12.812146 -11.402695 -12.273783
1.514784 11.663027 -19.807362
4.6618526 10.946572 -20.59311
2.5349593 13.136328 -19.688334
1.4871233 10.062956 -20.175544
11.221153 8.6869316 -20.990804
7.9252664 9.9625591 -21.017843
4.852566 16.429107 -19.411771
5.8689949 12.474051 -20.542922
3.6486092 14.724163 -19.557379
4.1863697 12.839117 -20.159117
1.445285 6.9324228 -20.706778
4.5591498 9.2233604 -20.807392
1.4655666 8.477833 -20.475328
3.0167813 9.6712831 -20.534941
21.737794 1.0783994 -15.179582
19.843421 3.2279117 -17.486779
23.19827 2.986879 -15.478206
19.934406 0 -15.65678
14.420037 7.1147914 -20.424047
17.35404 5.2731276 -19.257486
24.800163 7.0852643 -15.059128
21.09281 5.2727931 -17.85185
24.752906 5.1403449 -15.76485
22.235704 4.1482755 -16.740594
16.672269 -1.8947714 -16.475968
18.002826 2.0459866 -17.790859
18.243891 -0.98943548 -16.089269
19.034475 1.0323119 -16.786485
10.231992 22.787549 -16.555711
11.925714 19.374015 -19.296211
9.1009284 21.910341 -18.062202
12.509064 22.193837 -16.208318
12.964633 10.214588 -20.977217
12.986248 15.136984 -21.012191
11.20532 10.902654 -21.066068
6.2574067 18.379099 -19.244669
10.57365 18.106197 -20.382723
7.7593984 20.46595 -19.055099
6.8004225 16.280904 -19.972112
9.9725543 20.229065 -19.471768
17.021707 20.632813 -15.29689
14.093515 18.532543 -18.804025
14.793986 21.479306 -15.7929
13.343135 20.406639 -17.573625
7.6729012 12.027713 -20.840893
10.90578 15.605057 -20.803447
9.4241068 11.508319 -21.015543
7.272878 14.142837 -20.499435
11.105211 13.225542 -21.013736
8.8373887 16.012577 -20.447087
1.4101664 0.87153078 -21.063712
4.2958715 2.6549946 -21.035179
1.4165272 2.3439483 -21.056946
2.825581 0 -20.972197
10.874623 6.7208865 -20.861406
7.3896477 4.5670534 -20.972398
9.3288571 7.437329 -21.024654
1.4382488 5.3437388 -20.885368
4.3470734 4.2033514 -21.06691
1.424924 3.8422471 -20.997697
2.9265215 6.4002846 -20.923468
2.8660537 3.2594857 -21.065318
5.6416822 -1.731718 -20.411798
5.7701282 1.7711446 -20.87652
4.2481536 -0.87459271 -20.753403
4.2841692 0.88200744 -20.929349
6.1835363 8.6756312 -20.993326
5.9434031 5.2302423 -21.061119
7.751713 8.094013 -21.065764
4.5065924 7.5101235 -20.959829
7.5731576 6.2881851 -21.047552
4.4362809 5.8279525 -21.044159
24.77104 15.309345 -12.061942
22.01972 13.608936 -15.862798
24.82051 13.202358 -12.84575
23.169466 16.920827 -13.058956
15.019372 9.2824821 -20.672906
19.293605 11.924104 -19.371398
16.683419 8.4062063 -20.237808
15.279735 11.792413 -20.92234
24.824526 9.139538 -14.32675
22.17714 11.62591 -16.63549
24.836033 11.137349 -13.600457
23.603332 8.374092 -16.284257
23.498916 12.418564 -14.789655
19.28241 19.564877 -14.663769
20.29246 15.044557 -16.740922
21.309684 18.351302 -13.933602
17.74244 18.520673 -16.483233
21.710249 15.962703 -14.953049
19.733104 6.4162212 -18.845565
20.805199 10.792812 -18.481487
18.272595 7.4407564 -19.62551
22.3285 7.602763 -18.201789
19.245284 9.8565597 -19.993773
22.260702 9.6212471 -17.43286
14.809313 16.479152 -19.975157
18.823123 14.107828 -18.551365
15.432205 14.456105 -20.988738
16.248398 17.489665 -18.25681
17.428081 13.232627 -20.237632
18.338729 16.321305 -17.568142
10.983568 -5.0157224 -17.771786
11.634273 -1.7416453 -18.824649
12.315142 -4.3036453 -17.485221
9.7308053 -4.2462528 -18.604998
12.667989 5.7849251 -20.497237
12.204818 1.8270557 -19.747811
14.115603 4.9328336 -20.041542
10.786714 4.7070219 -20.623862
15.116908 -2.7639424 -16.85119
13.068847 -0.92535562 -18.598553
13.696943 -3.5521788 -17.177279
15.687496 -0.95598353 -17.473475
12.698547 -2.6475463 -18.057512
7.0796427 -2.6159258 -19.920416
10.248645 -0.91178038 -19.53324
8.4185022 -3.4389955 -19.326792
7.1953277 -0.88939142 -20.276678
10.004885 -2.5996697 -19.088939
16.778786 3.0677966 -18.703727
13.440195 0.95164938 -19.127026
15.501269 4.0201145 -19.440076
16.246057 0.99002182 -18.095627
13.785686 2.8742063 -19.603439
14.59926 0 -18.364526
7.3949384 2.7324275 -20.807583
10.471489 0.93160582 -19.957964
9.0279802 3.6879699 -20.726002
7.3013755 0.90249965 -20.575524
10.648351 2.7668677 -20.316647
8.80873 0 -20.125311
20.721476 29.674016 1.4721108
24.535973 27.842613 4.5291333
19.426378 29.115672 3.7487704
23.400225 29.793456 0
26.137821 18.454146 9.1052053
25.898158 23.338335 7.0914909
16.668436 27.450456 7.842438
22.596456 26.698788 6.6741786
18.038035 28.322109 5.8815482
21.217292 28.181882 5.2575897
27.396435 27.722847 -3.1506484
27.396435 27.722847 3.1506484
25.979694 29.458809 -1.5976631
25.979694 29.458809 1.5976631
23.959126 1.8322936 14.107681
25.850174 5.851943 13.741043
26.107797 13.956567 10.804571
25.995872 9.8023478 12.322169
11.604044 23.830676 14.728168
16.271761 22.587416 13.959791
12.789855 24.712511 13.144912
24.643923 17.904412 11.065535
20.787229 20.70375 12.795621
24.44605 20.152562 10.154189
15.298342 26.508041 9.7593506
17.649671 23.529166 12.334682
14.024847 25.611018 11.484879
18.032662 26.13757 9.2731999
15.222665 24.186916 12.782154
23.543943 24.652753 8.0158458
20.123101 22.653216 11.751481
24.108078 22.446151 9.1402636
20.838649 25.56319 8.7041617
22.394786 21.556413 11.040215
19.189869 24.504296 10.590946
27.453237 16.967034 -7.7481137
29.472376 18.21493 -2.7267667
27.573355 19.420389 -6.7866423
27.453237 16.967034 7.7481137
29.472376 18.21493 2.7267667
27.573355 19.420389 6.7866423
27.703901 24.852685 -4.5440106
29.671616 20.849676 -1.4762867
27.674056 22.06694 -5.7228621
29.411365 26.405204 -1.6091122
28.852019 20.289546 -4.2302095
27.703901 24.852685 4.5440106
29.671616 20.849676 1.4762867
27.674056 22.06694 5.7228621
29.411365 26.405204 1.6091122
28.852019 20.289546 4.2302095
29.793456 23.684923 0
12.239949 -17.528117 0.86955973
13.853109 -15.720051 2.5571669
11.852768 -17.764573 2.2872666
13.106323 -16.687133 0
16.778066 -11.845857 5.8447007
15.355902 -13.838096 4.2047872
10.916531 -17.977917 5.1361879
13.413361 -15.848524 3.9618234
11.409995 -17.915207 3.7203851
12.653964 -16.807635 3.1356192
14.760362 -14.936223 -1.6974731
14.760362 -14.936223 1.6974731
13.950284 -15.818459 -0.85789511
13.950284 -15.818459 0.85789511
21.891425 -1.6741644 12.890171
20.712245 -4.6888224 11.0099
18.140274 -9.6973314 7.5072549
19.452947 -7.3351859 9.2207907
8.4111745 -17.273631 10.675691
11.122514 -15.439562 9.5421739
9.1037193 -17.590173 9.3564459
16.195639 -11.766527 7.2721138
13.682046 -13.627101 8.4220113
15.544883 -12.814717 6.4568994
10.352824 -17.938747 6.6044308
11.758288 -15.675233 8.2174189
9.7549233 -17.813636 7.9882593
11.66021 -16.900974 5.9962003
10.460352 -16.620194 8.7833387
14.167408 -14.834627 4.823481
13.064289 -14.706887 7.6292791
14.866106 -13.841288 5.6362904
12.932647 -15.864739 5.4018787
14.305077 -13.769551 7.052138
12.377841 -15.805751 6.8313675
17.877479 -11.04889 -5.0455522
18.353458 -11.343061 -1.6980511
17.127605 -12.063267 -4.2156251
17.877479 -11.04889 5.0455522
18.353458 -11.343061 1.6980511
17.127605 -12.063267 4.2156251
15.588784 -13.984426 -2.5568818
17.483047 -12.285002 -0.86985454
16.360823 -13.045912 -3.3833397
15.686003 -14.082723 -0.85818996
17.364151 -12.210956 -2.5458875
15.588784 -13.984426 2.5568818
17.483047 -12.285002 0.86985454
16.360823 -13.045912 3.3833397
15.686003 -14.082723 0.85818996
17.364151 -12.210956 2.5458875
16.598297 -13.195159 0
1.4578633 -11.224768 19.063065
4.2035169 -9.8703469 18.568473
2.3638007 -12.249373 18.358992
1.4393821 -9.7399039 19.527847
9.3533629 -7.2409693 17.496831
6.8063839 -8.5560533 18.050562
4.1621802 -14.091699 16.650014
5.089245 -10.816758 17.813606
3.2737905 -13.211561 17.548265
3.7561262 -11.519609 18.087315
1.4137226 -6.7810313 20.25458
4.1802579 -8.4568453 19.078177
1.4261844 -8.2500201 19.925123
2.8360976 -9.0920422 19.305045
20.673277 -1.0255893 14.436226
17.480375 -2.8435171 15.404373
20.2511 -2.6074179 13.511813
11.924619 -5.8835617 16.889623
14.602471 -4.437047 16.204116
19.270013 -5.5053324 11.701117
17.21544 -4.3035257 14.570246
19.775863 -4.1067807 12.595026
18.688379 -3.4864893 14.069919
7.5311519 -16.77254 12.18566
8.5564033 -13.900373 13.844551
6.7488521 -16.247755 13.394142
8.9610518 -15.898881 11.611067
10.259837 -8.0835312 16.600766
9.4565903 -11.022756 15.301085
8.9988146 -8.755748 16.917824
5.0783562 -14.916022 15.618497
7.7473118 -13.266407 14.934417
5.9240456 -15.62508 14.547941
5.5545181 -13.298082 16.313024
7.2696284 -14.74625 14.194208
11.678045 -14.155508 10.494703
9.9759019 -13.118007 13.310172
10.347077 -15.022863 11.045728
9.4848068 -14.505814 12.492
6.4483327 -10.108131 17.514758
8.2044673 -11.739755 15.650527
7.7238176 -9.4319984 17.223937
6.0118502 -11.690642 16.945085
8.6145207 -10.259301 16.30075
6.9057256 -12.512572 15.977793
1.4062777 -0.86912739 21.005625
4.1895562 -2.5892882 20.514596
1.4060476 -2.3266075 20.901164
9.4317954 -5.8291701 18.093548
6.8846525 -4.2549492 19.539182
8.1424171 -6.4914528 18.350748
1.4139718 -5.2535387 20.532831
4.1784491 -4.0403022 20.249718
1.4076652 -3.7957095 20.743371
2.810321 -6.1461547 20.09268
2.8075677 -3.1929712 20.63545
5.549078 -7.7854729 18.839318
5.5663124 -4.8983995 19.724855
6.8443024 -7.1465329 18.599819
4.1978307 -6.9955798 19.523801
6.8716522 -5.7057073 19.097906
4.1984428 -5.5155041 19.915939
16.942738 -10.471188 8.2500503
15.581893 -9.6301396 11.225048
17.548453 -9.3342545 9.0821273
15.638984 -11.421262 8.8145661
11.770391 -7.274502 16.200958
13.839925 -8.5535442 13.895729
13.059533 -6.5802536 15.841856
11.351181 -8.76048 15.543023
18.701389 -6.8852094 10.792961
16.043439 -8.4104431 12.034486
18.139389 -8.1343386 9.9333091
17.845187 -6.3311923 12.311635
16.844399 -8.9018253 10.601461
13.045927 -13.237036 9.9210864
14.213783 -10.537908 11.726121
14.335988 -12.34575 9.3737636
12.26207 -12.799918 11.391813
14.971966 -11.008305 10.312021
15.745978 -5.1198069 15.03777
15.115967 -7.8414914 13.427679
14.38884 -5.8592582 15.454199
16.851103 -5.7377316 13.736714
14.131068 -7.2372909 14.680655
16.456251 -7.1125188 12.887263
10.466809 -11.647005 14.117883
13.319513 -9.9829026 13.127213
10.91509 -10.224702 14.845188
11.394817 -12.265304 12.803294
12.379769 -9.3995928 14.37549
12.812146 -11.402695 12.273783
1.514784 11.663027 19.807362
4.6618526 10.946572 20.59311
2.5349593 13.136328 19.688334
1.4871233 10.062956 20.175544
11.221153 8.6869316 20.990804
7.9252664 9.9625591 21.017843
4.852566 16.429107 19.411771
5.8689949 12.474051 20.542922
3.6486092 14.724163 19.557379
4.1863697 12.839117 20.159117
1.445285 6.9324228 20.706778
4.5591498 9.2233604 20.807392
1.4655666 8.477833 20.475328
3.0167813 9.6712831 20.534941
21.737794 1.0783994 15.179582
19.843421 3.2279117 17.486779
23.19827 2.986879 15.478206
19.934406 0 15.65678
14.420037 7.1147914 20.424047
17.35404 5.2731276 19.257486
24.800163 7.0852643 15.059128
21.09281 5.2727931 17.85185
24.752906 5.1403449 15.76485
22.235704 4.1482755 16.740594
16.672269 -1.8947714 16.475968
18.002826 2.0459866 17.790859
18.243891 -0.98943548 16.089269
19.034475 1.0323119 16.786485
10.231992 22.787549 16.555711
11.925714 19.374015 19.296211
9.1009284 21.910341 18.062202
12.509064 22.193837 16.208318
12.964633 10.214588 20.977217
12.986248 15.136984 21.012191
11.20532 10.902654 21.066068
6.2574067 18.379099 19.244669
10.57365 18.106197 20.382723
7.7593984 20.46595 19.055099
6.8004225 16.280904 19.972112
9.9725543 20.229065 19.471768
17.021707 20.632813 15.29689
14.093515 18.532543 18.804025
14.793986 21.479306 15.7929
13.343135 20.406639 17.573625
7.6729012 12.027713 20.840893
10.90578 15.605057 20.803447
9.4241068 11.508319 21.015543
7.272878 14.142837 20.499435
11.105211 13.225542 21.013736
8.8373887 16.012577 20.447087
1.4101664 0.87153078 21.063712
4.2958715 2.6549946 21.035179
1.4165272 2.3439483 21.056946
2.825581 0 20.972197
10.874623 6.7208865 20.861406
7.3896477 4.5670534 20.972398
9.3288571 7.437329 21.024654
1.4382488 5.3437388 20.885368
4.3470734 4.2033514 21.06691
1.424924 3.8422471 20.997697
2.9265215 6.4002846 20.923468
2.8660537 3.2594857 21.065318
5.6416822 -1.731718 20.411798
5.7701282 1.7711446 20.87652
4.2481536 -0.87459271 20.753403
4.2841692 0.88200744 20.929349
6.1835363 8.6756312 20.993326
5.9434031 5.2302423 21.061119
7.751713 8.094013 21.065764
4.5065924 7.5101235 20.959829
7.5731576 6.2881851 21.047552
4.4362809 5.8279525 21.044159
24.77104 15.309345 12.061942
22.01972 13.608936 15.862798
24.82051 13.202358 12.84575
23.169466 16.920827 13.058956
15.019372 9.2824821 20.672906
19.293605 11.924104 19.371398
16.683419 8.4062063 20.237808
15.279735 11.792413 20.92234
24.824526 9.139538 14.32675
22.17714 11.62591 16.63549
24.836033 11.137349 13.600457
23.603332 8.374092 16.284257
23.498916 12.418564 14.789655
19.28241 19.564877 14.663769
20.29246 15.044557 16.740922
21.309684 18.351302 13.933602
17.74244 18.520673 16.483233
21.710249 15.962703 14.953049
19.733104 6.4162212 18.845565
20.805199 10.792812 18.481487
18.272595 7.4407564 19.62551
22.3285 7.602763 18.201789
19.245284 9.8565597 19.993773
22.260702 9.6212471 17.43286
14.809313 16.479152 19.975157
18.823123 14.107828 18.551365
15.432205 14.456105 20.988738
16.248398 17.489665 18.25681
17.428081 13.232627 20.237632
18.338729 16.321305 17.568142
10.983568 -5.0157224 17.771786
11.634273 -1.7416453 18.824649
12.315142 -4.3036453 17.485221
9.7308053 -4.2462528 18.604998
12.667989 5.7849251 20.497237
12.204818 1.8270557 19.747811
14.115603 4.9328336 20.041542
10.786714 4.7070219 20.623862
15.116908 -2.7639424 16.85119
13.068847 -0.92535562 18.598553
13.696943 -3.5521788 17.177279
15.687496 -0.95598353 17.473475
12.698547 -2.6475463 18.057512
7.0796427 -2.6159258 19.920416
10.248645 -0.91178038 19.53324
8.4185022 -3.4389955 19.326792
7.1953277 -0.88939142 20.276678
10.004885 -2.5996697 19.088939
16.778786 3.0677966 18.703727
13.440195 0.95164938 19.127026
15.501269 4.0201145 19.440076
16.246057 0.99002182 18.095627
13.785686 2.8742063 19.603439
14.59926 0 18.364526
7.3949384 2.7324275 20.807583
10.471489 0.93160582 19.957964
9.0279802 3.6879699 20.726002
7.3013755 0.90249965 20.575524
10.648351 2.7668677 20.316647
8.80873 0 20.125311
23.901808 0 -12.576836
26.543201 0 -9.5683989
25.589505 1.8861821 -12.763277
23.191402 -1.7094198 -11.567175
29.651366 0 -2.0550605
28.553654 0 -6.0141033
26.834965 5.8798634 -11.895222
28.192642 1.9677808 -9.4386153
26.730007 3.9268962 -12.588955
27.142834 1.9428079 -11.238521
21.733641 -4.7621019 -9.6339414
25.46695 -1.7775339 -8.5260808
22.463905 -3.3001647 -10.579762
24.398301 -1.7463619 -10.102144
23.901808 0 12.576836
26.543201 0 9.5683989
25.589505 1.8861821 12.763277
23.191402 -1.7094198 11.567175
29.651366 0 2.0550605
28.553654 0 6.0141033
26.834965 5.8798634 11.895222
28.192642 1.9677808 9.4386153
26.730007 3.9268962 12.588955
27.142834 1.9428079 11.238521
21.733641 -4.7621019 9.6339414
25.46695 -1.7775339 8.5260808
22.463905 -3.3001647 10.579762
24.398301 -1.7463619 10.102144
27.306435 14.234284 -8.7972715
28.793003 10.145246 -6.270107
27.185556 12.062513 -9.6167065
28.388981 14.848035 -6.4792693
29.766175 1.9927761 -1.2316034
29.501781 6.0249478 -3.7236225
29.598236 1.9911105 -3.2947197
26.954598 7.9394154 -11.139166
28.629509 8.0791868 -7.1097491
27.066863 9.9599782 -10.399791
27.723287 5.9608099 -9.9335405
28.016428 10.080641 -8.3702126
29.725651 15.596371 -1.3875458
29.407932 10.451471 -3.8618153
29.245157 15.327957 -3.9828168
29.01644 12.639189 -5.1631646
28.816084 1.9843893 -7.3728953
29.085686 6.0017162 -5.8032888
29.277381 1.9867914 -5.3572986
28.33885 3.9636955 -8.6685777
29.392516 3.9990153 -4.5479724
28.485427 6.004961 -7.8887312
18.76113 -9.7797923 -6.044244
21.480906 -7.5688208 -4.6777885
19.499236 -8.6520135 -6.8977228
19.137048 -10.009079 -4.3676836
27.882109 -1.8666423 -1.1536484
24.473416 -4.9980392 -3.0889581
27.616739 -1.8578128 -3.07415
20.976024 -6.17844 -8.6684809
22.410768 -6.3242713 -5.5654093
20.240887 -7.4481773 -7.7770737
22.631773 -4.8660787 -8.1091983
20.923257 -7.5284348 -6.2510506
19.522539 -10.243031 -0.91128088
21.777885 -7.7397803 -2.8598465
19.393748 -10.164641 -2.6411806
20.441821 -8.9041946 -3.6374029
26.402107 -1.8181533 -6.7552541
24.04818 -4.9622467 -4.798186
27.115303 -1.8400707 -4.9616723
24.43699 -3.4179504 -7.4750366
25.751982 -3.5037003 -3.9846641
23.411946 -4.9354296 -6.4836853
27.306435 14.234284 8.7972715
28.793003 10.145246 6.270107
27.185556 12.062513 9.6167065
28.388981 14.848035 6.4792693
29.766175 1.9927761 1.2316034
29.501781 6.0249478 3.7236225
29.598236 1.9911105 3.2947197
29.793456 4.0140679 0
26.954598 7.9394154 11.139166
28.629509 8.0791868 7.1097491
27.066863 9.9599782 10.399791
27.723287 5.9608099 9.9335405
28.016428 10.080641 8.3702126
29.725651 15.596371 1.3875458
29.407932 10.451471 3.8618153
29.245157 15.327957 3.9828168
29.793456 13.04042 0
29.01644 12.639189 5.1631646
28.816084 1.9843893 7.3728953
29.085686 6.0017162 5.8032888
29.277381 1.9867914 5.3572986
28.33885 3.9636955 8.6685777
29.392516 3.9990153 4.5479724
28.485427 6.004961 7.8887312
29.647007 8.1942313 -2.5152246
29.647007 8.1942313 2.5152246
29.760274 6.0918306 -1.2541615
29.749199 10.556721 -1.3048825
29.760274 6.0918306 1.2541615
29.749199 10.556721 1.3048825
18.76113 -9.7797923 6.044244
21.480906 -7.5688208 4.6777885
19.499236 -8.6520135 6.8977228
19.137048 -10.009079 4.3676836
27.882109 -1.8666423 1.1536484
24.473416 -4.9980392 3.0889581
27.616739 -1.8578128 3.07415
26.25599 -3.5374657 0
20.976024 -6.17844 8.6684809
22.410768 -6.3242713 5.5654093
20.240887 -7.4481773 7.7770737
22.631773 -4.8660787 8.1091983
20.923257 -7.5284348 6.2510506
19.522539 -10.243031 0.91128088
21.777885 -7.7397803 2.8598465
19.393748 -10.164641 2.6411806
20.723084 -9.0703718 0
20.441821 -8.9041946 3.6374029
26.402107 -1.8181533 6.7552541
24.04818 -4.9622467 4.798186
27.115303 -1.8400707 4.9616723
24.43699 -3.4179504 7.4750366
25.751982 -3.5037003 3.9846641
23.411946 -4.9354296 6.4836853
23.239465 -6.4232302 -1.9716147
23.239465 -6.4232302 1.9716147
24.700876 -5.0561883 -1.0409476
21.967094 -7.7951842 -0.96353776
24.700876 -5.0561883 1.0409476
21.967094 -7.7951842 0.96353776
-12.239949 17.528117 -0.86955973
-13.853109 15.720051 -2.5571669
-11.852768 17.764573 -2.2872666
-16.778066 11.845857 -5.8447007
-15.355902 13.838096 -4.2047872
-10.916531 17.977917 -5.1361879
-13.413361 15.848524 -3.9618234
-11.409995 17.915207 -3.7203851
-12.653964 16.807635 -3.1356192
-21.891425 1.6741644 -12.890171
-20.712245 4.6888224 -11.0099
-18.140274 9.6973314 -7.5072549
-19.452947 7.3351859 -9.2207907
-8.4111745 17.273631 -10.675691
-11.122514 15.439562 -9.5421739
-9.1037193 17.590173 -9.3564459
-16.195639 11.766527 -7.2721138
-13.682046 13.627101 -8.4220113
-15.544883 12.814717 -6.4568994
-10.352824 17.938747 -6.6044308
-11.758288 15.675233 -8.2174189
-9.7549233 17.813636 -7.9882593
-11.66021 16.900974 -5.9962003
-10.460352 16.620194 -8.7833387
-14.167408 14.834627 -4.823481
-13.064289 14.706887 -7.6292791
-14.866106 13.841288 -5.6362904
-12.932647 15.864739 -5.4018787
-14.305077 13.769551 -7.052138
-12.377841 15.805751 -6.8313675
-20.721476 -29.674016 -1.4721108
-24.535973 -27.842613 -4.5291333
-19.426378 -29.115672 -3.7487704
-26.137821 -18.454146 -9.1052053
-25.898158 -23.338335 -7.0914909
-16.668436 -27.450456 -7.842438
-22.596456 -26.698788 -6.6741786
-18.038035 -28.322109 -5.8815482
-21.217292 -28.181882 -5.2575897
-23.959126 -1.8322936 -14.107681
-25.850174 -5.851943 -13.741043
-26.107797 -13.956567 -10.804571
-25.995872 -9.8023478 -12.322169
-11.604044 -23.830676 -14.728168
-16.271761 -22.587416 -13.959791
-12.789855 -24.712511 -13.144912
-24.643923 -17.904412 -11.065535
-20.787229 -20.70375 -12.795621
-24.44605 -20.152562 -10.154189
-15.298342 -26.508041 -9.7593506
-17.649671 -23.529166 -12.334682
-14.024847 -25.611018 -11.484879
-18.032662 -26.13757 -9.2731999
-15.222665 -24.186916 -12.782154
-23.543943 -24.652753 -8.0158458
-20.123101 -22.653216 -11.751481
-24.108078 -22.446151 -9.1402636
-20.838649 -25.56319 -8.7041617
-22.394786 -21.556413 -11.040215
-19.189869 -24.504296 -10.590946
-1.514784 -11.663027 -19.807362
-4.6618526 -10.946572 -20.59311
-2.5349593 -13.136328 -19.688334
-1.4871233 -10.062956 -20.175544
-11.221153 -8.6869316 -20.990804
-7.9252664 -9.9625591 -21.017843
-4.852566 -16.429107 -19.411771
-5.8689949 -12.474051 -20.542922
-3.6486092 -14.724163 -19.557379
-4.1863697 -12.839117 -20.159117
-1.445285 -6.9324228 -20.706778
-4.5591498 -9.2233604 -20.807392
-1.4655666 -8.477833 -20.475328
-3.0167813 -9.6712831 -20.534941
-21.737794 -1.0783994 -15.179582
-19.843421 -3.2279117 -17.486779
-23.19827 -2.986879 -15.478206
-14.420037 -7.1147914 -20.424047
-17.35404 -5.2731276 -19.257486
-24.800163 -7.0852643 -15.059128
-21.09281 -5.2727931 -17.85185
-24.752906 -5.1403449 -15.76485
-22.235704 -4.1482755 -16.740594
-10.231992 -22.787549 -16.555711
-11.925714 -19.374015 -19.296211
-9.1009284 -21.910341 -18.062202
-12.509064 -22.193837 -16.208318
-12.964633 -10.214588 -20.977217
-12.986248 -15.136984 -21.012191
-11.20532 -10.902654 -21.066068
-6.2574067 -18.379099 -19.244669
-10.57365 -18.106197 -20.382723
-7.7593984 -20.46595 -19.055099
-6.8004225 -16.280904 -19.972112
-9.9725543 -20.229065 -19.471768
-17.021707 -20.632813 -15.29689
-14.093515 -18.532543 -18.804025
-14.793986 -21.479306 -15.7929
-13.343135 -20.406639 -17.573625
-7.6729012 -12.027713 -20.840893
-10.90578 -15.605057 -20.803447
-9.4241068 -11.508319 -21.015543
-7.272878 -14.142837 -20.499435
-11.105211 -13.225542 -21.013736
-8.8373887 -16.012577 -20.447087
-1.4101664 -0.87153078 -21.063712
-4.2958715 -2.6549946 -21.035179
-1.4165272 -2.3439483 -21.056946
-10.874623 -6.7208865 -20.861406
-7.3896477 -4.5670534 -20.972398
-9.3288571 -7.437329 -21.024654
-1.4382488 -5.3437388 -20.885368
-4.3470734 -4.2033514 -21.06691
-1.424924 -3.8422471 -20.997697
-2.9265215 -6.4002846 -20.923468
-2.8660537 -3.2594857 -21.065318
-6.1835363 -8.6756312 -20.993326
-5.9434031 -5.2302423 -21.061119
-7.751713 -8.094013 -21.065764
-4.5065924 -7.5101235 -20.959829
-7.5731576 -6.2881851 -21.047552
-4.4362809 -5.8279525 -21.044159
-24.77104 -15.309345 -12.061942
-22.01972 -13.608936 -15.862798
-24.82051 -13.202358 -12.84575
-23.169466 -16.920827 -13.058956
-15.019372 -9.2824821 -20.672906
-19.293605 -11.924104 -19.371398
-16.683419 -8.4062063 -20.237808
-15.279735 -11.792413 -20.92234
-24.824526 -9.139538 -14.32675
-22.17714 -11.62591 -16.63549
-24.836033 -11.137349 -13.600457
-23.603332 -8.374092 -16.284257
-23.498916 -12.418564 -14.789655
-19.28241 -19.564877 -14.663769
-20.29246 -15.044557 -16.740922
-21.309684 -18.351302 -13.933602
-17.74244 -18.520673 -16.483233
-21.710249 -15.962703 -14.953049
-19.733104 -6.4162212 -18.845565
-20.805199 -10.792812 -18.481487
-18.272595 -7.4407564 -19.62551
-22.3285 -7.602763 -18.201789
-19.245284 -9.8565597 -19.993773
-22.260702 -9.6212471 -17.43286
-14.809313 -16.479152 -19.975157
-18.823123 -14.107828 -18.551365
-15.432205 -14.456105 -20.988738
-16.248398 -17.489665 -18.25681
-17.428081 -13.232627 -20.237632
-18.338729 -16.321305 -17.568142
-1.4578633 11.224768 -19.063065
-4.2035169 9.8703469 -18.568473
-2.3638007 12.249373 -18.358992
-1.4393821 9.7399039 -19.527847
-9.3533629 7.2409693 -17.496831
-6.8063839 8.5560533 -18.050562
-4.1621802 14.091699 -16.650014
-5.089245 10.816758 -17.813606
-3.2737905 13.211561 -17.548265
-3.7561262 11.519609 -18.087315
-1.4137226 6.7810313 -20.25458
-4.1802579 8.4568453 -19.078177
-1.4261844 8.2500201 -19.925123
-2.8360976 9.0920422 -19.305045
-20.673277 1.0255893 -14.436226
-17.480375 2.8435171 -15.404373
-20.2511 2.6074179 -13.511813
-19.934406 0 -15.65678
-11.924619 5.8835617 -16.889623
-14.602471 4.437047 -16.204116
-19.270013 5.5053324 -11.701117
-17.21544 4.3035257 -14.570246
-19.775863 4.1067807 -12.595026
-18.688379 3.4864893 -14.069919
-18.002826 -2.0459866 -17.790859
-16.672269 1.8947714 -16.475968
-19.034475 -1.0323119 -16.786485
-18.243891 0.98943548 -16.089269
-7.5311519 16.77254 -12.18566
-8.5564033 13.900373 -13.844551
-6.7488521 16.247755 -13.394142
-8.9610518 15.898881 -11.611067
-10.259837 8.0835312 -16.600766
-9.4565903 11.022756 -15.301085
-8.9988146 8.755748 -16.917824
-5.0783562 14.916022 -15.618497
-7.7473118 13.266407 -14.934417
-5.9240456 15.62508 -14.547941
-5.5545181 13.298082 -16.313024
-7.2696284 14.74625 -14.194208
-11.678045 14.155508 -10.494703
-9.9759019 13.118007 -13.310172
-10.347077 15.022863 -11.045728
-9.4848068 14.505814 -12.492
-6.4483327 10.108131 -17.514758
-8.2044673 11.739755 -15.650527
-7.7238176 9.4319984 -17.223937
-6.0118502 11.690642 -16.945085
-8.6145207 10.259301 -16.30075
-6.9057256 12.512572 -15.977793
-1.4062777 0.86912739 -21.005625
-4.1895562 2.5892882 -20.514596
-1.4060476 2.3266075 -20.901164
-2.825581 0 -20.972197
-9.4317954 5.8291701 -18.093548
-6.8846525 4.2549492 -19.539182
-8.1424171 6.4914528 -18.350748
-1.4139718 5.2535387 -20.532831
-4.1784491 4.0403022 -20.249718
-1.4076652 3.7957095 -20.743371
-2.810321 6.1461547 -20.09268
-2.8075677 3.1929712 -20.63545
-5.7701282 -1.7711446 -20.87652
-5.6416822 1.731718 -20.411798
-4.2841692 -0.88200744 -20.929349
-4.2481536 0.87459271 -20.753403
-5.549078 7.7854729 -18.839318
-5.5663124 4.8983995 -19.724855
-6.8443024 7.1465329 -18.599819
-4.1978307 6.9955798 -19.523801
-6.8716522 5.7057073 -19.097906
-4.1984428 5.5155041 -19.915939
-16.942738 10.471188 -8.2500503
-15.581893 9.6301396 -11.225048
-17.548453 9.3342545 -9.0821273
-15.638984 11.421262 -8.8145661
-11.770391 7.274502 -16.200958
-13.839925 8.5535442 -13.895729
-13.059533 6.5802536 -15.841856
-11.351181 8.76048 -15.543023
-18.701389 6.8852094 -10.792961
-16.043439 8.4104431 -12.034486
-18.139389 8.1343386 -9.9333091
-17.845187 6.3311923 -12.311635
-16.844399 8.9018253 -10.601461
-13.045927 13.237036 -9.9210864
-14.213783 10.537908 -11.726121
-14.335988 12.34575 -9.3737636
-12.26207 12.799918 -11.391813
-14.971966 11.008305 -10.312021
-15.745978 5.1198069 -15.03777
-15.115967 7.8414914 -13.427679
-14.38884 5.8592582 -15.454199
-16.851103 5.7377316 -13.736714
-14.131068 7.2372909 -14.680655
-16.456251 7.1125188 -12.887263
-10.466809 11.647005 -14.117883
-13.319513 9.9829026 -13.127213
-10.91509 10.224702 -14.845188
-11.394817 12.265304 -12.803294
-12.379769 9.3995928 -14.37549
-12.812146 11.402695 -12.273783
-12.667989 -5.7849251 -20.497237
-12.204818 -1.8270557 -19.747811
-14.115603 -4.9328336 -20.041542
-10.786714 -4.7070219 -20.623862
-10.983568 5.0157224 -17.771786
-11.634273 1.7416453 -18.824649
-12.315142 4.3036453 -17.485221
-9.7308053 4.2462528 -18.604998
-16.778786 -3.0677966 -18.703727
-13.440195 -0.95164938 -19.127026
-15.501269 -4.0201145 -19.440076
-16.246057 -0.99002182 -18.095627
-13.785686 -2.8742063 -19.603439
-7.3949384 -2.7324275 -20.807583
-10.471489 -0.93160582 -19.957964
-9.0279802 -3.6879699 -20.726002
-7.3013755 -0.90249965 -20.575524
-10.648351 -2.7668677 -20.316647
-15.116908 2.7639424 -16.85119
-13.068847 0.92535562 -18.598553
-13.696943 3.5521788 -17.177279
-15.687496 0.95598353 -17.473475
-12.698547 2.6475463 -18.057512
-14.59926 0 -18.364526
-7.0796427 2.6159258 -19.920416
-10.248645 0.91178038 -19.53324
-8.4185022 3.4389955 -19.326792
-7.1953277 0.88939142 -20.276678
-10.004885 2.5996697 -19.088939
-8.80873 0 -20.125311
-12.239949 17.528117 0.86955973
-13.853109 15.720051 2.5571669
-11.852768 17.764573 2.2872666
-13.106323 16.687133 0
-16.778066 11.845857 5.8447007
-15.355902 13.838096 4.2047872
-10.916531 17.977917 5.1361879
-13.413361 15.848524 3.9618234
-11.409995 17.915207 3.7203851
-12.653964 16.807635 3.1356192
-14.760362 14.936223 -1.6974731
-14.760362 14.936223 1.6974731
-13.950284 15.818459 -0.85789511
-13.950284 15.818459 0.85789511
-21.891425 1.6741644 12.890171
-20.712245 4.6888224 11.0099
-18.140274 9.6973314 7.5072549
-19.452947 7.3351859 9.2207907
-8.4111745 17.273631 10.675691
-11.122514 15.439562 9.5421739
-9.1037193 17.590173 9.3564459
-16.195639 11.766527 7.2721138
-13.682046 13.627101 8.4220113
-15.544883 12.814717 6.4568994
-10.352824 17.938747 6.6044308
-11.758288 15.675233 8.2174189
-9.7549233 17.813636 7.9882593
-11.66021 16.900974 5.9962003
-10.460352 16.620194 8.7833387
-14.167408 14.834627 4.823481
-13.064289 14.706887 7.6292791
-14.866106 13.841288 5.6362904
-12.932647 15.864739 5.4018787
-14.305077 13.769551 7.052138
-12.377841 15.805751 6.8313675
-17.877479 11.04889 -5.0455522
-18.353458 11.343061 -1.6980511
-17.127605 12.063267 -4.2156251
-17.877479 11.04889 5.0455522
-18.353458 11.343061 1.6980511
-17.127605 12.063267 4.2156251
-15.588784 13.984426 -2.5568818
-17.483047 12.285002 -0.86985454
-16.360823 13.045912 -3.3833397
-15.686003 14.082723 -0.85818996
-17.364151 12.210956 -2.5458875
-15.588784 13.984426 2.5568818
-17.483047 12.285002 0.86985454
-16.360823 13.045912 3.3833397
-15.686003 14.082723 0.85818996
-17.364151 12.210956 2.5458875
-16.598297 13.195159 0
-20.721476 -29.674016 1.4721108
-24.535973 -27.842613 4.5291333
-19.426378 -29.115672 3.7487704
-23.400225 -29.793456 0
-26.137821 -18.454146 9.1052053
-25.898158 -23.338335 7.0914909
-16.668436 -27.450456 7.842438
-22.596456 -26.698788 6.6741786
-18.038035 -28.322109 5.8815482
-21.217292 -28.181882 5.2575897
-27.396435 -27.722847 -3.1506484
-27.396435 -27.722847 3.1506484
-25.979694 -29.458809 -1.5976631
-25.979694 -29.458809 1.5976631
-23.959126 -1.8322936 14.107681
-25.850174 -5.851943 13.741043
-26.107797 -13.956567 10.804571
-25.995872 -9.8023478 12.322169
-11.604044 -23.830676 14.728168
-16.271761 -22.587416 13.959791
-12.789855 -24.712511 13.144912
-24.643923 -17.904412 11.065535
-20.787229 -20.70375 12.795621
-24.44605 -20.152562 10.154189
-15.298342 -26.508041 9.7593506
-17.649671 -23.529166 12.334682
-14.024847 -25.611018 11.484879
-18.032662 -26.13757 9.2731999
-15.222665 -24.186916 12.782154
-23.543943 -24.652753 8.0158458
-20.123101 -22.653216 11.751481
-24.108078 -22.446151 9.1402636
-20.838649 -25.56319 8.7041617
-22.394786 -21.556413 11.040215
-19.189869 -24.504296 10.590946
-27.453237 -16.967034 -7.7481137
-29.472376 -18.21493 -2.7267667
-27.573355 -19.420389 -6.7866423
-27.453237 -16.967034 7.7481137
-29.472376 -18.21493 2.7267667
-27.573355 -19.420389 6.7866423
-27.703901 -24.852685 -4.5440106
-29.671616 -20.849676 -1.4762867
-27.674056 -22.06694 -5.7228621
-29.411365 -26.405204 -1.6091122
-28.852019 -20.289546 -4.2302095
-27.703901 -24.852685 4.5440106
-29.671616 -20.849676 1.4762867
-27.674056 -22.06694 5.7228621
-29.411365 -26.405204 1.6091122
-28.852019 -20.289546 4.2302095
-29.793456 -23.684923 0
-1.514784 -11.663027 19.807362
-4.6618526 -10.946572 20.59311
-2.5349593 -13.136328 19.688334
-1.4871233 -10.062956 20.175544
-11.221153 -8.6869316 20.990804
-7.9252664 -9.9625591 21.017843
-4.852566 -16.429107 19.411771
-5.8689949 -12.474051 20.542922
-3.6486092 -14.724163 19.557379
-4.1863697 -12.839117 20.159117
-1.445285 -6.9324228 20.706778
-4.5591498 -9.2233604 20.807392
-1.4655666 -8.477833 20.475328
-3.0167813 -9.6712831 20.534941
-21.737794 -1.0783994 15.179582
-19.843421 -3.2279117 17.486779
-23.19827 -2.986879 15.478206
-14.420037 -7.1147914 20.424047
-17.35404 -5.2731276 19.257486
-24.800163 -7.0852643 15.059128
-21.09281 -5.2727931 17.85185
-24.752906 -5.1403449 15.76485
-22.235704 -4.1482755 16.740594
-10.231992 -22.787549 16.555711
-11.925714 -19.374015 19.296211
-9.1009284 -21.910341 18.062202
-12.509064 -22.193837 16.208318
-12.964633 -10.214588 20.977217
-12.986248 -15.136984 21.012191
-11.20532 -10.902654 21.066068
-6.2574067 -18.379099 19.244669
-10.57365 -18.106197 20.382723
-7.7593984 -20.46595 19.055099
-6.8004225 -16.280904 19.972112
-9.9725543 -20.229065 19.471768
-17.021707 -20.632813 15.29689
-14.093515 -18.532543 18.804025
-14.793986 -21.479306 15.7929
-13.343135 -20.406639 17.573625
-7.6729012 -12.027713 20.840893
-10.90578 -15.605057 20.803447
-9.4241068 -11.508319 21.015543
-7.272878 -14.142837 20.499435
-11.105211 -13.225542 21.013736
-8.8373887 -16.012577 20.447087
-1.4101664 -0.87153078 21.063712
-4.2958715 -2.6549946 21.035179
-1.4165272 -2.3439483 21.056946
-10.874623 -6.7208865 20.861406
-7.3896477 -4.5670534 20.972398
-9.3288571 -7.437329 21.024654
