0 -19.24398083 15.29840012
2.634559891 -20.06231568 7.130073203
0.9440879943 -20.22537195 10.61179131
3.450912837 -19.39376623 8.447675389
0.9158508264 -20.87990955 7.409388828
2.650486452 -19.46207856 10.20045489
0 -20.97821013 9.182038829
-9.543732521 16.20815642 1.239531869
-8.822929372 16.5980313 3.757449819
-8.47436345 16.990524 1.252358035
-7.055669455 17.04907841 9.114005896
-8.00306385 16.8839291 6.366477976
-6.20125484 18.52281856 1.292849654
-7.705912546 17.38411379 3.809068316
-7.356032155 17.76599911 1.271640376
-8.100915969 17.20059605 2.526933727
-1.093533421 15.39260969 22.04285799
-3.017394128 16.34632854 18.54927478
-5.942722821 17.05945332 12.04452498
-4.615641995 16.85634596 15.19023307
-0.8880727042 21.46350737 1.43693182
-2.581547224 20.45326558 4.177031152
-2.310949364 20.76049829 1.396584809
-5.753276063 17.85797537 9.308996216
-4.192977408 19.25460125 6.784379961
-6.293007022 17.78975957 7.893500914
-4.938318345 19.30082997 1.329131293
-3.935393892 19.72392481 4.069953793
-3.665944576 20.03421225 1.359541021
-5.737809096 18.75773834 2.623605486
-3.135474228 20.26385996 2.757010863
-7.254644571 17.55481727 5.170731371
-4.747334173 19.11654601 5.394648861
-6.795496952 17.68620067 6.508111927
-6.511833289 18.17372377 3.907549426
-5.521314348 18.4807139 6.649579025
-5.250306443 18.95833669 3.996572411
14.67678915 24.92564558 1.906208902
13.10022758 24.64464785 5.57903681
12.45730224 24.97604616 1.840964534
9.503784678 22.96462032 12.27630491
11.36551315 23.9776318 9.041323488
8.203552792 24.5035761 1.71029262
10.89595228 24.58066753 5.385919755
10.27652426 24.81945661 1.776507077
11.69149632 24.82444037 3.646950106
1.129579842 15.90000021 22.76946235
3.340380827 18.09606572 20.53481886
0 16.5260364 21.04115414
7.53672748 21.63527637 15.27520382
5.478901617 20.0089741 18.03124952
-1.99610213 17.35708864 17.56388766
2.139151568 18.60097378 18.82259292
-1.045909407 17.00759522 19.2851961
1.082448022 17.60175182 19.95892018
0.9214437563 22.27004024 1.490927316
2.880878935 22.8248321 4.661360035
2.550475236 22.91228774 1.54133839
0 21.80235265 2.93742775
7.326475074 22.74113218 11.85448569
5.015986315 23.03394627 8.116036345
8.246851711 23.31310113 10.34426488
6.151939335 24.04412328 1.655773183
4.669200786 23.40171474 4.828851183
4.302566756 23.5133221 1.59563678
7.417252479 24.24808474 3.391528712
3.58971537 23.19951761 3.156423416
-1.757057931 20.71048023 5.72423595
1.890047962 22.27803662 6.157497882
-0.8967218662 21.27851101 4.355641436
0.9304548379 22.07896814 4.519492386
10.01407611 24.23210048 7.137509906
5.837437905 23.5061713 6.633391837
9.150053122 23.81425182 8.763092719
8.713973058 24.31962433 5.228985282
7.016156703 23.4841881 8.449888109
6.622074772 23.91165629 5.040772691
-5.048334493 17.88733761 11.05498261
-1.798908264 19.44357792 12.01679202
-4.395847286 17.85982724 12.57898396
-4.260008437 18.66526827 9.762328075
6.19966693 21.96675668 13.57620225
1.929193293 20.8517693 12.88710215
5.22771272 21.23960183 14.95941741
5.079657074 22.25656672 11.64065274
-2.88957899 17.61717061 15.80405563
-0.9641153453 19.37757733 13.6162524
-3.675329809 17.77280016 14.17180474
-1.002754605 18.32835654 16.45499956
-2.732791685 18.63892504 13.10741282
-2.634559891 20.06231568 7.130073203
-0.9440879943 20.22537195 10.61179131
-3.450912837 19.39376623 8.447675389
-0.9158508264 20.87990955 7.409388828
-2.650486452 19.46207856 10.20045489
3.210524292 19.57390831 17.5594108
0.999583389 20.09044302 14.11716947
4.226258595 20.43692766 16.29614612
1.039012192 18.99107301 17.04997921
3.036533091 20.71058433 14.56426151
0 19.24398083 15.29840012
2.940409428 22.39137641 7.957812817
0.979629599 20.98678633 11.01128807
3.984009557 22.38971358 9.752671559
0.9503835263 21.66719896 7.688764239
2.949483269 21.65756216 11.35115066
0 20.97821013 9.182038829
0 -13.36763794 25.40469824
0 -10.22498627 28.36460594
0 -2.211843303 31.91350023
0 -6.455935317 30.65137601
0 13.36763794 25.40469824
0 10.22498627 28.36460594
0 2.211843303 31.91350023
0 6.455935317 30.65137601
-14.67678915 -24.92564558 -1.906208902
-13.10022758 -24.64464785 -5.57903681
-12.45730224 -24.97604616 -1.840964534
-9.503784678 -22.96462032 -12.27630491
-11.36551315 -23.9776318 -9.041323488
-8.203552792 -24.5035761 -1.71029262
-10.89595228 -24.58066753 -5.385919755
-10.27652426 -24.81945661 -1.776507077
-11.69149632 -24.82444037 -3.646950106
-1.129579842 -15.90000021 -22.76946235
-3.340380827 -18.09606572 -20.53481886
-7.53672748 -21.63527637 -15.27520382
-5.478901617 -20.0089741 -18.03124952
-0.9214437563 -22.27004024 -1.490927316
-2.880878935 -22.8248321 -4.661360035
-2.550475236 -22.91228774 -1.54133839
-7.326475074 -22.74113218 -11.85448569
-5.015986315 -23.03394627 -8.116036345
-8.246851711 -23.31310113 -10.34426488
-6.151939335 -24.04412328 -1.655773183
-4.669200786 -23.40171474 -4.828851183
-4.302566756 -23.5133221 -1.59563678
-7.417252479 -24.24808474 -3.391528712
-3.58971537 -23.19951761 -3.156423416
-10.01407611 -24.23210048 -7.137509906
-5.837437905 -23.5061713 -6.633391837
-9.150053122 -23.81425182 -8.763092719
-8.713973058 -24.31962433 -5.228985282
-7.016156703 -23.4841881 -8.449888109
-6.622074772 -23.91165629 -5.040772691
9.543732521 -16.20815642 -1.239531869
8.822929372 -16.5980313 -3.757449819
8.47436345 -16.990524 -1.252358035
7.055669455 -17.04907841 -9.114005896
8.00306385 -16.8839291 -6.366477976
6.20125484 -18.52281856 -1.292849654
7.705912546 -17.38411379 -3.809068316
7.356032155 -17.76599911 -1.271640376
8.100915969 -17.20059605 -2.526933727
1.093533421 -15.39260969 -22.04285799
3.017394128 -16.34632854 -18.54927478
0 -16.5260364 -21.04115414
5.942722821 -17.05945332 -12.04452498
4.615641995 -16.85634596 -15.19023307
-2.139151568 -18.60097378 -18.82259292
1.99610213 -17.35708864 -17.56388766
-1.082448022 -17.60175182 -19.95892018
1.045909407 -17.00759522 -19.2851961
0.8880727042 -21.46350737 -1.43693182
2.581547224 -20.45326558 -4.177031152
2.310949364 -20.76049829 -1.396584809
0 -21.80235265 -2.93742775
5.753276063 -17.85797537 -9.308996216
4.192977408 -19.25460125 -6.784379961
6.293007022 -17.78975957 -7.893500914
4.938318345 -19.30082997 -1.329131293
3.935393892 -19.72392481 -4.069953793
3.665944576 -20.03421225 -1.359541021
5.737809096 -18.75773834 -2.623605486
3.135474228 -20.26385996 -2.757010863
-1.890047962 -22.27803662 -6.157497882
1.757057931 -20.71048023 -5.72423595
-0.9304548379 -22.07896814 -4.519492386
0.8967218662 -21.27851101 -4.355641436
7.254644571 -17.55481727 -5.170731371
4.747334173 -19.11654601 -5.394648861
6.795496952 -17.68620067 -6.508111927
6.511833289 -18.17372377 -3.907549426
5.521314348 -18.4807139 -6.649579025
5.250306443 -18.95833669 -3.996572411
-6.19966693 -21.96675668 -13.57620225
-1.929193293 -20.8517693 -12.88710215
-5.22771272 -21.23960183 -14.95941741
-5.079657074 -22.25656672 -11.64065274
5.048334493 -17.88733761 -11.05498261
1.798908264 -19.44357792 -12.01679202
4.395847286 -17.85982724 -12.57898396
4.260008437 -18.66526827 -9.762328075
-3.210524292 -19.57390831 -17.5594108
-0.999583389 -20.09044302 -14.11716947
-4.226258595 -20.43692766 -16.29614612
-1.039012192 -18.99107301 -17.04997921
-3.036533091 -20.71058433 -14.56426151
-2.940409428 -22.39137641 -7.957812817
-0.979629599 -20.98678633 -11.01128807
-3.984009557 -22.38971358 -9.752671559
-0.9503835263 -21.66719896 -7.688764239
-2.949483269 -21.65756216 -11.35115066
2.88957899 -17.61717061 -15.80405563
0.9641153453 -19.37757733 -13.6162524
3.675329809 -17.77280016 -14.17180474
1.002754605 -18.32835654 -16.45499956
2.732791685 -18.63892504 -13.10741282
0 -19.24398083 -15.29840012
2.634559891 -20.06231568 -7.130073203
0.9440879943 -20.22537195 -10.61179131
3.450912837 -19.39376623 -8.447675389
0.9158508264 -20.87990955 -7.409388828
2.650486452 -19.46207856 -10.20045489
0 -20.97821013 -9.182038829
-9.543732521 16.20815642 -1.239531869
-8.822929372 16.5980313 -3.757449819
-8.47436345 16.990524 -1.252358035
-7.055669455 17.04907841 -9.114005896
-8.00306385 16.8839291 -6.366477976
-6.20125484 18.52281856 -1.292849654
-7.705912546 17.38411379 -3.809068316
-7.356032155 17.76599911 -1.271640376
-8.100915969 17.20059605 -2.526933727
-1.093533421 15.39260969 -22.04285799
-3.017394128 16.34632854 -18.54927478
-5.942722821 17.05945332 -12.04452498
-4.615641995 16.85634596 -15.19023307
-0.8880727042 21.46350737 -1.43693182
-2.581547224 20.45326558 -4.177031152
-2.310949364 20.76049829 -1.396584809
-5.753276063 17.85797537 -9.308996216
-4.192977408 19.25460125 -6.784379961
-6.293007022 17.78975957 -7.893500914
-4.938318345 19.30082997 -1.329131293
-3.935393892 19.72392481 -4.069953793
-3.665944576 20.03421225 -1.359541021
-5.737809096 18.75773834 -2.623605486
-3.135474228 20.26385996 -2.757010863
-7.254644571 17.55481727 -5.170731371
-4.747334173 19.11654601 -5.394648861
-6.795496952 17.68620067 -6.508111927
-6.511833289 18.17372377 -3.907549426
-5.521314348 18.4807139 -6.649579025
-5.250306443 18.95833669 -3.996572411
14.67678915 24.92564558 -1.906208902
13.10022758 24.64464785 -5.57903681
12.45730224 24.97604616 -1.840964534
9.503784678 22.96462032 -12.27630491
11.36551315 23.9776318 -9.041323488
8.203552792 24.5035761 -1.71029262
10.89595228 24.58066753 -5.385919755
10.27652426 24.81945661 -1.776507077
11.69149632 24.82444037 -3.646950106
1.129579842 15.90000021 -22.76946235
3.340380827 18.09606572 -20.53481886
0 16.5260364 -21.04115414
7.53672748 21.63527637 -15.27520382
5.478901617 20.0089741 -18.03124952
-1.99610213 17.35708864 -17.56388766
2.139151568 18.60097378 -18.82259292
-1.045909407 17.00759522 -19.2851961
1.082448022 17.60175182 -19.95892018
0.9214437563 22.27004024 -1.490927316
2.880878935 22.8248321 -4.661360035
2.550475236 22.91228774 -1.54133839
0 21.80235265 -2.93742775
7.326475074 22.74113218 -11.85448569
5.015986315 23.03394627 -8.116036345
8.246851711 23.31310113 -10.34426488
6.151939335 24.04412328 -1.655773183
4.669200786 23.40171474 -4.828851183
4.302566756 23.5133221 -1.59563678
7.417252479 24.24808474 -3.391528712
3.58971537 23.19951761 -3.156423416
-1.757057931 20.71048023 -5.72423595
1.890047962 22.27803662 -6.157497882
-0.8967218662 21.27851101 -4.355641436
0.9304548379 22.07896814 -4.519492386
10.01407611 24.23210048 -7.137509906
5.837437905 23.5061713 -6.633391837
9.150053122 23.81425182 -8.763092719
8.713973058 24.31962433 -5.228985282
7.016156703 23.4841881 -8.449888109
6.622074772 23.91165629 -5.040772691
-5.048334493 17.88733761 -11.05498261
-1.798908264 19.44357792 -12.01679202
-4.395847286 17.85982724 -12.57898396
-4.260008437 18.66526827 -9.762328075
6.19966693 21.96675668 -13.57620225
1.929193293 20.8517693 -12.88710215
5.22771272 21.23960183 -14.95941741
5.079657074 22.25656672 -11.64065274
-2.88957899 17.61717061 -15.80405563
-0.9641153453 19.37757733 -13.6162524
-3.675329809 17.77280016 -14.17180474
-1.002754605 18.32835654 -16.45499956
-2.732791685 18.63892504 -13.10741282
-2.634559891 20.06231568 -7.130073203
-0.9440879943 20.22537195 -10.61179131
-3.450912837 19.39376623 -8.447675389
-0.9158508264 20.87990955 -7.409388828
-2.650486452 19.46207856 -10.20045489
3.210524292 19.57390831 -17.5594108
0.999583389 20.09044302 -14.11716947
4.226258595 20.43692766 -16.29614612
1.039012192 18.99107301 -17.04997921
3.036533091 20.71058433 -14.56426151
0 19.24398083 -15.29840012
2.940409428 22.39137641 -7.957812817
0.979629599 20.98678633 -11.01128807
3.984009557 22.38971358 -9.752671559
0.9503835263 21.66719896 -7.688764239
2.949483269 21.65756216 -11.35115066
0 20.97821013 -9.182038829
0 -13.36763794 -25.40469824
0 -10.22498627 -28.36460594
0 -2.211843303 -31.91350023
0 -6.455935317 -30.65137601
0 13.36763794 -25.40469824
0 10.22498627 -28.36460594
0 2.211843303 -31.91350023
0 6.455935317 -30.65137601
17.17806301 24.59970149 -1.220376946
20.49864945 23.26119167 -3.783877482
16.43186742 24.62758974 -3.170910151
24.85958316 17.55166854 -8.659926514
23.16673077 20.87688759 -6.343565545
14.77952781 24.33970261 -6.953713479
19.72462427 23.3055823 -5.825943133
15.62788854 24.53785871 -5.095686874
18.13813065 24.09198336 -4.49458148
22.45094126 1.716953888 -13.21962675
23.996241 5.432250955 -12.75555731
25.45948828 13.60999819 -10.53627237
25.08658148 9.459478746 -11.89116065
10.96988055 22.52832502 -13.92327057
15.96613509 22.1631662 -13.69759001
11.96291277 23.11469577 -12.29501289
24.11815873 17.52243141 -10.82945818
20.5977872 20.51506917 -12.67901003
23.40887548 19.29754738 -9.723376712
13.86258634 24.02025103 -8.843431656
16.96981418 22.62283448 -11.85955604
12.93265837 23.61655319 -10.5904911
16.41079093 23.78673755 -8.439161274
14.48679332 23.01770708 -12.16425749
21.2052021 22.20386846 -7.219590675
19.41687531 21.85819557 -11.33906004
22.42473434 20.87885079 -8.502045828
18.90587923 23.19222207 -7.89685687
21.5627916 20.75556515 -10.63005701
17.98142672 22.96118851 -9.924002896
10.7014371 -15.32490352 -0.7602595893
12.29624168 -13.95336972 -2.269782315
10.37186477 -15.54503964 -2.001492006
15.33487024 -10.82691362 -5.34195801
13.8334613 -12.46613601 -3.787909021
9.657114508 -15.90384336 -4.54363686
11.9703814 -14.14357531 -3.535619251
10.02362091 -15.73841488 -3.268338736
11.18346859 -14.85444914 -2.771234356
20.99203236 -1.60538265 -12.36058788
19.68246335 -4.455701222 -10.46250491
16.81358773 -8.988118537 -6.958212902
18.26990436 -6.889092167 -8.660022808
7.91251065 -16.24954901 -10.04277359
10.48157239 -14.54984751 -8.992300293
8.392720625 -16.21638372 -8.625709326
15.02455122 -10.91570345 -6.74627574
12.83192121 -12.78038988 -7.898715333
14.28460183 -11.77578055 -5.933414652
9.257337151 -16.04055381 -5.905581136
10.88072949 -14.50534106 -7.60412694
8.841423492 -16.14547776 -7.240198738
10.47059321 -15.17667574 -5.384446435
9.670397904 -15.3650557 -8.120030949
12.77149102 -13.37296883 -4.348222528
12.08004716 -13.59889421 -7.054501708
13.53013884 -12.59741791 -5.129775842
11.64457683 -14.28463646 -4.863860359
13.19651218 -12.70248645 -6.505636162
11.2814216 -14.40568938 -6.226250139
1.807819791 -13.91924561 -23.63910657
5.225382868 -12.26980697 -23.08242893
2.816192279 -14.5936958 -21.87259328
1.860815778 -12.59163017 -25.24536454
11.27032869 -8.725001364 -21.08279495
8.375841795 -10.52896074 -22.21277126
4.585521097 -15.52498517 -18.34350883
6.077583217 -12.9173873 -21.27303181
3.747582784 -15.12357635 -20.08789973
4.48760887 -13.76298289 -21.60970937
1.967954727 -9.439449312 -28.19513331
5.396981093 -10.91832986 -24.6311501
1.917177743 -11.09025899 -26.78475669
3.67044428 -11.76681461 -24.98436296
20.6325731 -1.023570004 -14.40780251
18.59886228 -3.025460481 -16.39002693
20.06068618 -2.582901295 -13.3847664
13.92736941 -6.871711106 -19.7262498
16.36559718 -4.972783319 -18.16062773
18.7677608 -5.361841653 -11.39613935
18.0471031 -4.511425419 -15.27412289
19.42915569 -4.034781306 -12.37421256
19.07281067 -3.558208568 -14.35934629
7.288688827 -16.23255302 -11.79334626
8.81881905 -14.32668306 -14.26914896
6.713403273 -16.16241208 -13.3237888
8.675722424 -15.39264422 -11.24135825
11.8790199 -9.359254257 -19.22065795
10.35246637 -12.06700423 -16.75064246
10.53946032 -10.25477936 -19.81424672
5.388018983 -15.8255553 -16.57086532
8.247728577 -14.12331505 -15.89906602
6.077762303 -16.03051875 -14.92543028
6.133315683 -14.68378211 -18.01289066
7.484701984 -15.1825215 -14.61414737
11.25884786 -13.64737989 -10.11798406
10.22331777 -13.44335174 -13.64028279
10.00443979 -14.52539031 -10.67995584
9.450881235 -14.45392929 -12.44731829
7.670150735 -12.02340121 -20.83342228
9.033417856 -12.92589891 -17.23180162
9.128983084 -11.14792679 -20.3574237
6.898238361 -13.41431262 -19.44347076
9.788047272 -11.65689052 -18.52134462
7.622938707 -13.81209933 -17.63721096
2.129298122 -1.315978612 -31.80541019
6.082551744 -3.759223716 -29.78384448
2.106648813 -3.485902683 -31.31573449
11.70110042 -7.231677768 -22.44688453
9.302755796 -5.749419271 -26.40194894
10.2452639 -8.167924265 -23.08998041
2.030944097 -7.545867398 -29.49212534
5.93846261 -5.742126488 -28.77914492
2.071625909 -5.586051211 -30.52750343
3.906943316 -8.544461053 -27.93309468
4.113526826 -4.67820331 -30.2341687
7.124147899 -9.995328934 -24.186736
7.616446814 -6.702534152 -26.98973736
8.711459 -9.096139364 -23.67393397
5.616393613 -9.359579343 -26.12143186
9.027199148 -7.495512722 -25.08866864
5.802868396 -7.623241667 -27.52677082
15.89561667 -9.824031374 -7.740167813
15.37254043 -9.500752478 -11.07423257
16.61978219 -8.840282315 -8.601497791
14.80664939 -10.81340203 -8.345439437
13.40084441 -8.282177324 -18.44513955
14.57567114 -9.008260172 -14.63444115
14.62207708 -7.367566512 -17.73729972
12.61688765 -9.737312226 -17.27613857
18.04580635 -6.643846269 -10.41461009
16.06314473 -8.420773499 -12.04926736
17.34219043 -7.776846691 -9.496755202
17.7765097 -6.306826734 -12.26425371
16.3715365 -8.651929785 -10.3038528
12.51948263 -12.70287996 -9.520739448
14.18666362 -10.51780176 -11.70374743
13.67599737 -11.77738515 -8.942220784
12.09409626 -12.62457691 -11.23576053
14.52794879 -10.68183699 -10.00620196
16.92484923 -5.503116898 -16.16361803
15.66805452 -8.127890082 -13.918105
15.80318638 -6.43519206 -16.97326447
17.40680162 -5.926944841 -14.1897093
15.1986245 -7.784044606 -15.78973015
16.73772444 -7.234173688 -13.10769106
11.0400669 -12.28490111 -14.89110738
13.74701109 -10.30331006 -13.54853916
11.8235228 -11.0756752 -16.08071102
11.60163879 -12.48792513 -13.03568021
13.23717787 -10.05059829 -15.37112079
12.9292616 -11.50692718 -12.3859782
1.899172977 14.62261629 -24.83364362
5.990860268 14.06723697 -26.46382282
3.060619808 15.86033553 -23.77099488
1.947909919 13.18097234 -26.42695563
14.16447251 10.96552243 -26.49671344
10.2254589 12.85404596 -27.11796441
5.350928174 18.11638825 -21.40537491
7.227649417 15.36175539 -25.29854557
4.220291648 17.03121895 -22.62172721
5.115593652 15.68894035 -24.63371815
2.039919384 9.784633438 -29.22617994
6.110342183 12.36149068 -27.88684134
1.998070956 11.55820032 -27.91491013
4.007520838 12.84742422 -27.27881083
21.49690872 1.066449193 -15.01137128
20.92474105 3.403809125 -18.43968003
22.33561008 2.875807722 -14.902627
20.51102068 0 -16.10966168
17.36978812 8.570187408 -24.60197395
19.61186373 5.959180576 -21.76295509
23.74842615 6.784789186 -14.42049356
21.62897427 5.406823675 -18.30563105
23.09879832 4.796842495 -14.71136703
22.07075972 4.117503586 -16.61641208
18.36322249 -2.086945 -18.14701202
19.8360838 2.254332861 -19.6025317
19.46014078 -1.055397322 -17.16187876
20.25155886 1.098318929 -17.85982958
9.752556868 21.7198045 -15.77996849
12.12976069 19.70549981 -19.62636508
8.702211385 20.95043612 -17.27088659
12.24814911 21.73091673 -15.87024403
15.52882557 12.23486686 -25.12616758
14.1683124 16.51481681 -22.92481103
13.64355431 13.27502879 -25.64996149
6.525068768 19.16526964 -20.06786467
10.96899343 18.78317753 -21.14482177
7.618224534 20.0935945 -18.70841166
7.526989005 18.02037791 -22.1059598
9.861945078 20.00469671 -19.25579923
17.23602957 20.89260343 -15.48949542
14.64659333 19.25982449 -19.54196078
14.786276 21.46811162 -15.78466941
13.49695263 20.6418845 -17.77621167
9.470720456 14.84589752 -25.72407314
12.02502045 17.20657686 -22.93846805
11.59119159 14.15467134 -25.8480924
8.525214582 16.57813017 -24.0292886
12.91618679 15.38228936 -24.44053856
9.783060218 17.7260509 -22.63508911
2.140517254 1.322912416 -31.9729908
6.359899122 3.930633822 -31.14190463
2.136117039 3.534664188 -31.75378526
4.251808228 0 -31.55802637
14.14529193 8.742271192 -27.1357157
10.39796101 6.426293316 -29.51022704
12.35386491 9.848983291 -27.84218167
2.091625054 7.771324343 -30.373297
6.356591848 6.146431632 -30.80549463
2.117852654 5.710699665 -31.20870128
4.175640647 9.132100468 -29.85417399
4.269668075 4.855778549 -31.38179726
8.09292121 -2.484127405 -29.28046401
8.414668655 2.582887992 -30.4445572
6.269143029 -1.290665845 -30.62649461
6.365974849 1.310601189 -31.09954478
8.313679392 11.66426657 -28.2252378
8.465198895 7.449442777 -29.99738598
10.38006154 10.83842401 -28.20846559
6.26421283 10.43915385 -29.13439119
10.44087861 8.669326687 -29.01760996
6.350584753 8.342777914 -30.12494496
24.60541046 15.20697997 -11.98129082
22.78828404 14.08393408 -16.41646406
24.72583665 13.15200007 -12.7967519
23.33562972 17.04217741 -13.15260998
17.50759253 10.82028725 -24.09773425
20.40819287 12.61295684 -20.49047997
18.90786794 9.527030518 -22.93617513
17.14390069 13.23111677 -23.47491806
24.27441494 8.937006083 -14.00926963
22.82410549 11.96506823 -17.12079136
24.60477769 11.03364565 -13.4738199
23.30785931 8.269262788 -16.08040638
23.84241653 12.60009491 -15.00584569
19.63328236 19.92088942 -14.93059829
21.30835812 15.79773037 -17.57901986
21.64994147 18.64432205 -14.1560832
18.4366011 19.24528163 -17.12812852
22.39108351 16.46329482 -15.4219778
20.95274951 6.81278919 -20.01035491
21.62723349 11.21924718 -19.21170916
20.06113079 8.169063281 -21.54646983
22.19529817 7.557408354 -18.09320493
20.33587395 10.41511025 -21.12677775
22.60583662 9.770417067 -17.70314261
15.70825366 17.47945412 -21.18766979
20.01978348 15.00471885 -19.73074864
16.53373327 15.48796096 -22.48688409
17.11636638 18.42394042 -19.23206562
18.65318895 14.16281558 -21.66023779
19.38416729 17.25173551 -18.56965083
13.3526338 -6.097572845 -21.60501533
14.66815468 -2.195816041 -23.73357282
14.67530035 -5.128425273 -20.83620823
12.36407227 -5.395337238 -23.63972242
16.00279869 7.307789027 -25.8930722
15.63786744 2.340981598 -25.30260103
17.30477526 6.047320645 -24.56957554
14.26634708 6.225437053 -27.2768128
17.16012517 -3.137519782 -19.12881478
16.03694159 -1.135515193 -22.8225114
15.95142993 -4.136859561 -20.00462056
17.94713485 -1.093684144 -19.99036738
15.38953332 -3.208595724 -21.88413244
9.784219954 -3.615266313 -27.53044798
13.49595486 -1.200680317 -25.7223968
11.1735201 -4.564432482 -25.6516292
10.12342014 -1.251323546 -28.52814204
12.97400905 -3.371166833 -24.75391403
19.19625168 3.509800703 -21.39853522
16.61119476 1.176175889 -23.63974326
18.37283235 4.764828449 -23.04129104
18.64278813 1.136076703 -20.76521889
17.0390149 3.552499559 -24.2297184
17.36767881 0 -21.84694317
10.50174916 3.880393138 -29.54940306
13.92343049 1.238711088 -26.53713705
12.41726686 5.072508545 -28.5069631
10.3714928 1.281987013 -29.22721922
14.18278096 3.685254156 -27.06020469
12.08213027 0 -27.60405096
17.17806301 24.59970149 1.220376946
20.49864945 23.26119167 3.783877482
16.43186742 24.62758974 3.170910151
18.95277367 24.13090607 0
24.85958316 17.55166854 8.659926514
23.16673077 20.87688759 6.343565545
14.77952781 24.33970261 6.953713479
19.72462427 23.3055823 5.825943133
15.62788854 24.53785871 5.095686874
18.13813065 24.09198336 4.49458148
22.14785744 22.41173552 -2.547050737
22.14785744 22.41173552 2.547050737
20.63733057 23.4010136 -1.269125818
20.63733057 23.4010136 1.269125818
22.45094126 1.716953888 13.21962675
23.996241 5.432250955 12.75555731
25.45948828 13.60999819 10.53627237
25.08658148 9.459478746 11.89116065
10.96988055 22.52832502 13.92327057
15.96613509 22.1631662 13.69759001
11.96291277 23.11469577 12.29501289
24.11815873 17.52243141 10.82945818
20.5977872 20.51506917 12.67901003
23.40887548 19.29754738 9.723376712
13.86258634 24.02025103 8.843431656
16.96981418 22.62283448 11.85955604
12.93265837 23.61655319 10.5904911
16.41079093 23.78673755 8.439161274
14.48679332 23.01770708 12.16425749
21.2052021 22.20386846 7.219590675
19.41687531 21.85819557 11.33906004
22.42473434 20.87885079 8.502045828
18.90587923 23.19222207 7.89685687
21.5627916 20.75556515 10.63005701
17.98142672 22.96118851 9.924002896
25.83101598 15.96444584 -7.29027493
26.44784431 16.34566671 -2.446938825
25.34106883 17.84815127 -6.237208633
25.83101598 15.96444584 7.29027493
26.44784431 16.34566671 2.446938825
25.34106883 17.84815127 6.237208633
23.51256291 21.09270895 -3.856544805
25.82848484 18.14918155 -1.285074918
24.56003512 19.58385955 -5.078897438
23.65626212 21.23833535 -1.294247289
25.66574762 18.04887077 -3.763046504
23.51256291 21.09270895 3.856544805
25.82848484 18.14918155 1.285074918
24.56003512 19.58385955 5.078897438
23.65626212 21.23833535 1.294247289
25.66574762 18.04887077 3.763046504
24.90091662 19.79549809 0
10.7014371 -15.32490352 0.7602595893
12.29624168 -13.95336972 2.269782315
10.37186477 -15.54503964 2.001492006
11.52055171 -14.66810905 0
15.33487024 -10.82691362 5.34195801
13.8334613 -12.46613601 3.787909021
9.657114508 -15.90384336 4.54363686
11.9703814 -14.14357531 3.535619251
10.02362091 -15.73841488 3.268338736
11.18346859 -14.85444914 2.771234356
13.11454211 -13.27079381 -1.508200252
13.11454211 -13.27079381 1.508200252
12.32895365 -13.98000633 -0.7581888231
12.32895365 -13.98000633 0.7581888231
20.99203236 -1.60538265 12.36058788
19.68246335 -4.455701222 10.46250491
16.81358773 -8.988118537 6.958212902
18.26990436 -6.889092167 8.660022808
7.91251065 -16.24954901 10.04277359
10.48157239 -14.54984751 8.992300293
8.392720625 -16.21638372 8.625709326
15.02455122 -10.91570345 6.74627574
12.83192121 -12.78038988 7.898715333
14.28460183 -11.77578055 5.933414652
9.257337151 -16.04055381 5.905581136
10.88072949 -14.50534106 7.60412694
8.841423492 -16.14547776 7.240198738
10.47059321 -15.17667574 5.384446435
9.670397904 -15.3650557 8.120030949
12.77149102 -13.37296883 4.348222528
12.08004716 -13.59889421 7.054501708
13.53013884 -12.59741791 5.129775842
11.64457683 -14.28463646 4.863860359
13.19651218 -12.70248645 6.505636162
11.2814216 -14.40568938 6.226250139
16.21211791 -10.0196399 -4.575538061
16.36135643 -10.11187438 -1.513742965
15.45768419 -10.88711323 -3.80460674
16.21211791 -10.0196399 4.575538061
16.36135643 -10.11187438 1.513742965
15.45768419 -10.88711323 3.80460674
13.92653526 -12.4932512 -2.284238745
15.57786121 -10.94626467 -0.7750636102
14.69154594 -11.71485183 -3.038141219
13.95263577 -12.52652494 -0.7633564817
15.53811151 -10.92683411 -2.278158309
13.92653526 -12.4932512 2.284238745
15.57786121 -10.94626467 0.7750636102
14.69154594 -11.71485183 3.038141219
13.95263577 -12.52652494 0.7633564817
15.53811151 -10.92683411 2.278158309
14.77807509 -11.74813609 0
1.807819791 -13.91924561 23.63910657
5.225382868 -12.26980697 23.08242893
2.816192279 -14.5936958 21.87259328
1.860815778 -12.59163017 25.24536454
11.27032869 -8.725001364 21.08279495
8.375841795 -10.52896074 22.21277126
4.585521097 -15.52498517 18.34350883
6.077583217 -12.9173873 21.27303181
3.747582784 -15.12357635 20.08789973
4.48760887 -13.76298289 21.60970937
1.967954727 -9.439449312 28.19513331
5.396981093 -10.91832986 24.6311501
1.917177743 -11.09025899 26.78475669
3.67044428 -11.76681461 24.98436296
20.6325731 -1.023570004 14.40780251
18.59886228 -3.025460481 16.39002693
20.06068618 -2.582901295 13.3847664
13.92736941 -6.871711106 19.7262498
16.36559718 -4.972783319 18.16062773
18.7677608 -5.361841653 11.39613935
18.0471031 -4.511425419 15.27412289
19.42915569 -4.034781306 12.37421256
19.07281067 -3.558208568 14.35934629
7.288688827 -16.23255302 11.79334626
8.81881905 -14.32668306 14.26914896
6.713403273 -16.16241208 13.3237888
8.675722424 -15.39264422 11.24135825
11.8790199 -9.359254257 19.22065795
10.35246637 -12.06700423 16.75064246
10.53946032 -10.25477936 19.81424672
5.388018983 -15.8255553 16.57086532
8.247728577 -14.12331505 15.89906602
6.077762303 -16.03051875 14.92543028
6.133315683 -14.68378211 18.01289066
7.484701984 -15.1825215 14.61414737
11.25884786 -13.64737989 10.11798406
10.22331777 -13.44335174 13.64028279
10.00443979 -14.52539031 10.67995584
9.450881235 -14.45392929 12.44731829
7.670150735 -12.02340121 20.83342228
9.033417856 -12.92589891 17.23180162
9.128983084 -11.14792679 20.3574237
6.898238361 -13.41431262 19.44347076
9.788047272 -11.65689052 18.52134462
7.622938707 -13.81209933 17.63721096
2.129298122 -1.315978612 31.80541019
6.082551744 -3.759223716 29.78384448
2.106648813 -3.485902683 31.31573449
11.70110042 -7.231677768 22.44688453
9.302755796 -5.749419271 26.40194894
10.2452639 -8.167924265 23.08998041
2.030944097 -7.545867398 29.49212534
5.93846261 -5.742126488 28.77914492
2.071625909 -5.586051211 30.52750343
3.906943316 -8.544461053 27.93309468
4.113526826 -4.67820331 30.2341687
7.124147899 -9.995328934 24.186736
7.616446814 -6.702534152 26.98973736
8.711459 -9.096139364 23.67393397
5.616393613 -9.359579343 26.12143186
9.027199148 -7.495512722 25.08866864
5.802868396 -7.623241667 27.52677082
15.89561667 -9.824031374 7.740167813
15.37254043 -9.500752478 11.07423257
16.61978219 -8.840282315 8.601497791
14.80664939 -10.81340203 8.345439437
13.40084441 -8.282177324 18.44513955
14.57567114 -9.008260172 14.63444115
14.62207708 -7.367566512 17.73729972
12.61688765 -9.737312226 17.27613857
18.04580635 -6.643846269 10.41461009
16.06314473 -8.420773499 12.04926736
17.34219043 -7.776846691 9.496755202
17.7765097 -6.306826734 12.26425371
16.3715365 -8.651929785 10.3038528
12.51948263 -12.70287996 9.520739448
14.18666362 -10.51780176 11.70374743
13.67599737 -11.77738515 8.942220784
12.09409626 -12.62457691 11.23576053
14.52794879 -10.68183699 10.00620196
16.92484923 -5.503116898 16.16361803
15.66805452 -8.127890082 13.918105
15.80318638 -6.43519206 16.97326447
17.40680162 -5.926944841 14.1897093
15.1986245 -7.784044606 15.78973015
16.73772444 -7.234173688 13.10769106
11.0400669 -12.28490111 14.89110738
13.74701109 -10.30331006 13.54853916
11.8235228 -11.0756752 16.08071102
11.60163879 -12.48792513 13.03568021
13.23717787 -10.05059829 15.37112079
12.9292616 -11.50692718 12.3859782
1.899172977 14.62261629 24.83364362
5.990860268 14.06723697 26.46382282
3.060619808 15.86033553 23.77099488
1.947909919 13.18097234 26.42695563
14.16447251 10.96552243 26.49671344
10.2254589 12.85404596 27.11796441
5.350928174 18.11638825 21.40537491
7.227649417 15.36175539 25.29854557
4.220291648 17.03121895 22.62172721
5.115593652 15.68894035 24.63371815
2.039919384 9.784633438 29.22617994
6.110342183 12.36149068 27.88684134
1.998070956 11.55820032 27.91491013
4.007520838 12.84742422 27.27881083
21.49690872 1.066449193 15.01137128
20.92474105 3.403809125 18.43968003
22.33561008 2.875807722 14.902627
20.51102068 0 16.10966168
17.36978812 8.570187408 24.60197395
19.61186373 5.959180576 21.76295509
23.74842615 6.784789186 14.42049356
21.62897427 5.406823675 18.30563105
23.09879832 4.796842495 14.71136703
22.07075972 4.117503586 16.61641208
18.36322249 -2.086945 18.14701202
19.8360838 2.254332861 19.6025317
19.46014078 -1.055397322 17.16187876
20.25155886 1.098318929 17.85982958
9.752556868 21.7198045 15.77996849
12.12976069 19.70549981 19.62636508
8.702211385 20.95043612 17.27088659
12.24814911 21.73091673 15.87024403
15.52882557 12.23486686 25.12616758
14.1683124 16.51481681 22.92481103
13.64355431 13.27502879 25.64996149
6.525068768 19.16526964 20.06786467
10.96899343 18.78317753 21.14482177
7.618224534 20.0935945 18.70841166
7.526989005 18.02037791 22.1059598
9.861945078 20.00469671 19.25579923
17.23602957 20.89260343 15.48949542
14.64659333 19.25982449 19.54196078
14.786276 21.46811162 15.78466941
13.49695263 20.6418845 17.77621167
9.470720456 14.84589752 25.72407314
12.02502045 17.20657686 22.93846805
11.59119159 14.15467134 25.8480924
8.525214582 16.57813017 24.0292886
12.91618679 15.38228936 24.44053856
9.783060218 17.7260509 22.63508911
2.140517254 1.322912416 31.9729908
6.359899122 3.930633822 31.14190463
2.136117039 3.534664188 31.75378526
4.251808228 0 31.55802637
14.14529193 8.742271192 27.1357157
10.39796101 6.426293316 29.51022704
12.35386491 9.848983291 27.84218167
2.091625054 7.771324343 30.373297
6.356591848 6.146431632 30.80549463
2.117852654 5.710699665 31.20870128
4.175640647 9.132100468 29.85417399
4.269668075 4.855778549 31.38179726
8.09292121 -2.484127405 29.28046401
8.414668655 2.582887992 30.4445572
6.269143029 -1.290665845 30.62649461
6.365974849 1.310601189 31.09954478
8.313679392 11.66426657 28.2252378
8.465198895 7.449442777 29.99738598
10.38006154 10.83842401 28.20846559
6.26421283 10.43915385 29.13439119
10.44087861 8.669326687 29.01760996
6.350584753 8.342777914 30.12494496
24.60541046 15.20697997 11.98129082
22.78828404 14.08393408 16.41646406
24.72583665 13.15200007 12.7967519
23.33562972 17.04217741 13.15260998
17.50759253 10.82028725 24.09773425
20.40819287 12.61295684 20.49047997
18.90786794 9.527030518 22.93617513
17.14390069 13.23111677 23.47491806
24.27441494 8.937006083 14.00926963
22.82410549 11.96506823 17.12079136
24.60477769 11.03364565 13.4738199
23.30785931 8.269262788 16.08040638
23.84241653 12.60009491 15.00584569
19.63328236 19.92088942 14.93059829
21.30835812 15.79773037 17.57901986
21.64994147 18.64432205 14.1560832
18.4366011 19.24528163 17.12812852
22.39108351 16.46329482 15.4219778
20.95274951 6.81278919 20.01035491
21.62723349 11.21924718 19.21170916
20.06113079 8.169063281 21.54646983
22.19529817 7.557408354 18.09320493
20.33587395 10.41511025 21.12677775
22.60583662 9.770417067 17.70314261
15.70825366 17.47945412 21.18766979
20.01978348 15.00471885 19.73074864
16.53373327 15.48796096 22.48688409
17.11636638 18.42394042 19.23206562
18.65318895 14.16281558 21.66023779
19.38416729 17.25173551 18.56965083
13.3526338 -6.097572845 21.60501533
14.66815468 -2.195816041 23.73357282
14.67530035 -5.128425273 20.83620823
12.36407227 -5.395337238 23.63972242
16.00279869 7.307789027 25.8930722
15.63786744 2.340981598 25.30260103
17.30477526 6.047320645 24.56957554
14.26634708 6.225437053 27.2768128
17.16012517 -3.137519782 19.12881478
16.03694159 -1.135515193 22.8225114
15.95142993 -4.136859561 20.00462056
17.94713485 -1.093684144 19.99036738
15.38953332 -3.208595724 21.88413244
9.784219954 -3.615266313 27.53044798
13.49595486 -1.200680317 25.7223968
11.1735201 -4.564432482 25.6516292
10.12342014 -1.251323546 28.52814204
12.97400905 -3.371166833 24.75391403
19.19625168 3.509800703 21.39853522
16.61119476 1.176175889 23.63974326
18.37283235 4.764828449 23.04129104
18.64278813 1.136076703 20.76521889
17.0390149 3.552499559 24.2297184
17.36767881 0 21.84694317
10.50174916 3.880393138 29.54940306
13.92343049 1.238711088 26.53713705
12.41726686 5.072508545 28.5069631
10.3714928 1.281987013 29.22721922
14.18278096 3.685254156 27.06020469
12.08213027 0 27.60405096
22.10491383 0 -11.6313322
22.91889365 0 -8.261894189
22.98357345 1.694100953 -11.46351666
21.47642217 -1.583010028 -10.71179483
23.68803298 0 -1.641757147
23.43658817 0 -4.936323159
24.54542101 5.378196819 -10.88032845
23.79367925 1.660743471 -7.965886412
23.8096083 3.497861471 -11.21354373
23.4323943 1.677225048 -9.702209533
20.09118918 -4.402221078 -8.905886642
22.21247594 -1.550379157 -7.436515317
20.79665984 -3.055230236 -9.794543937
21.88280808 -1.566310013 -9.060601595
22.10491383 0 11.6313322
22.91889365 0 8.261894189
22.98357345 1.694100953 11.46351666
21.47642217 -1.583010028 10.71179483
23.68803298 0 1.641757147
23.43658817 0 4.936323159
24.54542101 5.378196819 10.88032845
23.79367925 1.660743471 7.965886412
23.8096083 3.497861471 11.21354373
23.4323943 1.677225048 9.702209533
20.09118918 -4.402221078 8.905886642
22.21247594 -1.550379157 7.436515317
20.79665984 -3.055230236 9.794543937
21.88280808 -1.566310013 9.060601595
26.05799862 13.58350012 -8.39506476
26.48869808 9.333321949 -5.768310193
25.97610323 11.52586654 -9.188870678
26.50916104 13.86484905 -6.05023448
24.51754175 1.641392308 -1.014436235
25.82881135 5.27484226 -3.260031802
24.44516786 1.644457162 -2.72110738
25.19821241 7.422075968 -10.41332826
26.01952635 7.342655318 -6.461595445
25.67543927 9.447966563 -9.865169607
25.01906754 5.379373225 -8.9645908
26.14404925 9.40693755 -7.810819161
26.96765404 14.14931293 -1.258806932
26.77688182 9.516405311 -3.516308883
26.8147384 14.05412729 -3.651824784
26.80833105 11.67736456 -4.770255177
24.09453289 1.659244587 -6.164837158
25.64921918 5.292614826 -5.11763158
24.30351391 1.64925996 -4.447159383
24.63112873 3.44510427 -7.534421895
25.11379535 3.416871551 -3.885916022
25.38828467 5.352058028 -7.031011041
17.10539967 -8.916693943 -5.510819924
19.10439048 -6.731453031 -4.160266767
17.85266379 -7.921412171 -6.315258965
17.21455226 -9.003573078 -3.92890886
22.86120189 -1.530504212 -0.9459036229
21.0307095 -4.294958592 -2.65443039
22.79533964 -1.533471144 -2.537457189
19.33857503 -5.69613315 -7.991794287
19.88106907 -5.610395654 -4.937193077
18.60191916 -6.845075109 -7.147339744
20.41324179 -4.389070302 -7.314275773
18.8795078 -6.793069778 -5.640458364
17.3221619 -9.088543224 -0.8085707957
19.17150606 -6.813482739 -2.517579811
17.28680533 -9.06035177 -2.354242029
18.20687748 -7.930681897 -3.239718705
22.47640382 -1.547813836 -5.750821985
20.89718597 -4.312051587 -4.169487502
22.66752014 -1.538239841 -4.14779835
21.4661828 -3.002429927 -6.566295824
21.85730953 -2.97380854 -3.382032388
20.68131345 -4.359790003 -5.727466235
26.05799862 13.58350012 8.39506476
26.48869808 9.333321949 5.768310193
25.97610323 11.52586654 9.188870678
26.50916104 13.86484905 6.05023448
24.51754175 1.641392308 1.014436235
25.82881135 5.27484226 3.260031802
24.44516786 1.644457162 2.72110738
25.28617219 3.406802242 0
25.19821241 7.422075968 10.41332826
26.01952635 7.342655318 6.461595445
25.67543927 9.447966563 9.865169607
25.01906754 5.379373225 8.9645908
26.14404925 9.40693755 7.810819161
26.96765404 14.14931293 1.258806932
26.77688182 9.516405311 3.516308883
26.8147384 14.05412729 3.651824784
27.1106879 11.86618818 0
26.80833105 11.67736456 4.770255177
24.09453289 1.659244587 6.164837158
25.64921918 5.292614826 5.11763158
24.30351391 1.64925996 4.447159383
24.63112873 3.44510427 7.534421895
25.11379535 3.416871551 3.885916022
25.38828467 5.352058028 7.031011041
26.46098951 7.313637627 -2.244925805
26.46098951 7.313637627 2.244925805
25.95233994 5.312358894 -1.093686992
26.91894837 9.552385982 -1.180739842
25.95233994 5.312358894 1.093686992
26.91894837 9.552385982 1.180739842
17.10539967 -8.916693943 5.510819924
19.10439048 -6.731453031 4.160266767
17.85266379 -7.921412171 6.315258965
17.21455226 -9.003573078 3.92890886
22.86120189 -1.530504212 0.9459036229
21.0307095 -4.294958592 2.65443039
22.79533964 -1.533471144 2.537457189
21.9969429 -2.963644866 0
19.33857503 -5.69613315 7.991794287
19.88106907 -5.610395654 4.937193077
18.60191916 -6.845075109 7.147339744
20.41324179 -4.389070302 7.314275773
18.8795078 -6.793069778 5.640458364
17.3221619 -9.088543224 0.8085707957
19.17150606 -6.813482739 2.517579811
17.28680533 -9.06035177 2.354242029
18.27668961 -7.999599231 0
18.20687748 -7.930681897 3.239718705
22.47640382 -1.547813836 5.750821985
20.89718597 -4.312051587 4.169487502
22.66752014 -1.538239841 4.14779835
21.4661828 -3.002429927 6.566295824
21.85730953 -2.97380854 3.382032388
20.68131345 -4.359790003 5.727466235
20.16412908 -5.573228208 -1.710706007
20.16412908 -5.573228208 1.710706007
21.08894102 -4.316837081 -0.8887329823
19.23059271 -6.824116668 -0.8435072087
21.08894102 -4.316837081 0.8887329823
19.23059271 -6.824116668 0.8435072087
-10.7014371 15.32490352 -0.7602595893
-12.29624168 13.95336972 -2.269782315
-10.37186477 15.54503964 -2.001492006
-15.33487024 10.82691362 -5.34195801
-13.8334613 12.46613601 -3.787909021
-9.657114508 15.90384336 -4.54363686
-11.9703814 14.14357531 -3.535619251
-10.02362091 15.73841488 -3.268338736
-11.18346859 14.85444914 -2.771234356
-20.99203236 1.60538265 -12.36058788
-19.68246335 4.455701222 -10.46250491
-16.81358773 8.988118537 -6.958212902
-18.26990436 6.889092167 -8.660022808
-7.91251065 16.24954901 -10.04277359
-10.48157239 14.54984751 -8.992300293
-8.392720625 16.21638372 -8.625709326
-15.02455122 10.91570345 -6.74627574
-12.83192121 12.78038988 -7.898715333
-14.28460183 11.77578055 -5.933414652
-9.257337151 16.04055381 -5.905581136
-10.88072949 14.50534106 -7.60412694
-8.841423492 16.14547776 -7.240198738
-10.47059321 15.17667574 -5.384446435
-9.670397904 15.3650557 -8.120030949
-12.77149102 13.37296883 -4.348222528
-12.08004716 13.59889421 -7.054501708
-13.53013884 12.59741791 -5.129775842
-11.64457683 14.28463646 -4.863860359
-13.19651218 12.70248645 -6.505636162
-11.2814216 14.40568938 -6.226250139
-17.17806301 -24.59970149 -1.220376946
-20.49864945 -23.26119167 -3.783877482
-16.43186742 -24.62758974 -3.170910151
-24.85958316 -17.55166854 -8.659926514
-23.16673077 -20.87688759 -6.343565545
-14.77952781 -24.33970261 -6.953713479
-19.72462427 -23.3055823 -5.825943133
-15.62788854 -24.53785871 -5.095686874
-18.13813065 -24.09198336 -4.49458148
-22.45094126 -1.716953888 -13.21962675
-23.996241 -5.432250955 -12.75555731
-25.45948828 -13.60999819 -10.53627237
-25.08658148 -9.459478746 -11.89116065
-10.96988055 -22.52832502 -13.92327057
-15.96613509 -22.1631662 -13.69759001
-11.96291277 -23.11469577 -12.29501289
-24.11815873 -17.52243141 -10.82945818
-20.5977872 -20.51506917 -12.67901003
-23.40887548 -19.29754738 -9.723376712
-13.86258634 -24.02025103 -8.843431656
-16.96981418 -22.62283448 -11.85955604
-12.93265837 -23.61655319 -10.5904911
-16.41079093 -23.78673755 -8.439161274
-14.48679332 -23.01770708 -12.16425749
-21.2052021 -22.20386846 -7.219590675
-19.41687531 -21.85819557 -11.33906004
-22.42473434 -20.87885079 -8.502045828
-18.90587923 -23.19222207 -7.89685687
-21.5627916 -20.75556515 -10.63005701
-17.98142672 -22.96118851 -9.924002896
-1.899172977 -14.62261629 -24.83364362
-5.990860268 -14.06723697 -26.46382282
-3.060619808 -15.86033553 -23.77099488
-1.947909919 -13.18097234 -26.42695563
-14.16447251 -10.96552243 -26.49671344
-10.2254589 -12.85404596 -27.11796441
-5.350928174 -18.11638825 -21.40537491
-7.227649417 -15.36175539 -25.29854557
-4.220291648 -17.03121895 -22.62172721
-5.115593652 -15.68894035 -24.63371815
-2.039919384 -9.784633438 -29.22617994
-6.110342183 -12.36149068 -27.88684134
-1.998070956 -11.55820032 -27.91491013
-4.007520838 -12.84742422 -27.27881083
-21.49690872 -1.066449193 -15.01137128
-20.92474105 -3.403809125 -18.43968003
-22.33561008 -2.875807722 -14.902627
-17.36978812 -8.570187408 -24.60197395
-19.61186373 -5.959180576 -21.76295509
-23.74842615 -6.784789186 -14.42049356
-21.62897427 -5.406823675 -18.30563105
-23.09879832 -4.796842495 -14.71136703
-22.07075972 -4.117503586 -16.61641208
-9.752556868 -21.7198045 -15.77996849
-12.12976069 -19.70549981 -19.62636508
-8.702211385 -20.95043612 -17.27088659
-12.24814911 -21.73091673 -15.87024403
-15.52882557 -12.23486686 -25.12616758
-14.1683124 -16.51481681 -22.92481103
-13.64355431 -13.27502879 -25.64996149
-6.525068768 -19.16526964 -20.06786467
-10.96899343 -18.78317753 -21.14482177
-7.618224534 -20.0935945 -18.70841166
-7.526989005 -18.02037791 -22.1059598
-9.861945078 -20.00469671 -19.25579923
-17.23602957 -20.89260343 -15.48949542
-14.64659333 -19.25982449 -19.54196078
-14.786276 -21.46811162 -15.78466941
-13.49695263 -20.6418845 -17.77621167
-9.470720456 -14.84589752 -25.72407314
-12.02502045 -17.20657686 -22.93846805
-11.59119159 -14.15467134 -25.8480924
-8.525214582 -16.57813017 -24.0292886
-12.91618679 -15.38228936 -24.44053856
-9.783060218 -17.7260509 -22.63508911
-2.140517254 -1.322912416 -31.9729908
-6.359899122 -3.930633822 -31.14190463
-2.136117039 -3.534664188 -31.75378526
-14.14529193 -8.742271192 -27.1357157
-10.39796101 -6.426293316 -29.51022704
-12.35386491 -9.848983291 -27.84218167
-2.091625054 -7.771324343 -30.373297
-6.356591848 -6.146431632 -30.80549463
-2.117852654 -5.710699665 -31.20870128
-4.175640647 -9.132100468 -29.85417399
-4.269668075 -4.855778549 -31.38179726
-8.313679392 -11.66426657 -28.2252378
-8.465198895 -7.449442777 -29.99738598
-10.38006154 -10.83842401 -28.20846559
-6.26421283 -10.43915385 -29.13439119
-10.44087861 -8.669326687 -29.01760996
-6.350584753 -8.342777914 -30.12494496
-24.60541046 -15.20697997 -11.98129082
-22.78828404 -14.08393408 -16.41646406
-24.72583665 -13.15200007 -12.7967519
-23.33562972 -17.04217741 -13.15260998
-17.50759253 -10.82028725 -24.09773425
-20.40819287 -12.61295684 -20.49047997
-18.90786794 -9.527030518 -22.93617513
-17.14390069 -13.23111677 -23.47491806
-24.27441494 -8.937006083 -14.00926963
-22.82410549 -11.96506823 -17.12079136
-24.60477769 -11.03364565 -13.4738199
-23.30785931 -8.269262788 -16.08040638
-23.84241653 -12.60009491 -15.00584569
-19.63328236 -19.92088942 -14.93059829
-21.30835812 -15.79773037 -17.57901986
-21.64994147 -18.64432205 -14.1560832
-18.4366011 -19.24528163 -17.12812852
-22.39108351 -16.46329482 -15.4219778
-20.95274951 -6.81278919 -20.01035491
-21.62723349 -11.21924718 -19.21170916
-20.06113079 -8.169063281 -21.54646983
-22.19529817 -7.557408354 -18.09320493
-20.33587395 -10.41511025 -21.12677775
-22.60583662 -9.770417067 -17.70314261
-15.70825366 -17.47945412 -21.18766979
-20.01978348 -15.00471885 -19.73074864
-16.53373327 -15.48796096 -22.48688409
-17.11636638 -18.42394042 -19.23206562
-18.65318895 -14.16281558 -21.66023779
-19.38416729 -17.25173551 -18.56965083
-1.807819791 13.91924561 -23.63910657
-5.225382868 12.26980697 -23.08242893
-2.816192279 14.5936958 -21.87259328
-1.860815778 12.59163017 -25.24536454
-11.27032869 8.725001364 -21.08279495
-8.375841795 10.52896074 -22.21277126
-4.585521097 15.52498517 -18.34350883
-6.077583217 12.9173873 -21.27303181
-3.747582784 15.12357635 -20.08789973
-4.48760887 13.76298289 -21.60970937
-1.967954727 9.439449312 -28.19513331
-5.396981093 10.91832986 -24.6311501
-1.917177743 11.09025899 -26.78475669
-3.67044428 11.76681461 -24.98436296
-20.6325731 1.023570004 -14.40780251
-18.59886228 3.025460481 -16.39002693
-20.06068618 2.582901295 -13.3847664
-20.51102068 0 -16.10966168
-13.92736941 6.871711106 -19.7262498
-16.36559718 4.972783319 -18.16062773
-18.7677608 5.361841653 -11.39613935
-18.0471031 4.511425419 -15.27412289
-19.42915569 4.034781306 -12.37421256
-19.07281067 3.558208568 -14.35934629
-19.8360838 -2.254332861 -19.6025317
-18.36322249 2.086945 -18.14701202
-20.25155886 -1.098318929 -17.85982958
-19.46014078 1.055397322 -17.16187876
-7.288688827 16.23255302 -11.79334626
-8.81881905 14.32668306 -14.26914896
-6.713403273 16.16241208 -13.3237888
-8.675722424 15.39264422 -11.24135825
-11.8790199 9.359254257 -19.22065795
-10.35246637 12.06700423 -16.75064246
-10.53946032 10.25477936 -19.81424672
-5.388018983 15.8255553 -16.57086532
-8.247728577 14.12331505 -15.89906602
-6.077762303 16.03051875 -14.92543028
-6.133315683 14.68378211 -18.01289066
-7.484701984 15.1825215 -14.61414737
-11.25884786 13.64737989 -10.11798406
-10.22331777 13.44335174 -13.64028279
-10.00443979 14.52539031 -10.67995584
-9.450881235 14.45392929 -12.44731829
-7.670150735 12.02340121 -20.83342228
-9.033417856 12.92589891 -17.23180162
-9.128983084 11.14792679 -20.3574237
-6.898238361 13.41431262 -19.44347076
-9.788047272 11.65689052 -18.52134462
-7.622938707 13.81209933 -17.63721096
-2.129298122 1.315978612 -31.80541019
-6.082551744 3.759223716 -29.78384448
-2.106648813 3.485902683 -31.31573449
-4.251808228 0 -31.55802637
-11.70110042 7.231677768 -22.44688453
-9.302755796 5.749419271 -26.40194894
-10.2452639 8.167924265 -23.08998041
-2.030944097 7.545867398 -29.49212534
-5.93846261 5.742126488 -28.77914492
-2.071625909 5.586051211 -30.52750343
-3.906943316 8.544461053 -27.93309468
-4.113526826 4.67820331 -30.2341687
-8.414668655 -2.582887992 -30.4445572
-8.09292121 2.484127405 -29.28046401
-6.365974849 -1.310601189 -31.09954478
-6.269143029 1.290665845 -30.62649461
-7.124147899 9.995328934 -24.186736
-7.616446814 6.702534152 -26.98973736
-8.711459 9.096139364 -23.67393397
-5.616393613 9.359579343 -26.12143186
-9.027199148 7.495512722 -25.08866864
-5.802868396 7.623241667 -27.52677082
-15.89561667 9.824031374 -7.740167813
-15.37254043 9.500752478 -11.07423257
-16.61978219 8.840282315 -8.601497791
-14.80664939 10.81340203 -8.345439437
-13.40084441 8.282177324 -18.44513955
-14.57567114 9.008260172 -14.63444115
-14.62207708 7.367566512 -17.73729972
-12.61688765 9.737312226 -17.27613857
-18.04580635 6.643846269 -10.41461009
-16.06314473 8.420773499 -12.04926736
-17.34219043 7.776846691 -9.496755202
-17.7765097 6.306826734 -12.26425371
-16.3715365 8.651929785 -10.3038528
-12.51948263 12.70287996 -9.520739448
-14.18666362 10.51780176 -11.70374743
-13.67599737 11.77738515 -8.942220784
-12.09409626 12.62457691 -11.23576053
-14.52794879 10.68183699 -10.00620196
