20.636156 57.245694 0.000000
3.967553 57.245694 0.000000
12.057354 57.245694 0.000000
-30.121976 -57.245694 0.000000
-20.636156 -57.245694 0.000000
-3.967553 -57.245694 0.000000
-12.057354 -57.245694 0.000000
19.736745 -37.508949 0.000000
15.168246 -42.077448 0.000000
3.710395 -53.535299 0.000000
9.959614 -47.286080 0.000000
-33.473491 -56.848153 4.347508
-28.995248 -54.546966 12.348301
-28.400143 -56.940360 4.197029
-19.988352 -48.299171 25.819515
-24.412383 -51.502393 19.420175
-19.095743 -57.037970 3.981118
-24.394497 -55.032640 12.058313
-23.600228 -56.998341 4.079781
-26.440833 -56.141563 8.247738
-1.825270 -25.692558 36.792812
-5.870338 -31.801773 36.087603
-15.698053 -45.063553 31.816324
-10.686616 -39.027572 35.170014
-2.363083 -57.112505 3.823549
-7.061218 -55.945120 11.425291
-6.356152 -57.100722 3.841237
-15.874107 -49.272695 25.684845
-11.622154 -53.370177 18.805041
-17.964128 -50.782959 22.532926
-14.600581 -57.064636 3.929696
-11.134974 -55.807727 11.515703
-10.445720 -57.085364 3.873868
-17.272246 -56.465503 7.897711
-8.763018 -56.633398 7.705289
-22.183833 -53.680527 15.811477
-13.543248 -54.535897 15.389915
-20.082919 -52.268516 19.233603
-19.833437 -55.352677 11.901431
-15.798086 -52.878697 19.026380
-15.398924 -55.603990 11.721776
21.166455 -35.947069 2.749081
19.448085 -36.586480 8.282420
19.004667 -38.103069 2.808547
14.776501 -35.705432 19.087220
17.310827 -36.520361 13.770851
14.319178 -42.770624 2.985290
17.190162 -38.780057 8.497177
16.719442 -40.380137 2.890297
18.148520 -38.534576 5.661101
1.775171 -24.987356 35.782934
5.297693 -28.699543 32.567295
0.000000 -27.793955 35.387608
11.885635 -34.119450 24.089434
8.699295 -31.769867 28.629673
-3.912608 -34.022045 34.427397
3.628887 -31.554957 31.930915
-1.894691 -30.809676 34.935606
1.830595 -29.767422 33.753776
2.265143 -54.745417 3.665078
6.214518 -49.236824 10.055301
5.713113 -51.323964 3.452628
0.000000 -56.234027 7.576402
12.183077 -37.815860 19.712632
9.474372 -43.507329 15.329855
13.571613 -38.365717 17.023267
11.627936 -45.446405 3.129619
9.252159 -46.371187 9.568511
8.825779 -48.232464 3.273102
13.257939 -43.342145 6.062175
7.566510 -48.900642 6.653204
-4.669921 -55.044460 15.213914
4.211803 -49.644616 13.721435
-2.361924 -56.046618 11.472559
2.230448 -52.926790 10.833940
16.056528 -38.853649 11.444254
10.847266 -43.679726 12.326326
14.873580 -38.710504 14.244568
14.736186 -41.126877 8.842728
12.261049 -41.039673 14.766559
12.090158 -43.656364 9.203119
-13.389962 -47.443524 29.321710
-4.203637 -45.435193 28.080494
-11.279347 -45.826704 32.276537
-11.374888 -49.839181 26.066941
10.411492 -36.890162 22.799374
3.785484 -40.915563 25.287209
8.832164 -35.884077 25.273774
9.112633 -39.927090 20.882708
-6.179993 -37.678151 33.800411
-2.071502 -41.634742 29.255936
-8.586418 -41.521358 33.108603
-1.978591 -36.164709 32.468283
-6.404759 -43.683467 30.719435
-7.042352 -53.627893 19.059156
-2.211935 -47.386703 24.862722
-9.238415 -51.918919 22.615214
-2.325312 -53.013321 18.812165
-6.849327 -50.293463 26.359785
5.453415 -33.248356 29.826518
1.970383 -39.602369 27.827826
7.167381 -34.659320 27.636901
1.897463 -34.681846 31.136985
5.529769 -37.715626 26.522682
0.000000 -38.045979 30.245437
6.072538 -46.242706 16.434487
2.082714 -44.618366 23.410239
7.662928 -43.064848 18.758494
2.167924 -49.425148 17.538876
5.746879 -42.198371 22.116989
0.000000 -48.675210 21.304852
-21.166455 35.947069 2.749081
-19.448085 36.586480 8.282420
-19.004667 38.103069 2.808547
-14.776501 35.705432 19.087220
-17.310827 36.520361 13.770851
-14.319178 42.770624 2.985290
-17.190162 38.780057 8.497177
-16.719442 40.380137 2.890297
-18.148520 38.534576 5.661101
-1.775171 24.987356 35.782934
-5.297693 28.699543 32.567295
-11.885635 34.119450 24.089434
-8.699295 31.769867 28.629673
-2.265143 54.745417 3.665078
-6.214518 49.236824 10.055301
-5.713113 51.323964 3.452628
-12.183077 37.815860 19.712632
-9.474372 43.507329 15.329855
-13.571613 38.365717 17.023267
-11.627936 45.446405 3.129619
-9.252159 46.371187 9.568511
-8.825779 48.232464 3.273102
-13.257939 43.342145 6.062175
-7.566510 48.900642 6.653204
-16.056528 38.853649 11.444254
-10.847266 43.679726 12.326326
-14.873580 38.710504 14.244568
-14.736186 41.126877 8.842728
-12.261049 41.039673 14.766559
-12.090158 43.656364 9.203119
33.473491 56.848153 4.347508
28.995248 54.546966 12.348301
28.400143 56.940360 4.197029
19.988352 48.299171 25.819515
24.412383 51.502393 19.420175
19.095743 57.037970 3.981118
24.394497 55.032640 12.058313
23.600228 56.998341 4.079781
26.440833 56.141563 8.247738
1.825270 25.692558 36.792812
5.870338 31.801773 36.087603
0.000000 27.793955 35.387608
15.698053 45.063553 31.816324
10.686616 39.027572 35.170014
-3.628887 31.554957 31.930915
3.912608 34.022045 34.427397
-1.830595 29.767422 33.753776
1.894691 30.809676 34.935606
2.363083 57.112505 3.823549
7.061218 55.945120 11.425291
6.356152 57.100722 3.841237
0.000000 56.234027 7.576402
15.874107 49.272695 25.684845
11.622154 53.370177 18.805041
17.964128 50.782959 22.532926
14.600581 57.064636 3.929696
11.134974 55.807727 11.515703
10.445720 57.085364 3.873868
17.272246 56.465503 7.897711
8.763018 56.633398 7.705289
-4.211803 49.644616 13.721435
4.669921 55.044460 15.213914
-2.230448 52.926790 10.833940
2.361924 56.046618 11.472559
22.183833 53.680527 15.811477
13.543248 54.535897 15.389915
20.082919 52.268516 19.233603
19.833437 55.352677 11.901431
15.798086 52.878697 19.026380
15.398924 55.603990 11.721776
-10.411492 36.890162 22.799374
-3.785484 40.915563 25.287209
-8.832164 35.884077 25.273774
-9.112633 39.927090 20.882708
13.389962 47.443524 29.321710
4.203637 45.435193 28.080494
11.279347 45.826704 32.276537
11.374888 49.839181 26.066941
-5.453415 33.248356 29.826518
-1.970383 39.602369 27.827826
-7.167381 34.659320 27.636901
-1.897463 34.681846 31.136985
-5.529769 37.715626 26.522682
-6.072538 46.242706 16.434487
-2.082714 44.618366 23.410239
-7.662928 43.064848 18.758494
-2.167924 49.425148 17.538876
-5.746879 42.198371 22.116989
6.179993 37.678151 33.800411
2.071502 41.634742 29.255936
8.586418 41.521358 33.108603
1.978591 36.164709 32.468283
6.404759 43.683467 30.719435
0.000000 38.045979 30.245437
7.042352 53.627893 19.059156
2.211935 47.386703 24.862722
9.238415 51.918919 22.615214
2.325312 53.013321 18.812165
6.849327 50.293463 26.359785
0.000000 48.675210 21.304852
0.000000 -19.962458 37.937908
0.000000 -14.139831 39.224575
0.000000 -2.802121 40.430296
0.000000 -8.432824 40.037214
0.000000 19.962458 37.937908
0.000000 14.139831 39.224575
0.000000 2.802121 40.430296
0.000000 8.432824 40.037214
-33.473491 -56.848153 -4.347508
-28.995248 -54.546966 -12.348301
-28.400143 -56.940360 -4.197029
-19.988352 -48.299171 -25.819515
-24.412383 -51.502393 -19.420175
-19.095743 -57.037970 -3.981118
-24.394497 -55.032640 -12.058313
-23.600228 -56.998341 -4.079781
-26.440833 -56.141563 -8.247738
-1.825270 -25.692558 -36.792812
-5.870338 -31.801773 -36.087603
-15.698053 -45.063553 -31.816324
-10.686616 -39.027572 -35.170014
-2.363083 -57.112505 -3.823549
-7.061218 -55.945120 -11.425291
-6.356152 -57.100722 -3.841237
-15.874107 -49.272695 -25.684845
-11.622154 -53.370177 -18.805041
-17.964128 -50.782959 -22.532926
-14.600581 -57.064636 -3.929696
-11.134974 -55.807727 -11.515703
-10.445720 -57.085364 -3.873868
-17.272246 -56.465503 -7.897711
-8.763018 -56.633398 -7.705289
-22.183833 -53.680527 -15.811477
-13.543248 -54.535897 -15.389915
-20.082919 -52.268516 -19.233603
-19.833437 -55.352677 -11.901431
-15.798086 -52.878697 -19.026380
-15.398924 -55.603990 -11.721776
21.166455 -35.947069 -2.749081
19.448085 -36.586480 -8.282420
19.004667 -38.103069 -2.808547
14.776501 -35.705432 -19.087220
17.310827 -36.520361 -13.770851
14.319178 -42.770624 -2.985290
17.190162 -38.780057 -8.497177
16.719442 -40.380137 -2.890297
18.148520 -38.534576 -5.661101
1.775171 -24.987356 -35.782934
5.297693 -28.699543 -32.567295
0.000000 -27.793955 -35.387608
11.885635 -34.119450 -24.089434
8.699295 -31.769867 -28.629673
-3.912608 -34.022045 -34.427397
3.628887 -31.554957 -31.930915
-1.894691 -30.809676 -34.935606
1.830595 -29.767422 -33.753776
2.265143 -54.745417 -3.665078
6.214518 -49.236824 -10.055301
5.713113 -51.323964 -3.452628
0.000000 -56.234027 -7.576402
12.183077 -37.815860 -19.712632
9.474372 -43.507329 -15.329855
13.571613 -38.365717 -17.023267
11.627936 -45.446405 -3.129619
9.252159 -46.371187 -9.568511
8.825779 -48.232464 -3.273102
13.257939 -43.342145 -6.062175
7.566510 -48.900642 -6.653204
-4.669921 -55.044460 -15.213914
4.211803 -49.644616 -13.721435
-2.361924 -56.046618 -11.472559
2.230448 -52.926790 -10.833940
16.056528 -38.853649 -11.444254
10.847266 -43.679726 -12.326326
14.873580 -38.710504 -14.244568
14.736186 -41.126877 -8.842728
12.261049 -41.039673 -14.766559
12.090158 -43.656364 -9.203119
-13.389962 -47.443524 -29.321710
-4.203637 -45.435193 -28.080494
-11.279347 -45.826704 -32.276537
-11.374888 -49.839181 -26.066941
10.411492 -36.890162 -22.799374
3.785484 -40.915563 -25.287209
8.832164 -35.884077 -25.273774
9.112633 -39.927090 -20.882708
-6.179993 -37.678151 -33.800411
-2.071502 -41.634742 -29.255936
-8.586418 -41.521358 -33.108603
-1.978591 -36.164709 -32.468283
-6.404759 -43.683467 -30.719435
-7.042352 -53.627893 -19.059156
-2.211935 -47.386703 -24.862722
-9.238415 -51.918919 -22.615214
-2.325312 -53.013321 -18.812165
-6.849327 -50.293463 -26.359785
5.453415 -33.248356 -29.826518
1.970383 -39.602369 -27.827826
7.167381 -34.659320 -27.636901
1.897463 -34.681846 -31.136985
5.529769 -37.715626 -26.522682
0.000000 -38.045979 -30.245437
6.072538 -46.242706 -16.434487
2.082714 -44.618366 -23.410239
7.662928 -43.064848 -18.758494
2.167924 -49.425148 -17.538876
5.746879 -42.198371 -22.116989
0.000000 -48.675210 -21.304852
-21.166455 35.947069 -2.749081
-19.448085 36.586480 -8.282420
-19.004667 38.103069 -2.808547
-14.776501 35.705432 -19.087220
-17.310827 36.520361 -13.770851
-14.319178 42.770624 -2.985290
-17.190162 38.780057 -8.497177
-16.719442 40.380137 -2.890297
-18.148520 38.534576 -5.661101
-1.775171 24.987356 -35.782934
-5.297693 28.699543 -32.567295
-11.885635 34.119450 -24.089434
-8.699295 31.769867 -28.629673
-2.265143 54.745417 -3.665078
-6.214518 49.236824 -10.055301
-5.713113 51.323964 -3.452628
-12.183077 37.815860 -19.712632
-9.474372 43.507329 -15.329855
-13.571613 38.365717 -17.023267
-11.627936 45.446405 -3.129619
-9.252159 46.371187 -9.568511
-8.825779 48.232464 -3.273102
-13.257939 43.342145 -6.062175
-7.566510 48.900642 -6.653204
-16.056528 38.853649 -11.444254
-10.847266 43.679726 -12.326326
-14.873580 38.710504 -14.244568
-14.736186 41.126877 -8.842728
-12.261049 41.039673 -14.766559
-12.090158 43.656364 -9.203119
33.473491 56.848153 -4.347508
28.995248 54.546966 -12.348301
28.400143 56.940360 -4.197029
19.988352 48.299171 -25.819515
24.412383 51.502393 -19.420175
19.095743 57.037970 -3.981118
24.394497 55.032640 -12.058313
23.600228 56.998341 -4.079781
26.440833 56.141563 -8.247738
1.825270 25.692558 -36.792812
5.870338 31.801773 -36.087603
0.000000 27.793955 -35.387608
15.698053 45.063553 -31.816324
10.686616 39.027572 -35.170014
-3.628887 31.554957 -31.930915
3.912608 34.022045 -34.427397
-1.830595 29.767422 -33.753776
1.894691 30.809676 -34.935606
2.363083 57.112505 -3.823549
7.061218 55.945120 -11.425291
6.356152 57.100722 -3.841237
0.000000 56.234027 -7.576402
15.874107 49.272695 -25.684845
11.622154 53.370177 -18.805041
17.964128 50.782959 -22.532926
14.600581 57.064636 -3.929696
11.134974 55.807727 -11.515703
10.445720 57.085364 -3.873868
17.272246 56.465503 -7.897711
8.763018 56.633398 -7.705289
-4.211803 49.644616 -13.721435
4.669921 55.044460 -15.213914
-2.230448 52.926790 -10.833940
2.361924 56.046618 -11.472559
22.183833 53.680527 -15.811477
13.543248 54.535897 -15.389915
20.082919 52.268516 -19.233603
19.833437 55.352677 -11.901431
15.798086 52.878697 -19.026380
15.398924 55.603990 -11.721776
-10.411492 36.890162 -22.799374
-3.785484 40.915563 -25.287209
-8.832164 35.884077 -25.273774
-9.112633 39.927090 -20.882708
13.389962 47.443524 -29.321710
4.203637 45.435193 -28.080494
11.279347 45.826704 -32.276537
11.374888 49.839181 -26.066941
-5.453415 33.248356 -29.826518
-1.970383 39.602369 -27.827826
-7.167381 34.659320 -27.636901
-1.897463 34.681846 -31.136985
-5.529769 37.715626 -26.522682
-6.072538 46.242706 -16.434487
-2.082714 44.618366 -23.410239
-7.662928 43.064848 -18.758494
-2.167924 49.425148 -17.538876
-5.746879 42.198371 -22.116989
6.179993 37.678151 -33.800411
2.071502 41.634742 -29.255936
8.586418 41.521358 -33.108603
1.978591 36.164709 -32.468283
6.404759 43.683467 -30.719435
0.000000 38.045979 -30.245437
7.042352 53.627893 -19.059156
2.211935 47.386703 -24.862722
9.238415 51.918919 -22.615214
2.325312 53.013321 -18.812165
6.849327 50.293463 -26.359785
0.000000 48.675210 -21.304852
0.000000 -19.962458 -37.937908
0.000000 -14.139831 -39.224575
0.000000 -2.802121 -40.430296
0.000000 -8.432824 -40.037214
0.000000 19.962458 -37.937908
0.000000 14.139831 -39.224575
0.000000 2.802121 -40.430296
0.000000 8.432824 -40.037214
39.814625 57.016200 -2.828541
47.143869 53.497308 -8.702360
37.326199 55.943387 -7.202956
50.221689 35.458135 -17.494909
49.761196 44.842706 -13.625721
32.027040 52.743811 -15.068604
43.417245 51.299541 -12.823889
34.658612 54.418621 -11.300915
40.767295 54.149186 -10.102029
46.035505 3.520602 -27.106757
49.669000 11.244031 -26.402293
50.164000 26.816405 -20.760102
49.948946 18.834411 -23.676041
22.296223 45.788699 -28.298972
31.264860 43.399876 -26.822599
24.574663 47.483073 -25.256876
47.351286 34.401866 -21.261522
39.940963 39.780566 -24.585742
46.971089 38.721502 -19.510446
29.394515 50.933038 -18.751796
33.912402 45.209373 -23.700084
26.947599 49.209481 -22.067258
34.648288 50.221208 -17.817697
29.249109 46.473184 -24.559865
45.237764 47.368253 -15.401793
38.664896 43.526306 -22.579512
46.321704 43.128446 -17.562271
40.039764 49.117583 -16.724336
43.029753 41.418887 -21.212871
36.871767 47.083005 -20.349638
23.518063 -33.678846 -1.670788
26.617618 -30.204796 -4.913387
22.774126 -34.133176 -4.394796
32.237685 -22.760847 -11.230115
29.505113 -26.588772 -8.079155
20.975224 -34.543101 -9.868766
25.772678 -30.451646 -7.612320
21.923375 -34.422608 -7.148416
24.313558 -32.294499 -6.024836
42.062587 -3.216770 -24.767411
39.796888 -9.009189 -21.154625
34.855056 -18.632631 -14.424577
37.377250 -14.093961 -17.716997
16.161385 -33.189873 -20.512469
21.371003 -29.665857 -18.334508
17.492053 -33.798081 -17.977647
31.118598 -22.608422 -13.972773
26.288934 -26.183361 -16.182207
29.868224 -24.622433 -12.406405
19.892106 -34.467839 -12.689875
22.592590 -30.118681 -15.789100
18.743289 -34.227447 -15.348788
22.404141 -32.473841 -11.521209
20.098712 -31.934346 -16.876468
27.221519 -28.503526 -9.267925
25.101965 -28.258083 -14.659037
28.564009 -26.594905 -10.829672
24.849026 -30.482800 -10.379269
27.486038 -26.457068 -13.550108
23.783012 -30.369460 -13.125915
2.801165 -21.567475 -36.628123
8.076715 -18.965066 -35.677805
4.541850 -23.536170 -35.275305
2.765655 -18.714430 -37.521163
17.971723 -13.912931 -33.618732
13.077911 -16.439758 -34.682681
7.997289 -27.076050 -31.991642
9.778569 -20.783518 -34.227389
6.290321 -25.384937 -33.717558
7.217090 -22.133989 -34.753299
2.716353 -13.029198 -38.917522
8.032024 -16.249138 -36.657159
2.740297 -15.851740 -38.284498
5.449330 -17.469617 -37.093068
39.722014 -1.970586 -27.738030
33.587114 -5.463586 -29.598246
38.910836 -5.009941 -25.961846
22.912182 -11.304784 -32.452032
28.057456 -8.525424 -31.134887
37.025758 -10.578047 -22.482741
33.078062 -8.268873 -27.995539
37.997706 -7.890844 -24.200315
35.908195 -6.699005 -27.034201
14.470494 -32.227066 -23.413750
16.440431 -26.708433 -26.601175
12.967368 -31.218734 -25.735751
17.217930 -30.548403 -22.309717
19.713440 -15.531845 -31.897016
18.170066 -21.179327 -29.399785
17.290488 -16.823455 -32.506218
9.757647 -28.659918 -30.009667
14.885827 -25.490318 -28.695264
11.382570 -30.022316 -27.952682
10.672553 -25.551178 -31.344144
13.967998 -28.333716 -27.273013
22.438409 -27.198653 -20.164716
19.167881 -25.205180 -25.574410
19.881063 -28.865204 -21.223465
18.224282 -27.871738 -24.002358
12.389945 -19.421949 -33.653179
15.764214 -22.556981 -30.071211
14.840685 -18.122815 -33.094389
11.551279 -22.462615 -32.558597
16.552098 -19.712410 -31.320560
13.268788 -24.041885 -30.700026
2.702048 -1.669957 -40.360594
8.049890 -4.975106 -39.417122
2.701606 -4.470387 -40.159881
18.122425 -11.200275 -34.765276
13.228298 -8.175538 -37.542944
15.644990 -12.472797 -35.259464
2.716831 -10.094246 -39.452159
8.028549 -7.763111 -38.908180
2.704714 -7.293146 -39.856695
5.399802 -11.809335 -38.606444
5.394512 -6.135033 -39.649332
10.662100 -14.959151 -36.198211
10.695215 -9.411875 -37.899699
13.150768 -13.731480 -35.738034
8.065789 -13.441436 -37.513389
13.203319 -10.963051 -36.695068
8.066965 -10.597591 -38.266851
32.554089 -20.119533 -15.851798
29.939336 -18.503527 -21.568014
33.717920 -17.935008 -17.450566
30.049030 -21.945022 -16.936469
22.615846 -13.977362 -31.128818
26.592287 -16.434937 -26.699508
25.092826 -12.643420 -30.438834
21.810367 -16.832547 -29.864650
35.933193 -13.229368 -20.737793
30.826158 -16.159980 -23.123282
34.853356 -15.629468 -19.086043
34.288070 -12.164869 -23.655802
32.365138 -17.104131 -20.369842
25.066683 -25.433884 -19.062558
27.310624 -20.247730 -22.530784
27.545430 -23.721351 -18.010922
23.560566 -24.593998 -21.888438
28.767410 -21.151560 -19.813706
30.254612 -9.837291 -28.893847
29.044096 -15.066786 -25.800190
27.646982 -11.258086 -29.693982
32.378018 -11.024583 -26.393974
27.151695 -13.905864 -28.207680
31.619344 -13.666124 -24.761824
20.111119 -22.378769 -27.126360
25.592357 -19.181332 -25.222869
20.972455 -19.645930 -28.523817
21.894211 -23.566780 -24.600485
23.786715 -18.060550 -27.621331
24.617492 -21.909348 -23.583073
2.910534 22.409554 -38.058230
8.957369 21.032945 -39.567979
4.870717 25.240382 -37.829527
2.857386 19.335148 -38.765660
21.560529 16.691230 -40.332117
15.227752 19.142244 -40.384070
9.323809 31.567187 -37.298134
11.276795 23.967870 -39.471547
7.010505 28.291277 -37.577907
8.043768 24.669315 -38.734098
2.776997 13.320085 -39.786384
8.760034 17.721934 -39.979706
2.815967 16.289464 -39.341672
5.796499 18.582581 -39.456214
41.767397 2.072056 -29.166328
38.127513 6.202169 -33.599419
44.573582 5.739044 -29.740109
38.302333 0.000000 -30.083224
27.706924 13.670491 -39.243140
33.344372 10.131884 -37.001688
47.651488 13.613757 -28.934885
40.528113 10.131241 -34.300872
47.560688 9.876753 -30.290872
42.724090 7.970573 -32.165684
32.034404 -3.640649 -31.657228
34.590960 3.931196 -34.183683
35.054147 -1.901120 -30.914218
36.573190 1.983503 -32.253860
19.659938 43.784416 -31.810448
22.914287 37.225588 -37.076095
17.486691 42.098932 -34.705047
24.035145 42.643647 -31.142961
24.910484 19.626498 -40.306010
24.952016 29.084478 -40.373210
21.530109 20.948560 -40.476730
12.023096 35.313939 -36.977061
20.316406 34.789579 -39.163738
14.909051 39.323653 -36.612817
13.066457 31.282428 -38.374783
19.161449 38.868496 -37.413412
32.705821 39.644267 -29.391726
27.079538 35.608768 -36.130399
28.425437 41.270733 -30.344768
25.637744 39.209692 -33.766286
14.742853 23.110268 -40.044075
20.954565 29.983844 -39.972125
18.107652 22.112296 -40.379650
13.974241 27.174306 -39.387992
21.337757 25.411800 -40.376179
16.980321 30.766859 -39.287408
2.709520 1.674575 -40.472203
8.254166 5.101355 -40.417380
2.721741 4.503705 -40.459202
5.429123 0.000000 -40.296365
20.894700 12.913635 -40.083488
14.198605 8.775220 -40.296752
17.924637 14.290221 -40.397156
2.763478 10.267558 -40.129529
8.352547 8.076397 -40.478347
2.737875 7.382564 -40.345361
5.623072 12.297624 -40.202735
5.506888 6.262836 -40.475289
10.840032 -3.327355 -39.219604
11.086830 3.403110 -40.112529
8.162480 -1.680459 -39.875970
8.231681 1.694705 -40.214036
11.881160 16.669517 -40.336963
11.419764 10.049484 -40.467220
14.894284 15.551985 -40.476147
8.659050 14.430089 -40.272600
14.551204 12.082234 -40.441153
8.523952 11.197935 -40.434634
47.595532 29.415657 -23.176037
42.309096 26.148459 -30.479072
47.690583 25.367253 -24.682059
44.518238 32.511988 -25.091717
28.858496 17.835532 -39.721302
37.071088 22.911192 -37.220560
32.055827 16.151839 -38.885297
29.358763 22.658158 -40.200568
47.698300 17.560876 -27.527681
42.611565 22.338237 -31.963737
47.720410 21.399506 -26.132169
45.351876 16.090134 -31.288871
45.151250 23.861257 -28.417115
37.049577 37.592315 -28.175235
38.990305 28.906889 -32.166315
40.944818 35.260529 -26.772278
34.090651 35.585961 -31.671187
41.714471 30.671032 -28.731064
37.915548 12.328245 -36.210215
39.975491 20.737508 -35.510668
35.109300 14.296806 -37.708816
42.902390 14.608088 -34.973251
36.978242 18.938575 -38.416402
42.772121 18.486441 -33.495817
28.454885 31.663346 -38.380633
36.167094 27.107040 -35.644933
29.651721 27.776225 -40.328147
31.219970 33.604964 -35.078971
33.486634 25.425413 -38.884958
35.236372 31.360056 -33.755751
21.104029 -9.637301 -34.147036
22.354306 -3.346429 -36.170027
23.662541 -8.269103 -33.596425
18.696948 -8.158828 -35.747984
24.340507 11.115261 -39.383768
23.450562 3.510538 -37.943807
27.121979 9.478037 -38.508186
20.725790 9.044158 -39.627067
29.045905 -5.310690 -32.378186
25.110722 -1.777995 -35.735601
26.317559 -6.825222 -33.004739
30.142243 -1.836844 -33.573855
24.399221 -5.087044 -34.696035
13.602956 -5.026288 -38.275454
19.691936 -1.751912 -37.531526
16.175465 -6.607749 -37.134853
13.825235 -1.708893 -38.959982
19.223571 -4.995053 -36.677839
32.239068 5.894521 -35.937684
25.824237 1.828517 -36.751019
29.784424 7.724322 -37.352519
31.215473 1.902246 -34.769270
26.488070 5.522553 -37.666408
28.051285 0.000000 -35.285938
14.208771 5.250136 -39.980072
20.120110 1.790004 -38.347599
17.346527 7.086133 -39.823321
14.028997 1.734079 -39.534191
20.459937 5.316310 -39.036778
16.925256 0.000000 -38.669143
39.814625 57.016200 2.828541
47.143869 53.497308 8.702360
37.326199 55.943387 7.202956
44.961622 57.245694 0.000000
50.221689 35.458135 17.494909
49.761196 44.842706 13.625721
32.027040 52.743811 15.068604
43.417245 51.299541 12.823889
34.658612 54.418621 11.300915
40.767295 54.149186 10.102029
52.640014 53.267188 -6.053714
52.640014 53.267188 6.053714
49.917862 56.602697 -3.069779
49.917862 56.602697 3.069779
46.035505 3.520602 27.106757
49.669000 11.244031 26.402293
50.164000 26.816405 20.760102
49.948946 18.834411 23.676041
22.296223 45.788699 28.298972
31.264860 43.399876 26.822599
24.574663 47.483073 25.256876
47.351286 34.401866 21.261522
39.940963 39.780566 24.585742
46.971089 38.721502 19.510446
29.394515 50.933038 18.751796
33.912402 45.209373 23.700084
26.947599 49.209481 22.067258
34.648288 50.221208 17.817697
29.249109 46.473184 24.559865
45.237764 47.368253 15.401793
38.664896 43.526306 22.579512
46.321704 43.128446 17.562271
40.039764 49.117583 16.724336
43.029753 41.418887 21.212871
36.871767 47.083005 20.349638
52.749155 32.600771 -14.887368
56.628766 34.998502 -5.239260
52.979951 37.314692 -13.039979
52.749155 32.600771 14.887368
56.628766 34.998502 5.239260
52.979951 37.314692 13.039979
53.230784 47.752405 -8.730945
57.011588 40.060951 -2.836564
53.173440 42.399825 -10.996012
56.511537 50.735445 -3.091778
55.436799 38.984706 -8.128002
53.230784 47.752405 8.730945
57.011588 40.060951 2.836564
53.173440 42.399825 10.996012
56.511537 50.735445 3.091778
55.436799 38.984706 8.128002
57.245694 45.508647 0.000000
23.518063 -33.678846 1.670788
26.617618 -30.204796 4.913387
22.774126 -34.133176 4.394796
25.182730 -32.062964 0.000000
32.237685 -22.760847 11.230115
29.505113 -26.588772 8.079155
20.975224 -34.543101 9.868766
25.772678 -30.451646 7.612320
21.923375 -34.422608 7.148416
24.313558 -32.294499 6.024836
28.360832 -28.698734 -3.261556
28.360832 -28.698734 3.261556
26.804331 -30.393879 -1.648375
26.804331 -30.393879 1.648375
42.062587 -3.216770 24.767411
39.796888 -9.009189 21.154625
34.855056 -18.632631 14.424577
37.377250 -14.093961 17.716997
16.161385 -33.189873 20.512469
21.371003 -29.665857 18.334508
17.492053 -33.798081 17.977647
31.118598 -22.608422 13.972773
26.288934 -26.183361 16.182207
29.868224 -24.622433 12.406405
19.892106 -34.467839 12.689875
22.592590 -30.118681 15.789100
18.743289 -34.227447 15.348788
22.404141 -32.473841 11.521209
20.098712 -31.934346 16.876468
27.221519 -28.503526 9.267925
25.101965 -28.258083 14.659037
28.564009 -26.594905 10.829672
24.849026 -30.482800 10.379269
27.486038 -26.457068 13.550108
23.783012 -30.369460 13.125915
34.350117 -21.229540 -9.694617
35.264672 -21.794766 -3.262666
32.909295 -23.178583 -8.099980
34.350117 -21.229540 9.694617
35.264672 -21.794766 3.262666
32.909295 -23.178583 8.099980
29.952576 -26.869932 -4.912840
33.592247 -23.604629 -1.671355
31.435986 -25.066655 -6.500811
30.139374 -27.058803 -1.648942
33.363798 -23.462355 -4.891715
29.952576 -26.869932 4.912840
33.592247 -23.604629 1.671355
31.435986 -25.066655 6.500811
30.139374 -27.058803 1.648942
33.363798 -23.462355 4.891715
31.892273 -25.353421 0.000000
2.801165 -21.567475 36.628123
8.076715 -18.965066 35.677805
4.541850 -23.536170 35.275305
2.765655 -18.714430 37.521163
17.971723 -13.912931 33.618732
13.077911 -16.439758 34.682681
7.997289 -27.076050 31.991642
9.778569 -20.783518 34.227389
6.290321 -25.384937 33.717558
7.217090 -22.133989 34.753299
2.716353 -13.029198 38.917522
8.032024 -16.249138 36.657159
2.740297 -15.851740 38.284498
5.449330 -17.469617 37.093068
39.722014 -1.970586 27.738030
33.587114 -5.463586 29.598246
38.910836 -5.009941 25.961846
22.912182 -11.304784 32.452032
28.057456 -8.525424 31.134887
37.025758 -10.578047 22.482741
33.078062 -8.268873 27.995539
37.997706 -7.890844 24.200315
35.908195 -6.699005 27.034201
14.470494 -32.227066 23.413750
16.440431 -26.708433 26.601175
12.967368 -31.218734 25.735751
17.217930 -30.548403 22.309717
19.713440 -15.531845 31.897016
18.170066 -21.179327 29.399785
17.290488 -16.823455 32.506218
9.757647 -28.659918 30.009667
14.885827 -25.490318 28.695264
11.382570 -30.022316 27.952682
10.672553 -25.551178 31.344144
13.967998 -28.333716 27.273013
22.438409 -27.198653 20.164716
19.167881 -25.205180 25.574410
19.881063 -28.865204 21.223465
18.224282 -27.871738 24.002358
12.389945 -19.421949 33.653179
15.764214 -22.556981 30.071211
14.840685 -18.122815 33.094389
11.551279 -22.462615 32.558597
16.552098 -19.712410 31.320560
13.268788 -24.041885 30.700026
2.702048 -1.669957 40.360594
8.049890 -4.975106 39.417122
2.701606 -4.470387 40.159881
18.122425 -11.200275 34.765276
13.228298 -8.175538 37.542944
15.644990 -12.472797 35.259464
2.716831 -10.094246 39.452159
8.028549 -7.763111 38.908180
2.704714 -7.293146 39.856695
5.399802 -11.809335 38.606444
5.394512 -6.135033 39.649332
10.662100 -14.959151 36.198211
10.695215 -9.411875 37.899699
13.150768 -13.731480 35.738034
8.065789 -13.441436 37.513389
13.203319 -10.963051 36.695068
8.066965 -10.597591 38.266851
32.554089 -20.119533 15.851798
29.939336 -18.503527 21.568014
33.717920 -17.935008 17.450566
30.049030 -21.945022 16.936469
22.615846 -13.977362 31.128818
26.592287 -16.434937 26.699508
25.092826 -12.643420 30.438834
21.810367 -16.832547 29.864650
35.933193 -13.229368 20.737793
30.826158 -16.159980 23.123282
34.853356 -15.629468 19.086043
34.288070 -12.164869 23.655802
32.365138 -17.104131 20.369842
25.066683 -25.433884 19.062558
27.310624 -20.247730 22.530784
27.545430 -23.721351 18.010922
23.560566 -24.593998 21.888438
28.767410 -21.151560 19.813706
30.254612 -9.837291 28.893847
29.044096 -15.066786 25.800190
27.646982 -11.258086 29.693982
32.378018 -11.024583 26.393974
27.151695 -13.905864 28.207680
31.619344 -13.666124 24.761824
20.111119 -22.378769 27.126360
25.592357 -19.181332 25.222869
20.972455 -19.645930 28.523817
21.894211 -23.566780 24.600485
23.786715 -18.060550 27.621331
24.617492 -21.909348 23.583073
2.910534 22.409554 38.058230
8.957369 21.032945 39.567979
4.870717 25.240382 37.829527
2.857386 19.335148 38.765660
21.560529 16.691230 40.332117
15.227752 19.142244 40.384070
9.323809 31.567187 37.298134
11.276795 23.967870 39.471547
7.010505 28.291277 37.577907
8.043768 24.669315 38.734098
2.776997 13.320085 39.786384
8.760034 17.721934 39.979706
2.815967 16.289464 39.341672
5.796499 18.582581 39.456214
41.767397 2.072056 29.166328
38.127513 6.202169 33.599419
44.573582 5.739044 29.740109
38.302333 0.000000 30.083224
27.706924 13.670491 39.243140
33.344372 10.131884 37.001688
47.651488 13.613757 28.934885
40.528113 10.131241 34.300872
47.560688 9.876753 30.290872
42.724090 7.970573 32.165684
32.034404 -3.640649 31.657228
34.590960 3.931196 34.183683
35.054147 -1.901120 30.914218
36.573190 1.983503 32.253860
19.659938 43.784416 31.810448
22.914287 37.225588 37.076095
17.486691 42.098932 34.705047
24.035145 42.643647 31.142961
24.910484 19.626498 40.306010
24.952016 29.084478 40.373210
21.530109 20.948560 40.476730
12.023096 35.313939 36.977061
20.316406 34.789579 39.163738
14.909051 39.323653 36.612817
13.066457 31.282428 38.374783
19.161449 38.868496 37.413412
32.705821 39.644267 29.391726
27.079538 35.608768 36.130399
28.425437 41.270733 30.344768
25.637744 39.209692 33.766286
14.742853 23.110268 40.044075
20.954565 29.983844 39.972125
18.107652 22.112296 40.379650
13.974241 27.174306 39.387992
21.337757 25.411800 40.376179
16.980321 30.766859 39.287408
2.709520 1.674575 40.472203
8.254166 5.101355 40.417380
2.721741 4.503705 40.459202
5.429123 0.000000 40.296365
20.894700 12.913635 40.083488
14.198605 8.775220 40.296752
17.924637 14.290221 40.397156
2.763478 10.267558 40.129529
8.352547 8.076397 40.478347
2.737875 7.382564 40.345361
5.623072 12.297624 40.202735
5.506888 6.262836 40.475289
10.840032 -3.327355 39.219604
11.086830 3.403110 40.112529
8.162480 -1.680459 39.875970
8.231681 1.694705 40.214036
11.881160 16.669517 40.336963
11.419764 10.049484 40.467220
14.894284 15.551985 40.476147
8.659050 14.430089 40.272600
14.551204 12.082234 40.441153
8.523952 11.197935 40.434634
47.595532 29.415657 23.176037
42.309096 26.148459 30.479072
47.690583 25.367253 24.682059
44.518238 32.511988 25.091717
28.858496 17.835532 39.721302
37.071088 22.911192 37.220560
32.055827 16.151839 38.885297
29.358763 22.658158 40.200568
47.698300 17.560876 27.527681
42.611565 22.338237 31.963737
47.720410 21.399506 26.132169
45.351876 16.090134 31.288871
45.151250 23.861257 28.417115
37.049577 37.592315 28.175235
38.990305 28.906889 32.166315
40.944818 35.260529 26.772278
34.090651 35.585961 31.671187
41.714471 30.671032 28.731064
37.915548 12.328245 36.210215
39.975491 20.737508 35.510668
35.109300 14.296806 37.708816
42.902390 14.608088 34.973251
36.978242 18.938575 38.416402
42.772121 18.486441 33.495817
28.454885 31.663346 38.380633
36.167094 27.107040 35.644933
29.651721 27.776225 40.328147
31.219970 33.604964 35.078971
33.486634 25.425413 38.884958
35.236372 31.360056 33.755751
21.104029 -9.637301 34.147036
22.354306 -3.346429 36.170027
23.662541 -8.269103 33.596425
18.696948 -8.158828 35.747984
24.340507 11.115261 39.383768
23.450562 3.510538 37.943807
27.121979 9.478037 38.508186
20.725790 9.044158 39.627067
29.045905 -5.310690 32.378186
25.110722 -1.777995 35.735601
26.317559 -6.825222 33.004739
30.142243 -1.836844 33.573855
24.399221 -5.087044 34.696035
13.602956 -5.026288 38.275454
19.691936 -1.751912 37.531526
16.175465 -6.607749 37.134853
13.825235 -1.708893 38.959982
19.223571 -4.995053 36.677839
32.239068 5.894521 35.937684
25.824237 1.828517 36.751019
29.784424 7.724322 37.352519
31.215473 1.902246 34.769270
26.488070 5.522553 37.666408
28.051285 0.000000 35.285938
14.208771 5.250136 39.980072
20.120110 1.790004 38.347599
17.346527 7.086133 39.823321
14.028997 1.734079 39.534191
20.459937 5.316310 39.036778
16.925256 0.000000 38.669143
45.925373 0.000000 -24.165363
51.000594 0.000000 -18.384897
49.168146 3.624145 -24.523595
44.560386 -3.284511 -22.225383
56.972679 0.000000 -3.948631
54.863515 0.000000 -11.555609
51.561195 11.297678 -22.855698
54.169861 3.780930 -18.135529
51.359526 7.545210 -24.188650
52.152740 3.732947 -21.593901
41.759416 -9.149990 -18.510832
48.932666 -3.415386 -16.382168
43.162560 -6.340997 -20.328149
46.879343 -3.355492 -19.410446
45.925373 0.000000 24.165363
51.000594 0.000000 18.384897
49.168146 3.624145 24.523595
44.560386 -3.284511 22.225383
56.972679 0.000000 3.948631
54.863515 0.000000 11.555609
51.561195 11.297678 22.855698
54.169861 3.780930 18.135529
51.359526 7.545210 24.188650
52.152740 3.732947 21.593901
41.759416 -9.149990 18.510832
48.932666 -3.415386 16.382168
43.162560 -6.340997 20.328149
46.879343 -3.355492 19.410446
52.467085 27.350015 -16.903239
55.323404 19.493262 -12.047499
52.234827 23.177135 -18.477717
54.547111 28.529287 -12.449387
57.193276 3.828957 -2.366425
56.685264 11.576445 -7.154637
56.870594 3.825756 -6.330535
51.791060 15.254939 -21.402999
55.009264 15.523498 -13.660803
52.006768 19.137285 -19.982349
53.268033 11.453210 -19.086487
53.831279 19.369130 -16.082680
57.115411 29.967153 -2.666056
56.504940 20.081648 -7.420163
56.192183 29.451419 -7.652657
55.752722 24.285169 -9.920599
55.367754 3.812842 -14.166417
55.885772 11.531808 -11.150546
56.254098 3.817458 -10.293612
54.450788 7.615917 -16.655965
56.475320 7.683782 -8.738558
54.732423 11.538042 -15.157553
36.047980 -18.791073 -11.613522
41.273807 -14.542871 -8.987989
37.466191 -16.624138 -13.253411
36.770276 -19.231628 -8.392148
53.573197 -3.586601 -2.216641
47.023672 -9.603324 -5.935181
53.063311 -3.569636 -5.906728
40.303718 -11.871368 -16.655778
43.060461 -12.151571 -10.693480
38.891212 -14.311065 -14.943012
43.485104 -9.349773 -15.581163
40.202330 -14.465273 -12.010884
37.510965 -19.681148 -1.750952
41.844429 -14.871356 -5.494962
37.263503 -19.530529 -5.074813
39.277290 -17.108683 -6.988973
50.729494 -3.493433 -12.979669
46.206615 -9.534552 -9.219323
52.099841 -3.535546 -9.533448
46.953681 -6.567313 -14.362673
49.480331 -6.732074 -7.656207
44.984142 -9.483025 -12.457872
52.467085 27.350015 16.903239
55.323404 19.493262 12.047499
52.234827 23.177135 18.477717
54.547111 28.529287 12.449387
57.193276 3.828957 2.366425
56.685264 11.576445 7.154637
56.870594 3.825756 6.330535
57.245694 7.712704 0.000000
51.791060 15.254939 21.402999
55.009264 15.523498 13.660803
52.006768 19.137285 19.982349
53.268033 11.453210 19.086487
53.831279 19.369130 16.082680
57.115411 29.967153 2.666056
56.504940 20.081648 7.420163
56.192183 29.451419 7.652657
57.245694 25.056103 0.000000
55.752722 24.285169 9.920599
55.367754 3.812842 14.166417
55.885772 11.531808 11.150546
56.254098 3.817458 10.293612
54.450788 7.615917 16.655965
56.475320 7.683782 8.738558
54.732423 11.538042 15.157553
56.964305 15.744547 -4.832799
56.964305 15.744547 4.832799
57.181938 11.704955 -2.409769
57.160658 20.283878 -2.507225
57.181938 11.704955 2.409769
57.160658 20.283878 2.507225
36.047980 -18.791073 11.613522
41.273807 -14.542871 8.987989
37.466191 -16.624138 13.253411
36.770276 -19.231628 8.392148
53.573197 -3.586601 2.216641
47.023672 -9.603324 5.935181
53.063311 -3.569636 5.906728
50.448742 -6.796952 0.000000
40.303718 -11.871368 16.655778
43.060461 -12.151571 10.693480
38.891212 -14.311065 14.943012
43.485104 -9.349773 15.581163
40.202330 -14.465273 12.010884
37.510965 -19.681148 1.750952
41.844429 -14.871356 5.494962
37.263503 -19.530529 5.074813
39.817715 -17.427979 0.000000
39.277290 -17.108683 6.988973
50.729494 -3.493433 12.979669
46.206615 -9.534552 9.219323
52.099841 -3.535546 9.533448
46.953681 -6.567313 14.362673
49.480331 -6.732074 7.656207
44.984142 -9.483025 12.457872
44.652735 -12.341713 -3.788297
44.652735 -12.341713 3.788297
47.460717 -9.715053 -2.000096
42.207978 -14.977810 -1.851359
47.460717 -9.715053 2.000096
42.207978 -14.977810 1.851359
-23.518063 33.678846 -1.670788
-26.617618 30.204796 -4.913387
-22.774126 34.133176 -4.394796
-32.237685 22.760847 -11.230115
-29.505113 26.588772 -8.079155
-20.975224 34.543101 -9.868766
-25.772678 30.451646 -7.612320
-21.923375 34.422608 -7.148416
-24.313558 32.294499 -6.024836
-42.062587 3.216770 -24.767411
-39.796888 9.009189 -21.154625
-34.855056 18.632631 -14.424577
-37.377250 14.093961 -17.716997
-16.161385 33.189873 -20.512469
-21.371003 29.665857 -18.334508
-17.492053 33.798081 -17.977647
-31.118598 22.608422 -13.972773
-26.288934 26.183361 -16.182207
-29.868224 24.622433 -12.406405
-19.892106 34.467839 -12.689875
-22.592590 30.118681 -15.789100
-18.743289 34.227447 -15.348788
-22.404141 32.473841 -11.521209
-20.098712 31.934346 -16.876468
-27.221519 28.503526 -9.267925
-25.101965 28.258083 -14.659037
-28.564009 26.594905 -10.829672
-24.849026 30.482800 -10.379269
-27.486038 26.457068 -13.550108
-23.783012 30.369460 -13.125915
-39.814625 -57.016200 -2.828541
-47.143869 -53.497308 -8.702360
-37.326199 -55.943387 -7.202956
-50.221689 -35.458135 -17.494909
-49.761196 -44.842706 -13.625721
-32.027040 -52.743811 -15.068604
-43.417245 -51.299541 -12.823889
-34.658612 -54.418621 -11.300915
-40.767295 -54.149186 -10.102029
-46.035505 -3.520602 -27.106757
-49.669000 -11.244031 -26.402293
-50.164000 -26.816405 -20.760102
-49.948946 -18.834411 -23.676041
-22.296223 -45.788699 -28.298972
-31.264860 -43.399876 -26.822599
-24.574663 -47.483073 -25.256876
-47.351286 -34.401866 -21.261522
-39.940963 -39.780566 -24.585742
-46.971089 -38.721502 -19.510446
-29.394515 -50.933038 -18.751796
-33.912402 -45.209373 -23.700084
-26.947599 -49.209481 -22.067258
-34.648288 -50.221208 -17.817697
-29.249109 -46.473184 -24.559865
-45.237764 -47.368253 -15.401793
-38.664896 -43.526306 -22.579512
-46.321704 -43.128446 -17.562271
-40.039764 -49.117583 -16.724336
-43.029753 -41.418887 -21.212871
-36.871767 -47.083005 -20.349638
-2.910534 -22.409554 -38.058230
-8.957369 -21.032945 -39.567979
-4.870717 -25.240382 -37.829527
-2.857386 -19.335148 -38.765660
-21.560529 -16.691230 -40.332117
-15.227752 -19.142244 -40.384070
-9.323809 -31.567187 -37.298134
-11.276795 -23.967870 -39.471547
-7.010505 -28.291277 -37.577907
-8.043768 -24.669315 -38.734098
-2.776997 -13.320085 -39.786384
-8.760034 -17.721934 -39.979706
-2.815967 -16.289464 -39.341672
-5.796499 -18.582581 -39.456214
-41.767397 -2.072056 -29.166328
-38.127513 -6.202169 -33.599419
-44.573582 -5.739044 -29.740109
-27.706924 -13.670491 -39.243140
-33.344372 -10.131884 -37.001688
-47.651488 -13.613757 -28.934885
-40.528113 -10.131241 -34.300872
-47.560688 -9.876753 -30.290872
-42.724090 -7.970573 -32.165684
-19.659938 -43.784416 -31.810448
-22.914287 -37.225588 -37.076095
-17.486691 -42.098932 -34.705047
-24.035145 -42.643647 -31.142961
-24.910484 -19.626498 -40.306010
-24.952016 -29.084478 -40.373210
-21.530109 -20.948560 -40.476730
-12.023096 -35.313939 -36.977061
-20.316406 -34.789579 -39.163738
-14.909051 -39.323653 -36.612817
-13.066457 -31.282428 -38.374783
-19.161449 -38.868496 -37.413412
-32.705821 -39.644267 -29.391726
-27.079538 -35.608768 -36.130399
-28.425437 -41.270733 -30.344768
-25.637744 -39.209692 -33.766286
-14.742853 -23.110268 -40.044075
-20.954565 -29.983844 -39.972125
-18.107652 -22.112296 -40.379650
-13.974241 -27.174306 -39.387992
-21.337757 -25.411800 -40.376179
-16.980321 -30.766859 -39.287408
-2.709520 -1.674575 -40.472203
-8.254166 -5.101355 -40.417380
-2.721741 -4.503705 -40.459202
-20.894700 -12.913635 -40.083488
-14.198605 -8.775220 -40.296752
-17.924637 -14.290221 -40.397156
-2.763478 -10.267558 -40.129529
-8.352547 -8.076397 -40.478347
-2.737875 -7.382564 -40.345361
-5.623072 -12.297624 -40.202735
-5.506888 -6.262836 -40.475289
-11.881160 -16.669517 -40.336963
-11.419764 -10.049484 -40.467220
-14.894284 -15.551985 -40.476147
-8.659050 -14.430089 -40.272600
-14.551204 -12.082234 -40.441153
-8.523952 -11.197935 -40.434634
-47.595532 -29.415657 -23.176037
-42.309096 -26.148459 -30.479072
-47.690583 -25.367253 -24.682059
-44.518238 -32.511988 -25.091717
-28.858496 -17.835532 -39.721302
-37.071088 -22.911192 -37.220560
-32.055827 -16.151839 -38.885297
-29.358763 -22.658158 -40.200568
-47.698300 -17.560876 -27.527681
-42.611565 -22.338237 -31.963737
-47.720410 -21.399506 -26.132169
-45.351876 -16.090134 -31.288871
-45.151250 -23.861257 -28.417115
-37.049577 -37.592315 -28.175235
-38.990305 -28.906889 -32.166315
-40.944818 -35.260529 -26.772278
-34.090651 -35.585961 -31.671187
-41.714471 -30.671032 -28.731064
-37.915548 -12.328245 -36.210215
-39.975491 -20.737508 -35.510668
-35.109300 -14.296806 -37.708816
-42.902390 -14.608088 -34.973251
-36.978242 -18.938575 -38.416402
-42.772121 -18.486441 -33.495817
-28.454885 -31.663346 -38.380633
-36.167094 -27.107040 -35.644933
-29.651721 -27.776225 -40.328147
-31.219970 -33.604964 -35.078971
-33.486634 -25.425413 -38.884958
-35.236372 -31.360056 -33.755751
-2.801165 21.567475 -36.628123
-8.076715 18.965066 -35.677805
-4.541850 23.536170 -35.275305
-2.765655 18.714430 -37.521163
-17.971723 13.912931 -33.618732
-13.077911 16.439758 -34.682681
-7.997289 27.076050 -31.991642
-9.778569 20.783518 -34.227389
-6.290321 25.384937 -33.717558
-7.217090 22.133989 -34.753299
-2.716353 13.029198 -38.917522
-8.032024 16.249138 -36.657159
-2.740297 15.851740 -38.284498
-5.449330 17.469617 -37.093068
-39.722014 1.970586 -27.738030
-33.587114 5.463586 -29.598246
-38.910836 5.009941 -25.961846
-38.302333 0.000000 -30.083224
-22.912182 11.304784 -32.452032
-28.057456 8.525424 -31.134887
-37.025758 10.578047 -22.482741
-33.078062 8.268873 -27.995539
-37.997706 7.890844 -24.200315
-35.908195 6.699005 -27.034201
-34.590960 -3.931196 -34.183683
-32.034404 3.640649 -31.657228
-36.573190 -1.983503 -32.253860
-35.054147 1.901120 -30.914218
-14.470494 32.227066 -23.413750
-16.440431 26.708433 -26.601175
-12.967368 31.218734 -25.735751
-17.217930 30.548403 -22.309717
-19.713440 15.531845 -31.897016
-18.170066 21.179327 -29.399785
-17.290488 16.823455 -32.506218
-9.757647 28.659918 -30.009667
-14.885827 25.490318 -28.695264
-11.382570 30.022316 -27.952682
-10.672553 25.551178 -31.344144
-13.967998 28.333716 -27.273013
-22.438409 27.198653 -20.164716
-19.167881 25.205180 -25.574410
-19.881063 28.865204 -21.223465
-18.224282 27.871738 -24.002358
-12.389945 19.421949 -33.653179
-15.764214 22.556981 -30.071211
-14.840685 18.122815 -33.094389
-11.551279 22.462615 -32.558597
-16.552098 19.712410 -31.320560
-13.268788 24.041885 -30.700026
-2.702048 1.669957 -40.360594
-8.049890 4.975106 -39.417122
-2.701606 4.470387 -40.159881
-5.429123 0.000000 -40.296365
-18.122425 11.200275 -34.765276
-13.228298 8.175538 -37.542944
-15.644990 12.472797 -35.259464
-2.716831 10.094246 -39.452159
-8.028549 7.763111 -38.908180
-2.704714 7.293146 -39.856695
-5.399802 11.809335 -38.606444
-5.394512 6.135033 -39.649332
-11.086830 -3.403110 -40.112529
-10.840032 3.327355 -39.219604
-8.231681 -1.694705 -40.214036
-8.162480 1.680459 -39.875970
-10.662100 14.959151 -36.198211
-10.695215 9.411875 -37.899699
-13.150768 13.731480 -35.738034
-8.065789 13.441436 -37.513389
-13.203319 10.963051 -36.695068
-8.066965 10.597591 -38.266851
-32.554089 20.119533 -15.851798
-29.939336 18.503527 -21.568014
-33.717920 17.935008 -17.450566
-30.049030 21.945022 -16.936469
-22.615846 13.977362 -31.128818
-26.592287 16.434937 -26.699508
-25.092826 12.643420 -30.438834
-21.810367 16.832547 -29.864650
-35.933193 13.229368 -20.737793
-30.826158 16.159980 -23.123282
-34.853356 15.629468 -19.086043
-34.288070 12.164869 -23.655802
-32.365138 17.104131 -20.369842
-25.066683 25.433884 -19.062558
-27.310624 20.247730 -22.530784
-27.545430 23.721351 -18.010922
-23.560566 24.593998 -21.888438
-28.767410 21.151560 -19.813706
-30.254612 9.837291 -28.893847
-29.044096 15.066786 -25.800190
-27.646982 11.258086 -29.693982
-32.378018 11.024583 -26.393974
-27.151695 13.905864 -28.207680
-31.619344 13.666124 -24.761824
-20.111119 22.378769 -27.126360
-25.592357 19.181332 -25.222869
-20.972455 19.645930 -28.523817
-21.894211 23.566780 -24.600485
-23.786715 18.060550 -27.621331
-24.617492 21.909348 -23.583073
-24.340507 -11.115261 -39.383768
-23.450562 -3.510538 -37.943807
-27.121979 -9.478037 -38.508186
-20.725790 -9.044158 -39.627067
-21.104029 9.637301 -34.147036
-22.354306 3.346429 -36.170027
-23.662541 8.269103 -33.596425
-18.696948 8.158828 -35.747984
-32.239068 -5.894521 -35.937684
-25.824237 -1.828517 -36.751019
-29.784424 -7.724322 -37.352519
-31.215473 -1.902246 -34.769270
-26.488070 -5.522553 -37.666408
-14.208771 -5.250136 -39.980072
-20.120110 -1.790004 -38.347599
-17.346527 -7.086133 -39.823321
-14.028997 -1.734079 -39.534191
-20.459937 -5.316310 -39.036778
-29.045905 5.310690 -32.378186
-25.110722 1.777995 -35.735601
-26.317559 6.825222 -33.004739
-30.142243 1.836844 -33.573855
-24.399221 5.087044 -34.696035
-28.051285 0.000000 -35.285938
-13.602956 5.026288 -38.275454
-19.691936 1.751912 -37.531526
-16.175465 6.607749 -37.134853
-13.825235 1.708893 -38.959982
-19.223571 4.995053 -36.677839
-16.925256 0.000000 -38.669143
-23.518063 33.678846 1.670788
-26.617618 30.204796 4.913387
-22.774126 34.133176 4.394796
-25.182730 32.062964 0.000000
-32.237685 22.760847 11.230115
-29.505113 26.588772 8.079155
-20.975224 34.543101 9.868766
-25.772678 30.451646 7.612320
-21.923375 34.422608 7.148416
-24.313558 32.294499 6.024836
-28.360832 28.698734 -3.261556
-28.360832 28.698734 3.261556
-26.804331 30.393879 -1.648375
-26.804331 30.393879 1.648375
-42.062587 3.216770 24.767411
-39.796888 9.009189 21.154625
-34.855056 18.632631 14.424577
-37.377250 14.093961 17.716997
-16.161385 33.189873 20.512469
-21.371003 29.665857 18.334508
-17.492053 33.798081 17.977647
-31.118598 22.608422 13.972773
-26.288934 26.183361 16.182207
-29.868224 24.622433 12.406405
-19.892106 34.467839 12.689875
-22.592590 30.118681 15.789100
-18.743289 34.227447 15.348788
-22.404141 32.473841 11.521209
-20.098712 31.934346 16.876468
-27.221519 28.503526 9.267925
-25.101965 28.258083 14.659037
-28.564009 26.594905 10.829672
-24.849026 30.482800 10.379269
-27.486038 26.457068 13.550108
-23.783012 30.369460 13.125915
-34.350117 21.229540 -9.694617
-35.264672 21.794766 -3.262666
-32.909295 23.178583 -8.099980
-34.350117 21.229540 9.694617
-35.264672 21.794766 3.262666
-32.909295 23.178583 8.099980
-29.952576 26.869932 -4.912840
-33.592247 23.604629 -1.671355
-31.435986 25.066655 -6.500811
-30.139374 27.058803 -1.648942
-33.363798 23.462355 -4.891715
-29.952576 26.869932 4.912840
-33.592247 23.604629 1.671355
-31.435986 25.066655 6.500811
-30.139374 27.058803 1.648942
-33.363798 23.462355 4.891715
-31.892273 25.353421 0.000000
-39.814625 -57.016200 2.828541
-47.143869 -53.497308 8.702360
-37.326199 -55.943387 7.202956
-44.961622 -57.245694 0.000000
-50.221689 -35.458135 17.494909
-49.761196 -44.842706 13.625721
-32.027040 -52.743811 15.068604
-43.417245 -51.299541 12.823889
-34.658612 -54.418621 11.300915
-40.767295 -54.149186 10.102029
-52.640014 -53.267188 -6.053714
-52.640014 -53.267188 6.053714
-49.917862 -56.602697 -3.069779
-49.917862 -56.602697 3.069779
-46.035505 -3.520602 27.106757
-49.669000 -11.244031 26.402293
-50.164000 -26.816405 20.760102
-49.948946 -18.834411 23.676041
-22.296223 -45.788699 28.298972
-31.264860 -43.399876 26.822599
-24.574663 -47.483073 25.256876
-47.351286 -34.401866 21.261522
-39.940963 -39.780566 24.585742
-46.971089 -38.721502 19.510446
-29.394515 -50.933038 18.751796
-33.912402 -45.209373 23.700084
-26.947599 -49.209481 22.067258
-34.648288 -50.221208 17.817697
-29.249109 -46.473184 24.559865
-45.237764 -47.368253 15.401793
-38.664896 -43.526306 22.579512
-46.321704 -43.128446 17.562271
-40.039764 -49.117583 16.724336
-43.029753 -41.418887 21.212871
-36.871767 -47.083005 20.349638
-52.749155 -32.600771 -14.887368
-56.628766 -34.998502 -5.239260
-52.979951 -37.314692 -13.039979
-52.749155 -32.600771 14.887368
-56.628766 -34.998502 5.239260
-52.979951 -37.314692 13.039979
-53.230784 -47.752405 -8.730945
-57.011588 -40.060951 -2.836564
-53.173440 -42.399825 -10.996012
-56.511537 -50.735445 -3.091778
-55.436799 -38.984706 -8.128002
-53.230784 -47.752405 8.730945
-57.011588 -40.060951 2.836564
-53.173440 -42.399825 10.996012
-56.511537 -50.735445 3.091778
