22.96770362 -16.77347835 -12.9452366
15.29260325 -9.451348586 -21.04898709
18.67176203 -11.53978356 -18.74704774
17.06444557 -8.598192787 -20.700013
14.9033757 -11.50195091 -20.40699662
26.5477823 -9.773981883 -15.3212772
22.32768517 -11.70483008 -16.74841712
26.13063822 -11.71789505 -14.30939623
24.69946349 -8.762982118 -17.04049287
24.01110967 -12.68924483 -15.11201711
18.82956166 -19.10539504 -14.31938969
19.89467544 -14.74964503 -16.41275657
20.87333201 -17.97552777 -13.64828745
17.2651228 -18.02241904 -16.03979174
21.45955082 -15.77837498 -14.78037971
20.83361497 -6.774052577 -19.89657869
20.55017323 -10.66051621 -18.25494469
18.91587009 -7.702703375 -20.3164133
22.77633518 -7.755249085 -18.56685578
18.81565751 -9.636524498 -19.54743698
22.56898066 -9.754487636 -17.67427987
14.0669631 -15.65309814 -18.97385767
18.20542625 -13.64486797 -17.94258612
14.49408794 -13.57732488 -19.71284224
15.66112217 -16.85752545 -17.59694333
16.56950893 -12.58073887 -19.24065126
17.76909949 -15.81433961 -17.02244765
1.855878742 14.28927384 -24.26752688
5.647187912 13.2602543 -24.94569622
3.105061204 16.0906338 -24.11615902
1.815402204 12.28432897 -24.62924647
13.51438489 10.46225269 -25.28062964
9.543347789 11.99658932 -25.30900257
5.936163257 20.09779141 -23.74649704
7.096771775 15.08358607 -24.84044173
4.466962295 18.02667191 -23.94393822
5.09131951 15.61449434 -24.51682803
1.756329006 8.424369933 -25.16314516
5.517611676 11.16237083 -25.18169307
1.784297299 10.3215882 -24.92829326
3.664452405 11.74760568 -24.94357684
28.53513839 1.415611692 -19.92619323
25.11085076 4.08475989 -22.12863959
30.20889784 3.889528039 -20.15579314
26.02095222 0 -20.43724412
17.49522993 8.632079919 -24.77964544
21.39467718 6.500898968 -23.74131316
33.91411519 9.689068257 -20.59329223
26.45341116 6.612839237 -22.38878176
32.00870324 6.647129681 -20.3859861
28.37174021 5.293009553 -21.36023103
21.53550272 -2.447468561 -21.28194149
22.7296821 2.583184756 -22.46206048
23.68538972 -1.284548615 -20.8881216
24.40480452 1.32356521 -21.52257278
13.87625708 30.90364866 -22.45225559
14.9158656 24.23168883 -24.13437752
11.53127942 27.76137262 -22.88561037
17.66835838 31.34756292 -22.89334957
15.56385057 12.26246239 -25.18283922
15.44116963 17.99848003 -24.98433729
13.43973414 13.076714 -25.26677838
7.643804892 22.45119355 -23.5085403
12.64408417 21.65158354 -24.37387787
9.459491394 24.95006329 -23.2300923
8.239286416 19.72569042 -24.19790094
12.15604315 24.65821443 -23.73510747
25.85796358 31.34365582 -23.23776522
18.26734631 24.02100447 -24.37288707
21.71201332 31.52355099 -23.17804377
18.04062384 27.59085579 -23.76047074
9.23668219 14.47902911 -25.08838576
13.02257501 18.63397562 -24.84136489
11.31444857 13.81672452 -25.2309618
8.771095093 17.05626935 -24.72233084
13.27856878 15.81386136 -25.12625262
10.61962184 19.24182751 -24.57064367
1.710324589 1.057038728 -25.54718597
5.208493613 3.219026083 -25.50392833
1.717679779 2.842269919 -25.53363597
3.430964205 0 -25.46550856
13.15155735 8.128109445 -25.2293783
8.952153669 5.53273524 -25.40691267
11.25818501 8.975464514 -25.37282338
1.745544775 6.485481028 -25.34773132
5.264700371 5.090640026 -25.51393937
1.728223881 4.660082239 -25.46712716
3.54673964 7.756697825 -25.3577813
3.473439743 3.950249504 -25.52956809
6.898464203 -2.117488053 -24.95887795
7.010518269 2.151883122 -25.36429338
5.172289139 -1.064849997 -25.26806051
5.203749209 1.071326869 -25.42175164
7.465251885 10.47390498 -25.34479618
7.191503678 6.328580792 -25.48390348
9.349750035 9.762616036 -25.40852972
5.452211388 9.085973776 -25.35783246
9.153146102 7.600089677 -25.43870428
5.368684126 7.052852784 -25.46715304
41.85170234 25.86577453 -20.3791527
32.03922758 19.80133162 -23.08075619
40.0530957 21.3047722 -20.72930982
38.28218301 27.95775226 -21.57690315
18.09860183 11.18555108 -24.91120903
24.21421261 14.9652064 -24.31184582
20.21870484 10.18751658 -24.52628486
18.26637772 14.09740881 -25.01191112
35.98715817 13.24923597 -20.7689373
30.71377732 16.10106654 -23.03898277
38.04084506 17.0588497 -20.83154343
31.6692305 11.2357461 -21.84902909
35.1111157 18.55530833 -22.09809494
30.24797758 30.69107882 -23.00279667
28.86105021 21.39719478 -23.80985771
34.34710422 29.5787623 -22.45828081
25.72384866 26.85216811 -23.89818944
33.30421892 24.48729981 -22.93845783
24.38454448 7.928637765 -23.28779758
26.69945126 13.85048825 -23.71741594
22.33057318 9.09319955 -23.9839432
27.80504487 9.467504189 -22.6661688
23.27824622 11.92205958 -24.18358491
29.23727443 12.63657567 -22.89637174
18.37319148 20.44487977 -24.78220192
24.7541993 18.55313776 -24.39681153
18.36530022 17.20367978 -24.97792668
21.7571313 23.41922823 -24.44646063
21.32463961 16.19116918 -24.76234847
25.33620417 22.54899509 -24.27158504
13.92996811 -6.361216561 -22.53916186
14.52697754 -2.174681888 -23.50514341
15.68459425 -5.481132761 -22.26921861
12.19226379 -5.320364795 -23.31122993
15.39377442 7.029673869 -24.90765023
15.02633493 2.24943546 -24.31312064
17.25771999 6.030876728 -24.50276578
13.10986542 5.720780624 -25.06565577
19.42679837 -3.551953355 -21.6555313
16.36324858 -1.158619757 -23.28688579
17.52178453 -4.54411687 -21.9739956
19.95529076 -1.216059571 -22.22714638
16.03209655 -3.342565063 -22.79786636
8.711881807 -3.219037692 -24.51314566
12.672308 -1.1274038 -24.1525804
10.44220369 -4.265686488 -23.97270822
8.812484466 -1.089282985 -24.83388075
12.44982366 -3.234962488 -23.75378831
20.90133369 3.821554171 -23.29923219
16.68953325 1.181722741 -23.75122842
19.10904955 4.955759744 -23.96457791
20.45210439 1.246334999 -22.7805209
16.98553456 3.541349331 -24.15366859
18.32746089 0 -23.0542608
8.986498307 3.320508406 -25.28585062
12.86703956 1.144728276 -24.52372586
10.97231025 4.482237366 -25.18970132
8.905049995 1.100724714 -25.09473356
13.0110655 3.380795583 -24.82461633
10.8062674 0 -24.68908621
47.6622236 68.25428875 3.386055741
50.94191421 57.80720498 9.403446923
43.11907515 64.62557574 8.320826209
52.79594412 67.22044965 0
48.67969081 34.36943381 16.95774794
50.44136097 45.45564212 13.81196521
33.15566254 54.60248638 15.59961729
45.36961041 53.6063539 13.40054779
38.05185728 59.74646512 12.40732868
44.70168836 59.37504547 11.07696182
56.25785897 56.92813672 -6.469773501
56.25785897 56.92813672 6.469773501
55.63162707 63.08163049 -3.421156333
55.63162707 63.08163049 3.421156333
31.9196754 2.441082987 18.79503357
36.02413386 8.155116277 19.1491619
45.36299896 24.24991134 18.77323328
40.7150314 15.35254911 19.29912131
17.14113153 35.20193137 21.75599006
25.94248966 36.0117027 22.25645626
20.36815065 39.35526527 20.93358695
43.54754193 31.63835288 19.55357743
35.07106305 34.93022221 21.58806456
44.53414051 36.71255747 18.49820702
28.34883283 49.12114262 18.08471806
30.1321402 40.16982232 21.05820379
24.12699992 44.05873567 19.757483
34.24343808 49.6343947 17.60950449
25.19617461 40.03357776 21.15670107
45.4366388 47.57649307 15.46950282
35.21899784 39.64714869 20.56717802
45.15806793 42.04502705 17.12109304
40.01230192 49.08389502 16.71286574
39.98730719 38.49033905 19.71300206
34.90098101 44.56643049 19.26195524
52.58778628 32.50103931 -14.84182505
61.0616921 37.73820113 -5.649391434
53.93415214 37.98675235 -13.27483705
52.58778628 32.50103931 14.84182505
61.0616921 37.73820113 5.649391434
53.93415214 37.98675235 13.27483705
55.82565909 50.08022237 -9.156558404
61.68946469 43.34800515 -3.069308333
54.9881793 43.84687461 -11.37129168
59.97368819 53.84372628 -3.281193917
58.64375041 41.23992366 -8.598197224
55.82565909 50.08022237 9.156558404
61.68946469 43.34800515 3.069308333
54.9881793 43.84687461 11.37129168
59.97368819 53.84372628 3.281193917
58.64375041 41.23992366 8.598197224
61.59520597 48.96638147 0
19.56164537 -28.01309068 1.389713207
21.96217115 -24.92194786 4.054031222
18.83663314 -28.23178042 3.634965503
20.95985545 -26.68634744 0
25.71736065 -18.15728715 8.958736434
23.99941675 -21.62726932 6.571573463
16.91618533 -27.85846242 7.959002983
21.03035664 -24.84836723 6.211609416
17.94225424 -28.17171996 5.850317476
19.98813965 -26.54925897 4.953008886
23.50037155 -23.78036401 -2.702592738
23.50037155 -23.78036401 2.702592738
22.28026755 -25.26396726 -1.370160868
22.28026755 -25.26396726 1.370160868
29.8969393 -2.286392609 17.60400038
29.25159716 -6.621954524 15.54911972
27.1527079 -14.51515055 11.23700221
28.32920849 -10.68218664 13.4281815
11.98720883 -24.617564 15.21449127
16.15896003 -22.43083344 13.86301746
13.26772568 -25.63585044 13.63604846
24.34912321 -17.69023275 10.93316511
20.2316973 -20.15044943 12.45366264
23.6483434 -19.49495726 9.822844828
15.74263755 -27.27789002 10.04278248
17.45068473 -23.26389365 12.19561813
14.53341437 -26.53972165 11.90134241
17.87229668 -25.90512744 9.190732769
15.38796775 -24.44956081 12.92095481
22.00865594 -23.04516122 7.493137126
19.5591341 -22.01834082 11.42213628
22.86638269 -21.29005343 8.669491046
19.96448276 -24.4908323 8.339028348
21.59146475 -20.78316489 10.64419234
18.75295673 -23.94638542 10.3498126
27.65401532 -17.09112139 -7.804779137
29.16725085 -18.02635238 -2.6985367
26.74244509 -18.83516471 -6.582130001
27.65401532 -17.09112139 7.804779137
29.16725085 -18.02635238 2.6985367
26.74244509 -18.83516471 6.582130001
24.69474901 -22.15322743 -4.050447685
27.87400744 -19.58653109 -1.386848204
25.75062833 -20.53322343 -5.325106401
25.03257337 -22.47397265 -1.369546045
27.4844584 -19.327839 -4.029701243
24.69474901 -22.15322743 4.050447685
27.87400744 -19.58653109 1.386848204
25.75062833 -20.53322343 5.325106401
25.03257337 -22.47397265 1.369546045
27.4844584 -19.327839 4.029701243
26.50184588 -21.06818988 0
1.807775216 -13.91890241 23.63852372
5.258421145 -12.34738469 23.22837109
2.960694777 -15.34251736 22.99490457
1.774870069 -12.01005912 24.07935403
11.90882458 -9.219297286 22.27719472
8.588918882 -10.79681206 22.77785269
5.352594153 -18.12202868 21.41203934
6.437381364 -13.68210772 22.53241357
4.150817539 -16.75085237 22.24933012
4.728071348 -14.50045379 22.76763655
1.729201291 -8.29424972 24.774483
5.194419579 -10.50853901 23.70668455
1.750661896 -10.12701817 24.4583754
3.510717736 -11.25475871 23.89711966
27.52972552 -1.365733741 19.22410969
22.96772397 -3.736139351 20.24003452
27.41190238 -3.529402611 18.28959921
15.32703834 -7.562302434 21.70869301
18.96426739 -5.762404606 21.04432833
26.92725896 -7.692963494 16.35074097
22.9403716 -5.734647547 19.41552906
27.20467962 -5.649495766 17.32635704
25.09036727 -4.680839198 18.88978391
10.45416383 -23.28234511 16.9151924
11.54713902 -18.75899711 18.68366341
9.171733613 -22.08080345 18.20272619
12.56774054 -22.2979424 16.28434694
13.24451335 -10.43510063 21.43007277
12.4599966 -14.52357595 20.16069799
11.55657491 -11.24442071 21.72642807
6.642639984 -19.51059689 20.42945522
10.26308207 -17.57438307 19.78404331
7.891091626 -20.81330035 19.37850347
7.188015551 -17.20884096 21.1104311
9.747980956 -19.77352348 19.03328022
16.69641305 -20.23850882 15.00455847
13.59050776 -17.8711041 18.13289709
14.65557381 -21.27834584 15.64514199
13.10279205 -20.03906567 17.25708102
8.198680579 -12.85190205 22.26899842
10.74464906 -15.3744961 20.49608068
9.868857581 -12.05143014 22.00732692
7.706830801 -14.98670128 21.72258068
11.16759171 -13.29983298 21.1317752
8.991196176 -16.2912624 20.80295144
1.706925201 -1.054937791 25.49640918
5.115846684 -3.161767132 25.05027305
1.708537086 -2.827141371 25.3977281
11.90428421 -7.357252253 22.8366635
8.514074291 -5.261987295 24.16360911
10.23643312 -8.160884023 23.07007828
1.724548247 -6.407469516 25.0428326
5.118306848 -4.949086533 24.80448295
1.713222126 -4.619630646 25.24606113
3.446619785 -7.537736317 24.64196406
3.422528174 -3.892349148 25.15537119
6.92243957 -9.712327918 23.50192903
6.865094474 -6.04133808 24.3272357
8.570986687 -8.949464078 23.29219168
5.187168448 -8.644286352 24.12513732
8.547582461 -7.097274805 23.75570324
5.163269019 -6.782998482 24.49273587
25.09109275 -15.50714814 12.21778762
21.98885329 -13.58985871 15.84056171
25.64093934 -13.63875531 13.27035942
22.96770362 -16.77347835 12.9452366
15.29260325 -9.451348586 21.04898709
18.67176203 -11.53978356 18.74704774
17.06444557 -8.598192787 20.700013
14.9033757 -11.50195091 20.40699662
26.5477823 -9.773981883 15.3212772
22.32768517 -11.70483008 16.74841712
26.13063822 -11.71789505 14.30939623
24.69946349 -8.762982118 17.04049287
24.01110967 -12.68924483 15.11201711
18.82956166 -19.10539504 14.31938969
19.89467544 -14.74964503 16.41275657
20.87333201 -17.97552777 13.64828745
17.2651228 -18.02241904 16.03979174
21.45955082 -15.77837498 14.78037971
20.83361497 -6.774052577 19.89657869
20.55017323 -10.66051621 18.25494469
18.91587009 -7.702703375 20.3164133
22.77633518 -7.755249085 18.56685578
18.81565751 -9.636524498 19.54743698
22.56898066 -9.754487636 17.67427987
14.0669631 -15.65309814 18.97385767
18.20542625 -13.64486797 17.94258612
14.49408794 -13.57732488 19.71284224
15.66112217 -16.85752545 17.59694333
16.56950893 -12.58073887 19.24065126
17.76909949 -15.81433961 17.02244765
1.855878742 14.28927384 24.26752688
5.647187912 13.2602543 24.94569622
3.105061204 16.0906338 24.11615902
1.815402204 12.28432897 24.62924647
13.51438489 10.46225269 25.28062964
9.543347789 11.99658932 25.30900257
5.936163257 20.09779141 23.74649704
7.096771775 15.08358607 24.84044173
4.466962295 18.02667191 23.94393822
5.09131951 15.61449434 24.51682803
1.756329006 8.424369933 25.16314516
5.517611676 11.16237083 25.18169307
1.784297299 10.3215882 24.92829326
3.664452405 11.74760568 24.94357684
28.53513839 1.415611692 19.92619323
25.11085076 4.08475989 22.12863959
30.20889784 3.889528039 20.15579314
26.02095222 0 20.43724412
17.49522993 8.632079919 24.77964544
21.39467718 6.500898968 23.74131316
33.91411519 9.689068257 20.59329223
26.45341116 6.612839237 22.38878176
32.00870324 6.647129681 20.3859861
28.37174021 5.293009553 21.36023103
21.53550272 -2.447468561 21.28194149
22.7296821 2.583184756 22.46206048
23.68538972 -1.284548615 20.8881216
24.40480452 1.32356521 21.52257278
13.87625708 30.90364866 22.45225559
14.9158656 24.23168883 24.13437752
11.53127942 27.76137262 22.88561037
17.66835838 31.34756292 22.89334957
15.56385057 12.26246239 25.18283922
15.44116963 17.99848003 24.98433729
13.43973414 13.076714 25.26677838
7.643804892 22.45119355 23.5085403
12.64408417 21.65158354 24.37387787
9.459491394 24.95006329 23.2300923
8.239286416 19.72569042 24.19790094
12.15604315 24.65821443 23.73510747
25.85796358 31.34365582 23.23776522
18.26734631 24.02100447 24.37288707
21.71201332 31.52355099 23.17804377
18.04062384 27.59085579 23.76047074
9.23668219 14.47902911 25.08838576
13.02257501 18.63397562 24.84136489
11.31444857 13.81672452 25.2309618
8.771095093 17.05626935 24.72233084
13.27856878 15.81386136 25.12625262
10.61962184 19.24182751 24.57064367
1.710324589 1.057038728 25.54718597
5.208493613 3.219026083 25.50392833
1.717679779 2.842269919 25.53363597
3.430964205 0 25.46550856
13.15155735 8.128109445 25.2293783
8.952153669 5.53273524 25.40691267
11.25818501 8.975464514 25.37282338
1.745544775 6.485481028 25.34773132
5.264700371 5.090640026 25.51393937
1.728223881 4.660082239 25.46712716
3.54673964 7.756697825 25.3577813
3.473439743 3.950249504 25.52956809
6.898464203 -2.117488053 24.95887795
7.010518269 2.151883122 25.36429338
5.172289139 -1.064849997 25.26806051
5.203749209 1.071326869 25.42175164
7.465251885 10.47390498 25.34479618
7.191503678 6.328580792 25.48390348
9.349750035 9.762616036 25.40852972
5.452211388 9.085973776 25.35783246
9.153146102 7.600089677 25.43870428
5.368684126 7.052852784 25.46715304
41.85170234 25.86577453 20.3791527
32.03922758 19.80133162 23.08075619
40.0530957 21.3047722 20.72930982
38.28218301 27.95775226 21.57690315
18.09860183 11.18555108 24.91120903
24.21421261 14.9652064 24.31184582
20.21870484 10.18751658 24.52628486
18.26637772 14.09740881 25.01191112
35.98715817 13.24923597 20.7689373
30.71377732 16.10106654 23.03898277
38.04084506 17.0588497 20.83154343
31.6692305 11.2357461 21.84902909
35.1111157 18.55530833 22.09809494
30.24797758 30.69107882 23.00279667
28.86105021 21.39719478 23.80985771
34.34710422 29.5787623 22.45828081
25.72384866 26.85216811 23.89818944
33.30421892 24.48729981 22.93845783
24.38454448 7.928637765 23.28779758
26.69945126 13.85048825 23.71741594
22.33057318 9.09319955 23.9839432
27.80504487 9.467504189 22.6661688
23.27824622 11.92205958 24.18358491
29.23727443 12.63657567 22.89637174
18.37319148 20.44487977 24.78220192
24.7541993 18.55313776 24.39681153
18.36530022 17.20367978 24.97792668
21.7571313 23.41922823 24.44646063
21.32463961 16.19116918 24.76234847
25.33620417 22.54899509 24.27158504
13.92996811 -6.361216561 22.53916186
14.52697754 -2.174681888 23.50514341
15.68459425 -5.481132761 22.26921861
12.19226379 -5.320364795 23.31122993
15.39377442 7.029673869 24.90765023
15.02633493 2.24943546 24.31312064
17.25771999 6.030876728 24.50276578
13.10986542 5.720780624 25.06565577
19.42679837 -3.551953355 21.6555313
16.36324858 -1.158619757 23.28688579
17.52178453 -4.54411687 21.9739956
19.95529076 -1.216059571 22.22714638
16.03209655 -3.342565063 22.79786636
8.711881807 -3.219037692 24.51314566
12.672308 -1.1274038 24.1525804
10.44220369 -4.265686488 23.97270822
8.812484466 -1.089282985 24.83388075
12.44982366 -3.234962488 23.75378831
20.90133369 3.821554171 23.29923219
16.68953325 1.181722741 23.75122842
19.10904955 4.955759744 23.96457791
20.45210439 1.246334999 22.7805209
16.98553456 3.541349331 24.15366859
18.32746089 0 23.0542608
8.986498307 3.320508406 25.28585062
12.86703956 1.144728276 24.52372586
10.97231025 4.482237366 25.18970132
8.905049995 1.100724714 25.09473356
13.0110655 3.380795583 24.82461633
10.8062674 0 24.68908621
32.72213977 0 -17.21798515
38.08127567 0 -13.72769013
34.79520229 2.564726737 -17.35480263
32.35039844 -2.384522186 -16.13540784
46.29699099 0 -3.208726361
43.04352791 0 -9.066027963
39.57587064 8.671549023 -17.54292464
40.7419905 2.843696176 -13.64001191
37.09085496 5.44900491 -17.46857483
37.77624857 2.703917897 -15.64129872
31.37931349 -6.875584816 -13.90961015
37.24750642 -2.599789316 -12.47009351
31.89995748 -4.686411923 -15.02383255
34.83390934 -2.493313509 -14.42301981
32.72213977 0 17.21798515
38.08127567 0 13.72769013
34.79520229 2.564726737 17.35480263
32.35039844 -2.384522186 16.13540784
46.29699099 0 3.208726361
43.04352791 0 9.066027963
39.57587064 8.671549023 17.54292464
40.7419905 2.843696176 13.64001191
37.09085496 5.44900491 17.46857483
37.77624857 2.703917897 15.64129872
31.37931349 -6.875584816 13.90961015
37.24750642 -2.599789316 12.47009351
31.89995748 -4.686411923 15.02383255
34.83390934 -2.493313509 14.42301981
50.37694709 26.26046907 -16.22986245
54.13765776 19.07546335 -11.7892847
47.96544325 21.28276488 -16.96745086
55.5306716 29.04370977 -12.67386711
49.48921317 3.313187538 -2.04766251
53.62261879 10.95098229 -6.768079267
48.33023741 3.251235807 -5.379867566
42.40153495 12.48927537 -17.52271531
50.75675136 14.32344791 -12.60474879
45.20408592 16.63405591 -17.36858208
43.39727357 9.330888574 -15.5496922
49.81197781 17.92293765 -14.88187033
62.20453322 32.63729966 -2.90360806
58.26904391 20.70860389 -7.651822871
59.76903254 31.32611547 -8.13977862
57.51052819 25.05084715 -10.23338209
43.74254631 3.012284303 -11.19198601
50.75991343 10.47410716 -10.12781458
46.30454098 3.142270936 -8.473000022
43.83804855 6.131535827 -13.40963122
49.8944672 6.788419794 -7.720287067
47.2402853 9.958638464 -13.08268644
28.65209297 -14.93574829 -9.230800091
33.28313373 -11.72734884 -7.24790018
29.42153868 -13.054642 -10.40767014
29.79958153 -15.58580821 -6.801213189
43.91314569 -2.939882809 -1.816947499
38.36720574 -7.835473165 -4.842588734
43.06729784 -2.897191247 -4.794024842
30.78318573 -9.067117117 -12.7213555
34.33805491 -9.690126486 -8.52738886
30.13445862 -11.08878233 -11.57844048
33.45148536 -7.192435305 -11.98601337
31.81918239 -11.44891745 -9.506326934
31.0851763 -16.30968294 -1.451006282
34.29613992 -12.18872198 -4.503729086
30.64138331 -16.05974651 -4.172964931
32.02608133 -13.95014954 -5.698697915
39.59558197 -2.726707979 -10.13094199
37.11392635 -7.658311758 -7.40511437
41.56064296 -2.820345429 -7.604941573
36.38658106 -5.089314711 -11.13030004
39.98417589 -5.440069538 -6.186844622
35.4063639 -7.463951057 -9.80540981
50.37694709 26.26046907 16.22986245
54.13765776 19.07546335 11.7892847
47.96544325 21.28276488 16.96745086
55.5306716 29.04370977 12.67386711
49.48921317 3.313187538 2.04766251
53.62261879 10.95098229 6.768079267
48.33023741 3.251235807 5.379867566
52.79886649 7.113583479 0
42.40153495 12.48927537 17.52271531
50.75675136 14.32344791 12.60474879
45.20408592 16.63405591 17.36858208
43.39727357 9.330888574 15.5496922
49.81197781 17.92293765 14.88187033
62.20453322 32.63729966 2.90360806
58.26904391 20.70860389 7.651822871
59.76903254 31.32611547 8.13977862
62.17926444 27.21549726 0
57.51052819 25.05084715 10.23338209
43.74254631 3.012284303 11.19198601
50.75991343 10.47410716 10.12781458
46.30454098 3.142270936 8.473000022
43.83804855 6.131535827 13.40963122
49.8944672 6.788419794 7.720287067
47.2402853 9.958638464 13.08268644
57.6185041 15.92536286 -4.88830044
57.6185041 15.92536286 4.88830044
55.68595151 11.39873169 -2.346724841
60.66965656 21.52907197 -2.661139645
55.68595151 11.39873169 2.346724841
60.66965656 21.52907197 2.661139645
28.65209297 -14.93574829 9.230800091
33.28313373 -11.72734884 7.24790018
29.42153868 -13.054642 10.40767014
29.79958153 -15.58580821 6.801213189
43.91314569 -2.939882809 1.816947499
38.36720574 -7.835473165 4.842588734
43.06729784 -2.897191247 4.794024842
41.55969542 -5.599331621 0
30.78318573 -9.067117117 12.7213555
34.33805491 -9.690126486 8.52738886
30.13445862 -11.08878233 11.57844048
33.45148536 -7.192435305 11.98601337
31.81918239 -11.44891745 9.506326934
31.0851763 -16.30968294 1.451006282
34.29613992 -12.18872198 4.503729086
30.64138331 -16.05974651 4.172964931
33.00526004 -14.44620763 0
32.02608133 -13.95014954 5.698697915
39.59558197 -2.726707979 10.13094199
37.11392635 -7.658311758 7.40511437
41.56064296 -2.820345429 7.604941573
36.38658106 -5.089314711 11.13030004
39.98417589 -5.440069538 6.186844622
35.4063639 -7.463951057 9.80540981
36.74680087 -10.15656597 -3.117564499
36.74680087 -10.15656597 3.117564499
39.13328106 -8.010454323 -1.649159981
34.90987048 -12.38802322 -1.53124388
39.13328106 -8.010454323 1.649159981
34.90987048 -12.38802322 1.53124388
-19.56164537 28.01309068 -1.389713207
-21.96217115 24.92194786 -4.054031222
-18.83663314 28.23178042 -3.634965503
-25.71736065 18.15728715 -8.958736434
-23.99941675 21.62726932 -6.571573463
-16.91618533 27.85846242 -7.959002983
-21.03035664 24.84836723 -6.211609416
-17.94225424 28.17171996 -5.850317476
-19.98813965 26.54925897 -4.953008886
-29.8969393 2.286392609 -17.60400038
-29.25159716 6.621954524 -15.54911972
-27.1527079 14.51515055 -11.23700221
-28.32920849 10.68218664 -13.4281815
-11.98720883 24.617564 -15.21449127
-16.15896003 22.43083344 -13.86301746
-13.26772568 25.63585044 -13.63604846
-24.34912321 17.69023275 -10.93316511
-20.2316973 20.15044943 -12.45366264
-23.6483434 19.49495726 -9.822844828
-15.74263755 27.27789002 -10.04278248
-17.45068473 23.26389365 -12.19561813
-14.53341437 26.53972165 -11.90134241
-17.87229668 25.90512744 -9.190732769
-15.38796775 24.44956081 -12.92095481
-22.00865594 23.04516122 -7.493137126
-19.5591341 22.01834082 -11.42213628
-22.86638269 21.29005343 -8.669491046
-19.96448276 24.4908323 -8.339028348
-21.59146475 20.78316489 -10.64419234
-18.75295673 23.94638542 -10.3498126
-47.6622236 -68.25428875 -3.386055741
-50.94191421 -57.80720498 -9.403446923
-43.11907515 -64.62557574 -8.320826209
-48.67969081 -34.36943381 -16.95774794
-50.44136097 -45.45564212 -13.81196521
-33.15566254 -54.60248638 -15.59961729
-45.36961041 -53.6063539 -13.40054779
-38.05185728 -59.74646512 -12.40732868
-44.70168836 -59.37504547 -11.07696182
-31.9196754 -2.441082987 -18.79503357
-36.02413386 -8.155116277 -19.1491619
-45.36299896 -24.24991134 -18.77323328
-40.7150314 -15.35254911 -19.29912131
-17.14113153 -35.20193137 -21.75599006
-25.94248966 -36.0117027 -22.25645626
-20.36815065 -39.35526527 -20.93358695
-43.54754193 -31.63835288 -19.55357743
-35.07106305 -34.93022221 -21.58806456
-44.53414051 -36.71255747 -18.49820702
-28.34883283 -49.12114262 -18.08471806
-30.1321402 -40.16982232 -21.05820379
-24.12699992 -44.05873567 -19.757483
-34.24343808 -49.6343947 -17.60950449
-25.19617461 -40.03357776 -21.15670107
-45.4366388 -47.57649307 -15.46950282
-35.21899784 -39.64714869 -20.56717802
-45.15806793 -42.04502705 -17.12109304
-40.01230192 -49.08389502 -16.71286574
-39.98730719 -38.49033905 -19.71300206
-34.90098101 -44.56643049 -19.26195524
-1.855878742 -14.28927384 -24.26752688
-5.647187912 -13.2602543 -24.94569622
-3.105061204 -16.0906338 -24.11615902
-1.815402204 -12.28432897 -24.62924647
-13.51438489 -10.46225269 -25.28062964
-9.543347789 -11.99658932 -25.30900257
-5.936163257 -20.09779141 -23.74649704
-7.096771775 -15.08358607 -24.84044173
-4.466962295 -18.02667191 -23.94393822
-5.09131951 -15.61449434 -24.51682803
-1.756329006 -8.424369933 -25.16314516
-5.517611676 -11.16237083 -25.18169307
-1.784297299 -10.3215882 -24.92829326
-3.664452405 -11.74760568 -24.94357684
-28.53513839 -1.415611692 -19.92619323
-25.11085076 -4.08475989 -22.12863959
-30.20889784 -3.889528039 -20.15579314
-17.49522993 -8.632079919 -24.77964544
-21.39467718 -6.500898968 -23.74131316
-33.91411519 -9.689068257 -20.59329223
-26.45341116 -6.612839237 -22.38878176
-32.00870324 -6.647129681 -20.3859861
-28.37174021 -5.293009553 -21.36023103
-13.87625708 -30.90364866 -22.45225559
-14.9158656 -24.23168883 -24.13437752
-11.53127942 -27.76137262 -22.88561037
-17.66835838 -31.34756292 -22.89334957
-15.56385057 -12.26246239 -25.18283922
-15.44116963 -17.99848003 -24.98433729
-13.43973414 -13.076714 -25.26677838
-7.643804892 -22.45119355 -23.5085403
-12.64408417 -21.65158354 -24.37387787
-9.459491394 -24.95006329 -23.2300923
-8.239286416 -19.72569042 -24.19790094
-12.15604315 -24.65821443 -23.73510747
-25.85796358 -31.34365582 -23.23776522
-18.26734631 -24.02100447 -24.37288707
-21.71201332 -31.52355099 -23.17804377
-18.04062384 -27.59085579 -23.76047074
-9.23668219 -14.47902911 -25.08838576
-13.02257501 -18.63397562 -24.84136489
-11.31444857 -13.81672452 -25.2309618
-8.771095093 -17.05626935 -24.72233084
-13.27856878 -15.81386136 -25.12625262
-10.61962184 -19.24182751 -24.57064367
-1.710324589 -1.057038728 -25.54718597
-5.208493613 -3.219026083 -25.50392833
-1.717679779 -2.842269919 -25.53363597
-13.15155735 -8.128109445 -25.2293783
-8.952153669 -5.53273524 -25.40691267
-11.25818501 -8.975464514 -25.37282338
-1.745544775 -6.485481028 -25.34773132
-5.264700371 -5.090640026 -25.51393937
-1.728223881 -4.660082239 -25.46712716
-3.54673964 -7.756697825 -25.3577813
-3.473439743 -3.950249504 -25.52956809
-7.465251885 -10.47390498 -25.34479618
-7.191503678 -6.328580792 -25.48390348
-9.349750035 -9.762616036 -25.40852972
-5.452211388 -9.085973776 -25.35783246
-9.153146102 -7.600089677 -25.43870428
-5.368684126 -7.052852784 -25.46715304
-41.85170234 -25.86577453 -20.3791527
-32.03922758 -19.80133162 -23.08075619
-40.0530957 -21.3047722 -20.72930982
-38.28218301 -27.95775226 -21.57690315
-18.09860183 -11.18555108 -24.91120903
-24.21421261 -14.9652064 -24.31184582
-20.21870484 -10.18751658 -24.52628486
-18.26637772 -14.09740881 -25.01191112
-35.98715817 -13.24923597 -20.7689373
-30.71377732 -16.10106654 -23.03898277
-38.04084506 -17.0588497 -20.83154343
-31.6692305 -11.2357461 -21.84902909
-35.1111157 -18.55530833 -22.09809494
-30.24797758 -30.69107882 -23.00279667
-28.86105021 -21.39719478 -23.80985771
-34.34710422 -29.5787623 -22.45828081
-25.72384866 -26.85216811 -23.89818944
-33.30421892 -24.48729981 -22.93845783
-24.38454448 -7.928637765 -23.28779758
-26.69945126 -13.85048825 -23.71741594
-22.33057318 -9.09319955 -23.9839432
-27.80504487 -9.467504189 -22.6661688
-23.27824622 -11.92205958 -24.18358491
-29.23727443 -12.63657567 -22.89637174
-18.37319148 -20.44487977 -24.78220192
-24.7541993 -18.55313776 -24.39681153
-18.36530022 -17.20367978 -24.97792668
-21.7571313 -23.41922823 -24.44646063
-21.32463961 -16.19116918 -24.76234847
-25.33620417 -22.54899509 -24.27158504
-1.807775216 13.91890241 -23.63852372
-5.258421145 12.34738469 -23.22837109
-2.960694777 15.34251736 -22.99490457
-1.774870069 12.01005912 -24.07935403
-11.90882458 9.219297286 -22.27719472
-8.588918882 10.79681206 -22.77785269
-5.352594153 18.12202868 -21.41203934
-6.437381364 13.68210772 -22.53241357
-4.150817539 16.75085237 -22.24933012
-4.728071348 14.50045379 -22.76763655
-1.729201291 8.29424972 -24.774483
-5.194419579 10.50853901 -23.70668455
-1.750661896 10.12701817 -24.4583754
-3.510717736 11.25475871 -23.89711966
-27.52972552 1.365733741 -19.22410969
-22.96772397 3.736139351 -20.24003452
-27.41190238 3.529402611 -18.28959921
-26.02095222 0 -20.43724412
-15.32703834 7.562302434 -21.70869301
-18.96426739 5.762404606 -21.04432833
-26.92725896 7.692963494 -16.35074097
-22.9403716 5.734647547 -19.41552906
-27.20467962 5.649495766 -17.32635704
-25.09036727 4.680839198 -18.88978391
-22.7296821 -2.583184756 -22.46206048
-21.53550272 2.447468561 -21.28194149
-24.40480452 -1.32356521 -21.52257278
-23.68538972 1.284548615 -20.8881216
-10.45416383 23.28234511 -16.9151924
-11.54713902 18.75899711 -18.68366341
-9.171733613 22.08080345 -18.20272619
-12.56774054 22.2979424 -16.28434694
-13.24451335 10.43510063 -21.43007277
-12.4599966 14.52357595 -20.16069799
-11.55657491 11.24442071 -21.72642807
-6.642639984 19.51059689 -20.42945522
-10.26308207 17.57438307 -19.78404331
-7.891091626 20.81330035 -19.37850347
-7.188015551 17.20884096 -21.1104311
-9.747980956 19.77352348 -19.03328022
-16.69641305 20.23850882 -15.00455847
-13.59050776 17.8711041 -18.13289709
-14.65557381 21.27834584 -15.64514199
-13.10279205 20.03906567 -17.25708102
-8.198680579 12.85190205 -22.26899842
-10.74464906 15.3744961 -20.49608068
-9.868857581 12.05143014 -22.00732692
-7.706830801 14.98670128 -21.72258068
-11.16759171 13.29983298 -21.1317752
-8.991196176 16.2912624 -20.80295144
-1.706925201 1.054937791 -25.49640918
-5.115846684 3.161767132 -25.05027305
-1.708537086 2.827141371 -25.3977281
-3.430964205 0 -25.46550856
-11.90428421 7.357252253 -22.8366635
-8.514074291 5.261987295 -24.16360911
-10.23643312 8.160884023 -23.07007828
-1.724548247 6.407469516 -25.0428326
-5.118306848 4.949086533 -24.80448295
-1.713222126 4.619630646 -25.24606113
-3.446619785 7.537736317 -24.64196406
-3.422528174 3.892349148 -25.15537119
-7.010518269 -2.151883122 -25.36429338
-6.898464203 2.117488053 -24.95887795
-5.203749209 -1.071326869 -25.42175164
-5.172289139 1.064849997 -25.26806051
-6.92243957 9.712327918 -23.50192903
-6.865094474 6.04133808 -24.3272357
-8.570986687 8.949464078 -23.29219168
-5.187168448 8.644286352 -24.12513732
-8.547582461 7.097274805 -23.75570324
-5.163269019 6.782998482 -24.49273587
-25.09109275 15.50714814 -12.21778762
-21.98885329 13.58985871 -15.84056171
-25.64093934 13.63875531 -13.27035942
-22.96770362 16.77347835 -12.9452366
-15.29260325 9.451348586 -21.04898709
-18.67176203 11.53978356 -18.74704774
-17.06444557 8.598192787 -20.700013
-14.9033757 11.50195091 -20.40699662
-26.5477823 9.773981883 -15.3212772
-22.32768517 11.70483008 -16.74841712
-26.13063822 11.71789505 -14.30939623
-24.69946349 8.762982118 -17.04049287
-24.01110967 12.68924483 -15.11201711
-18.82956166 19.10539504 -14.31938969
-19.89467544 14.74964503 -16.41275657
-20.87333201 17.97552777 -13.64828745
-17.2651228 18.02241904 -16.03979174
-21.45955082 15.77837498 -14.78037971
-20.83361497 6.774052577 -19.89657869
-20.55017323 10.66051621 -18.25494469
-18.91587009 7.702703375 -20.3164133
-22.77633518 7.755249085 -18.56685578
-18.81565751 9.636524498 -19.54743698
-22.56898066 9.754487636 -17.67427987
-14.0669631 15.65309814 -18.97385767
-18.20542625 13.64486797 -17.94258612
-14.49408794 13.57732488 -19.71284224
-15.66112217 16.85752545 -17.59694333
-16.56950893 12.58073887 -19.24065126
-17.76909949 15.81433961 -17.02244765
-15.39377442 -7.029673869 -24.90765023
-15.02633493 -2.24943546 -24.31312064
-17.25771999 -6.030876728 -24.50276578
-13.10986542 -5.720780624 -25.06565577
-13.92996811 6.361216561 -22.53916186
-14.52697754 2.174681888 -23.50514341
-15.68459425 5.481132761 -22.26921861
-12.19226379 5.320364795 -23.31122993
-20.90133369 -3.821554171 -23.29923219
-16.68953325 -1.181722741 -23.75122842
-19.10904955 -4.955759744 -23.96457791
-20.45210439 -1.246334999 -22.7805209
-16.98553456 -3.541349331 -24.15366859
-8.986498307 -3.320508406 -25.28585062
-12.86703956 -1.144728276 -24.52372586
-10.97231025 -4.482237366 -25.18970132
-8.905049995 -1.100724714 -25.09473356
-13.0110655 -3.380795583 -24.82461633
-19.42679837 3.551953355 -21.6555313
-16.36324858 1.158619757 -23.28688579
-17.52178453 4.54411687 -21.9739956
-19.95529076 1.216059571 -22.22714638
-16.03209655 3.342565063 -22.79786636
-18.32746089 0 -23.0542608
-8.711881807 3.219037692 -24.51314566
-12.672308 1.1274038 -24.1525804
-10.44220369 4.265686488 -23.97270822
-8.812484466 1.089282985 -24.83388075
-12.44982366 3.234962488 -23.75378831
-10.8062674 0 -24.68908621
-19.56164537 28.01309068 1.389713207
-21.96217115 24.92194786 4.054031222
-18.83663314 28.23178042 3.634965503
-20.95985545 26.68634744 0
-25.71736065 18.15728715 8.958736434
-23.99941675 21.62726932 6.571573463
-16.91618533 27.85846242 7.959002983
-21.03035664 24.84836723 6.211609416
-17.94225424 28.17171996 5.850317476
-19.98813965 26.54925897 4.953008886
-23.50037155 23.78036401 -2.702592738
-23.50037155 23.78036401 2.702592738
-22.28026755 25.26396726 -1.370160868
-22.28026755 25.26396726 1.370160868
-29.8969393 2.286392609 17.60400038
-29.25159716 6.621954524 15.54911972
-27.1527079 14.51515055 11.23700221
-28.32920849 10.68218664 13.4281815
-11.98720883 24.617564 15.21449127
-16.15896003 22.43083344 13.86301746
-13.26772568 25.63585044 13.63604846
-24.34912321 17.69023275 10.93316511
-20.2316973 20.15044943 12.45366264
-23.6483434 19.49495726 9.822844828
-15.74263755 27.27789002 10.04278248
-17.45068473 23.26389365 12.19561813
-14.53341437 26.53972165 11.90134241
-17.87229668 25.90512744 9.190732769
-15.38796775 24.44956081 12.92095481
-22.00865594 23.04516122 7.493137126
-19.5591341 22.01834082 11.42213628
-22.86638269 21.29005343 8.669491046
-19.96448276 24.4908323 8.339028348
-21.59146475 20.78316489 10.64419234
-18.75295673 23.94638542 10.3498126
-27.65401532 17.09112139 -7.804779137
-29.16725085 18.02635238 -2.6985367
-26.74244509 18.83516471 -6.582130001
-27.65401532 17.09112139 7.804779137
-29.16725085 18.02635238 2.6985367
-26.74244509 18.83516471 6.582130001
-24.69474901 22.15322743 -4.050447685
-27.87400744 19.58653109 -1.386848204
-25.75062833 20.53322343 -5.325106401
-25.03257337 22.47397265 -1.369546045
-27.4844584 19.327839 -4.029701243
-24.69474901 22.15322743 4.050447685
-27.87400744 19.58653109 1.386848204
-25.75062833 20.53322343 5.325106401
-25.03257337 22.47397265 1.369546045
-27.4844584 19.327839 4.029701243
-26.50184588 21.06818988 0
-47.6622236 -68.25428875 3.386055741
-50.94191421 -57.80720498 9.403446923
-43.11907515 -64.62557574 8.320826209
-52.79594412 -67.22044965 0
-48.67969081 -34.36943381 16.95774794
-50.44136097 -45.45564212 13.81196521
-33.15566254 -54.60248638 15.59961729
-45.36961041 -53.6063539 13.40054779
-38.05185728 -59.74646512 12.40732868
-44.70168836 -59.37504547 11.07696182
-56.25785897 -56.92813672 -6.469773501
-56.25785897 -56.92813672 6.469773501
-55.63162707 -63.08163049 -3.421156333
-55.63162707 -63.08163049 3.421156333
-31.9196754 -2.441082987 18.79503357
-36.02413386 -8.155116277 19.1491619
-45.36299896 -24.24991134 18.77323328
-40.7150314 -15.35254911 19.29912131
-17.14113153 -35.20193137 21.75599006
-25.94248966 -36.0117027 22.25645626
-20.36815065 -39.35526527 20.93358695
-43.54754193 -31.63835288 19.55357743
-35.07106305 -34.93022221 21.58806456
-44.53414051 -36.71255747 18.49820702
-28.34883283 -49.12114262 18.08471806
-30.1321402 -40.16982232 21.05820379
-24.12699992 -44.05873567 19.757483
-34.24343808 -49.6343947 17.60950449
-25.19617461 -40.03357776 21.15670107
-45.4366388 -47.57649307 15.46950282
-35.21899784 -39.64714869 20.56717802
-45.15806793 -42.04502705 17.12109304
-40.01230192 -49.08389502 16.71286574
-39.98730719 -38.49033905 19.71300206
-34.90098101 -44.56643049 19.26195524
-52.58778628 -32.50103931 -14.84182505
-61.0616921 -37.73820113 -5.649391434
-53.93415214 -37.98675235 -13.27483705
-52.58778628 -32.50103931 14.84182505
-61.0616921 -37.73820113 5.649391434
-53.93415214 -37.98675235 13.27483705
-55.82565909 -50.08022237 -9.156558404
-61.68946469 -43.34800515 -3.069308333
-54.9881793 -43.84687461 -11.37129168
-59.97368819 -53.84372628 -3.281193917
-58.64375041 -41.23992366 -8.598197224
-55.82565909 -50.08022237 9.156558404
-61.68946469 -43.34800515 3.069308333
-54.9881793 -43.84687461 11.37129168
-59.97368819 -53.84372628 3.281193917
-58.64375041 -41.23992366 8.598197224
-61.59520597 -48.96638147 0
-1.855878742 -14.28927384 24.26752688
-5.647187912 -13.2602543 24.94569622
-3.105061204 -16.0906338 24.11615902
-1.815402204 -12.28432897 24.62924647
-13.51438489 -10.46225269 25.28062964
-9.543347789 -11.99658932 25.30900257
-5.936163257 -20.09779141 23.74649704
-7.096771775 -15.08358607 24.84044173
-4.466962295 -18.02667191 23.94393822
-5.09131951 -15.61449434 24.51682803
-1.756329006 -8.424369933 25.16314516
-5.517611676 -11.16237083 25.18169307
-1.784297299 -10.3215882 24.92829326
-3.664452405 -11.74760568 24.94357684
-28.53513839 -1.415611692 19.92619323
-25.11085076 -4.08475989 22.12863959
-30.20889784 -3.889528039 20.15579314
-17.49522993 -8.632079919 24.77964544
-21.39467718 -6.500898968 23.74131316
-33.91411519 -9.689068257 20.59329223
-26.45341116 -6.612839237 22.38878176
-32.00870324 -6.647129681 20.3859861
-28.37174021 -5.293009553 21.36023103
-13.87625708 -30.90364866 22.45225559
-14.9158656 -24.23168883 24.13437752
-11.53127942 -27.76137262 22.88561037
-17.66835838 -31.34756292 22.89334957
-15.56385057 -12.26246239 25.18283922
-15.44116963 -17.99848003 24.98433729
-13.43973414 -13.076714 25.26677838
-7.643804892 -22.45119355 23.5085403
-12.64408417 -21.65158354 24.37387787
-9.459491394 -24.95006329 23.2300923
-8.239286416 -19.72569042 24.19790094
-12.15604315 -24.65821443 23.73510747
-25.85796358 -31.34365582 23.23776522
-18.26734631 -24.02100447 24.37288707
-21.71201332 -31.52355099 23.17804377
-18.04062384 -27.59085579 23.76047074
-9.23668219 -14.47902911 25.08838576
-13.02257501 -18.63397562 24.84136489
-11.31444857 -13.81672452 25.2309618
-8.771095093 -17.05626935 24.72233084
-13.27856878 -15.81386136 25.12625262
-10.61962184 -19.24182751 24.57064367
-1.710324589 -1.057038728 25.54718597
-5.208493613 -3.219026083 25.50392833
-1.717679779 -2.842269919 25.53363597
-13.15155735 -8.128109445 25.2293783
-8.952153669 -5.53273524 25.40691267
-11.25818501 -8.975464514 25.37282338
-1.745544775 -6.485481028 25.34773132
-5.264700371 -5.090640026 25.51393937
-1.728223881 -4.660082239 25.46712716
-3.54673964 -7.756697825 25.3577813
-3.473439743 -3.950249504 25.52956809
-7.465251885 -10.47390498 25.34479618
-7.191503678 -6.328580792 25.48390348
-9.349750035 -9.762616036 25.40852972
-5.452211388 -9.085973776 25.35783246
-9.153146102 -7.600089677 25.43870428
-5.368684126 -7.052852784 25.46715304
-41.85170234 -25.86577453 20.3791527
-32.03922758 -19.80133162 23.08075619
-40.0530957 -21.3047722 20.72930982
-38.28218301 -27.95775226 21.57690315
-18.09860183 -11.18555108 24.91120903
-24.21421261 -14.9652064 24.31184582
-20.21870484 -10.18751658 24.52628486
-18.26637772 -14.09740881 25.01191112
-35.98715817 -13.24923597 20.7689373
-30.71377732 -16.10106654 23.03898277
-38.04084506 -17.0588497 20.83154343
-31.6692305 -11.2357461 21.84902909
-35.1111157 -18.55530833 22.09809494
-30.24797758 -30.69107882 23.00279667
-28.86105021 -21.39719478 23.80985771
-34.34710422 -29.5787623 22.45828081
-25.72384866 -26.85216811 23.89818944
-33.30421892 -24.48729981 22.93845783
-24.38454448 -7.928637765 23.28779758
-26.69945126 -13.85048825 23.71741594
-22.33057318 -9.09319955 23.9839432
-27.80504487 -9.467504189 22.6661688
-23.27824622 -11.92205958 24.18358491
-29.23727443 -12.63657567 22.89637174
-18.37319148 -20.44487977 24.78220192
-24.7541993 -18.55313776 24.39681153
-18.36530022 -17.20367978 24.97792668
-21.7571313 -23.41922823 24.44646063
-21.32463961 -16.19116918 24.76234847
-25.33620417 -22.54899509 24.27158504
-1.807775216 13.91890241 23.63852372
-5.258421145 12.34738469 23.22837109
-2.960694777 15.34251736 22.99490457
-1.774870069 12.01005912 24.07935403
-11.90882458 9.219297286 22.27719472
-8.588918882 10.79681206 22.77785269
-5.352594153 18.12202868 21.41203934
-6.437381364 13.68210772 22.53241357
-4.150817539 16.75085237 22.24933012
-4.728071348 14.50045379 22.76763655
-1.729201291 8.29424972 24.774483
-5.194419579 10.50853901 23.70668455
-1.750661896 10.12701817 24.4583754
-3.510717736 11.25475871 23.89711966
-27.52972552 1.365733741 19.22410969
-22.96772397 3.736139351 20.24003452
-27.41190238 3.529402611 18.28959921
-26.02095222 0 20.43724412
-15.32703834 7.562302434 21.70869301
-18.96426739 5.762404606 21.04432833
-26.92725896 7.692963494 16.35074097
-22.9403716 5.734647547 19.41552906
-27.20467962 5.649495766 17.32635704
-25.09036727 4.680839198 18.88978391
-22.7296821 -2.583184756 22.46206048
-21.53550272 2.447468561 21.28194149
-24.40480452 -1.32356521 21.52257278
-23.68538972 1.284548615 20.8881216
-10.45416383 23.28234511 16.9151924
-11.54713902 18.75899711 18.68366341
-9.171733613 22.08080345 18.20272619
-12.56774054 22.2979424 16.28434694
-13.24451335 10.43510063 21.43007277
-12.4599966 14.52357595 20.16069799
-11.55657491 11.24442071 21.72642807
-6.642639984 19.51059689 20.42945522
-10.26308207 17.57438307 19.78404331
-7.891091626 20.81330035 19.37850347
-7.188015551 17.20884096 21.1104311
-9.747980956 19.77352348 19.03328022
-16.69641305 20.23850882 15.00455847
-13.59050776 17.8711041 18.13289709
-14.65557381 21.27834584 15.64514199
-13.10279205 20.03906567 17.25708102
-8.198680579 12.85190205 22.26899842
-10.74464906 15.3744961 20.49608068
-9.868857581 12.05143014 22.00732692
-7.706830801 14.98670128 21.72258068
-11.16759171 13.29983298 21.1317752
-8.991196176 16.2912624 20.80295144
-1.706925201 1.054937791 25.49640918
-5.115846684 3.161767132 25.05027305
-1.708537086 2.827141371 25.3977281
-3.430964205 0 25.46550856
-11.90428421 7.357252253 22.8366635
-8.514074291 5.261987295 24.16360911
-10.23643312 8.160884023 23.07007828
-1.724548247 6.407469516 25.0428326
-5.118306848 4.949086533 24.80448295
-1.713222126 4.619630646 25.24606113
-3.446619785 7.537736317 24.64196406
-3.422528174 3.892349148 25.15537119
-7.010518269 -2.151883122 25.36429338
-6.898464203 2.117488053 24.95887795
-5.203749209 -1.071326869 25.42175164
-5.172289139 1.064849997 25.26806051
-6.92243957 9.712327918 23.50192903
-6.865094474 6.04133808 24.3272357
-8.570986687 8.949464078 23.29219168
-5.187168448 8.644286352 24.12513732
-8.547582461 7.097274805 23.75570324
-5.163269019 6.782998482 24.49273587
-25.09109275 15.50714814 12.21778762
-21.98885329 13.58985871 15.84056171
-25.64093934 13.63875531 13.27035942
-22.96770362 16.77347835 12.9452366
-15.29260325 9.451348586 21.04898709
-18.67176203 11.53978356 18.74704774
-17.06444557 8.598192787 20.700013
-14.9033757 11.50195091 20.40699662
-26.5477823 9.773981883 15.3212772
-22.32768517 11.70483008 16.74841712
-26.13063822 11.71789505 14.30939623
-24.69946349 8.762982118 17.04049287
-24.01110967 12.68924483 15.11201711
-18.82956166 19.10539504 14.31938969
-19.89467544 14.74964503 16.41275657
-20.87333201 17.97552777 13.64828745
-17.2651228 18.02241904 16.03979174
-21.45955082 15.77837498 14.78037971
-20.83361497 6.774052577 19.89657869
-20.55017323 10.66051621 18.25494469
-18.91587009 7.702703375 20.3164133
-22.77633518 7.755249085 18.56685578
-18.81565751 9.636524498 19.54743698
-22.56898066 9.754487636 17.67427987
-14.0669631 15.65309814 18.97385767
-18.20542625 13.64486797 17.94258612
-14.49408794 13.57732488 19.71284224
-15.66112217 16.85752545 17.59694333
-16.56950893 12.58073887 19.24065126
-17.76909949 15.81433961 17.02244765
-15.39377442 -7.029673869 24.90765023
-15.02633493 -2.24943546 24.31312064
-17.25771999 -6.030876728 24.50276578
-13.10986542 -5.720780624 25.06565577
-13.92996811 6.361216561 22.53916186
-14.52697754 2.174681888 23.50514341
-15.68459425 5.481132761 22.26921861
-12.19226379 5.320364795 23.31122993
-20.90133369 -3.821554171 23.29923219
-16.68953325 -1.181722741 23.75122842
-19.10904955 -4.955759744 23.96457791
-20.45210439 -1.246334999 22.7805209
-16.98553456 -3.541349331 24.15366859
-8.986498307 -3.320508406 25.28585062
-12.86703956 -1.144728276 24.52372586
-10.97231025 -4.482237366 25.18970132
-8.905049995 -1.100724714 25.09473356
-13.0110655 -3.380795583 24.82461633
-19.42679837 3.551953355 21.6555313
-16.36324858 1.158619757 23.28688579
-17.52178453 4.54411687 21.9739956
-19.95529076 1.216059571 22.22714638
-16.03209655 3.342565063 22.79786636
-18.32746089 0 23.0542608
-8.711881807 3.219037692 24.51314566
-12.672308 1.1274038 24.1525804
-10.44220369 4.265686488 23.97270822
-8.812484466 1.089282985 24.83388075
-12.44982366 3.234962488 23.75378831
-10.8062674 0 24.68908621
-32.72213977 0 -17.21798515
-38.08127567 0 -13.72769013
-32.35039844 2.384522186 -16.13540784
-34.79520229 -2.564726737 -17.35480263
-46.29699099 0 -3.208726361
-43.04352791 0 -9.066027963
-31.37931349 6.875584816 -13.90961015
-37.24750642 2.599789316 -12.47009351
-31.89995748 4.686411923 -15.02383255
-34.83390934 2.493313509 -14.42301981
-39.57587064 -8.671549023 -17.54292464
-40.7419905 -2.843696176 -13.64001191
-37.09085496 -5.44900491 -17.46857483
-37.77624857 -2.703917897 -15.64129872
-32.72213977 0 17.21798515
-38.08127567 0 13.72769013
-32.35039844 2.384522186 16.13540784
-34.79520229 -2.564726737 17.35480263
-46.29699099 0 3.208726361
-43.04352791 0 9.066027963
-31.37931349 6.875584816 13.90961015
-37.24750642 2.599789316 12.47009351
-31.89995748 4.686411923 15.02383255
-34.83390934 2.493313509 14.42301981
-39.57587064 -8.671549023 17.54292464
-40.7419905 -2.843696176 13.64001191
-37.09085496 -5.44900491 17.46857483
-37.77624857 -2.703917897 15.64129872
-28.65209297 14.93574829 -9.230800091
-33.28313373 11.72734884 -7.24790018
-29.42153868 13.054642 -10.40767014
-29.79958153 15.58580821 -6.801213189
-43.91314569 2.939882809 -1.816947499
-38.36720574 7.835473165 -4.842588734
-43.06729784 2.897191247 -4.794024842
-30.78318573 9.067117117 -12.7213555
-34.33805491 9.690126486 -8.52738886
-30.13445862 11.08878233 -11.57844048
-33.45148536 7.192435305 -11.98601337
-31.81918239 11.44891745 -9.506326934
-31.0851763 16.30968294 -1.451006282
-34.29613992 12.18872198 -4.503729086
-30.64138331 16.05974651 -4.172964931
-32.02608133 13.95014954 -5.698697915
-39.59558197 2.726707979 -10.13094199
-37.11392635 7.658311758 -7.40511437
-41.56064296 2.820345429 -7.604941573
-36.38658106 5.089314711 -11.13030004
-39.98417589 5.440069538 -6.186844622
-35.4063639 7.463951057 -9.80540981
-50.37694709 -26.26046907 -16.22986245
-54.13765776 -19.07546335 -11.7892847
-47.96544325 -21.28276488 -16.96745086
-55.5306716 -29.04370977 -12.67386711
-49.48921317 -3.313187538 -2.04766251
-53.62261879 -10.95098229 -6.768079267
-48.33023741 -3.251235807 -5.379867566
-42.40153495 -12.48927537 -17.52271531
-50.75675136 -14.32344791 -12.60474879
-45.20408592 -16.63405591 -17.36858208
-43.39727357 -9.330888574 -15.5496922
-49.81197781 -17.92293765 -14.88187033
-62.20453322 -32.63729966 -2.90360806
-58.26904391 -20.70860389 -7.651822871
-59.76903254 -31.32611547 -8.13977862
-57.51052819 -25.05084715 -10.23338209
-43.74254631 -3.012284303 -11.19198601
-50.75991343 -10.47410716 -10.12781458
-46.30454098 -3.142270936 -8.473000022
-43.83804855 -6.131535827 -13.40963122
-49.8944672 -6.788419794 -7.720287067
-47.2402853 -9.958638464 -13.08268644
-28.65209297 14.93574829 9.230800091
-33.28313373 11.72734884 7.24790018
