-2.7809887 17.9729 -2.4453131
-6.4085419 15.507415 -4.5676736
-4.0823355 16.438732 -4.6389754
-5.7458578 14.954373 -5.5028625
-5.8970869 16.458042 -3.5386592
-4.6089891 15.427017 -5.5508228
-4.6851493 16.91761 -3.5663706
9.8583681 16.742503 -1.2803965
8.5752873 16.132158 -3.6519857
8.6790451 17.400897 -1.2826063
5.6389248 13.625705 -7.2839572
7.1176712 15.016031 -5.6621436
6.1523253 18.376669 -1.2826487
7.4443053 16.793942 -3.6797547
7.4336237 17.953395 -1.2850537
8.096021 17.190203 -2.5254068
0.50832529 7.1552022 -10.246548
1.6090435 8.7167775 -9.8915118
0 7.9027901 -10.06193
4.1943052 12.040365 -8.5008867
2.8384306 10.365962 -9.3413706
-1.086707 9.4494515 -9.5620359
1.0982977 9.5502378 -9.664023
-0.53334737 8.6727934 -9.8342252
0.53600346 8.7159842 -9.8832
0.77879695 18.822461 -1.2601199
2.2855241 18.107913 -3.6980557
2.101534 18.879207 -1.270028
0 18.47084 -2.4885735
4.5448074 14.106929 -7.3536528
3.5798693 16.439143 -5.7923502
5.2676823 14.89126 -6.6074064
4.7787133 18.677032 -1.2861741
3.5914454 18.000078 -3.7142449
3.4466791 18.835937 -1.2782249
5.5547707 18.159359 -2.5399114
2.8730731 18.568021 -2.5262825
-1.4533487 17.130653 -4.7347961
1.479187 17.43521 -4.8189735
-0.75438558 17.900982 -3.6642723
0.76139132 18.067223 -3.6983012
6.7134792 16.245303 -4.785017
4.2571771 17.142783 -4.8376572
5.9986342 15.612257 -5.7449489
6.2095332 17.330041 -3.7261485
4.8082389 16.093937 -5.7907887
4.9119487 17.73656 -3.739012
-3.5769556 12.673925 -7.8329164
-1.2117854 13.097635 -8.0947835
-2.9247563 11.882952 -8.3693677
-3.1645256 13.8654 -7.2518958
3.6988061 13.105668 -8.099748
1.2288651 13.282242 -8.2088767
3.0099882 12.22924 -8.6132641
3.2691344 14.323744 -7.4916197
-1.6858153 10.278071 -9.2202773
-0.60835381 12.227192 -8.5918133
-2.2904184 11.075781 -8.8316871
-0.56773586 10.377081 -9.3164303
-1.7713451 12.081407 -8.495983
-2.1181541 16.129857 -5.732492
-0.66689155 14.286941 -7.4960322
-2.6764244 15.041223 -6.5517634
-0.71855726 16.381937 -5.8132503
-1.9209185 14.104983 -7.3926968
1.7145682 10.453371 -9.3775362
0.61258401 12.312214 -8.6515566
2.3437579 11.333715 -9.0373604
0.57111846 10.438908 -9.371938
1.8058211 12.316549 -8.6613416
0 11.340379 -9.0152686
2.1714451 16.535671 -5.8767168
0.67226465 14.40205 -7.5564271
2.7571359 15.494813 -6.7493415
0.72492987 16.527222 -5.8648059
1.9636825 14.418992 -7.557275
0 15.450497 -6.7625915
0 -5.5370592 -10.522975
0 -3.8726363 -10.74288
0 -0.75835255 -10.941862
0 -2.2911154 -10.877717
0 5.5370592 -10.522975
0 3.8726363 -10.74288
0 0.75835255 -10.941862
0 2.2911154 -10.877717
11.177355 16.006438 -0.7940701
12.423118 14.097344 -2.2932025
10.597535 15.883267 -2.0450403
13.18167 9.3066845 -4.5918827
13.011083 11.725043 -3.5627236
9.1423088 15.056034 -4.3014227
11.600527 13.706574 -3.4263775
9.8923259 15.532264 -3.2255282
11.178635 14.848029 -2.7700367
12.435172 0.95098984 -7.3221132
12.770255 2.8909208 -6.7882184
13.148193 7.0286913 -5.441309
13.003781 4.9033779 -6.1638549
6.0816589 12.489615 -7.7190068
8.2849674 11.500661 -7.1077995
6.828301 13.193618 -7.0178602
12.242644 8.8945798 -5.4971527
10.317009 10.275577 -6.3506559
12.188301 10.047655 -5.0626713
8.3509319 14.46999 -5.3273533
9.0653375 12.085202 -6.3354187
7.5894751 13.859273 -6.2149843
9.5666384 13.866432 -4.9195925
7.974555 12.670573 -6.6960671
11.894188 12.454349 -4.0495331
10.152959 11.429509 -5.9291212
12.078743 11.246076 -4.5794979
10.749939 13.187166 -4.4901762
11.176247 10.757852 -5.509683
9.8972951 12.638244 -5.4623466
10.508414 -15.048487 -0.74654671
11.938453 -13.547363 -2.2037376
10.039733 -15.047251 -1.9373996
13.487834 -9.5228467 -4.6985363
12.939558 -11.660588 -3.5431385
8.8132496 -14.514122 -4.1466015
11.308825 -13.361914 -3.3402192
9.4635669 -14.859056 -3.0857255
10.727709 -14.249086 -2.6582982
12.529191 -0.95818004 -7.3774739
13.066804 -2.9580532 -6.9458531
13.630666 -7.2866091 -5.6409778
13.458582 -5.0748712 -6.3794327
5.8826213 -12.080861 -7.4663828
8.1593127 -11.326235 -6.9999984
6.6126006 -12.776842 -6.7961717
12.588459 -9.1458228 -5.6524294
10.413228 -10.37141 -6.4098836
12.423083 -10.241203 -5.1601931
8.08568 -14.010377 -5.1581398
8.960076 -11.944875 -6.2618555
7.3556895 -13.432353 -6.0235384
9.3430409 -13.542337 -4.8046087
7.7933331 -12.382634 -6.5438988
11.795969 -12.351505 -4.0160933
10.158351 -11.435579 -5.93227
12.160223 -11.321939 -4.61039
10.589362 -12.990184 -4.4231045
11.301402 -10.878322 -5.5713821
9.7911849 -12.502748 -5.403784
0.7940873 -6.1140476 -10.38351
2.3427783 -5.5011161 -10.348909
1.3141633 -6.8100818 -10.206746
0.77606643 -5.2514288 -10.528759
5.3888023 -4.1717778 -10.080541
3.8649995 -4.8585478 -10.249996
2.4338553 -8.2401906 -9.7361774
2.9008801 -6.1655744 -10.153792
1.8639848 -7.5222132 -9.9913844
2.1158653 -6.4891168 -10.188774
0.74990029 -3.5969556 -10.743915
2.2986262 -4.6502218 -10.490644
0.76218567 -4.4089999 -10.648443
1.5451298 -4.953421 -10.517551
11.514938 -0.57124941 -8.040924
10.033506 -1.6321415 -8.8419082
11.795344 -1.5187023 -7.8700163
6.9313857 -3.4199193 -9.8173777
8.4897259 -2.5796533 -9.420906
12.268723 -3.5051038 -7.4498007
10.251758 -2.5627405 -8.6765511
12.048682 -2.5021055 -7.6736712
11.031059 -2.0579458 -8.3049533
5.0370308 -11.217912 -8.1500871
5.5057059 -8.9443385 -8.9084192
4.3528508 -10.479419 -8.6389068
6.1439945 -10.900801 -7.9609328
6.0718439 -4.7838906 -9.8244499
5.8389874 -6.8060193 -9.4476801
5.2854447 -5.1426798 -9.9366668
3.062909 -8.9963 -9.4199839
4.8202481 -8.254137 -9.2919452
3.6900865 -9.7328587 -9.0619091
3.2997167 -7.8998577 -9.6909142
4.6065396 -9.3442447 -8.9944327
8.3564438 -10.129239 -7.5096818
6.5454816 -8.6071091 -8.7331943
7.2572443 -10.536753 -7.7472653
6.3640867 -9.7330669 -8.3818441
3.7176431 -5.8276188 -10.097745
5.0067942 -7.1642115 -9.5507687
4.496671 -5.4911438 -10.027473
3.5177779 -6.8406701 -9.9152579
5.1582004 -6.1430616 -9.7605584
4.1615176 -7.5403065 -9.6285129
0.73215223 -0.45249496 -10.936187
2.2108792 -1.3663985 -10.825799
0.73425696 -1.2149858 -10.914869
5.3259438 -3.2916143 -10.21706
3.7327883 -2.30699 -10.593945
4.5759581 -3.6481324 -10.312939
0.74520318 -2.7687638 -10.821384
2.2233754 -2.1498666 -10.774984
0.73810256 -1.9902622 -10.876688
1.500986 -3.2826472 -10.731454
1.4774842 -1.680303 -10.859418
3.0772902 -4.3175026 -10.44751
3.0067322 -2.6459484 -10.654694
3.822982 -3.9917972 -10.389193
2.2806675 -3.8006753 -10.607216
3.7793089 -3.1380561 -10.503571
2.2560313 -2.9637536 -10.701821
12.67295 -7.8323138 -6.1709313
10.726037 -6.6290553 -7.7269354
12.661023 -6.7345657 -6.5526586
11.655323 -8.5119661 -6.5692645
7.0155304 -4.3358362 -9.6562898
8.8179367 -5.4497846 -8.8534911
7.8148677 -3.9376456 -9.4798195
6.9319836 -5.3498843 -9.4918742
12.45074 -4.583935 -7.185581
10.677598 -5.5975111 -8.009467
12.583859 -5.643044 -6.8910459
11.43394 -4.0565824 -7.8884291
11.664014 -6.1641273 -7.3410512
9.5042931 -9.643521 -7.2277666
9.7308005 -7.2142847 -8.0277389
10.586263 -9.1165928 -6.9219597
8.5441631 -8.9189339 -7.9377714
10.687691 -7.8582443 -7.3612039
9.4259198 -3.064839 -9.0019689
9.6763901 -5.0196809 -8.5956436
8.6242788 -3.5118798 -9.2628259
10.418214 -3.5473594 -8.4927396
8.7343632 -4.4733438 -9.0740605
10.561545 -4.5647813 -8.2709852
6.703686 -7.4595671 -9.0420927
8.7441025 -6.5536573 -8.6178599
6.8285009 -6.3965926 -9.2871771
7.6016578 -8.1823728 -8.5412744
7.8285489 -5.943986 -9.0905759
8.6717353 -7.7177669 -8.3073518
0.79854465 6.1483668 -10.441794
2.3757232 5.5784745 -10.494439
1.3273442 6.8783859 -10.309118
0.77979558 5.2766629 -10.579351
5.4702281 4.2348142 -10.23286
3.9322195 4.9430476 -10.428264
2.4829968 8.4065666 -9.9327585
2.9538774 6.2782157 -10.339295
1.8919786 7.6351835 -10.141437
2.1473656 6.5857245 -10.340461
0.75235569 3.6087331 -10.779094
2.3259705 4.7055404 -10.61544
0.76525501 4.426755 -10.691324
1.5588265 4.9973302 -10.610783
11.473502 0.5691938 -8.0119892
9.9826975 1.6238766 -8.7971339
11.677098 1.5034775 -7.7911206
10.775185 0 -8.462991
6.9894328 3.4485596 -9.8995936
8.491413 2.580166 -9.4227781
11.984967 3.4240364 -7.2774988
10.161786 2.5402493 -8.6004037
11.846676 2.4601556 -7.5450156
10.915787 2.0364406 -8.2181681
9.3061086 -1.0576214 -9.1965376
9.2904222 1.0558387 -9.1810358
10.046663 -0.54486869 -8.8601423
10.028972 0.54390925 -8.8445408
5.2090074 11.600919 -8.428351
5.6599678 9.194946 -9.1580203
4.4952724 10.822297 -8.9215645
6.3257518 11.223278 -8.1964405
6.1645217 4.8569096 -9.9744056
5.9650838 6.9529993 -9.6517083
5.3828329 5.2374374 -10.119757
3.1407444 9.2249164 -9.659367
4.9544113 8.4838767 -9.5505704
3.7995766 10.021646 -9.3307886
3.379624 8.0911638 -9.9255933
4.7469545 9.6290726 -9.2685979
8.4340891 10.223357 -7.5794593
6.6886346 8.795351 -8.9241937
7.407941 10.755548 -7.9081372
6.5266165 9.9816356 -8.5959045
3.7923778 5.9447697 -10.300737
5.1309719 7.3418971 -9.7876454
4.5870674 5.6015321 -10.229055
3.5965699 6.9938889 -10.137342
5.2700572 6.2762754 -9.9722185
4.2688308 7.7347487 -9.8768038
0.73245359 0.45268121 -10.940688
2.2186101 1.3711764 -10.863654
0.73506938 1.2163301 -10.926946
1.4706202 0 -10.915325
5.3908398 3.3317222 -10.341554
3.7642274 2.3264204 -10.683172
4.639376 3.6986916 -10.455865
0.74708872 2.7757694 -10.848764
2.2356241 2.1617104 -10.834345
0.73944154 1.9938727 -10.896419
1.5097909 3.3019034 -10.794406
1.4819138 1.6853407 -10.891975
2.9787324 -0.91432383 -10.777155
2.9875015 0.91701552 -10.808882
2.2232004 -0.45770351 -10.860948
2.2258177 0.45824235 -10.873734
3.1198213 4.3771747 -10.591904
3.0323278 2.6684728 -10.745395
3.8782098 4.0494636 -10.539277
2.3029897 3.8378748 -10.711035
3.8225135 3.1739301 -10.623647
2.2732632 2.9863911 -10.783562
12.254132 7.5734699 -5.9669932
10.506765 6.4935378 -7.5689739
12.228227 6.5043559 -6.328667
11.35018 8.2891177 -6.3972771
7.0856034 4.3791437 -9.7527394
8.8010481 5.4393468 -8.8365344
7.8524339 3.956574 -9.5253892
7.0190367 5.4170691 -9.6110748
12.092831 4.4521652 -6.9790244
10.474009 5.4907839 -7.8567513
12.174223 5.4593487 -6.666725
11.193912 3.9714243 -7.7228308
11.338808 5.9922641 -7.136374
9.4670291 9.6057111 -7.1994283
9.6281008 7.1381446 -7.9430135
10.416974 8.9708056 -6.8112678
8.5812392 8.9576362 -7.9722161
10.478214 7.7042241 -7.2169255
9.3769648 3.0489213 -8.9552158
9.5849219 4.9722313 -8.5143914
8.6199885 3.5101327 -9.258218
10.286883 3.5026417 -8.3856807
8.7231369 4.4675942 -9.0623976
10.390481 4.4908461 -8.137021
6.826893 7.5966664 -9.2082772
8.7373043 6.548562 -8.6111598
6.933358 6.4948174 -9.4297892
7.6961264 8.2840581 -8.6474199
7.8840001 5.9860885 -9.1549663
8.6807983 7.7258328 -8.316034
6.2245112 -2.8424662 -10.071471
6.3079834 -0.94430223 -10.206532
6.9846562 -2.4408555 -9.916918
5.3913152 -2.35262 -10.308027
6.2810187 2.8682708 -10.162902
6.3269576 0.94714265 -10.237232
7.0260103 2.4553071 -9.9756332
5.4385314 2.3732238 -10.398303
8.5154118 -1.5569393 -9.4923395
7.0458796 -0.49889209 -10.027141
7.7543877 -2.0110306 -9.7247447
8.5477489 -0.52089303 -9.5208869
7.0229527 -1.46423 -9.9867374
3.7866542 -1.3991676 -10.654737
5.4656178 -0.48625383 -10.417106
4.5745506 -1.8687242 -10.502033
3.7963406 -0.46925351 -10.698217
5.4377036 -1.412933 -10.374931
8.5155975 1.5569732 -9.4925465
7.054305 0.49948866 -10.039131
7.7753856 2.0164762 -9.7510781
8.5474987 0.52087779 -9.5206083
7.0477166 1.4693931 -10.021952
7.7925589 0 -9.8023227
3.8062035 1.406391 -10.709744
5.4755311 0.48713578 -10.436
4.6076428 1.8822425 -10.578004
3.8029221 0.47006702 -10.716764
5.4663769 1.4203835 -10.429639
4.6336224 0 -10.58644
11.177355 16.006438 0.7940701
12.423118 14.097344 2.2932025
10.597535 15.883267 2.0450403
12.104744 15.41191 0
13.18167 9.3066845 4.5918827
13.011083 11.725043 3.5627236
9.1423088 15.056034 4.3014227
11.600527 13.706574 3.4263775
9.8923259 15.532264 3.2255282
11.178635 14.848029 2.7700367
13.475966 13.636523 -1.5497647
13.475966 13.636523 1.5497647
12.891245 14.617598 -0.79276785
12.891245 14.617598 0.79276785
12.435172 0.95098984 7.3221132
12.770255 2.8909208 6.7882184
13.148193 7.0286913 5.441309
13.003781 4.9033779 6.1638549
6.0816589 12.489615 7.7190068
8.2849674 11.500661 7.1077995
6.828301 13.193618 7.0178602
12.242644 8.8945798 5.4971527
10.317009 10.275577 6.3506559
12.188301 10.047655 5.0626713
8.3509319 14.46999 5.3273533
9.0653375 12.085202 6.3354187
7.5894751 13.859273 6.2149843
9.5666384 13.866432 4.9195925
7.974555 12.670573 6.6960671
11.894188 12.454349 4.0495331
10.152959 11.429509 5.9291212
12.078743 11.246076 4.5794979
10.749939 13.187166 4.4901762
11.176247 10.757852 5.509683
9.8972951 12.638244 5.4623466
14.16625 8.7552242 -3.9981339
16.090146 9.9442569 -1.4886507
14.164146 9.9760522 -3.4862277
14.16625 8.7552242 3.9981339
16.090146 9.9442569 1.4886507
14.164146 9.9760522 3.4862277
13.877685 12.449428 -2.2762263
15.829577 11.12314 -0.7875875
14.081331 11.228274 -2.9119517
14.472544 12.993293 -0.79180097
15.135458 10.643677 -2.2191223
13.877685 12.449428 2.2762263
15.829577 11.12314 0.7875875
14.081331 11.228274 2.9119517
14.472544 12.993293 0.79180097
15.135458 10.643677 2.2191223
15.294106 12.158366 0
10.508414 -15.048487 0.74654671
11.938453 -13.547363 2.2037376
10.039733 -15.047251 1.9373996
11.38479 -14.495255 0
13.487834 -9.5228467 4.6985363
12.939558 -11.660588 3.5431385
8.8132496 -14.514122 4.1466015
11.308825 -13.361914 3.3402192
9.4635669 -14.859056 3.0857255
10.727709 -14.249086 2.6582982
12.875654 -13.029059 -1.4807276
12.875654 -13.029059 1.4807276
12.184867 -13.816624 -0.74932797
12.184867 -13.816624 0.74932797
12.529191 -0.95818004 7.3774739
13.066804 -2.9580532 6.9458531
13.630666 -7.2866091 5.6409778
13.458582 -5.0748712 6.3794327
5.8826213 -12.080861 7.4663828
8.1593127 -11.326235 6.9999984
6.6126006 -12.776842 6.7961717
12.588459 -9.1458228 5.6524294
10.413228 -10.37141 6.4098836
12.423083 -10.241203 5.1601931
8.08568 -14.010377 5.1581398
8.960076 -11.944875 6.2618555
7.3556895 -13.432353 6.0235384
9.3430409 -13.542337 4.8046087
7.7933331 -12.382634 6.5438988
11.795969 -12.351505 4.0160933
10.158351 -11.435579 5.93227
12.160223 -11.321939 4.61039
10.589362 -12.990184 4.4231045
11.301402 -10.878322 5.5713821
9.7911849 -12.502748 5.403784
14.450564 -8.9309398 -4.0783756
15.605482 -9.644718 -1.4438099
14.251483 -10.037565 -3.5077238
14.450564 -8.9309398 4.0783756
15.605482 -9.644718 1.4438099
14.251483 -10.037565 3.5077238
13.479634 -12.092344 -2.2109377
15.144734 -10.641915 -0.75351373
13.926868 -11.105107 -2.8800094
13.759189 -12.352851 -0.75277292
14.830617 -10.429304 -2.1744272
13.479634 -12.092344 2.2109377
15.144734 -10.641915 0.75351373
13.926868 -11.105107 2.8800094
13.759189 -12.352851 0.75277292
14.830617 -10.429304 2.1744272
14.529296 -11.550364 0
0.7940873 -6.1140476 10.38351
2.3427783 -5.5011161 10.348909
1.3141633 -6.8100818 10.206746
0.77606643 -5.2514288 10.528759
5.3888023 -4.1717778 10.080541
3.8649995 -4.8585478 10.249996
2.4338553 -8.2401906 9.7361774
2.9008801 -6.1655744 10.153792
1.8639848 -7.5222132 9.9913844
2.1158653 -6.4891168 10.188774
0.74990029 -3.5969556 10.743915
2.2986262 -4.6502218 10.490644
0.76218567 -4.4089999 10.648443
1.5451298 -4.953421 10.517551
11.514938 -0.57124941 8.040924
10.033506 -1.6321415 8.8419082
11.795344 -1.5187023 7.8700163
6.9313857 -3.4199193 9.8173777
8.4897259 -2.5796533 9.420906
12.268723 -3.5051038 7.4498007
10.251758 -2.5627405 8.6765511
12.048682 -2.5021055 7.6736712
11.031059 -2.0579458 8.3049533
5.0370308 -11.217912 8.1500871
5.5057059 -8.9443385 8.9084192
4.3528508 -10.479419 8.6389068
6.1439945 -10.900801 7.9609328
6.0718439 -4.7838906 9.8244499
5.8389874 -6.8060193 9.4476801
5.2854447 -5.1426798 9.9366668
3.062909 -8.9963 9.4199839
4.8202481 -8.254137 9.2919452
3.6900865 -9.7328587 9.0619091
3.2997167 -7.8998577 9.6909142
4.6065396 -9.3442447 8.9944327
8.3564438 -10.129239 7.5096818
6.5454816 -8.6071091 8.7331943
7.2572443 -10.536753 7.7472653
6.3640867 -9.7330669 8.3818441
3.7176431 -5.8276188 10.097745
5.0067942 -7.1642115 9.5507687
4.496671 -5.4911438 10.027473
3.5177779 -6.8406701 9.9152579
5.1582004 -6.1430616 9.7605584
4.1615176 -7.5403065 9.6285129
0.73215223 -0.45249496 10.936187
2.2108792 -1.3663985 10.825799
0.73425696 -1.2149858 10.914869
5.3259438 -3.2916143 10.21706
3.7327883 -2.30699 10.593945
4.5759581 -3.6481324 10.312939
0.74520318 -2.7687638 10.821384
2.2233754 -2.1498666 10.774984
0.73810256 -1.9902622 10.876688
1.500986 -3.2826472 10.731454
1.4774842 -1.680303 10.859418
3.0772902 -4.3175026 10.44751
3.0067322 -2.6459484 10.654694
3.822982 -3.9917972 10.389193
2.2806675 -3.8006753 10.607216
3.7793089 -3.1380561 10.503571
2.2560313 -2.9637536 10.701821
12.67295 -7.8323138 6.1709313
10.726037 -6.6290553 7.7269354
12.661023 -6.7345657 6.5526586
11.655323 -8.5119661 6.5692645
7.0155304 -4.3358362 9.6562898
8.8179367 -5.4497846 8.8534911
7.8148677 -3.9376456 9.4798195
6.9319836 -5.3498843 9.4918742
12.45074 -4.583935 7.185581
10.677598 -5.5975111 8.009467
12.583859 -5.643044 6.8910459
11.43394 -4.0565824 7.8884291
11.664014 -6.1641273 7.3410512
9.5042931 -9.643521 7.2277666
9.7308005 -7.2142847 8.0277389
10.586263 -9.1165928 6.9219597
8.5441631 -8.9189339 7.9377714
10.687691 -7.8582443 7.3612039
9.4259198 -3.064839 9.0019689
9.6763901 -5.0196809 8.5956436
8.6242788 -3.5118798 9.2628259
10.418214 -3.5473594 8.4927396
8.7343632 -4.4733438 9.0740605
10.561545 -4.5647813 8.2709852
6.703686 -7.4595671 9.0420927
8.7441025 -6.5536573 8.6178599
6.8285009 -6.3965926 9.2871771
7.6016578 -8.1823728 8.5412744
7.8285489 -5.943986 9.0905759
8.6717353 -7.7177669 8.3073518
0.79854465 6.1483668 10.441794
2.3757232 5.5784745 10.494439
1.3273442 6.8783859 10.309118
0.77979558 5.2766629 10.579351
5.4702281 4.2348142 10.23286
3.9322195 4.9430476 10.428264
2.4829968 8.4065666 9.9327585
2.9538774 6.2782157 10.339295
1.8919786 7.6351835 10.141437
2.1473656 6.5857245 10.340461
0.75235569 3.6087331 10.779094
2.3259705 4.7055404 10.61544
0.76525501 4.426755 10.691324
1.5588265 4.9973302 10.610783
11.473502 0.5691938 8.0119892
9.9826975 1.6238766 8.7971339
11.677098 1.5034775 7.7911206
10.775185 0 8.462991
6.9894328 3.4485596 9.8995936
8.491413 2.580166 9.4227781
11.984967 3.4240364 7.2774988
10.161786 2.5402493 8.6004037
11.846676 2.4601556 7.5450156
10.915787 2.0364406 8.2181681
9.3061086 -1.0576214 9.1965376
9.2904222 1.0558387 9.1810358
10.046663 -0.54486869 8.8601423
10.028972 0.54390925 8.8445408
5.2090074 11.600919 8.428351
5.6599678 9.194946 9.1580203
4.4952724 10.822297 8.9215645
6.3257518 11.223278 8.1964405
6.1645217 4.8569096 9.9744056
5.9650838 6.9529993 9.6517083
5.3828329 5.2374374 10.119757
3.1407444 9.2249164 9.659367
4.9544113 8.4838767 9.5505704
3.7995766 10.021646 9.3307886
3.379624 8.0911638 9.9255933
4.7469545 9.6290726 9.2685979
8.4340891 10.223357 7.5794593
6.6886346 8.795351 8.9241937
7.407941 10.755548 7.9081372
6.5266165 9.9816356 8.5959045
3.7923778 5.9447697 10.300737
5.1309719 7.3418971 9.7876454
4.5870674 5.6015321 10.229055
3.5965699 6.9938889 10.137342
5.2700572 6.2762754 9.9722185
4.2688308 7.7347487 9.8768038
0.73245359 0.45268121 10.940688
2.2186101 1.3711764 10.863654
0.73506938 1.2163301 10.926946
1.4706202 0 10.915325
5.3908398 3.3317222 10.341554
3.7642274 2.3264204 10.683172
4.639376 3.6986916 10.455865
0.74708872 2.7757694 10.848764
2.2356241 2.1617104 10.834345
0.73944154 1.9938727 10.896419
1.5097909 3.3019034 10.794406
1.4819138 1.6853407 10.891975
2.9787324 -0.91432383 10.777155
2.9875015 0.91701552 10.808882
2.2232004 -0.45770351 10.860948
2.2258177 0.45824235 10.873734
3.1198213 4.3771747 10.591904
3.0323278 2.6684728 10.745395
3.8782098 4.0494636 10.539277
2.3029897 3.8378748 10.711035
3.8225135 3.1739301 10.623647
2.2732632 2.9863911 10.783562
12.254132 7.5734699 5.9669932
10.506765 6.4935378 7.5689739
12.228227 6.5043559 6.328667
11.35018 8.2891177 6.3972771
7.0856034 4.3791437 9.7527394
8.8010481 5.4393468 8.8365344
7.8524339 3.956574 9.5253892
7.0190367 5.4170691 9.6110748
12.092831 4.4521652 6.9790244
10.474009 5.4907839 7.8567513
12.174223 5.4593487 6.666725
11.193912 3.9714243 7.7228308
11.338808 5.9922641 7.136374
9.4670291 9.6057111 7.1994283
9.6281008 7.1381446 7.9430135
10.416974 8.9708056 6.8112678
8.5812392 8.9576362 7.9722161
10.478214 7.7042241 7.2169255
9.3769648 3.0489213 8.9552158
9.5849219 4.9722313 8.5143914
8.6199885 3.5101327 9.258218
10.286883 3.5026417 8.3856807
8.7231369 4.4675942 9.0623976
10.390481 4.4908461 8.137021
6.826893 7.5966664 9.2082772
8.7373043 6.548562 8.6111598
6.933358 6.4948174 9.4297892
7.6961264 8.2840581 8.6474199
7.8840001 5.9860885 9.1549663
8.6807983 7.7258328 8.316034
6.2245112 -2.8424662 10.071471
6.3079834 -0.94430223 10.206532
6.9846562 -2.4408555 9.916918
5.3913152 -2.35262 10.308027
6.2810187 2.8682708 10.162902
6.3269576 0.94714265 10.237232
7.0260103 2.4553071 9.9756332
5.4385314 2.3732238 10.398303
8.5154118 -1.5569393 9.4923395
7.0458796 -0.49889209 10.027141
7.7543877 -2.0110306 9.7247447
8.5477489 -0.52089303 9.5208869
7.0229527 -1.46423 9.9867374
3.7866542 -1.3991676 10.654737
5.4656178 -0.48625383 10.417106
4.5745506 -1.8687242 10.502033
3.7963406 -0.46925351 10.698217
5.4377036 -1.412933 10.374931
8.5155975 1.5569732 9.4925465
7.054305 0.49948866 10.039131
7.7753856 2.0164762 9.7510781
8.5474987 0.52087779 9.5206083
7.0477166 1.4693931 10.021952
7.7925589 0 9.8023227
3.8062035 1.406391 10.709744
5.4755311 0.48713578 10.436
4.6076428 1.8822425 10.578004
3.8029221 0.47006702 10.716764
5.4663769 1.4203835 10.429639
4.6336224 0 10.58644
13.111877 0 -6.8993077
14.885052 0 -5.3658228
13.318215 0.98167508 -6.6427261
13.43299 -0.99013506 -6.6999725
17.801441 0 -1.2337725
16.57444 0 -3.4909856
13.65503 2.9919812 -6.0529094
15.095906 1.0536591 -5.0539586
13.499675 1.9832326 -6.3579036
14.21097 1.0171814 -5.8840682
13.996901 -3.0668892 -6.2044516
15.219882 -1.0623123 -5.0954646
13.73273 -2.0174706 -6.4676647
14.337964 -1.0262713 -5.9366505
13.111877 0 6.8993077
14.885052 0 5.3658228
13.318215 0.98167508 6.6427261
13.43299 -0.99013506 6.6999725
17.801441 0 1.2337725
16.57444 0 3.4909856
13.65503 2.9919812 6.0529094
15.095906 1.0536591 5.0539586
13.499675 1.9832326 6.3579036
14.21097 1.0171814 5.8840682
13.996901 -3.0668892 6.2044516
15.219882 -1.0623123 5.0954646
13.73273 -2.0174706 6.4676647
14.337964 -1.0262713 5.9366505
14.106931 7.3536539 -4.5448081
15.858039 5.5875975 -3.4533252
14.02505 6.22306 -4.9612663
15.134974 7.9159097 -3.4542828
17.944897 1.2013691 -0.74248691
17.253718 3.5236093 -2.1777103
17.519299 1.1785452 -1.9501561
13.802925 4.06562 -5.7041502
15.686354 4.4266559 -3.8954926
13.921435 5.1227654 -5.3489764
14.573247 3.1334075 -5.2217452
14.881024 5.3543681 -4.4458678
16.903347 8.8688006 -0.78902119
16.858044 5.9912867 -2.2137786
16.163329 8.4715161 -2.201239
16.05673 6.9941052 -2.857123
16.005134 1.1021767 -4.0950802
16.440769 3.3924876 -3.2803259
16.825164 1.1417719 -3.0787393
15.317485 2.1424244 -4.6854691
17.05484 2.3204059 -2.6389352
15.515694 3.2708352 -4.2969037
14.543169 -7.5810556 -4.6853501
16.109687 -5.6762661 -3.5081254
14.515979 -6.4408906 -5.1349294
15.350042 -8.0283951 -3.5033683
17.865474 -1.1960519 -0.73920072
17.217526 -3.5162182 -2.1731423
17.496885 -1.1770374 -1.9476611
14.236193 -4.1932381 -5.883201
15.996597 -4.514206 -3.9725374
14.407416 -5.3015952 -5.5357029
14.924808 -3.208997 -5.3477131
15.310205 -5.5087924 -4.5740903
16.311632 -8.5583412 -0.76140088
16.771569 -5.9605539 -2.2024229
15.971573 -8.3710128 -2.1751242
16.133409 -7.0275057 -2.8707672
16.103705 -1.1089647 -4.1203007
16.601845 -3.425725 -3.3124644
16.872463 -1.1449816 -3.0873943
15.546418 -2.1744449 -4.7554976
17.092677 -2.3255538 -2.6447897
15.812473 -3.3333986 -4.3790935
14.106931 7.3536539 4.5448081
15.858039 5.5875975 3.4533252
14.02505 6.22306 4.9612663
15.134974 7.9159097 3.4542828
17.944897 1.2013691 0.74248691
17.253718 3.5236093 2.1777103
17.519299 1.1785452 1.9501561
18.015485 2.4272237 0
13.802925 4.06562 5.7041502
15.686354 4.4266559 3.8954926
13.921435 5.1227654 5.3489764
14.573247 3.1334075 5.2217452
14.881024 5.3543681 4.4458678
16.903347 8.8688006 0.78902119
16.858044 5.9912867 2.2137786
16.163329 8.4715161 2.201239
17.420579 7.6248849 0
16.05673 6.9941052 2.857123
16.005134 1.1021767 4.0950802
16.440769 3.3924876 3.2803259
16.825164 1.1417719 3.0787393
15.317485 2.1424244 4.6854691
17.05484 2.3204059 2.6389352
15.515694 3.2708352 4.2969037
17.504765 4.8381979 -1.485088
17.504765 4.8381979 1.485088
17.880741 3.660129 -0.75353258
17.589506 6.2417649 -0.77152457
17.880741 3.660129 0.75353258
17.589506 6.2417649 0.77152457
14.543169 -7.5810556 4.6853501
16.109687 -5.6762661 3.5081254
14.515979 -6.4408906 5.1349294
15.350042 -8.0283951 3.5033683
17.865474 -1.1960519 0.73920072
17.217526 -3.5162182 2.1731423
17.496885 -1.1770374 1.9476611
17.831922 -2.4024922 0
14.236193 -4.1932381 5.883201
15.996597 -4.514206 3.9725374
14.407416 -5.3015952 5.5357029
14.924808 -3.208997 5.3477131
15.310205 -5.5087924 4.5740903
16.311632 -8.5583412 0.76140088
16.771569 -5.9605539 2.2024229
15.971573 -8.3710128 2.1751242
16.837897 -7.3698483 0
16.133409 -7.0275057 2.8707672
16.103705 -1.1089647 4.1203007
16.601845 -3.425725 3.3124644
16.872463 -1.1449816 3.0873943
15.546418 -2.1744449 4.7554976
17.092677 -2.3255538 2.6447897
15.812473 -3.3333986 4.3790935
17.288823 -4.7785133 -1.4667677
17.288823 -4.7785133 1.4667677
17.634451 -3.6097142 -0.74315338
17.162354 -6.0901871 -0.75278853
17.634451 -3.6097142 0.74315338
17.162354 -6.0901871 0.75278853
-10.508414 15.048487 -0.74654671
-11.938453 13.547363 -2.2037376
-10.039733 15.047251 -1.9373996
-13.487834 9.5228467 -4.6985363
-12.939558 11.660588 -3.5431385
-8.8132496 14.514122 -4.1466015
-11.308825 13.361914 -3.3402192
-9.4635669 14.859056 -3.0857255
-10.727709 14.249086 -2.6582982
-12.529191 0.95818004 -7.3774739
-13.066804 2.9580532 -6.9458531
-13.630666 7.2866091 -5.6409778
-13.458582 5.0748712 -6.3794327
-5.8826213 12.080861 -7.4663828
-8.1593127 11.326235 -6.9999984
-6.6126006 12.776842 -6.7961717
-12.588459 9.1458228 -5.6524294
-10.413228 10.37141 -6.4098836
-12.423083 10.241203 -5.1601931
-8.08568 14.010377 -5.1581398
-8.960076 11.944875 -6.2618555
-7.3556895 13.432353 -6.0235384
-9.3430409 13.542337 -4.8046087
-7.7933331 12.382634 -6.5438988
-11.795969 12.351505 -4.0160933
-10.158351 11.435579 -5.93227
-12.160223 11.321939 -4.61039
-10.589362 12.990184 -4.4231045
-11.301402 10.878322 -5.5713821
-9.7911849 12.502748 -5.403784
-11.177355 -16.006438 -0.7940701
-12.423118 -14.097344 -2.2932025
-10.597535 -15.883267 -2.0450403
-13.18167 -9.3066845 -4.5918827
-13.011083 -11.725043 -3.5627236
-9.1423088 -15.056034 -4.3014227
-11.600527 -13.706574 -3.4263775
-9.8923259 -15.532264 -3.2255282
-11.178635 -14.848029 -2.7700367
-12.435172 -0.95098984 -7.3221132
-12.770255 -2.8909208 -6.7882184
-13.148193 -7.0286913 -5.441309
-13.003781 -4.9033779 -6.1638549
-6.0816589 -12.489615 -7.7190068
-8.2849674 -11.500661 -7.1077995
-6.828301 -13.193618 -7.0178602
-12.242644 -8.8945798 -5.4971527
-10.317009 -10.275577 -6.3506559
-12.188301 -10.047655 -5.0626713
-8.3509319 -14.46999 -5.3273533
-9.0653375 -12.085202 -6.3354187
-7.5894751 -13.859273 -6.2149843
-9.5666384 -13.866432 -4.9195925
-7.974555 -12.670573 -6.6960671
-11.894188 -12.454349 -4.0495331
-10.152959 -11.429509 -5.9291212
-12.078743 -11.246076 -4.5794979
-10.749939 -13.187166 -4.4901762
-11.176247 -10.757852 -5.509683
-9.8972951 -12.638244 -5.4623466
-0.79854465 -6.1483668 -10.441794
-2.3757232 -5.5784745 -10.494439
-1.3273442 -6.8783859 -10.309118
-0.77979558 -5.2766629 -10.579351
-5.4702281 -4.2348142 -10.23286
-3.9322195 -4.9430476 -10.428264
-2.4829968 -8.4065666 -9.9327585
-2.9538774 -6.2782157 -10.339295
-1.8919786 -7.6351835 -10.141437
-2.1473656 -6.5857245 -10.340461
-0.75235569 -3.6087331 -10.779094
-2.3259705 -4.7055404 -10.61544
-0.76525501 -4.426755 -10.691324
-1.5588265 -4.9973302 -10.610783
-11.473502 -0.5691938 -8.0119892
-9.9826975 -1.6238766 -8.7971339
-11.677098 -1.5034775 -7.7911206
-6.9894328 -3.4485596 -9.8995936
-8.491413 -2.580166 -9.4227781
-11.984967 -3.4240364 -7.2774988
-10.161786 -2.5402493 -8.6004037
-11.846676 -2.4601556 -7.5450156
-10.915787 -2.0364406 -8.2181681
-5.2090074 -11.600919 -8.428351
-5.6599678 -9.194946 -9.1580203
-4.4952724 -10.822297 -8.9215645
-6.3257518 -11.223278 -8.1964405
-6.1645217 -4.8569096 -9.9744056
-5.9650838 -6.9529993 -9.6517083
-5.3828329 -5.2374374 -10.119757
-3.1407444 -9.2249164 -9.659367
-4.9544113 -8.4838767 -9.5505704
-3.7995766 -10.021646 -9.3307886
-3.379624 -8.0911638 -9.9255933
-4.7469545 -9.6290726 -9.2685979
-8.4340891 -10.223357 -7.5794593
-6.6886346 -8.795351 -8.9241937
-7.407941 -10.755548 -7.9081372
-6.5266165 -9.9816356 -8.5959045
-3.7923778 -5.9447697 -10.300737
-5.1309719 -7.3418971 -9.7876454
-4.5870674 -5.6015321 -10.229055
-3.5965699 -6.9938889 -10.137342
-5.2700572 -6.2762754 -9.9722185
-4.2688308 -7.7347487 -9.8768038
-0.73245359 -0.45268121 -10.940688
-2.2186101 -1.3711764 -10.863654
-0.73506938 -1.2163301 -10.926946
-5.3908398 -3.3317222 -10.341554
-3.7642274 -2.3264204 -10.683172
-4.639376 -3.6986916 -10.455865
-0.74708872 -2.7757694 -10.848764
-2.2356241 -2.1617104 -10.834345
-0.73944154 -1.9938727 -10.896419
-1.5097909 -3.3019034 -10.794406
-1.4819138 -1.6853407 -10.891975
-3.1198213 -4.3771747 -10.591904
-3.0323278 -2.6684728 -10.745395
-3.8782098 -4.0494636 -10.539277
-2.3029897 -3.8378748 -10.711035
-3.8225135 -3.1739301 -10.623647
-2.2732632 -2.9863911 -10.783562
-12.254132 -7.5734699 -5.9669932
-10.506765 -6.4935378 -7.5689739
-12.228227 -6.5043559 -6.328667
-11.35018 -8.2891177 -6.3972771
-7.0856034 -4.3791437 -9.7527394
-8.8010481 -5.4393468 -8.8365344
-7.8524339 -3.956574 -9.5253892
-7.0190367 -5.4170691 -9.6110748
-12.092831 -4.4521652 -6.9790244
-10.474009 -5.4907839 -7.8567513
-12.174223 -5.4593487 -6.666725
-11.193912 -3.9714243 -7.7228308
-11.338808 -5.9922641 -7.136374
-9.4670291 -9.6057111 -7.1994283
-9.6281008 -7.1381446 -7.9430135
-10.416974 -8.9708056 -6.8112678
-8.5812392 -8.9576362 -7.9722161
-10.478214 -7.7042241 -7.2169255
-9.3769648 -3.0489213 -8.9552158
-9.5849219 -4.9722313 -8.5143914
-8.6199885 -3.5101327 -9.258218
-10.286883 -3.5026417 -8.3856807
-8.7231369 -4.4675942 -9.0623976
-10.390481 -4.4908461 -8.137021
-6.826893 -7.5966664 -9.2082772
-8.7373043 -6.548562 -8.6111598
-6.933358 -6.4948174 -9.4297892
-7.6961264 -8.2840581 -8.6474199
-7.8840001 -5.9860885 -9.1549663
-8.6807983 -7.7258328 -8.316034
-0.7940873 6.1140476 -10.38351
-2.3427783 5.5011161 -10.348909
-1.3141633 6.8100818 -10.206746
-0.77606643 5.2514288 -10.528759
-5.3888023 4.1717778 -10.080541
-3.8649995 4.8585478 -10.249996
-2.4338553 8.2401906 -9.7361774
-2.9008801 6.1655744 -10.153792
-1.8639848 7.5222132 -9.9913844
-2.1158653 6.4891168 -10.188774
-0.74990029 3.5969556 -10.743915
-2.2986262 4.6502218 -10.490644
-0.76218567 4.4089999 -10.648443
-1.5451298 4.953421 -10.517551
-11.514938 0.57124941 -8.040924
-10.033506 1.6321415 -8.8419082
-11.795344 1.5187023 -7.8700163
-10.775185 0 -8.462991
-6.9313857 3.4199193 -9.8173777
-8.4897259 2.5796533 -9.420906
-12.268723 3.5051038 -7.4498007
-10.251758 2.5627405 -8.6765511
-12.048682 2.5021055 -7.6736712
-11.031059 2.0579458 -8.3049533
-9.2904222 -1.0558387 -9.1810358
-9.3061086 1.0576214 -9.1965376
-10.028972 -0.54390925 -8.8445408
-10.046663 0.54486869 -8.8601423
-5.0370308 11.217912 -8.1500871
-5.5057059 8.9443385 -8.9084192
-4.3528508 10.479419 -8.6389068
-6.1439945 10.900801 -7.9609328
-6.0718439 4.7838906 -9.8244499
-5.8389874 6.8060193 -9.4476801
-5.2854447 5.1426798 -9.9366668
-3.062909 8.9963 -9.4199839
-4.8202481 8.254137 -9.2919452
-3.6900865 9.7328587 -9.0619091
-3.2997167 7.8998577 -9.6909142
-4.6065396 9.3442447 -8.9944327
-8.3564438 10.129239 -7.5096818
-6.5454816 8.6071091 -8.7331943
-7.2572443 10.536753 -7.7472653
-6.3640867 9.7330669 -8.3818441
-3.7176431 5.8276188 -10.097745
-5.0067942 7.1642115 -9.5507687
-4.496671 5.4911438 -10.027473
-3.5177779 6.8406701 -9.9152579
-5.1582004 6.1430616 -9.7605584
-4.1615176 7.5403065 -9.6285129
-0.73215223 0.45249496 -10.936187
-2.2108792 1.3663985 -10.825799
-0.73425696 1.2149858 -10.914869
-1.4706202 0 -10.915325
-5.3259438 3.2916143 -10.21706
-3.7327883 2.30699 -10.593945
-4.5759581 3.6481324 -10.312939
-0.74520318 2.7687638 -10.821384
-2.2233754 2.1498666 -10.774984
-0.73810256 1.9902622 -10.876688
-1.500986 3.2826472 -10.731454
-1.4774842 1.680303 -10.859418
-2.9875015 -0.91701552 -10.808882
-2.9787324 0.91432383 -10.777155
-2.2258177 -0.45824235 -10.873734
-2.2232004 0.45770351 -10.860948
-3.0772902 4.3175026 -10.44751
-3.0067322 2.6459484 -10.654694
-3.822982 3.9917972 -10.389193
-2.2806675 3.8006753 -10.607216
-3.7793089 3.1380561 -10.503571
-2.2560313 2.9637536 -10.701821
-12.67295 7.8323138 -6.1709313
-10.726037 6.6290553 -7.7269354
-12.661023 6.7345657 -6.5526586
-11.655323 8.5119661 -6.5692645
-7.0155304 4.3358362 -9.6562898
-8.8179367 5.4497846 -8.8534911
-7.8148677 3.9376456 -9.4798195
-6.9319836 5.3498843 -9.4918742
-12.45074 4.583935 -7.185581
-10.677598 5.5975111 -8.009467
-12.583859 5.643044 -6.8910459
-11.43394 4.0565824 -7.8884291
-11.664014 6.1641273 -7.3410512
-9.5042931 9.643521 -7.2277666
-9.7308005 7.2142847 -8.0277389
-10.586263 9.1165928 -6.9219597
-8.5441631 8.9189339 -7.9377714
-10.687691 7.8582443 -7.3612039
-9.4259198 3.064839 -9.0019689
-9.6763901 5.0196809 -8.5956436
-8.6242788 3.5118798 -9.2628259
-10.418214 3.5473594 -8.4927396
-8.7343632 4.4733438 -9.0740605
-10.561545 4.5647813 -8.2709852
-6.703686 7.4595671 -9.0420927
-8.7441025 6.5536573 -8.6178599
-6.8285009 6.3965926 -9.2871771
-7.6016578 8.1823728 -8.5412744
-7.8285489 5.943986 -9.0905759
-8.6717353 7.7177669 -8.3073518
-6.2810187 -2.8682708 -10.162902
-6.3269576 -0.94714265 -10.237232
-7.0260103 -2.4553071 -9.9756332
-5.4385314 -2.3732238 -10.398303
-6.2245112 2.8424662 -10.071471
-6.3079834 0.94430223 -10.206532
-6.9846562 2.4408555 -9.916918
-5.3913152 2.35262 -10.308027
-8.5155975 -1.5569732 -9.4925465
-7.054305 -0.49948866 -10.039131
-7.7753856 -2.0164762 -9.7510781
-8.5474987 -0.52087779 -9.5206083
-7.0477166 -1.4693931 -10.021952
-3.8062035 -1.406391 -10.709744
-5.4755311 -0.48713578 -10.436
-4.6076428 -1.8822425 -10.578004
-3.8029221 -0.47006702 -10.716764
-5.4663769 -1.4203835 -10.429639
-8.5154118 1.5569393 -9.4923395
-7.0458796 0.49889209 -10.027141
-7.7543877 2.0110306 -9.7247447
-8.5477489 0.52089303 -9.5208869
-7.0229527 1.46423 -9.9867374
-7.7925589 0 -9.8023227
-3.7866542 1.3991676 -10.654737
-5.4656178 0.48625383 -10.417106
-4.5745506 1.8687242 -10.502033
-3.7963406 0.46925351 -10.698217
-5.4377036 1.412933 -10.374931
-4.6336224 0 -10.58644
-10.508414 15.048487 0.74654671
-11.938453 13.547363 2.2037376
-10.039733 15.047251 1.9373996
-11.38479 14.495255 0
-13.487834 9.5228467 4.6985363
-12.939558 11.660588 3.5431385
-8.8132496 14.514122 4.1466015
-11.308825 13.361914 3.3402192
-9.4635669 14.859056 3.0857255
-10.727709 14.249086 2.6582982
-12.875654 13.029059 -1.4807276
-12.875654 13.029059 1.4807276
-12.184867 13.816624 -0.74932797
-12.184867 13.816624 0.74932797
-12.529191 0.95818004 7.3774739
-13.066804 2.9580532 6.9458531
-13.630666 7.2866091 5.6409778
-13.458582 5.0748712 6.3794327
-5.8826213 12.080861 7.4663828
-8.1593127 11.326235 6.9999984
-6.6126006 12.776842 6.7961717
-12.588459 9.1458228 5.6524294
-10.413228 10.37141 6.4098836
-12.423083 10.241203 5.1601931
-8.08568 14.010377 5.1581398
-8.960076 11.944875 6.2618555
-7.3556895 13.432353 6.0235384
-9.3430409 13.542337 4.8046087
-7.7933331 12.382634 6.5438988
-11.795969 12.351505 4.0160933
-10.158351 11.435579 5.93227
-12.160223 11.321939 4.61039
-10.589362 12.990184 4.4231045
-11.301402 10.878322 5.5713821
-9.7911849 12.502748 5.403784
-14.450564 8.9309398 -4.0783756
-15.605482 9.644718 -1.4438099
-14.251483 10.037565 -3.5077238
-14.450564 8.9309398 4.0783756
-15.605482 9.644718 1.4438099
-14.251483 10.037565 3.5077238
-13.479634 12.092344 -2.2109377
-15.144734 10.641915 -0.75351373
-13.926868 11.105107 -2.8800094
-13.759189 12.352851 -0.75277292
-14.830617 10.429304 -2.1744272
-13.479634 12.092344 2.2109377
-15.144734 10.641915 0.75351373
-13.926868 11.105107 2.8800094
-13.759189 12.352851 0.75277292
-14.830617 10.429304 2.1744272
-14.529296 11.550364 0
-11.177355 -16.006438 0.7940701
-12.423118 -14.097344 2.2932025
-10.597535 -15.883267 2.0450403
-12.104744 -15.41191 0
-13.18167 -9.3066845 4.5918827
-13.011083 -11.725043 3.5627236
-9.1423088 -15.056034 4.3014227
-11.600527 -13.706574 3.4263775
-9.8923259 -15.532264 3.2255282
-11.178635 -14.848029 2.7700367
-13.475966 -13.636523 -1.5497647
-13.475966 -13.636523 1.5497647
-12.891245 -14.617598 -0.79276785
-12.891245 -14.617598 0.79276785
-12.435172 -0.95098984 7.3221132
-12.770255 -2.8909208 6.7882184
-13.148193 -7.0286913 5.441309
-13.003781 -4.9033779 6.1638549
-6.0816589 -12.489615 7.7190068
-8.2849674 -11.500661 7.1077995
-6.828301 -13.193618 7.0178602
-12.242644 -8.8945798 5.4971527
-10.317009 -10.275577 6.3506559
-12.188301 -10.047655 5.0626713
-8.3509319 -14.46999 5.3273533
-9.0653375 -12.085202 6.3354187
-7.5894751 -13.859273 6.2149843
-9.5666384 -13.866432 4.9195925
-7.974555 -12.670573 6.6960671
-11.894188 -12.454349 4.0495331
-10.152959 -11.429509 5.9291212
-12.078743 -11.246076 4.5794979
-10.749939 -13.187166 4.4901762
-11.176247 -10.757852 5.509683
-9.8972951 -12.638244 5.4623466
-14.16625 -8.7552242 -3.9981339
-16.090146 -9.9442569 -1.4886507
-14.164146 -9.9760522 -3.4862277
-14.16625 -8.7552242 3.9981339
-16.090146 -9.9442569 1.4886507
-14.164146 -9.9760522 3.4862277
-13.877685 -12.449428 -2.2762263
-15.829577 -11.12314 -0.7875875
-14.081331 -11.228274 -2.9119517
-14.472544 -12.993293 -0.79180097
-15.135458 -10.643677 -2.2191223
-13.877685 -12.449428 2.2762263
-15.829577 -11.12314 0.7875875
-14.081331 -11.228274 2.9119517
-14.472544 -12.993293 0.79180097
-15.135458 -10.643677 2.2191223
-15.294106 -12.158366 0
-0.79854465 -6.1483668 10.441794
-2.3757232 -5.5784745 10.494439
-1.3273442 -6.8783859 10.309118
-0.77979558 -5.2766629 10.579351
-5.4702281 -4.2348142 10.23286
-3.9322195 -4.9430476 10.428264
-2.4829968 -8.4065666 9.9327585
-2.9538774 -6.2782157 10.339295
-1.8919786 -7.6351835 10.141437
-2.1473656 -6.5857245 10.340461
-0.75235569 -3.6087331 10.779094
-2.3259705 -4.7055404 10.61544
-0.76525501 -4.426755 10.691324
-1.5588265 -4.9973302 10.610783
-11.473502 -0.5691938 8.0119892
-9.9826975 -1.6238766 8.7971339
-11.677098 -1.5034775 7.7911206
-6.9894328 -3.4485596 9.8995936
-8.491413 -2.580166 9.4227781
-11.984967 -3.4240364 7.2774988
-10.161786 -2.5402493 8.6004037
-11.846676 -2.4601556 7.5450156
-10.915787 -2.0364406 8.2181681
-5.2090074 -11.600919 8.428351
-5.6599678 -9.194946 9.1580203
-4.4952724 -10.822297 8.9215645
-6.3257518 -11.223278 8.1964405
-6.1645217 -4.8569096 9.9744056
-5.9650838 -6.9529993 9.6517083
-5.3828329 -5.2374374 10.119757
-3.1407444 -9.2249164 9.659367
-4.9544113 -8.4838767 9.5505704
-3.7995766 -10.021646 9.3307886
-3.379624 -8.0911638 9.9255933
-4.7469545 -9.6290726 9.2685979
-8.4340891 -10.223357 7.5794593
-6.6886346 -8.795351 8.9241937
-7.407941 -10.755548 7.9081372
-6.5266165 -9.9816356 8.5959045
-3.7923778 -5.9447697 10.300737
-5.1309719 -7.3418971 9.7876454
-4.5870674 -5.6015321 10.229055
-3.5965699 -6.9938889 10.137342
-5.2700572 -6.2762754 9.9722185
-4.2688308 -7.7347487 9.8768038
-0.73245359 -0.45268121 10.940688
-2.2186101 -1.3711764 10.863654
-0.73506938 -1.2163301 10.926946
-5.3908398 -3.3317222 10.341554
-3.7642274 -2.3264204 10.683172
-4.639376 -3.6986916 10.455865
-0.74708872 -2.7757694 10.848764
-2.2356241 -2.1617104 10.834345
-0.73944154 -1.9938727 10.896419
-1.5097909 -3.3019034 10.794406
-1.4819138 -1.6853407 10.891975
-3.1198213 -4.3771747 10.591904
-3.0323278 -2.6684728 10.745395
-3.8782098 -4.0494636 10.539277
-2.3029897 -3.8378748 10.711035
-3.8225135 -3.1739301 10.623647
-2.2732632 -2.9863911 10.783562
-12.254132 -7.5734699 5.9669932
-10.506765 -6.4935378 7.5689739
-12.228227 -6.5043559 6.328667
-11.35018 -8.2891177 6.3972771
-7.0856034 -4.3791437 9.7527394
-8.8010481 -5.4393468 8.8365344
-7.8524339 -3.956574 9.5253892
-7.0190367 -5.4170691 9.6110748
-12.092831 -4.4521652 6.9790244
-10.474009 -5.4907839 7.8567513
-12.174223 -5.4593487 6.666725
-11.193912 -3.9714243 7.7228308
-11.338808 -5.9922641 7.136374
-9.4670291 -9.6057111 7.1994283
-9.6281008 -7.1381446 7.9430135
-10.416974 -8.9708056 6.8112678
-8.5812392 -8.9576362 7.9722161
-10.478214 -7.7042241 7.2169255
-9.3769648 -3.0489213 8.9552158
-9.5849219 -4.9722313 8.5143914
-8.6199885 -3.5101327 9.258218
-10.286883 -3.5026417 8.3856807
-8.7231369 -4.4675942 9.0623976
-10.390481 -4.4908461 8.137021
-6.826893 -7.5966664 9.2082772
-8.7373043 -6.548562 8.6111598
-6.933358 -6.4948174 9.4297892
-7.6961264 -8.2840581 8.6474199
-7.8840001 -5.9860885 9.1549663
-8.6807983 -7.7258328 8.316034
-0.7940873 6.1140476 10.38351
-2.3427783 5.5011161 10.348909
-1.3141633 6.8100818 10.206746
-0.77606643 5.2514288 10.528759
-5.3888023 4.1717778 10.080541
-3.8649995 4.8585478 10.249996
-2.4338553 8.2401906 9.7361774
-2.9008801 6.1655744 10.153792
-1.8639848 7.5222132 9.9913844
-2.1158653 6.4891168 10.188774
-0.74990029 3.5969556 10.743915
-2.2986262 4.6502218 10.490644
-0.76218567 4.4089999 10.648443
-1.5451298 4.953421 10.517551
-11.514938 0.57124941 8.040924
-10.033506 1.6321415 8.8419082
-11.795344 1.5187023 7.8700163
-10.775185 0 8.462991
-6.9313857 3.4199193 9.8173777
-8.4897259 2.5796533 9.420906
-12.268723 3.5051038 7.4498007
-10.251758 2.5627405 8.6765511
-12.048682 2.5021055 7.6736712
-11.031059 2.0579458 8.3049533
-9.2904222 -1.0558387 9.1810358
-9.3061086 1.0576214 9.1965376
-10.028972 -0.54390925 8.8445408
-10.046663 0.54486869 8.8601423
-5.0370308 11.217912 8.1500871
-5.5057059 8.9443385 8.9084192
-4.3528508 10.479419 8.6389068
-6.1439945 10.900801 7.9609328
-6.0718439 4.7838906 9.8244499
-5.8389874 6.8060193 9.4476801
-5.2854447 5.1426798 9.9366668
-3.062909 8.9963 9.4199839
-4.8202481 8.254137 9.2919452
-3.6900865 9.7328587 9.0619091
-3.2997167 7.8998577 9.6909142
-4.6065396 9.3442447 8.9944327
-8.3564438 10.129239 7.5096818
-6.5454816 8.6071091 8.7331943
-7.2572443 10.536753 7.7472653
-6.3640867 9.7330669 8.3818441
-3.7176431 5.8276188 10.097745
-5.0067942 7.1642115 9.5507687
-4.496671 5.4911438 10.027473
-3.5177779 6.8406701 9.9152579
-5.1582004 6.1430616 9.7605584
-4.1615176 7.5403065 9.6285129
-0.73215223 0.45249496 10.936187
-2.2108792 1.3663985 10.825799
-0.73425696 1.2149858 10.914869
-1.4706202 0 10.915325
-5.3259438 3.2916143 10.21706
-3.7327883 2.30699 10.593945
-4.5759581 3.6481324 10.312939
-0.74520318 2.7687638 10.821384
-2.2233754 2.1498666 10.774984
-0.73810256 1.9902622 10.876688
-1.500986 3.2826472 10.731454
-1.4774842 1.680303 10.859418
-2.9875015 -0.91701552 10.808882
-2.9787324 0.91432383 10.777155
-2.2258177 -0.45824235 10.873734
-2.2232004 0.45770351 10.860948
-3.0772902 4.3175026 10.44751
-3.0067322 2.6459484 10.654694
-3.822982 3.9917972 10.389193
-2.2806675 3.8006753 10.607216
-3.7793089 3.1380561 10.503571
-2.2560313 2.9637536 10.701821
-12.67295 7.8323138 6.1709313
-10.726037 6.6290553 7.7269354
-12.661023 6.7345657 6.5526586
-11.655323 8.5119661 6.5692645
-7.0155304 4.3358362 9.6562898
-8.8179367 5.4497846 8.8534911
-7.8148677 3.9376456 9.4798195
-6.9319836 5.3498843 9.4918742
-12.45074 4.583935 7.185581
-10.677598 5.5975111 8.009467
-12.583859 5.643044 6.8910459
-11.43394 4.0565824 7.8884291
-11.664014 6.1641273 7.3410512
-9.5042931 9.643521 7.2277666
-9.7308005 7.2142847 8.0277389
-10.586263 9.1165928 6.9219597
-8.5441631 8.9189339 7.9377714
-10.687691 7.8582443 7.3612039
-9.4259198 3.064839 9.0019689
-9.6763901 5.0196809 8.5956436
-8.6242788 3.5118798 9.2628259
-10.418214 3.5473594 8.4927396
-8.7343632 4.4733438 9.0740605
-10.561545 4.5647813 8.2709852
-6.703686 7.4595671 9.0420927
-8.7441025 6.5536573 8.6178599
-6.8285009 6.3965926 9.2871771
-7.6016578 8.1823728 8.5412744
-7.8285489 5.943986 9.0905759
-8.6717353 7.7177669 8.3073518
-6.2810187 -2.8682708 10.162902
-6.3269576 -0.94714265 10.237232
-7.0260103 -2.4553071 9.9756332
-5.4385314 -2.3732238 10.398303
-6.2245112 2.8424662 10.071471
-6.3079834 0.94430223 10.206532
-6.9846562 2.4408555 9.916918
-5.3913152 2.35262 10.308027
-8.5155975 -1.5569732 9.4925465
-7.054305 -0.49948866 10.039131
-7.7753856 -2.0164762 9.7510781
-8.5474987 -0.52087779 9.5206083
-7.0477166 -1.4693931 10.021952
-3.8062035 -1.406391 10.709744
-5.4755311 -0.48713578 10.436
-4.6076428 -1.8822425 10.578004
-3.8029221 -0.47006702 10.716764
-5.4663769 -1.4203835 10.429639
-8.5154118 1.5569393 9.4923395
-7.0458796 0.49889209 10.027141
-7.7543877 2.0110306 9.7247447
-8.5477489 0.52089303 9.5208869
-7.0229527 1.46423 9.9867374
-7.7925589 0 9.8023227
-3.7866542 1.3991676 10.654737
-5.4656178 0.48625383 10.417106
-4.5745506 1.8687242 10.502033
-3.7963406 0.46925351 10.698217
-5.4377036 1.412933 10.374931
-4.6336224 0 10.58644
-13.111877 0 -6.8993077
-14.885052 0 -5.3658228
-13.43299 0.99013506 -6.6999725
-13.318215 -0.98167508 -6.6427261
-17.801441 0 -1.2337725
-16.57444 0 -3.4909856
-13.996901 3.0668892 -6.2044516
-15.219882 1.0623123 -5.0954646
-13.73273 2.0174706 -6.4676647
-14.337964 1.0262713 -5.9366505
-13.65503 -2.9919812 -6.0529094
-15.095906 -1.0536591 -5.0539586
-13.499675 -1.9832326 -6.3579036
-14.21097 -1.0171814 -5.8840682
-13.111877 0 6.8993077
-14.885052 0 5.3658228
-13.43299 0.99013506 6.6999725
-13.318215 -0.98167508 6.6427261
-17.801441 0 1.2337725
-16.57444 0 3.4909856
-13.996901 3.0668892 6.2044516
-15.219882 1.0623123 5.0954646
-13.73273 2.0174706 6.4676647
-14.337964 1.0262713 5.9366505
-13.65503 -2.9919812 6.0529094
-15.095906 -1.0536591 5.0539586
-13.499675 -1.9832326 6.3579036
-14.21097 -1.0171814 5.8840682
-14.543169 7.5810556 -4.6853501
-16.109687 5.6762661 -3.5081254
-14.515979 6.4408906 -5.1349294
-15.350042 8.0283951 -3.5033683
-17.865474 1.1960519 -0.73920072
-17.217526 3.5162182 -2.1731423
-17.496885 1.1770374 -1.9476611
-14.236193 4.1932381 -5.883201
-15.996597 4.514206 -3.9725374
-14.407416 5.3015952 -5.5357029
-14.924808 3.208997 -5.3477131
-15.310205 5.5087924 -4.5740903
-16.311632 8.5583412 -0.76140088
-16.771569 5.9605539 -2.2024229
-15.971573 8.3710128 -2.1751242
-16.133409 7.0275057 -2.8707672
-16.103705 1.1089647 -4.1203007
-16.601845 3.425725 -3.3124644
-16.872463 1.1449816 -3.0873943
-15.546418 2.1744449 -4.7554976
-17.092677 2.3255538 -2.6447897
-15.812473 3.3333986 -4.3790935
-14.106931 -7.3536539 -4.5448081
-15.858039 -5.5875975 -3.4533252
-14.02505 -6.22306 -4.9612663
-15.134974 -7.9159097 -3.4542828
-17.944897 -1.2013691 -0.74248691
-17.253718 -3.5236093 -2.1777103
-17.519299 -1.1785452 -1.9501561
-13.802925 -4.06562 -5.7041502
-15.686354 -4.4266559 -3.8954926
-13.921435 -5.1227654 -5.3489764
-14.573247 -3.1334075 -5.2217452
-14.881024 -5.3543681 -4.4458678
-16.903347 -8.8688006 -0.78902119
-16.858044 -5.9912867 -2.2137786
-16.163329 -8.4715161 -2.201239
-16.05673 -6.9941052 -2.857123
-16.005134 -1.1021767 -4.0950802
-16.440769 -3.3924876 -3.2803259
-16.825164 -1.1417719 -3.0787393
-15.317485 -2.1424244 -4.6854691
-17.05484 -2.3204059 -2.6389352
-15.515694 -3.2708352 -4.2969037
-14.543169 7.5810556 4.6853501
-16.109687 5.6762661 3.5081254
-14.515979 6.4408906 5.1349294
-15.350042 8.0283951 3.5033683
-17.865474 1.1960519 0.73920072
-17.217526 3.5162182 2.1731423
-17.496885 1.1770374 1.9476611
-17.831922 2.4024922 0
-14.236193 4.1932381 5.883201
-15.996597 4.514206 3.9725374
-14.407416 5.3015952 5.5357029
-14.924808 3.208997 5.3477131
-15.310205 5.5087924 4.5740903
-16.311632 8.5583412 0.76140088
-16.771569 5.9605539 2.2024229
-15.971573 8.3710128 2.1751242
-16.837897 7.3698483 0
-16.133409 7.0275057 2.8707672
-16.103705 1.1089647 4.1203007
-16.601845 3.425725 3.3124644
-16.872463 1.1449816 3.0873943
-15.546418 2.1744449 4.7554976
-17.092677 2.3255538 2.6447897
-15.812473 3.3333986 4.3790935
-17.288823 4.7785133 -1.4667677
-17.288823 4.7785133 1.4667677
-17.634451 3.6097142 -0.74315338
-17.162354 6.0901871 -0.75278853
-17.634451 3.6097142 0.74315338
-17.162354 6.0901871 0.75278853
-14.106931 -7.3536539 4.5448081
-15.858039 -5.5875975 3.4533252
-14.02505 -6.22306 4.9612663
-15.134974 -7.9159097 3.4542828
