13.470658 -13.055425 -21.795982
8.062877 -17.63487 -19.130237
13.66825 -17.214666 -15.022861
9.8352522 -14.664573 -22.260228
5.0280704 -3.1075184 -37.319646
12.632897 -7.8075595 -29.146455
4.6538503 -7.7142299 -33.868232
8.5242788 -9.7242803 -29.575278
21.942764 -13.561374 -13.143345
17.901327 -11.063628 -21.044272
24.084266 -10.641168 -15.866211
17.756569 -15.495767 -14.098515
21.876822 -9.2204885 -20.166761
15.729483 -14.311156 -18.024384
4.4118574 16.290254 -29.084862
15.363883 15.020444 -33.798991
7.1957861 19.296542 -26.775221
4.7080598 12.810435 -33.05358
31.013025 3.2082077 -24.358093
25.52718 9.9734581 -31.914059
33.456442 8.9913508 -24.111609
26.625545 0 -26.312053
13.317241 25.330898 -21.547749
19.252945 18.659473 -31.151919
10.223031 22.359491 -24.255487
21.027556 26.483446 -23.11152
12.946171 19.30302 -29.301203
5.2393398 3.2380901 -38.887742
15.803241 9.7669402 -36.461033
5.0649423 8.3956567 -36.85994
10.250758 0 -37.08759
10.260253 11.704636 -35.598302
35.304851 21.819598 -21.147009
26.14891 16.160915 -30.739887
34.829638 15.388803 -22.945038
29.591364 25.823733 -23.495208
30.347839 12.790793 -27.975618
24.388153 22.189075 -27.946336
17.600256 -5.3023432 -28.477813
21.142886 6.3696139 -34.209908
21.978644 -2.875321 -27.647114
14.401591 -2.966891 -32.903325
24.303846 3.1795118 -30.572004
15.79936 3.2548473 -36.096809
28.036428 35.696328 3.6926818
38.116341 30.488215 11.911732
24.615933 34.156226 9.1794161
35.232428 35.652201 0
35.692113 5.4141056 19.990935
38.654429 17.571002 17.178226
17.271292 28.834356 17.820612
34.132923 29.035198 17.94474
20.863837 31.670459 13.992981
30.380448 32.95659 13.890311
41.739593 25.796487 -7.7715815
41.739593 25.796487 7.7715815
40.213279 31.968377 -4.1822118
40.213279 31.968377 4.1822118
16.166373 -20.583226 2.1292752
21.105558 -16.881756 6.5956949
14.872783 -20.636965 5.5461422
18.948804 -19.174567 0
30.743647 -4.6634771 17.219329
25.98459 -11.811719 11.547684
11.792509 -19.687549 12.167575
19.40111 -16.50357 10.199767
13.369222 -20.293938 8.9664847
17.208144 -18.667326 7.8677728
24.671812 -15.248018 -4.5936959
24.671812 -15.248018 4.5936959
21.850903 -17.370827 -2.2725106
21.850903 -17.370827 2.2725106
3.9821134 -14.703475 26.251804
11.604979 -11.345565 25.529781
6.0804954 -16.305729 22.625271
4.2637856 -11.601583 29.934492
28.137266 -2.9107187 22.099429
19.480096 -7.610865 24.354
26.268717 -7.0596641 18.931512
9.8285017 -18.694921 15.90285
13.470658 -13.055425 21.795982
8.062877 -17.63487 19.130237
13.66825 -17.214666 15.022861
9.8352522 -14.664573 22.260228
5.0280704 -3.1075184 37.319646
12.632897 -7.8075595 29.146455
4.6538503 -7.7142299 33.868232
8.5242788 -9.7242803 29.575278
21.942764 -13.561374 13.143345
17.901327 -11.063628 21.044272
24.084266 -10.641168 15.866211
17.756569 -15.495767 14.098515
21.876822 -9.2204885 20.166761
15.729483 -14.311156 18.024384
4.4118574 16.290254 29.084862
15.363883 15.020444 33.798991
7.1957861 19.296542 26.775221
4.7080598 12.810435 33.05358
31.013025 3.2082077 24.358093
25.52718 9.9734581 31.914059
33.456442 8.9913508 24.111609
26.625545 0 26.312053
13.317241 25.330898 21.547749
19.252945 18.659473 31.151919
10.223031 22.359491 24.255487
21.027556 26.483446 23.11152
12.946171 19.30302 29.301203
5.2393398 3.2380901 38.887742
15.803241 9.7669402 36.461033
5.0649423 8.3956567 36.85994
10.250758 0 37.08759
10.260253 11.704636 35.598302
35.304851 21.819598 21.147009
26.14891 16.160915 30.739887
34.829638 15.388803 22.945038
29.591364 25.823733 23.495208
30.347839 12.790793 27.975618
24.388153 22.189075 27.946336
17.600256 -5.3023432 28.477813
21.142886 6.3696139 34.209908
21.978644 -2.875321 27.647114
14.401591 -2.966891 32.903325
24.303846 3.1795118 30.572004
15.79936 3.2548473 36.096809
35.8987 0 -15.824312
40.719879 0 -5.6716257
38.939957 5.546499 -15.091793
33.734033 -4.8049817 -13.074155
35.8987 0 15.824312
40.719879 0 5.6716257
38.939957 5.546499 15.091793
33.734033 -4.8049817 13.074155
41.580535 18.022178 -11.138318
43.135412 5.8116277 -3.5917835
40.730728 11.739537 -13.392165
43.443829 19.015108 -3.9173276
41.615965 5.71847 -9.4789453
28.048014 -12.156801 -7.5133163
37.724212 -5.0825775 -3.1412057
30.926522 -8.9137385 -10.168566
29.020269 -12.702 -2.616756
36.243225 -4.9801992 -8.2551864
41.580535 18.022178 11.138318
43.135412 5.8116277 3.5917835
40.730728 11.739537 13.392165
43.443829 19.015108 3.9173276
41.615965 5.71847 9.4789453
43.948158 12.146972 0
28.048014 -12.156801 7.5133163
37.724212 -5.0825775 3.1412057
30.926522 -8.9137385 10.168566
29.020269 -12.702 2.616756
36.243225 -4.9801992 8.2551864
33.664906 -9.3047512 0
-16.166373 20.583226 -2.1292752
-21.105558 16.881756 -6.5956949
-14.872783 20.636965 -5.5461422
-30.743647 4.6634771 -17.219329
-25.98459 11.811719 -11.547684
-11.792509 19.687549 -12.167575
-19.40111 16.50357 -10.199767
-13.369222 20.293938 -8.9664847
-17.208144 18.667326 -7.8677728
-28.036428 -35.696328 -3.6926818
-38.116341 -30.488215 -11.911732
-24.615933 -34.156226 -9.1794161
-35.692113 -5.4141056 -19.990935
-38.654429 -17.571002 -17.178226
-17.271292 -28.834356 -17.820612
-34.132923 -29.035198 -17.94474
-20.863837 -31.670459 -13.992981
-30.380448 -32.95659 -13.890311
-4.4118574 -16.290254 -29.084862
-15.363883 -15.020444 -33.798991
-7.1957861 -19.296542 -26.775221
-4.7080598 -12.810435 -33.05358
-31.013025 -3.2082077 -24.358093
-25.52718 -9.9734581 -31.914059
-33.456442 -8.9913508 -24.111609
-13.317241 -25.330898 -21.547749
-19.252945 -18.659473 -31.151919
-10.223031 -22.359491 -24.255487
-21.027556 -26.483446 -23.11152
-12.946171 -19.30302 -29.301203
-5.2393398 -3.2380901 -38.887742
-15.803241 -9.7669402 -36.461033
-5.0649423 -8.3956567 -36.85994
-10.260253 -11.704636 -35.598302
-35.304851 -21.819598 -21.147009
-26.14891 -16.160915 -30.739887
-34.829638 -15.388803 -22.945038
-29.591364 -25.823733 -23.495208
-30.347839 -12.790793 -27.975618
-24.388153 -22.189075 -27.946336
-3.9821134 14.703475 -26.251804
-11.604979 11.345565 -25.529781
-6.0804954 16.305729 -22.625271
-4.2637856 11.601583 -29.934492
-28.137266 2.9107187 -22.099429
-19.480096 7.610865 -24.354
-26.268717 7.0596641 -18.931512
-26.625545 0 -26.312053
-9.8285017 18.694921 -15.90285
-13.470658 13.055425 -21.795982
-8.062877 17.63487 -19.130237
-13.66825 17.214666 -15.022861
-9.8352522 14.664573 -22.260228
-5.0280704 3.1075184 -37.319646
-12.632897 7.8075595 -29.146455
-4.6538503 7.7142299 -33.868232
-10.250758 0 -37.08759
-8.5242788 9.7242803 -29.575278
-21.942764 13.561374 -13.143345
-17.901327 11.063628 -21.044272
-24.084266 10.641168 -15.866211
-17.756569 15.495767 -14.098515
-21.876822 9.2204885 -20.166761
-15.729483 14.311156 -18.024384
-21.142886 -6.3696139 -34.209908
-17.600256 5.3023432 -28.477813
-24.303846 -3.1795118 -30.572004
-15.79936 -3.2548473 -36.096809
-21.978644 2.875321 -27.647114
-14.401591 2.966891 -32.903325
-16.166373 20.583226 2.1292752
-21.105558 16.881756 6.5956949
-14.872783 20.636965 5.5461422
-18.948804 19.174567 0
-30.743647 4.6634771 17.219329
-25.98459 11.811719 11.547684
-11.792509 19.687549 12.167575
-19.40111 16.50357 10.199767
-13.369222 20.293938 8.9664847
-17.208144 18.667326 7.8677728
-24.671812 15.248018 -4.5936959
-24.671812 15.248018 4.5936959
-21.850903 17.370827 -2.2725106
-21.850903 17.370827 2.2725106
-28.036428 -35.696328 3.6926818
-38.116341 -30.488215 11.911732
-24.615933 -34.156226 9.1794161
-35.232428 -35.652201 0
-35.692113 -5.4141056 19.990935
-38.654429 -17.571002 17.178226
-17.271292 -28.834356 17.820612
-34.132923 -29.035198 17.94474
-20.863837 -31.670459 13.992981
-30.380448 -32.95659 13.890311
-41.739593 -25.796487 -7.7715815
-41.739593 -25.796487 7.7715815
-40.213279 -31.968377 -4.1822118
-40.213279 -31.968377 4.1822118
-4.4118574 -16.290254 29.084862
-15.363883 -15.020444 33.798991
-7.1957861 -19.296542 26.775221
-4.7080598 -12.810435 33.05358
-31.013025 -3.2082077 24.358093
-25.52718 -9.9734581 31.914059
-33.456442 -8.9913508 24.111609
-13.317241 -25.330898 21.547749
-19.252945 -18.659473 31.151919
-10.223031 -22.359491 24.255487
-21.027556 -26.483446 23.11152
-12.946171 -19.30302 29.301203
-5.2393398 -3.2380901 38.887742
-15.803241 -9.7669402 36.461033
-5.0649423 -8.3956567 36.85994
-10.260253 -11.704636 35.598302
-35.304851 -21.819598 21.147009
-26.14891 -16.160915 30.739887
-34.829638 -15.388803 22.945038
-29.591364 -25.823733 23.495208
-30.347839 -12.790793 27.975618
-24.388153 -22.189075 27.946336
-3.9821134 14.703475 26.251804
-11.604979 11.345565 25.529781
-6.0804954 16.305729 22.625271
-4.2637856 11.601583 29.934492
-28.137266 2.9107187 22.099429
-19.480096 7.610865 24.354
-26.268717 7.0596641 18.931512
-26.625545 0 26.312053
-9.8285017 18.694921 15.90285
-13.470658 13.055425 21.795982
-8.062877 17.63487 19.130237
-13.66825 17.214666 15.022861
-9.8352522 14.664573 22.260228
-5.0280704 3.1075184 37.319646
-12.632897 7.8075595 29.146455
-4.6538503 7.7142299 33.868232
-10.250758 0 37.08759
-8.5242788 9.7242803 29.575278
-21.942764 13.561374 13.143345
-17.901327 11.063628 21.044272
-24.084266 10.641168 15.866211
-17.756569 15.495767 14.098515
-21.876822 9.2204885 20.166761
-15.729483 14.311156 18.024384
-21.142886 -6.3696139 34.209908
-17.600256 5.3023432 28.477813
-24.303846 -3.1795118 30.572004
-15.79936 -3.2548473 36.096809
-21.978644 2.875321 27.647114
-14.401591 2.966891 32.903325
-35.8987 0 -15.824312
-40.719879 0 -5.6716257
-33.734033 4.8049817 -13.074155
-38.939957 -5.546499 -15.091793
-35.8987 0 15.824312
-40.719879 0 5.6716257
-33.734033 4.8049817 13.074155
-38.939957 -5.546499 15.091793
-28.048014 12.156801 -7.5133163
-37.724212 5.0825775 -3.1412057
-30.926522 8.9137385 -10.168566
-29.020269 12.702 -2.616756
-36.243225 4.9801992 -8.2551864
-41.580535 -18.022178 -11.138318
-43.135412 -5.8116277 -3.5917835
-40.730728 -11.739537 -13.392165
-43.443829 -19.015108 -3.9173276
-41.615965 -5.71847 -9.4789453
-28.048014 12.156801 7.5133163
-37.724212 5.0825775 3.1412057
-30.926522 8.9137385 10.168566
-29.020269 12.702 2.616756
-36.243225 4.9801992 8.2551864
-33.664906 9.3047512 0
-41.580535 -18.022178 11.138318
-43.135412 -5.8116277 3.5917835
-40.730728 -11.739537 13.392165
-43.443829 -19.015108 3.9173276
-41.615965 -5.71847 9.4789453
-43.948158 -12.146972 0
-12.009384 22.823386 0
-8.7832005 24.365022 0
-1.8960067 27.356463 0
-5.447416 25.863146 0
17.854867 33.93251 0
11.593093 32.1598 0
2.0016946 28.881377 0
6.4183506 30.472932 0
-17.854867 -33.93251 0
-11.593093 -32.1598 0
-2.0016946 -28.881377 0
-6.4183506 -30.472932 0
12.009384 -22.823386 0
8.7832005 -24.365022 0
1.8960067 -27.356463 0
5.447416 -25.863146 0
-20.264261 -34.41487 2.631905
-17.514978 -32.949845 7.459161
-16.727053 -33.536607 2.4719566
-11.734758 -28.355468 15.158116
-14.611916 -30.826513 11.623854
-10.637349 -31.773195 2.2176951
-14.232415 -32.107544 7.0351488
-13.515613 -32.642377 2.3364498
-15.500913 -32.912937 4.8352284
-1.2619055 -17.76262 25.436812
-3.7760628 -20.456314 23.213151
-8.9701317 -25.750073 18.180383
-6.328073 -23.110152 20.825901
-1.1789024 -28.492465 1.9075042
-3.6342195 -28.793452 5.8802907
-3.2581037 -29.269294 1.9689822
-8.9174763 -27.679547 14.42878
-6.207768 -28.506735 10.04438
-10.214971 -28.876797 12.812934
-7.9036616 -30.890521 2.1272432
-5.9004468 -29.572635 6.1021962
-5.5027423 -30.072224 2.0407302
-9.5317273 -31.160613 4.3583695
-4.5647468 -29.500925 4.013765
-12.854085 -31.104366 9.16172
-7.3225392 -29.486371 8.3209916
-11.539978 -30.034354 11.051946
-11.191402 -31.233824 6.7156138
-8.7400922 -29.254473 10.526105
-8.4142411 -30.382992 6.4049831
13.083199 -22.219246 1.6992348
11.852439 -22.297261 5.0476372
11.478853 -23.014321 1.6963673
8.8816336 -21.461276 11.472655
10.435686 -22.015992 8.3016414
8.2209382 -24.555505 1.7139172
10.232841 -23.084725 5.0581407
9.8525805 -23.795564 1.7032197
10.879535 -23.100411 3.3936735
1.2224241 -17.206879 24.640967
3.4340695 -18.603612 21.110765
0 -18.522349 23.582883
7.2099093 -20.697097 14.612819
5.407748 -19.749121 17.797081
-2.4276298 -21.109434 21.36094
2.2797612 -19.823643 20.05983
-1.219413 -19.828947 22.484374
1.1813534 -19.210059 21.782606
1.1414279 -27.586757 1.8468691
3.3008378 -26.152112 5.3408678
2.9872537 -26.836103 1.8052984
0 -27.814104 3.7473902
7.1618725 -22.230211 11.588153
5.2973464 -24.325982 8.5712865
7.9733422 -22.539915 10.001194
6.4830115 -25.338079 1.7448801
5.0702338 -25.411665 5.2435964
4.7729131 -26.083742 1.770068
7.5427074 -24.658215 3.4488928
4.0507873 -26.179321 3.5618422
-2.36061 -27.824562 7.6905198
2.2153469 -26.112342 7.2172738
-1.1754194 -27.891787 5.7093574
1.1382078 -27.008783 5.5286093
9.4963487 -22.979302 6.7685008
6.0879862 -24.515078 6.9181032
8.7578885 -22.79359 8.387513
8.5507881 -23.864195 5.131063
7.0404112 -23.565372 8.479099
6.8243978 -24.642225 5.1947825
-7.3990392 -26.216391 16.202621
-2.2801187 -24.644762 15.231301
-6.1455565 -24.968697 17.585883
-6.1177072 -26.804793 14.019471
6.1515334 -21.796209 13.470798
2.1456152 -23.190975 14.332811
5.2625487 -21.381136 15.059103
5.2352094 -22.938121 11.99712
-3.6801674 -22.437226 20.128043
-1.168601 -23.487497 16.504214
-4.901169 -23.700593 18.898552
-1.1891568 -21.735418 19.513822
-3.5499174 -24.212107 17.02663
-3.6254783 -27.608213 9.8118573
-1.1755229 -25.183444 13.213179
-4.8525551 -27.270848 11.878831
-1.1733893 -26.751368 9.4929188
-3.5367994 -25.970126 13.61145
3.3478896 -20.411396 18.310707
1.1323767 -22.759432 15.992617
4.325449 -20.916583 16.678617
1.1521672 -21.059322 18.90683
3.2357368 -22.069247 15.519711
0 -22.286463 17.717084
3.2943506 -25.086657 8.9157057
1.1385689 -24.391773 12.797807
4.27841 -24.044213 10.47335
1.136394 -25.907935 9.1936204
3.2223325 -23.661049 12.401217
0 -25.592703 11.201775
-13.083199 22.219246 1.6992348
-11.852439 22.297261 5.0476372
-11.478853 23.014321 1.6963673
-8.8816336 21.461276 11.472655
-10.435686 22.015992 8.3016414
-8.2209382 24.555505 1.7139172
-10.232841 23.084725 5.0581407
-9.8525805 23.795564 1.7032197
-10.879535 23.100411 3.3936735
-1.2224241 17.206879 24.640967
-3.4340695 18.603612 21.110765
-7.2099093 20.697097 14.612819
-5.407748 19.749121 17.797081
-1.1414279 27.586757 1.8468691
-3.3008378 26.152112 5.3408678
-2.9872537 26.836103 1.8052984
-7.1618725 22.230211 11.588153
-5.2973464 24.325982 8.5712865
-7.9733422 22.539915 10.001194
-6.4830115 25.338079 1.7448801
-5.0702338 25.411665 5.2435964
-4.7729131 26.083742 1.770068
-7.5427074 24.658215 3.4488928
-4.0507873 26.179321 3.5618422
-9.4963487 22.979302 6.7685008
-6.0879862 24.515078 6.9181032
-8.7578885 22.79359 8.387513
-8.5507881 23.864195 5.131063
-7.0404112 23.565372 8.479099
-6.8243978 24.642225 5.1947825
20.264261 34.41487 2.631905
17.514978 32.949845 7.459161
16.727053 33.536607 2.4719566
11.734758 28.355468 15.158116
14.611916 30.826513 11.623854
10.637349 31.773195 2.2176951
14.232415 32.107544 7.0351488
13.515613 32.642377 2.3364498
15.500913 32.912937 4.8352284
1.2619055 17.76262 25.436812
3.7760628 20.456314 23.213151
0 18.522349 23.582883
8.9701317 25.750073 18.180383
6.328073 23.110152 20.825901
-2.2797612 19.823643 20.05983
2.4276298 21.109434 21.36094
-1.1813534 19.210059 21.782606
1.219413 19.828947 22.484374
1.1789024 28.492465 1.9075042
3.6342195 28.793452 5.8802907
3.2581037 29.269294 1.9689822
0 27.814104 3.7473902
8.9174763 27.679547 14.42878
6.207768 28.506735 10.04438
10.214971 28.876797 12.812934
7.9036616 30.890521 2.1272432
5.9004468 29.572635 6.1021962
5.5027423 30.072224 2.0407302
9.5317273 31.160613 4.3583695
4.5647468 29.500925 4.013765
-2.2153469 26.112342 7.2172738
2.36061 27.824562 7.6905198
-1.1382078 27.008783 5.5286093
1.1754194 27.891787 5.7093574
12.854085 31.104366 9.16172
7.3225392 29.486371 8.3209916
11.539978 30.034354 11.051946
11.191402 31.233824 6.7156138
8.7400922 29.254473 10.526105
8.4142411 30.382992 6.4049831
-6.1515334 21.796209 13.470798
-2.1456152 23.190975 14.332811
-5.2625487 21.381136 15.059103
-5.2352094 22.938121 11.99712
7.3990392 26.216391 16.202621
2.2801187 24.644762 15.231301
6.1455565 24.968697 17.585883
6.1177072 26.804793 14.019471
-3.3478896 20.411396 18.310707
-1.1323767 22.759432 15.992617
-4.325449 20.916583 16.678617
-1.1521672 21.059322 18.90683
-3.2357368 22.069247 15.519711
-3.2943506 25.086657 8.9157057
-1.1385689 24.391773 12.797807
-4.27841 24.044213 10.47335
-1.136394 25.907935 9.1936204
-3.2223325 23.661049 12.401217
3.6801674 22.437226 20.128043
1.168601 23.487497 16.504214
4.901169 23.700593 18.898552
1.1891568 21.735418 19.513822
3.5499174 24.212107 17.02663
0 22.286463 17.717084
3.6254783 27.608213 9.8118573
1.1755229 25.183444 13.213179
4.8525551 27.270848 11.878831
1.1733893 26.751368 9.4929188
3.5367994 25.970126 13.61145
0 25.592703 11.201775
0 -14.927667 28.369476
0 -11.607788 32.200564
0 -2.6850419 38.741029
0 -7.5772891 35.97532
0 14.927667 28.369476
0 11.607788 32.200564
0 2.6850419 38.741029
0 7.5772891 35.97532
-20.264261 -34.41487 -2.631905
-17.514978 -32.949845 -7.459161
-16.727053 -33.536607 -2.4719566
-11.734758 -28.355468 -15.158116
-14.611916 -30.826513 -11.623854
-10.637349 -31.773195 -2.2176951
-14.232415 -32.107544 -7.0351488
-13.515613 -32.642377 -2.3364498
-15.500913 -32.912937 -4.8352284
-1.2619055 -17.76262 -25.436812
-3.7760628 -20.456314 -23.213151
-8.9701317 -25.750073 -18.180383
-6.328073 -23.110152 -20.825901
-1.1789024 -28.492465 -1.9075042
-3.6342195 -28.793452 -5.8802907
-3.2581037 -29.269294 -1.9689822
-8.9174763 -27.679547 -14.42878
-6.207768 -28.506735 -10.04438
-10.214971 -28.876797 -12.812934
-7.9036616 -30.890521 -2.1272432
-5.9004468 -29.572635 -6.1021962
-5.5027423 -30.072224 -2.0407302
-9.5317273 -31.160613 -4.3583695
-4.5647468 -29.500925 -4.013765
-12.854085 -31.104366 -9.16172
-7.3225392 -29.486371 -8.3209916
-11.539978 -30.034354 -11.051946
-11.191402 -31.233824 -6.7156138
-8.7400922 -29.254473 -10.526105
-8.4142411 -30.382992 -6.4049831
13.083199 -22.219246 -1.6992348
11.852439 -22.297261 -5.0476372
11.478853 -23.014321 -1.6963673
8.8816336 -21.461276 -11.472655
10.435686 -22.015992 -8.3016414
8.2209382 -24.555505 -1.7139172
10.232841 -23.084725 -5.0581407
9.8525805 -23.795564 -1.7032197
10.879535 -23.100411 -3.3936735
1.2224241 -17.206879 -24.640967
3.4340695 -18.603612 -21.110765
0 -18.522349 -23.582883
7.2099093 -20.697097 -14.612819
5.407748 -19.749121 -17.797081
-2.4276298 -21.109434 -21.36094
2.2797612 -19.823643 -20.05983
-1.219413 -19.828947 -22.484374
1.1813534 -19.210059 -21.782606
1.1414279 -27.586757 -1.8468691
3.3008378 -26.152112 -5.3408678
2.9872537 -26.836103 -1.8052984
0 -27.814104 -3.7473902
7.1618725 -22.230211 -11.588153
5.2973464 -24.325982 -8.5712865
7.9733422 -22.539915 -10.001194
6.4830115 -25.338079 -1.7448801
5.0702338 -25.411665 -5.2435964
4.7729131 -26.083742 -1.770068
7.5427074 -24.658215 -3.4488928
4.0507873 -26.179321 -3.5618422
-2.36061 -27.824562 -7.6905198
2.2153469 -26.112342 -7.2172738
-1.1754194 -27.891787 -5.7093574
1.1382078 -27.008783 -5.5286093
9.4963487 -22.979302 -6.7685008
6.0879862 -24.515078 -6.9181032
8.7578885 -22.79359 -8.387513
8.5507881 -23.864195 -5.131063
7.0404112 -23.565372 -8.479099
6.8243978 -24.642225 -5.1947825
-7.3990392 -26.216391 -16.202621
-2.2801187 -24.644762 -15.231301
-6.1455565 -24.968697 -17.585883
-6.1177072 -26.804793 -14.019471
6.1515334 -21.796209 -13.470798
2.1456152 -23.190975 -14.332811
5.2625487 -21.381136 -15.059103
5.2352094 -22.938121 -11.99712
-3.6801674 -22.437226 -20.128043
-1.168601 -23.487497 -16.504214
-4.901169 -23.700593 -18.898552
-1.1891568 -21.735418 -19.513822
-3.5499174 -24.212107 -17.02663
-3.6254783 -27.608213 -9.8118573
-1.1755229 -25.183444 -13.213179
-4.8525551 -27.270848 -11.878831
-1.1733893 -26.751368 -9.4929188
-3.5367994 -25.970126 -13.61145
3.3478896 -20.411396 -18.310707
1.1323767 -22.759432 -15.992617
4.325449 -20.916583 -16.678617
1.1521672 -21.059322 -18.90683
3.2357368 -22.069247 -15.519711
0 -22.286463 -17.717084
3.2943506 -25.086657 -8.9157057
1.1385689 -24.391773 -12.797807
4.27841 -24.044213 -10.47335
1.136394 -25.907935 -9.1936204
3.2223325 -23.661049 -12.401217
0 -25.592703 -11.201775
-13.083199 22.219246 -1.6992348
-11.852439 22.297261 -5.0476372
-11.478853 23.014321 -1.6963673
-8.8816336 21.461276 -11.472655
-10.435686 22.015992 -8.3016414
-8.2209382 24.555505 -1.7139172
-10.232841 23.084725 -5.0581407
-9.8525805 23.795564 -1.7032197
-10.879535 23.100411 -3.3936735
-1.2224241 17.206879 -24.640967
-3.4340695 18.603612 -21.110765
-7.2099093 20.697097 -14.612819
-5.407748 19.749121 -17.797081
-1.1414279 27.586757 -1.8468691
-3.3008378 26.152112 -5.3408678
-2.9872537 26.836103 -1.8052984
-7.1618725 22.230211 -11.588153
-5.2973464 24.325982 -8.5712865
-7.9733422 22.539915 -10.001194
-6.4830115 25.338079 -1.7448801
-5.0702338 25.411665 -5.2435964
-4.7729131 26.083742 -1.770068
-7.5427074 24.658215 -3.4488928
-4.0507873 26.179321 -3.5618422
-9.4963487 22.979302 -6.7685008
-6.0879862 24.515078 -6.9181032
-8.7578885 22.79359 -8.387513
-8.5507881 23.864195 -5.131063
-7.0404112 23.565372 -8.479099
-6.8243978 24.642225 -5.1947825
20.264261 34.41487 -2.631905
17.514978 32.949845 -7.459161
16.727053 33.536607 -2.4719566
11.734758 28.355468 -15.158116
14.611916 30.826513 -11.623854
10.637349 31.773195 -2.2176951
14.232415 32.107544 -7.0351488
13.515613 32.642377 -2.3364498
15.500913 32.912937 -4.8352284
1.2619055 17.76262 -25.436812
3.7760628 20.456314 -23.213151
0 18.522349 -23.582883
8.9701317 25.750073 -18.180383
6.328073 23.110152 -20.825901
-2.2797612 19.823643 -20.05983
2.4276298 21.109434 -21.36094
-1.1813534 19.210059 -21.782606
1.219413 19.828947 -22.484374
1.1789024 28.492465 -1.9075042
3.6342195 28.793452 -5.8802907
3.2581037 29.269294 -1.9689822
0 27.814104 -3.7473902
8.9174763 27.679547 -14.42878
6.207768 28.506735 -10.04438
10.214971 28.876797 -12.812934
7.9036616 30.890521 -2.1272432
5.9004468 29.572635 -6.1021962
5.5027423 30.072224 -2.0407302
9.5317273 31.160613 -4.3583695
4.5647468 29.500925 -4.013765
-2.2153469 26.112342 -7.2172738
2.36061 27.824562 -7.6905198
-1.1382078 27.008783 -5.5286093
1.1754194 27.891787 -5.7093574
12.854085 31.104366 -9.16172
7.3225392 29.486371 -8.3209916
11.539978 30.034354 -11.051946
11.191402 31.233824 -6.7156138
8.7400922 29.254473 -10.526105
8.4142411 30.382992 -6.4049831
-6.1515334 21.796209 -13.470798
-2.1456152 23.190975 -14.332811
-5.2625487 21.381136 -15.059103
-5.2352094 22.938121 -11.99712
7.3990392 26.216391 -16.202621
2.2801187 24.644762 -15.231301
6.1455565 24.968697 -17.585883
6.1177072 26.804793 -14.019471
-3.3478896 20.411396 -18.310707
-1.1323767 22.759432 -15.992617
-4.325449 20.916583 -16.678617
-1.1521672 21.059322 -18.90683
-3.2357368 22.069247 -15.519711
-3.2943506 25.086657 -8.9157057
-1.1385689 24.391773 -12.797807
-4.27841 24.044213 -10.47335
-1.136394 25.907935 -9.1936204
-3.2223325 23.661049 -12.401217
3.6801674 22.437226 -20.128043
1.168601 23.487497 -16.504214
4.901169 23.700593 -18.898552
1.1891568 21.735418 -19.513822
3.5499174 24.212107 -17.02663
0 22.286463 -17.717084
3.6254783 27.608213 -9.8118573
1.1755229 25.183444 -13.213179
4.8525551 27.270848 -11.878831
1.1733893 26.751368 -9.4929188
3.5367994 25.970126 -13.61145
0 25.592703 -11.201775
0 -14.927667 -28.369476
0 -11.607788 -32.200564
0 -2.6850419 -38.741029
0 -7.5772891 -35.97532
0 14.927667 -28.369476
0 11.607788 -32.200564
0 2.6850419 -38.741029
0 7.5772891 -35.97532
24.710669 35.386707 -1.755514
31.332324 35.554889 -5.7836823
23.260659 34.862377 -4.4886839
38.837483 27.420517 -13.529179
36.639355 33.017853 -10.032669
20.09864 33.099496 -9.4563363
29.505565 34.86223 -8.7148806
21.706085 34.081433 -7.0775659
26.396946 35.06176 -6.5410944
34.281007 2.6216678 -20.18544
36.795457 8.3297278 -19.55917
38.941936 20.817374 -16.115911
38.219369 14.411502 -18.116166
13.606109 27.942223 -17.269243
21.364952 29.657458 -18.329317
15.170179 29.311763 -15.591315
37.025865 26.900196 -16.625235
30.258572 30.137057 -18.625726
36.261364 29.892738 -15.061932
18.415068 31.908516 -11.74762
23.365724 31.149363 -16.329413
16.785158 30.651669 -13.745284
22.765861 32.998139 -11.707222
19.059506 30.283177 -16.003869
32.467893 33.99698 -11.054122
28.133856 31.671179 -16.429599
34.749662 32.35414 -13.174881
27.587469 33.842102 -11.523098
32.586182 31.366283 -16.064384
25.508718 32.573082 -14.078337
14.897885 -21.334392 -1.0583868
17.418579 -19.766029 -3.2153225
14.326119 -21.471557 -2.7645571
22.322681 -15.760534 -7.7761873
19.884939 -17.919474 -5.444938
13.016273 -21.435883 -6.1241088
16.74824 -19.788842 -4.9468264
13.694054 -21.501482 -4.4651336
15.552721 -20.657912 -3.8539238
31.757887 -2.4287101 -18.699769
29.616526 -6.7045668 -15.743103
24.760275 -13.236217 -10.246907
27.210066 -10.260188 -12.897703
9.9347159 -20.402456 -12.609411
13.651369 -18.949956 -11.711717
10.738573 -20.749031 -11.036685
21.429709 -15.569207 -9.6222991
17.43924 -17.369206 -10.73476
20.287241 -16.724169 -8.4267392
12.275731 -21.270644 -7.8311206
14.450964 -19.2649 -10.099228
11.523565 -21.043383 -9.4365915
14.146026 -20.504058 -7.2745182
12.597957 -20.016582 -10.578241
17.968253 -18.814474 -6.1175287
16.391093 -18.451976 -9.5720646
19.12888 -17.810201 -7.2524656
16.047121 -19.685326 -6.7027732
18.305641 -17.62035 -9.0243421
15.274191 -19.504213 -8.4298713
2.0181215 -15.538456 -26.389018
5.9082618 -13.873286 -26.098955
3.1591205 -16.370773 -24.536023
2.0802231 -14.076299 -28.222025
13.52071 -10.467149 -25.292462
9.7060932 -12.201171 -25.740604
5.255005 -17.791625 -21.021652
6.9300866 -14.729311 -24.257003
4.2423801 -17.120358 -22.740126
5.0681719 -15.543503 -24.405363
2.2354877 -10.722692 -32.028111
6.1126908 -12.366242 -27.89756
2.155545 -12.469137 -30.114969
4.1231922 -13.218247 -28.066174
30.381301 -1.5071987 -21.215375
25.904305 -4.2138303 -22.827861
29.503009 -3.7986418 -19.684815
17.448432 -8.6089901 -24.713363
21.566345 -6.5530611 -23.93181
27.400774 -7.8282441 -16.638268
25.038464 -6.2591299 -21.191244
28.48383 -5.9151321 -18.141033
27.239909 -5.0818561 -20.50811
8.9468123 -19.92534 -14.476246
10.713668 -17.404976 -17.33508
8.088453 -19.472823 -16.052788
10.832945 -19.220033 -14.036528
14.448581 -11.383763 -23.378295
12.526851 -14.601502 -20.26887
12.573073 -12.233462 -23.63745
6.2707592 -18.418318 -19.285735
9.8378462 -16.846214 -18.96432
7.1918797 -18.96908 -17.661418
7.1005859 -16.999525 -20.85366
8.9655648 -18.186413 -17.505585
14.622559 -17.724693 -13.140849
12.665599 -16.654877 -16.898853
12.731181 -18.484331 -13.590811
11.746717 -17.96512 -15.471057
8.8598904 -13.888386 -24.064956
10.74904 -15.38078 -20.504458
10.703009 -13.07006 -23.867465
7.9648521 -15.488449 -22.449843
11.646299 -13.869941 -22.037606
8.9377808 -16.194478 -20.679364
2.5883395 -1.5996818 -38.66213
7.2442585 -4.477198 -35.472262
2.5226481 -4.1742629 -37.499643
14.107468 -8.7188949 -27.063156
11.017369 -6.8091086 -31.268156
12.11613 -9.659452 -27.306394
2.3429577 -8.7051378 -34.022996
6.9461331 -6.7164816 -33.662546
2.4338714 -6.5628308 -35.865557
4.4610132 -9.7562085 -31.894475
4.8570924 -5.5238404 -35.69933
8.1653098 -11.456101 -27.721518
8.8836892 -7.8177176 -31.480354
10.128145 -10.575384 -27.523868
6.4009476 -10.667019 -29.770334
10.571383 -8.7776879 -29.380312
6.6855221 -8.7827858 -31.71377
22.786096 -14.082582 -11.095399
21.026834 -12.995298 -15.147532
23.926701 -12.726929 -12.383162
20.666318 -15.09276 -11.648112
16.724588 -10.336364 -23.019993
19.006433 -11.746622 -19.083068
18.686795 -9.4156393 -22.668003
15.658778 -12.084946 -21.441359
26.21667 -9.6520775 -15.130185
22.030029 -11.54879 -16.52514
25.079534 -11.246543 -13.733801
25.180426 -8.9336202 -17.372316
23.00801 -12.159133 -14.48069
16.639233 -16.88298 -12.653702
18.889839 -14.004673 -15.583784
18.609797 -16.026235 -12.168247
15.689812 -16.378011 -14.576283
19.809524 -14.565174 -13.643915
22.800146 -7.4134705 -21.774661
20.956641 -10.871374 -18.616014
20.721875 -8.4381239 -22.256136
24.035346 -8.183937 -19.593178
19.858527 -10.170635 -20.630865
23.020219 -9.9495165 -18.027655
13.655235 -15.194945 -18.418509
17.853515 -13.381112 -17.595756
14.631698 -13.706231 -19.9
14.689108 -15.811256 -16.504781
16.79758 -12.753907 -19.505489
16.771246 -14.926259 -16.066523
2.124499 16.357506 -27.780014
6.8836404 16.163589 -30.40756
3.4341449 17.795967 -26.672062
2.1891832 14.813603 -29.700269
18.308193 14.173412 -34.248147
12.400054 15.587649 -32.885002
6.0926805 20.627705 -24.372615
8.3527034 17.752962 -29.23651
4.7637259 19.224278 -25.534659
5.8042597 17.801 -27.949933
2.3467429 11.256337 -33.622079
7.1031046 14.369893 -32.417685
2.2667835 13.112616 -31.669074
4.5646684 14.633544 -31.071261
31.889277 1.5820086 -22.268401
29.960082 4.87358 -26.401967
33.41813 4.3027307 -22.297037
29.703364 0 -23.329466
23.47519 11.582569 -33.249456
27.254209 8.2813522 -30.243536
35.618313 10.175948 -21.628114
31.150263 7.7869611 -26.363952
34.669133 7.1996113 -22.080384
32.372208 6.0393338 -24.372063
25.212688 -2.8653737 -24.915832
27.832414 3.1631004 -27.504712
27.450805 -1.4887614 -24.208837
28.850402 1.5646668 -25.443141
11.803574 26.287601 -19.098584
14.864569 24.148354 -24.051377
10.338732 24.890333 -20.518815
15.267547 27.087994 -19.782556
20.339761 16.025311 -32.910424
17.906855 20.872523 -28.973899
17.306562 16.839095 -32.536438
7.5190461 22.084755 -23.124844
13.185977 22.579515 -25.41848
8.9024661 23.48087 -21.862181
8.6993466 20.827121 -25.549048
11.753522 23.841712 -22.949171
23.411945 28.378721 -21.039602
18.689531 24.576165 -24.93618
19.175057 27.840158 -20.469788
16.988485 25.981742 -22.374747
11.243276 17.624479 -30.538632
14.667821 20.988155 -27.979774
14.203923 17.345228 -31.674423
9.9510116 19.350735 -28.04806
16.049295 19.113605 -30.369134
11.571982 20.967422 -26.774123
2.6173619 1.6176186 -39.095637
7.8694078 4.8635615 -38.53337
2.5925849 4.2899883 -38.539267
5.2032659 0 -38.619993
18.441877 11.397707 -35.378098
13.155419 8.1304963 -37.33611
15.698559 12.515504 -35.380194
2.4513458 9.1078482 -35.596941
7.7865129 7.529077 -37.735218
2.5296504 6.8210947 -37.276957
4.9033514 10.723599 -35.057017
5.1978004 5.9113185 -38.203513
9.7866093 -3.0040061 -35.408285
10.522647 3.2299334 -38.071296
7.6290791 -1.570644 -37.270158
7.8658729 1.6193941 -38.426961
9.9384695 13.943881 -33.741458
10.469709 9.2134275 -37.100593
12.794006 13.358964 -34.768511
7.4046729 12.339702 -34.438587
13.071681 10.853749 -36.329217
7.6498293 10.049599 -36.288105
37.27101 23.034751 -18.148643
33.185962 20.510053 -23.906853
37.143378 19.757055 -19.223398
35.049085 25.596598 -19.754639
23.632025 14.605395 -32.527503
28.590694 17.670021 -28.705973
25.992234 13.096601 -31.529861
22.92448 17.692384 -31.390189
36.330037 13.375472 -20.96682
33.066251 17.334303 -24.803618
36.820726 16.511705 -20.163394
34.260574 12.155114 -23.636832
35.165972 18.584299 -22.13262
27.983964 28.393899 -21.281073
30.545502 22.646024 -25.1995
31.932708 27.499552 -20.879598
25.431274 26.54676 -23.626379
32.858553 24.159619 -22.631503
29.669879 9.647165 -28.335413
30.769878 15.962045 -27.333221
27.993987 11.39939 -30.06668
32.026882 10.905022 -26.107734
28.439315 14.565325 -29.545379
32.655902 14.114133 -25.573577
20.387296 22.686087 -27.498874
28.003338 20.988349 -27.59904
21.807535 20.42819 -29.659575
22.869629 24.616713 -25.69647
25.502038 19.362945 -29.613178
27.007197 24.036164 -25.872363
16.519131 -7.5435759 -26.728516
18.679276 -2.7962791 -30.223704
18.591883 -6.4971129 -26.39703
15.091336 -6.5854394 -28.854167
21.329147 9.740103 -34.511285
20.560375 3.0778788 -33.267386
23.372051 8.1675888 -33.183984
18.695875 8.15836 -35.745933
22.901913 -4.1873357 -25.529327
20.919808 -1.4812525 -29.771422
20.731872 -5.376624 -25.999752
24.296234 -1.4805932 -27.062294
19.769145 -4.1217101 -28.112002
11.800799 -4.3603915 -33.204617
17.036429 -1.515662 -32.470307
13.518925 -5.5225409 -31.036098
12.46652 -1.5409467 -35.131078
16.087585 -4.1801986 -30.694499
26.550457 4.8544275 -29.596449
22.009038 1.5583768 -31.321529
25.105819 6.5109678 -31.485101
25.55914 1.5575537 -28.468979
22.852264 4.764516 -32.496241
23.229707 0 -29.220835
13.327219 4.9244034 -37.499597
17.904827 1.5929198 -34.125416
16.004589 6.5379455 -36.742564
13.020363 1.6094054 -36.691827
18.486965 4.8036534 -35.272423
15.193466 0 -34.712522
24.710669 35.386707 1.755514
31.332324 35.554889 5.7836823
23.260659 34.862377 4.4886839
28.209321 35.916457 0
38.837483 27.420517 13.529179
36.639355 33.017853 10.032669
20.09864 33.099496 9.4563363
29.505565 34.86223 8.7148806
21.706085 34.081433 7.0775659
26.396946 35.06176 6.5410944
34.999638 35.416637 -4.0250328
34.999638 35.416637 4.0250328
31.758543 36.011542 -1.9530426
31.758543 36.011542 1.9530426
34.281007 2.6216678 20.18544
36.795457 8.3297278 19.55917
38.941936 20.817374 16.115911
38.219369 14.411502 18.116166
13.606109 27.942223 17.269243
21.364952 29.657458 18.329317
15.170179 29.311763 15.591315
37.025865 26.900196 16.625235
30.258572 30.137057 18.625726
36.261364 29.892738 15.061932
18.415068 31.908516 11.74762
23.365724 31.149363 16.329413
16.785158 30.651669 13.745284
22.765861 32.998139 11.707222
19.059506 30.283177 16.003869
32.467893 33.99698 11.054122
28.133856 31.671179 16.429599
34.749662 32.35414 13.174881
27.587469 33.842102 11.523098
32.586182 31.366283 16.064384
25.508718 32.573082 14.078337
40.558955 25.066813 -11.446934
42.496711 26.264412 -3.9317704
40.259759 28.355642 -9.9091525
40.558955 25.066813 11.446934
42.496711 26.264412 3.9317704
40.259759 28.355642 9.9091525
37.708657 33.827777 -6.1849967
41.828759 29.392268 -2.0811553
39.385903 31.405818 -8.1448158
38.209947 34.304476 -2.0904875
41.288382 29.035143 -6.0535973
37.708657 33.827777 6.1849967
41.828759 29.392268 2.0811553
39.385903 31.405818 8.1448158
38.209947 34.304476 2.0904875
41.288382 29.035143 6.0535973
40.492496 32.190346 0
14.897885 -21.334392 1.0583868
17.418579 -19.766029 3.2153225
14.326119 -21.471557 2.7645571
16.228111 -20.661831 0
22.322681 -15.760534 7.7761873
19.884939 -17.919474 5.444938
13.016273 -21.435883 6.1241088
16.74824 -19.788842 4.9468264
13.694054 -21.501482 4.4651336
15.552721 -20.657912 3.8539238
18.874384 -19.099261 -2.1705943
18.874384 -19.099261 2.1705943
17.561662 -19.913462 -1.0799827
17.561662 -19.913462 1.0799827
31.757887 -2.4287101 18.699769
29.616526 -6.7045668 15.743103
24.760275 -13.236217 10.246907
27.210066 -10.260188 12.897703
9.9347159 -20.402456 12.609411
13.651369 -18.949956 11.711717
10.738573 -20.749031 11.036685
21.429709 -15.569207 9.6222991
17.43924 -17.369206 10.73476
20.287241 -16.724169 8.4267392
12.275731 -21.270644 7.8311206
14.450964 -19.2649 10.099228
11.523565 -21.043383 9.4365915
14.146026 -20.504058 7.2745182
12.597957 -20.016582 10.578241
17.968253 -18.814474 6.1175287
16.391093 -18.451976 9.5720646
19.12888 -17.810201 7.2524656
16.047121 -19.685326 6.7027732
18.305641 -17.62035 9.0243421
15.274191 -19.504213 8.4298713
24.179133 -14.943526 -6.8240649
24.98488 -15.441505 -2.3115862
22.870238 -16.107903 -5.6290619
24.179133 -14.943526 6.8240649
24.98488 -15.441505 2.3115862
22.870238 -16.107903 5.6290619
20.247202 -18.163411 -3.3209584
23.467158 -16.489923 -1.1675891
21.552051 -17.185331 -4.4568607
20.402119 -18.316801 -1.1162113
23.262366 -16.358746 -3.4106688
20.247202 -18.163411 3.3209584
23.467158 -16.489923 1.1675891
21.552051 -17.185331 4.4568607
20.402119 -18.316801 1.1162113
23.262366 -16.358746 3.4106688
21.943995 -17.444832 0
2.0181215 -15.538456 26.389018
5.9082618 -13.873286 26.098955
3.1591205 -16.370773 24.536023
2.0802231 -14.076299 28.222025
13.52071 -10.467149 25.292462
9.7060932 -12.201171 25.740604
5.255005 -17.791625 21.021652
6.9300866 -14.729311 24.257003
4.2423801 -17.120358 22.740126
5.0681719 -15.543503 24.405363
2.2354877 -10.722692 32.028111
6.1126908 -12.366242 27.89756
2.155545 -12.469137 30.114969
4.1231922 -13.218247 28.066174
30.381301 -1.5071987 21.215375
25.904305 -4.2138303 22.827861
29.503009 -3.7986418 19.684815
17.448432 -8.6089901 24.713363
21.566345 -6.5530611 23.93181
27.400774 -7.8282441 16.638268
25.038464 -6.2591299 21.191244
28.48383 -5.9151321 18.141033
27.239909 -5.0818561 20.50811
8.9468123 -19.92534 14.476246
10.713668 -17.404976 17.33508
8.088453 -19.472823 16.052788
10.832945 -19.220033 14.036528
14.448581 -11.383763 23.378295
12.526851 -14.601502 20.26887
12.573073 -12.233462 23.63745
6.2707592 -18.418318 19.285735
9.8378462 -16.846214 18.96432
7.1918797 -18.96908 17.661418
7.1005859 -16.999525 20.85366
8.9655648 -18.186413 17.505585
14.622559 -17.724693 13.140849
12.665599 -16.654877 16.898853
12.731181 -18.484331 13.590811
11.746717 -17.96512 15.471057
8.8598904 -13.888386 24.064956
10.74904 -15.38078 20.504458
10.703009 -13.07006 23.867465
7.9648521 -15.488449 22.449843
11.646299 -13.869941 22.037606
8.9377808 -16.194478 20.679364
2.5883395 -1.5996818 38.66213
7.2442585 -4.477198 35.472262
2.5226481 -4.1742629 37.499643
14.107468 -8.7188949 27.063156
11.017369 -6.8091086 31.268156
12.11613 -9.659452 27.306394
2.3429577 -8.7051378 34.022996
6.9461331 -6.7164816 33.662546
2.4338714 -6.5628308 35.865557
4.4610132 -9.7562085 31.894475
4.8570924 -5.5238404 35.69933
8.1653098 -11.456101 27.721518
8.8836892 -7.8177176 31.480354
10.128145 -10.575384 27.523868
6.4009476 -10.667019 29.770334
10.571383 -8.7776879 29.380312
6.6855221 -8.7827858 31.71377
22.786096 -14.082582 11.095399
21.026834 -12.995298 15.147532
23.926701 -12.726929 12.383162
20.666318 -15.09276 11.648112
16.724588 -10.336364 23.019993
19.006433 -11.746622 19.083068
18.686795 -9.4156393 22.668003
15.658778 -12.084946 21.441359
26.21667 -9.6520775 15.130185
22.030029 -11.54879 16.52514
25.079534 -11.246543 13.733801
25.180426 -8.9336202 17.372316
23.00801 -12.159133 14.48069
16.639233 -16.88298 12.653702
18.889839 -14.004673 15.583784
18.609797 -16.026235 12.168247
15.689812 -16.378011 14.576283
19.809524 -14.565174 13.643915
22.800146 -7.4134705 21.774661
20.956641 -10.871374 18.616014
20.721875 -8.4381239 22.256136
24.035346 -8.183937 19.593178
19.858527 -10.170635 20.630865
23.020219 -9.9495165 18.027655
13.655235 -15.194945 18.418509
17.853515 -13.381112 17.595756
14.631698 -13.706231 19.9
14.689108 -15.811256 16.504781
16.79758 -12.753907 19.505489
16.771246 -14.926259 16.066523
2.124499 16.357506 27.780014
6.8836404 16.163589 30.40756
3.4341449 17.795967 26.672062
2.1891832 14.813603 29.700269
18.308193 14.173412 34.248147
12.400054 15.587649 32.885002
6.0926805 20.627705 24.372615
8.3527034 17.752962 29.23651
4.7637259 19.224278 25.534659
5.8042597 17.801 27.949933
2.3467429 11.256337 33.622079
7.1031046 14.369893 32.417685
2.2667835 13.112616 31.669074
4.5646684 14.633544 31.071261
31.889277 1.5820086 22.268401
29.960082 4.87358 26.401967
33.41813 4.3027307 22.297037
29.703364 0 23.329466
23.47519 11.582569 33.249456
27.254209 8.2813522 30.243536
35.618313 10.175948 21.628114
31.150263 7.7869611 26.363952
34.669133 7.1996113 22.080384
32.372208 6.0393338 24.372063
25.212688 -2.8653737 24.915832
27.832414 3.1631004 27.504712
27.450805 -1.4887614 24.208837
28.850402 1.5646668 25.443141
11.803574 26.287601 19.098584
14.864569 24.148354 24.051377
10.338732 24.890333 20.518815
15.267547 27.087994 19.782556
20.339761 16.025311 32.910424
17.906855 20.872523 28.973899
17.306562 16.839095 32.536438
7.5190461 22.084755 23.124844
13.185977 22.579515 25.41848
8.9024661 23.48087 21.862181
8.6993466 20.827121 25.549048
11.753522 23.841712 22.949171
23.411945 28.378721 21.039602
18.689531 24.576165 24.93618
19.175057 27.840158 20.469788
16.988485 25.981742 22.374747
11.243276 17.624479 30.538632
14.667821 20.988155 27.979774
14.203923 17.345228 31.674423
9.9510116 19.350735 28.04806
16.049295 19.113605 30.369134
11.571982 20.967422 26.774123
2.6173619 1.6176186 39.095637
7.8694078 4.8635615 38.53337
2.5925849 4.2899883 38.539267
5.2032659 0 38.619993
18.441877 11.397707 35.378098
13.155419 8.1304963 37.33611
15.698559 12.515504 35.380194
2.4513458 9.1078482 35.596941
7.7865129 7.529077 37.735218
2.5296504 6.8210947 37.276957
4.9033514 10.723599 35.057017
5.1978004 5.9113185 38.203513
9.7866093 -3.0040061 35.408285
10.522647 3.2299334 38.071296
7.6290791 -1.570644 37.270158
7.8658729 1.6193941 38.426961
9.9384695 13.943881 33.741458
10.469709 9.2134275 37.100593
12.794006 13.358964 34.768511
7.4046729 12.339702 34.438587
13.071681 10.853749 36.329217
7.6498293 10.049599 36.288105
37.27101 23.034751 18.148643
33.185962 20.510053 23.906853
37.143378 19.757055 19.223398
35.049085 25.596598 19.754639
23.632025 14.605395 32.527503
28.590694 17.670021 28.705973
25.992234 13.096601 31.529861
22.92448 17.692384 31.390189
36.330037 13.375472 20.96682
33.066251 17.334303 24.803618
36.820726 16.511705 20.163394
34.260574 12.155114 23.636832
35.165972 18.584299 22.13262
27.983964 28.393899 21.281073
30.545502 22.646024 25.1995
31.932708 27.499552 20.879598
25.431274 26.54676 23.626379
32.858553 24.159619 22.631503
29.669879 9.647165 28.335413
30.769878 15.962045 27.333221
27.993987 11.39939 30.06668
32.026882 10.905022 26.107734
28.439315 14.565325 29.545379
32.655902 14.114133 25.573577
20.387296 22.686087 27.498874
28.003338 20.988349 27.59904
21.807535 20.42819 29.659575
22.869629 24.616713 25.69647
25.502038 19.362945 29.613178
27.007197 24.036164 25.872363
16.519131 -7.5435759 26.728516
18.679276 -2.7962791 30.223704
18.591883 -6.4971129 26.39703
15.091336 -6.5854394 28.854167
21.329147 9.740103 34.511285
20.560375 3.0778788 33.267386
23.372051 8.1675888 33.183984
18.695875 8.15836 35.745933
22.901913 -4.1873357 25.529327
20.919808 -1.4812525 29.771422
20.731872 -5.376624 25.999752
24.296234 -1.4805932 27.062294
19.769145 -4.1217101 28.112002
11.800799 -4.3603915 33.204617
17.036429 -1.515662 32.470307
13.518925 -5.5225409 31.036098
12.46652 -1.5409467 35.131078
16.087585 -4.1801986 30.694499
26.550457 4.8544275 29.596449
22.009038 1.5583768 31.321529
25.105819 6.5109678 31.485101
25.55914 1.5575537 28.468979
22.852264 4.764516 32.496241
23.229707 0 29.220835
13.327219 4.9244034 37.499597
17.904827 1.5929198 34.125416
16.004589 6.5379455 36.742564
13.020363 1.6094054 36.691827
18.486965 4.8036534 35.272423
15.193466 0 34.712522
34.291025 0 -18.043513
37.389821 0 -13.478432
35.981463 2.6521651 -17.946474
33.384252 -2.4607267 -16.651063
41.26729 0 -2.8601306
39.853972 0 -8.3942289
38.443991 8.4235407 -17.041193
39.047831 2.7254477 -13.072824
37.382278 5.4918177 -17.605825
37.591622 2.6907028 -15.564854
31.056359 -6.8048217 -13.766453
36.346127 -2.5368751 -12.168321
32.278688 -4.7420512 -15.202202
34.93129 -2.5002837 -14.46334
34.291025 0 18.043513
37.389821 0 13.478432
35.981463 2.6521651 17.946474
33.384252 -2.4607267 16.651063
41.26729 0 2.8601306
39.853972 0 8.3942289
38.443991 8.4235407 17.041193
39.047831 2.7254477 13.072824
37.382278 5.4918177 17.605825
37.591622 2.6907028 15.564854
31.056359 -6.8048217 13.766453
36.346127 -2.5368751 12.168321
32.278688 -4.7420512 15.202202
34.93129 -2.5002837 14.46334
40.490701 21.106972 -13.044826
42.401115 14.94008 -9.2334771
40.227329 17.849283 -14.230145
41.812279 21.868702 -9.5428932
42.566334 2.8497169 -1.7612219
43.235973 8.8297883 -5.4571093
42.163519 2.8363929 -4.6934209
39.261714 11.564448 -16.225164
41.982419 11.84735 -10.425763
39.819666 14.652714 -15.299748
39.993299 8.5989967 -14.330013
41.237077 14.837587 -12.320026
43.291866 22.714254 -2.020795
43.328821 15.398904 -5.6898903
42.780446 22.422066 -5.8261502
42.712558 18.605041 -7.6002419
40.382213 2.7808785 -10.33221
42.449588 8.7593044 -8.4697062
41.414293 2.810414 -7.5781619
40.392771 5.6496521 -12.355754
42.534696 5.787082 -6.5814926
41.353471 8.7176498 -11.452397
25.744033 -13.419837 -8.2939151
30.445756 -10.727596 -6.6300188
27.066301 -12.009599 -9.5745207
26.361508 -13.787623 -6.0165353
39.806051 -2.6649224 -1.6470126
35.372662 -7.2239179 -4.4646268
39.402173 -2.6506337 -4.3860425
29.721967 -8.7545374 -12.2828
32.004582 -9.0316254 -7.9479026
28.402421 -10.451432 -10.912947
32.379212 -6.9618849 -11.601807
29.497997 -10.613728 -8.8128476
27.048531 -14.191747 -1.2625822
30.98618 -11.012375 -4.0690691
26.812069 -14.052728 -3.6514612
28.650097 -12.479614 -5.0979778
37.6356 -2.5917359 -9.6294602
34.638969 -7.1476141 -6.9113013
38.657363 -2.6233261 -7.0736872
35.075197 -4.9058941 -10.72916
37.122844 -5.0507694 -5.744104
33.594931 -7.0820862 -9.3037531
40.490701 21.106972 13.044826
42.401115 14.94008 9.2334771
40.227329 17.849283 14.230145
41.812279 21.868702 9.5428932
42.566334 2.8497169 1.7612219
43.235973 8.8297883 5.4571093
42.163519 2.8363929 4.6934209
43.396067 5.8467457 0
39.261714 11.564448 16.225164
41.982419 11.84735 10.425763
39.819666 14.652714 15.299748
39.993299 8.5989967 14.330013
41.237077 14.837587 12.320026
43.291866 22.714254 2.020795
43.328821 15.398904 5.6898903
42.780446 22.422066 5.8261502
43.712705 19.132793 0
42.712558 18.605041 7.6002419
40.382213 2.7808785 10.33221
42.449588 8.7593044 8.4697062
41.414293 2.810414 7.5781619
40.392771 5.6496521 12.355754
42.534696 5.787082 6.5814926
41.353471 8.7176498 11.452397
43.696501 12.077416 -3.7071706
43.696501 12.077416 3.7071706
43.740638 8.9535653 -1.8433239
43.839224 15.55667 -1.9229101
43.740638 8.9535653 1.8433239
43.839224 15.55667 1.9229101
25.744033 -13.419837 8.2939151
30.445756 -10.727596 6.6300188
27.066301 -12.009599 9.5745207
26.361508 -13.787623 6.0165353
39.806051 -2.6649224 1.6470126
35.372662 -7.2239179 4.4646268
39.402173 -2.6506337 4.3860425
37.966471 -5.115217 0
29.721967 -8.7545374 12.2828
32.004582 -9.0316254 7.9479026
28.402421 -10.451432 10.912947
32.379212 -6.9618849 11.601807
29.497997 -10.613728 8.8128476
27.048531 -14.191747 1.2625822
30.98618 -11.012375 4.0690691
26.812069 -14.052728 3.6514612
29.173906 -12.769247 0
28.650097 -12.479614 5.0979778
37.6356 -2.5917359 9.6294602
34.638969 -7.1476141 6.9113013
38.657363 -2.6233261 7.0736872
35.075197 -4.9058941 10.72916
37.122844 -5.0507694 5.744104
33.594931 -7.0820862 9.3037531
33.46989 -9.25085 -2.8395544
33.46989 -9.25085 2.8395544
35.790109 -7.3261179 -1.5082716
31.342742 -11.122201 -1.3747797
35.790109 -7.3261179 1.5082716
31.342742 -11.122201 1.3747797
-14.897885 21.334392 -1.0583868
-17.418579 19.766029 -3.2153225
-14.326119 21.471557 -2.7645571
-22.322681 15.760534 -7.7761873
-19.884939 17.919474 -5.444938
-13.016273 21.435883 -6.1241088
-16.74824 19.788842 -4.9468264
-13.694054 21.501482 -4.4651336
-15.552721 20.657912 -3.8539238
-31.757887 2.4287101 -18.699769
-29.616526 6.7045668 -15.743103
-24.760275 13.236217 -10.246907
-27.210066 10.260188 -12.897703
-9.9347159 20.402456 -12.609411
-13.651369 18.949956 -11.711717
-10.738573 20.749031 -11.036685
-21.429709 15.569207 -9.6222991
-17.43924 17.369206 -10.73476
-20.287241 16.724169 -8.4267392
-12.275731 21.270644 -7.8311206
-14.450964 19.2649 -10.099228
-11.523565 21.043383 -9.4365915
-14.146026 20.504058 -7.2745182
-12.597957 20.016582 -10.578241
-17.968253 18.814474 -6.1175287
-16.391093 18.451976 -9.5720646
-19.12888 17.810201 -7.2524656
-16.047121 19.685326 -6.7027732
-18.305641 17.62035 -9.0243421
-15.274191 19.504213 -8.4298713
-24.710669 -35.386707 -1.755514
-31.332324 -35.554889 -5.7836823
-23.260659 -34.862377 -4.4886839
-38.837483 -27.420517 -13.529179
-36.639355 -33.017853 -10.032669
-20.09864 -33.099496 -9.4563363
-29.505565 -34.86223 -8.7148806
-21.706085 -34.081433 -7.0775659
-26.396946 -35.06176 -6.5410944
-34.281007 -2.6216678 -20.18544
-36.795457 -8.3297278 -19.55917
-38.941936 -20.817374 -16.115911
-38.219369 -14.411502 -18.116166
-13.606109 -27.942223 -17.269243
-21.364952 -29.657458 -18.329317
-15.170179 -29.311763 -15.591315
-37.025865 -26.900196 -16.625235
-30.258572 -30.137057 -18.625726
-36.261364 -29.892738 -15.061932
-18.415068 -31.908516 -11.74762
-23.365724 -31.149363 -16.329413
-16.785158 -30.651669 -13.745284
-22.765861 -32.998139 -11.707222
-19.059506 -30.283177 -16.003869
-32.467893 -33.99698 -11.054122
-28.133856 -31.671179 -16.429599
-34.749662 -32.35414 -13.174881
-27.587469 -33.842102 -11.523098
-32.586182 -31.366283 -16.064384
-25.508718 -32.573082 -14.078337
-2.124499 -16.357506 -27.780014
-6.8836404 -16.163589 -30.40756
-3.4341449 -17.795967 -26.672062
-2.1891832 -14.813603 -29.700269
-18.308193 -14.173412 -34.248147
