-20.384286 -8.922082 -1.838050
-19.949458 -2.741265 -4.543925
-13.846770 6.001581 3.709181
-17.995602 2.424545 1.498451
-14.989918 4.320441 4.928649
-14.223838 6.225690 1.282563
-17.366601 2.386353 3.955623
-16.084237 4.445574 0.000000
-19.413695 -8.414444 5.200412
-20.448259 -2.754991 1.702678
-19.200877 -5.534136 6.313202
-20.384286 -8.922082 1.838050
-19.949458 -2.741265 4.543925
-20.529811 -5.674300 0.000000
-7.078116 13.451695 0.000000
-5.439732 15.090079 0.000000
-1.330645 19.199165 0.000000
-3.571779 16.958031 0.000000
10.802532 20.529811 0.000000
7.400668 20.529811 0.000000
1.422869 20.529811 0.000000
4.324084 20.529811 0.000000
-10.802532 -20.529811 0.000000
-7.400668 -20.529811 0.000000
-1.422869 -20.529811 0.000000
-4.324084 -20.529811 0.000000
7.078116 -13.451695 0.000000
5.439732 -15.090079 0.000000
1.330645 -19.199165 0.000000
3.571779 -16.958031 0.000000
-12.004474 -20.387242 1.559131
-10.398458 -19.561976 4.428425
-10.185038 -20.420310 1.505165
-7.168348 -17.321352 9.259557
-8.754922 -18.470112 6.964585
-6.848236 -20.455315 1.427733
-8.748508 -19.736151 4.324428
-8.463662 -20.441103 1.463117
-9.482378 -20.133840 2.957856
-0.654590 -9.214026 13.194870
-2.105258 -11.404952 12.941963
-5.629734 -16.160975 11.410170
-3.832501 -13.996313 12.612891
-0.847464 -20.482045 1.371225
-2.532338 -20.063390 4.097410
-2.279483 -20.477820 1.377569
-5.692872 -17.670483 9.211260
-4.168010 -19.139948 6.743982
-6.442408 -18.212104 8.080899
-5.236152 -20.464878 1.409292
-3.993294 -20.014118 4.129834
-3.746110 -20.472312 1.389271
-6.194281 -20.250014 2.832327
-3.142648 -20.310225 2.763319
-7.955706 -19.251248 5.670411
-4.856965 -19.558006 5.519228
-7.202263 -18.744864 6.897675
-7.112792 -19.850925 4.268166
-5.665609 -18.963691 6.823360
-5.522459 -19.941052 4.203737
7.590847 -12.891564 0.985893
6.974595 -13.120873 2.970293
6.815573 -13.664762 1.007219
5.299242 -12.804906 6.845179
6.208118 -13.097161 4.938589
5.135234 -15.338670 1.070604
6.164844 -13.907548 3.047311
5.996031 -14.481378 1.036536
6.508536 -13.819512 2.030220
0.636623 -8.961123 12.832700
1.899892 -10.292410 11.679488
0.000000 -9.967643 12.690926
4.262501 -12.236132 8.639104
3.119796 -11.393509 10.267353
-1.403164 -12.201200 12.346569
1.301414 -11.316437 11.451265
-0.679486 -11.049160 12.528826
0.656500 -10.675380 12.104991
0.812340 -19.633145 1.314393
2.228690 -17.657619 3.606095
2.048873 -18.406122 1.238203
0.000000 -20.167000 2.717097
4.369172 -13.561762 7.069468
3.397759 -15.602872 5.497689
4.867137 -13.758955 6.104991
4.170083 -16.298275 1.122364
3.318067 -16.629927 3.431519
3.165157 -17.297429 1.173820
4.754645 -15.543632 2.174055
2.713549 -17.537055 2.386014
-1.674756 -19.740390 5.456110
1.510463 -17.803864 4.920867
-0.847048 -20.099790 4.114361
0.799897 -18.980938 3.885336
5.758293 -13.933940 4.104210
3.890115 -15.664698 4.420545
5.334057 -13.882604 5.108477
5.284783 -14.749179 3.171235
4.397134 -14.717905 5.295676
4.335848 -15.656320 3.300480
-4.801992 -17.014495 10.515536
-1.507535 -16.294255 10.070403
-4.045070 -16.434660 11.575214
-4.079334 -17.873640 9.348290
3.733835 -13.229782 8.176455
1.357574 -14.673396 9.068658
3.167446 -12.868973 9.063840
3.268030 -14.318904 7.489088
-2.216308 -13.512375 12.121716
-0.742895 -14.931313 10.491947
-3.079315 -14.890650 11.873615
-0.709575 -12.969615 11.643980
-2.296915 -15.666040 11.016797
-2.525573 -19.232372 6.835114
-0.793258 -16.994117 8.916426
-3.313138 -18.619489 8.110410
-0.833918 -19.011970 6.746537
-2.456349 -18.036558 9.453312
1.955738 -11.923734 10.696573
0.706631 -14.202450 9.979790
2.570411 -12.429743 9.911319
0.680480 -12.437821 11.166541
1.983121 -13.525815 9.511731
0.000000 -13.644288 10.846809
2.177772 -16.583850 5.893839
0.746916 -16.001319 8.395527
2.748127 -15.444186 6.727289
0.777475 -17.725157 6.289902
2.060982 -15.133445 7.931734
0.000000 -17.456210 7.640480
-7.590847 12.891564 0.985893
-6.974595 13.120873 2.970293
-6.815573 13.664762 1.007219
-5.299242 12.804906 6.845179
-6.208118 13.097161 4.938589
-5.135234 15.338670 1.070604
-6.164844 13.907548 3.047311
-5.996031 14.481378 1.036536
-6.508536 13.819512 2.030220
-0.636623 8.961123 12.832700
-1.899892 10.292410 11.679488
-4.262501 12.236132 8.639104
-3.119796 11.393509 10.267353
-0.812340 19.633145 1.314393
-2.228690 17.657619 3.606095
-2.048873 18.406122 1.238203
-4.369172 13.561762 7.069468
-3.397759 15.602872 5.497689
-4.867137 13.758955 6.104991
-4.170083 16.298275 1.122364
-3.318067 16.629927 3.431519
-3.165157 17.297429 1.173820
-4.754645 15.543632 2.174055
-2.713549 17.537055 2.386014
-5.758293 13.933940 4.104210
-3.890115 15.664698 4.420545
-5.334057 13.882604 5.108477
-5.284783 14.749179 3.171235
-4.397134 14.717905 5.295676
-4.335848 15.656320 3.300480
12.004474 20.387242 1.559131
10.398458 19.561976 4.428425
10.185038 20.420310 1.505165
7.168348 17.321352 9.259557
8.754922 18.470112 6.964585
6.848236 20.455315 1.427733
8.748508 19.736151 4.324428
8.463662 20.441103 1.463117
9.482378 20.133840 2.957856
0.654590 9.214026 13.194870
2.105258 11.404952 12.941963
0.000000 9.967643 12.690926
5.629734 16.160975 11.410170
3.832501 13.996313 12.612891
-1.301414 11.316437 11.451265
1.403164 12.201200 12.346569
-0.656500 10.675380 12.104991
0.679486 11.049160 12.528826
0.847464 20.482045 1.371225
2.532338 20.063390 4.097410
2.279483 20.477820 1.377569
0.000000 20.167000 2.717097
5.692872 17.670483 9.211260
4.168010 19.139948 6.743982
6.442408 18.212104 8.080899
5.236152 20.464878 1.409292
3.993294 20.014118 4.129834
3.746110 20.472312 1.389271
6.194281 20.250014 2.832327
3.142648 20.310225 2.763319
-1.510463 17.803864 4.920867
1.674756 19.740390 5.456110
-0.799897 18.980938 3.885336
0.847048 20.099790 4.114361
7.955706 19.251248 5.670411
4.856965 19.558006 5.519228
7.202263 18.744864 6.897675
7.112792 19.850925 4.268166
5.665609 18.963691 6.823360
5.522459 19.941052 4.203737
-3.733835 13.229782 8.176455
-1.357574 14.673396 9.068658
-3.167446 12.868973 9.063840
-3.268030 14.318904 7.489088
4.801992 17.014495 10.515536
1.507535 16.294255 10.070403
4.045070 16.434660 11.575214
4.079334 17.873640 9.348290
-1.955738 11.923734 10.696573
-0.706631 14.202450 9.979790
-2.570411 12.429743 9.911319
-0.680480 12.437821 11.166541
-1.983121 13.525815 9.511731
-2.177772 16.583850 5.893839
-0.746916 16.001319 8.395527
-2.748127 15.444186 6.727289
-0.777475 17.725157 6.289902
-2.060982 15.133445 7.931734
2.216308 13.512375 12.121716
0.742895 14.931313 10.491947
3.079315 14.890650 11.873615
0.709575 12.969615 11.643980
2.296915 15.666040 11.016797
0.000000 13.644288 10.846809
2.525573 19.232372 6.835114
0.793258 16.994117 8.916426
3.313138 18.619489 8.110410
0.833918 19.011970 6.746537
2.456349 18.036558 9.453312
0.000000 17.456210 7.640480
0.000000 -7.159062 13.605531
0.000000 -5.070915 14.066964
0.000000 -1.004914 14.499367
0.000000 -3.024232 14.358397
0.000000 7.159062 13.605531
0.000000 5.070915 14.066964
0.000000 1.004914 14.499367
0.000000 3.024232 14.358397
-12.004474 -20.387242 -1.559131
-10.398458 -19.561976 -4.428425
-10.185038 -20.420310 -1.505165
-7.168348 -17.321352 -9.259557
-8.754922 -18.470112 -6.964585
-6.848236 -20.455315 -1.427733
-8.748508 -19.736151 -4.324428
-8.463662 -20.441103 -1.463117
-9.482378 -20.133840 -2.957856
-0.654590 -9.214026 -13.194870
-2.105258 -11.404952 -12.941963
-5.629734 -16.160975 -11.410170
-3.832501 -13.996313 -12.612891
-0.847464 -20.482045 -1.371225
-2.532338 -20.063390 -4.097410
-2.279483 -20.477820 -1.377569
-5.692872 -17.670483 -9.211260
-4.168010 -19.139948 -6.743982
-6.442408 -18.212104 -8.080899
-5.236152 -20.464878 -1.409292
-3.993294 -20.014118 -4.129834
-3.746110 -20.472312 -1.389271
-6.194281 -20.250014 -2.832327
-3.142648 -20.310225 -2.763319
-7.955706 -19.251248 -5.670411
-4.856965 -19.558006 -5.519228
-7.202263 -18.744864 -6.897675
-7.112792 -19.850925 -4.268166
-5.665609 -18.963691 -6.823360
-5.522459 -19.941052 -4.203737
7.590847 -12.891564 -0.985893
6.974595 -13.120873 -2.970293
6.815573 -13.664762 -1.007219
5.299242 -12.804906 -6.845179
6.208118 -13.097161 -4.938589
5.135234 -15.338670 -1.070604
6.164844 -13.907548 -3.047311
5.996031 -14.481378 -1.036536
6.508536 -13.819512 -2.030220
0.636623 -8.961123 -12.832700
1.899892 -10.292410 -11.679488
0.000000 -9.967643 -12.690926
4.262501 -12.236132 -8.639104
3.119796 -11.393509 -10.267353
-1.403164 -12.201200 -12.346569
1.301414 -11.316437 -11.451265
-0.679486 -11.049160 -12.528826
0.656500 -10.675380 -12.104991
0.812340 -19.633145 -1.314393
2.228690 -17.657619 -3.606095
2.048873 -18.406122 -1.238203
0.000000 -20.167000 -2.717097
4.369172 -13.561762 -7.069468
3.397759 -15.602872 -5.497689
4.867137 -13.758955 -6.104991
4.170083 -16.298275 -1.122364
3.318067 -16.629927 -3.431519
3.165157 -17.297429 -1.173820
4.754645 -15.543632 -2.174055
2.713549 -17.537055 -2.386014
-1.674756 -19.740390 -5.456110
1.510463 -17.803864 -4.920867
-0.847048 -20.099790 -4.114361
0.799897 -18.980938 -3.885336
5.758293 -13.933940 -4.104210
3.890115 -15.664698 -4.420545
5.334057 -13.882604 -5.108477
5.284783 -14.749179 -3.171235
4.397134 -14.717905 -5.295676
4.335848 -15.656320 -3.300480
-4.801992 -17.014495 -10.515536
-1.507535 -16.294255 -10.070403
-4.045070 -16.434660 -11.575214
-4.079334 -17.873640 -9.348290
3.733835 -13.229782 -8.176455
1.357574 -14.673396 -9.068658
3.167446 -12.868973 -9.063840
3.268030 -14.318904 -7.489088
-2.216308 -13.512375 -12.121716
-0.742895 -14.931313 -10.491947
-3.079315 -14.890650 -11.873615
-0.709575 -12.969615 -11.643980
-2.296915 -15.666040 -11.016797
-2.525573 -19.232372 -6.835114
-0.793258 -16.994117 -8.916426
-3.313138 -18.619489 -8.110410
-0.833918 -19.011970 -6.746537
-2.456349 -18.036558 -9.453312
1.955738 -11.923734 -10.696573
0.706631 -14.202450 -9.979790
2.570411 -12.429743 -9.911319
0.680480 -12.437821 -11.166541
1.983121 -13.525815 -9.511731
0.000000 -13.644288 -10.846809
2.177772 -16.583850 -5.893839
0.746916 -16.001319 -8.395527
2.748127 -15.444186 -6.727289
0.777475 -17.725157 -6.289902
2.060982 -15.133445 -7.931734
0.000000 -17.456210 -7.640480
-7.590847 12.891564 -0.985893
-6.974595 13.120873 -2.970293
-6.815573 13.664762 -1.007219
-5.299242 12.804906 -6.845179
-6.208118 13.097161 -4.938589
-5.135234 15.338670 -1.070604
-6.164844 13.907548 -3.047311
-5.996031 14.481378 -1.036536
-6.508536 13.819512 -2.030220
-0.636623 8.961123 -12.832700
-1.899892 10.292410 -11.679488
-4.262501 12.236132 -8.639104
-3.119796 11.393509 -10.267353
-0.812340 19.633145 -1.314393
-2.228690 17.657619 -3.606095
-2.048873 18.406122 -1.238203
-4.369172 13.561762 -7.069468
-3.397759 15.602872 -5.497689
-4.867137 13.758955 -6.104991
-4.170083 16.298275 -1.122364
-3.318067 16.629927 -3.431519
-3.165157 17.297429 -1.173820
-4.754645 15.543632 -2.174055
-2.713549 17.537055 -2.386014
-5.758293 13.933940 -4.104210
-3.890115 15.664698 -4.420545
-5.334057 13.882604 -5.108477
-5.284783 14.749179 -3.171235
-4.397134 14.717905 -5.295676
-4.335848 15.656320 -3.300480
12.004474 20.387242 -1.559131
10.398458 19.561976 -4.428425
10.185038 20.420310 -1.505165
7.168348 17.321352 -9.259557
8.754922 18.470112 -6.964585
6.848236 20.455315 -1.427733
8.748508 19.736151 -4.324428
8.463662 20.441103 -1.463117
9.482378 20.133840 -2.957856
0.654590 9.214026 -13.194870
2.105258 11.404952 -12.941963
0.000000 9.967643 -12.690926
5.629734 16.160975 -11.410170
3.832501 13.996313 -12.612891
-1.301414 11.316437 -11.451265
1.403164 12.201200 -12.346569
-0.656500 10.675380 -12.104991
0.679486 11.049160 -12.528826
0.847464 20.482045 -1.371225
2.532338 20.063390 -4.097410
2.279483 20.477820 -1.377569
0.000000 20.167000 -2.717097
5.692872 17.670483 -9.211260
4.168010 19.139948 -6.743982
6.442408 18.212104 -8.080899
5.236152 20.464878 -1.409292
3.993294 20.014118 -4.129834
3.746110 20.472312 -1.389271
6.194281 20.250014 -2.832327
3.142648 20.310225 -2.763319
-1.510463 17.803864 -4.920867
1.674756 19.740390 -5.456110
-0.799897 18.980938 -3.885336
0.847048 20.099790 -4.114361
7.955706 19.251248 -5.670411
4.856965 19.558006 -5.519228
7.202263 18.744864 -6.897675
7.112792 19.850925 -4.268166
5.665609 18.963691 -6.823360
5.522459 19.941052 -4.203737
-3.733835 13.229782 -8.176455
-1.357574 14.673396 -9.068658
-3.167446 12.868973 -9.063840
-3.268030 14.318904 -7.489088
4.801992 17.014495 -10.515536
1.507535 16.294255 -10.070403
4.045070 16.434660 -11.575214
4.079334 17.873640 -9.348290
-1.955738 11.923734 -10.696573
-0.706631 14.202450 -9.979790
-2.570411 12.429743 -9.911319
-0.680480 12.437821 -11.166541
-1.983121 13.525815 -9.511731
-2.177772 16.583850 -5.893839
-0.746916 16.001319 -8.395527
-2.748127 15.444186 -6.727289
-0.777475 17.725157 -6.289902
-2.060982 15.133445 -7.931734
2.216308 13.512375 -12.121716
0.742895 14.931313 -10.491947
3.079315 14.890650 -11.873615
0.709575 12.969615 -11.643980
2.296915 15.666040 -11.016797
0.000000 13.644288 -10.846809
2.525573 19.232372 -6.835114
0.793258 16.994117 -8.916426
3.313138 18.619489 -8.110410
0.833918 19.011970 -6.746537
2.456349 18.036558 -9.453312
0.000000 17.456210 -7.640480
0.000000 -7.159062 -13.605531
0.000000 -5.070915 -14.066964
0.000000 -1.004914 -14.499367
0.000000 -3.024232 -14.358397
0.000000 7.159062 -13.605531
0.000000 5.070915 -14.066964
0.000000 1.004914 -14.499367
0.000000 3.024232 -14.358397
14.278571 20.447508 -1.014389
16.907031 19.185541 -3.120895
13.386156 20.062769 -2.583169
18.010818 12.716219 -6.274134
17.845673 16.081773 -4.886542
11.485738 18.915317 -5.403998
15.570565 18.397364 -4.598984
12.429489 19.515948 -4.052805
14.620224 19.419321 -3.622853
16.509542 1.262581 -9.721195
17.812609 4.032405 -9.468556
17.990129 9.617068 -7.445118
17.913005 6.754515 -8.490851
7.996012 16.421031 -10.148755
11.212401 15.564336 -9.619289
8.813120 17.028678 -9.057780
16.981416 12.337413 -7.624941
14.323879 14.266356 -8.817093
16.845067 13.886548 -6.996959
10.541646 18.265926 -6.724887
12.161879 16.213269 -8.499473
9.664117 17.647813 -7.913899
12.425787 18.010645 -6.389894
10.489499 16.666505 -8.807813
16.223451 16.987500 -5.523488
13.866248 15.609677 -8.097607
16.612181 15.466994 -6.298292
14.359312 17.614856 -5.997787
15.431600 14.853902 -7.607493
13.223185 16.885203 -7.297915
8.434196 -12.078119 -0.599189
9.545777 -10.832234 -1.762070
8.167400 -12.241054 -1.576089
11.561281 -8.162638 -4.027414
10.581309 -9.535433 -2.897397
7.522267 -12.388064 -3.539199
9.242760 -10.920761 -2.729978
7.862298 -12.344852 -2.563610
8.719481 -11.581656 -2.160665
15.084749 -1.153618 -8.882245
14.272210 -3.230932 -7.586605
12.499939 -6.682151 -5.173033
13.404464 -5.054465 -6.353781
5.795897 -11.902761 -7.356311
7.664203 -10.638956 -6.575236
6.273110 -12.120880 -6.447257
11.159947 -8.107974 -5.011004
9.427903 -9.390042 -5.803365
10.711530 -8.830252 -4.449263
7.133832 -12.361073 -4.550923
8.102297 -10.801351 -5.662386
6.721836 -12.274862 -5.504479
8.034714 -11.645973 -4.131808
7.207926 -11.452496 -6.052345
9.762352 -10.222114 -3.323721
9.002225 -10.134091 -5.257116
10.243805 -9.537632 -3.883805
8.911514 -10.931933 -3.722279
9.857216 -9.488200 -4.859425
8.529213 -10.891287 -4.707298
1.004571 -7.734663 -13.135808
2.896522 -6.801371 -12.794999
1.628827 -8.440689 -12.650652
0.991837 -6.711487 -13.456075
6.445132 -4.989543 -12.056561
4.690083 -5.895729 -12.438121
2.868038 -9.710183 -11.473044
3.506852 -7.453516 -12.274841
2.255875 -9.103706 -12.092003
2.588238 -7.937830 -12.463447
0.974155 -4.672613 -13.956846
2.880495 -5.827368 -13.146221
0.982743 -5.684851 -13.729827
1.954273 -6.265064 -13.302549
14.245358 -0.706704 -9.947587
12.045222 -1.959386 -10.614709
13.954448 -1.796696 -9.310600
8.216911 -4.054193 -11.638152
10.062141 -3.057441 -11.165789
13.278410 -3.793566 -8.062902
11.862662 -2.965435 -10.039936
13.626976 -2.829864 -8.678869
12.877622 -2.402439 -9.695175
5.189499 -11.557473 -8.396786
5.895970 -9.578346 -9.539881
4.650439 -11.195859 -9.229517
6.174802 -10.955460 -8.000851
7.069758 -5.570128 -11.439108
6.516263 -7.595463 -10.543536
6.200823 -6.033333 -11.657584
3.499349 -10.278200 -10.762255
5.338449 -9.141498 -10.290876
4.082089 -10.766792 -10.024566
3.827458 -9.163324 -11.240834
5.009291 -10.161215 -9.780819
8.047003 -9.754152 -7.231597
6.874106 -9.039240 -9.171656
7.129872 -10.351821 -7.611292
6.535707 -9.995538 -8.607877
4.443360 -6.965222 -12.068914
5.653462 -8.089526 -10.784327
5.322260 -6.499318 -11.868518
4.142592 -8.055684 -11.676369
5.936018 -7.069388 -11.232376
4.758536 -8.622052 -11.009836
0.969025 -0.598891 -14.474370
2.886902 -1.784204 -14.136016
0.968867 -1.603198 -14.402389
6.499178 -4.016713 -12.467742
4.744015 -2.931963 -13.463887
5.610705 -4.473073 -12.644970
0.974327 -3.620062 -14.148581
2.879249 -2.784056 -13.953496
0.969981 -2.615514 -14.293658
1.936511 -4.235138 -13.845286
1.934614 -2.200184 -14.219293
3.823710 -5.364745 -12.981630
3.835585 -3.375346 -13.591828
4.716211 -4.924469 -12.816599
2.892604 -4.820452 -13.453287
4.735057 -3.931638 -13.159816
2.893026 -3.800575 -13.723499
11.674752 -7.215394 -5.684871
10.737033 -6.635851 -7.734857
12.092132 -6.431965 -6.258232
10.776372 -7.870062 -6.073863
8.110637 -5.012649 -11.163612
9.536693 -5.894000 -9.575145
8.998947 -4.534263 -10.916166
7.821771 -6.036594 -10.710248
12.886587 -4.744399 -7.437118
11.055071 -5.795394 -8.292617
12.499329 -5.605138 -6.844756
12.296603 -4.362642 -8.483592
11.606989 -6.133991 -7.305161
8.989571 -9.121259 -6.836334
9.794308 -7.261368 -8.080131
9.878515 -8.507100 -6.459190
8.449438 -8.820054 -7.849769
10.316749 -7.585505 -7.105716
10.850099 -3.527911 -10.362093
10.415976 -5.403345 -9.252626
9.914934 -4.037446 -10.649042
11.611608 -3.953705 -9.465573
9.737311 -4.987008 -10.116015
11.339528 -4.901031 -8.880241
7.212376 -8.025615 -9.728226
9.178092 -6.878930 -9.045584
7.521274 -7.045547 -10.229390
7.851840 -8.451667 -8.822380
8.530541 -6.476988 -9.905735
8.828480 -7.857268 -8.457510
1.043794 8.036655 -13.648681
3.212348 7.542967 -14.190117
1.746767 9.051864 -13.566663
1.024734 6.934092 -13.902385
7.732172 5.985914 -14.464157
5.461072 6.864912 -14.482789
3.343763 11.320823 -13.376091
4.044155 8.595508 -14.155534
2.514151 10.145996 -13.476425
2.884707 8.847065 -13.891066
0.995904 4.776932 -14.268443
3.141579 6.355551 -14.337774
1.009880 5.841830 -14.108958
2.078777 6.664202 -14.150035
14.978886 0.743094 -10.459812
13.673528 2.224261 -12.049635
15.985258 2.058172 -10.665585
13.736223 0.000000 -10.788635
9.936431 4.902597 -14.073621
11.958168 3.633560 -13.269778
17.089076 4.882251 -10.376810
14.534447 3.633329 -12.301194
17.056513 3.542063 -10.863103
15.321982 2.858457 -11.535460
11.488379 -1.305632 -11.353114
12.405228 1.409830 -12.259167
12.571339 -0.681791 -11.086651
13.116107 0.711336 -11.567082
7.050571 15.702243 -11.408063
8.217666 13.350074 -13.296462
6.271187 15.097784 -12.446142
8.619635 15.293133 -11.168684
8.933554 7.038578 -14.454795
8.948449 10.430458 -14.478894
7.721263 7.512704 -14.516019
4.311798 12.664507 -13.260946
7.285997 12.476457 -14.045146
5.346777 14.102496 -13.130318
4.685975 11.218701 -13.762206
6.871799 13.939264 -13.417433
11.729167 14.217476 -10.540646
9.711434 12.770240 -12.957311
10.194109 14.800770 -10.882432
9.194369 14.061626 -12.109478
5.287175 8.287950 -14.360858
7.514858 10.752995 -14.335055
6.493880 7.930051 -14.481204
5.011530 9.745420 -14.125569
7.652280 9.113339 -14.479959
6.089589 11.033804 -14.089497
0.971705 0.600547 -14.514396
2.960161 1.829480 -14.494735
0.976088 1.615147 -14.509733
1.947026 0.000000 -14.451336
7.493389 4.631169 -14.374992
5.091993 3.147025 -14.451474
6.428246 5.124849 -14.487482
0.991056 3.682216 -14.391504
2.995443 2.896408 -14.516599
0.981874 2.647582 -14.468907
2.016582 4.410251 -14.417758
1.974915 2.246017 -14.515502
3.887520 -1.193277 -14.065181
3.976029 1.220445 -14.385407
2.927280 -0.602657 -14.300571
2.952097 0.607766 -14.421810
4.260896 5.978127 -14.465895
4.095428 3.604009 -14.512609
5.341482 5.577351 -14.515810
3.105363 5.175009 -14.442813
5.218444 4.333007 -14.503260
3.056913 4.015874 -14.500923
17.069009 10.549228 -8.311536
15.173154 9.377525 -10.930596
17.103097 9.097364 -8.851635
15.965410 11.659653 -8.998549
10.349415 6.396290 -14.245103
13.294666 8.216556 -13.348271
11.496062 5.792474 -13.945290
10.528824 8.125811 -14.416980
17.105864 6.297792 -9.872150
15.281627 8.011079 -11.463036
17.113793 7.674425 -9.371683
16.264375 5.770345 -11.221012
16.192425 8.557274 -10.191124
13.286952 13.481592 -10.104380
13.982948 10.366770 -11.535686
14.683888 12.645352 -9.601243
12.225803 12.762061 -11.358120
14.959906 10.999438 -10.303715
13.597512 4.421233 -12.985935
14.336262 7.437015 -12.735059
12.591118 5.127210 -13.523372
15.385925 5.238844 -12.542327
13.261370 6.791871 -13.777131
15.339207 6.629724 -12.012480
10.204670 11.355308 -13.764304
12.970471 9.721297 -12.783210
10.633887 9.961284 -14.462733
11.196302 12.051623 -12.580241
12.009187 9.118221 -13.945168
12.636689 11.246540 -12.105699
7.568459 -3.456189 -12.246025
8.016842 -1.200117 -12.971522
8.486009 -2.965518 -12.048561
6.705217 -2.925970 -12.820167
8.729146 3.986225 -14.124054
8.409988 1.258971 -13.607646
9.726655 3.399073 -13.810048
7.432813 3.243473 -14.211308
10.416625 -1.904553 -11.611669
9.005365 -0.637636 -12.815726
9.438168 -2.447704 -11.836367
10.809800 -0.658741 -12.040467
8.750202 -1.824348 -12.442910
4.878377 -1.802559 -13.726584
7.062046 -0.628282 -13.459792
5.800947 -2.369712 -13.317534
4.958093 -0.612854 -13.972073
6.894078 -1.791357 -13.153637
11.561777 2.113930 -12.888198
9.261250 0.655754 -13.179882
10.681477 2.770145 -13.395595
11.194689 0.682195 -12.469174
9.499318 1.980533 -13.508164
10.059928 0.000000 -12.654465
5.095639 1.882837 -14.337905
7.215600 0.641943 -13.752457
6.220921 2.541274 -14.281690
5.031167 0.621886 -14.178000
7.337471 1.906569 -13.999615
6.069841 0.000000 -13.867771
14.278571 20.447508 1.014389
16.907031 19.185541 3.120895
13.386156 20.062769 2.583169
16.124419 20.529811 0.000000
18.010818 12.716219 6.274134
17.845673 16.081773 4.886542
11.485738 18.915317 5.403998
15.570565 18.397364 4.598984
12.429489 19.515948 4.052805
14.620224 19.419321 3.622853
18.878093 19.103014 -2.171021
18.878093 19.103014 2.171021
17.901857 20.299215 -1.100904
17.901857 20.299215 1.100904
16.509542 1.262581 9.721195
17.812609 4.032405 9.468556
17.990129 9.617068 7.445118
17.913005 6.754515 8.490851
7.996012 16.421031 10.148755
11.212401 15.564336 9.619289
8.813120 17.028678 9.057780
16.981416 12.337413 7.624941
14.323879 14.266356 8.817093
16.845067 13.886548 6.996959
10.541646 18.265926 6.724887
12.161879 16.213269 8.499473
9.664117 17.647813 7.913899
12.425787 18.010645 6.389894
10.489499 16.666505 8.807813
16.223451 16.987500 5.523488
13.866248 15.609677 8.097607
16.612181 15.466994 6.298292
14.359312 17.614856 5.997787
15.431600 14.853902 7.607493
13.223185 16.885203 7.297915
18.917233 11.691493 -5.339002
20.308564 12.551383 -1.878936
19.000003 13.382029 -4.676479
18.917233 11.691493 5.339002
20.308564 12.551383 1.878936
19.000003 13.382029 4.676479
19.089958 17.125268 -3.131146
20.445854 14.366910 -1.017267
19.069393 15.205692 -3.943459
20.266523 18.195064 -1.108793
19.881093 13.980940 -2.914915
19.089958 17.125268 3.131146
20.445854 14.366910 1.017267
19.069393 15.205692 3.943459
20.266523 18.195064 1.108793
19.881093 13.980940 2.914915
20.529811 16.320597 0.000000
8.434196 -12.078119 0.599189
9.545777 -10.832234 1.762070
8.167400 -12.241054 1.576089
9.031189 -11.498622 0.000000
11.561281 -8.162638 4.027414
10.581309 -9.535433 2.897397
7.522267 -12.388064 3.539199
9.242760 -10.920761 2.729978
7.862298 -12.344852 2.563610
8.719481 -11.581656 2.160665
10.170940 -10.292120 -1.169680
10.170940 -10.292120 1.169680
9.612738 -10.900044 -0.591151
9.612738 -10.900044 0.591151
15.084749 -1.153618 8.882245
14.272210 -3.230932 7.586605
12.499939 -6.682151 5.173033
13.404464 -5.054465 6.353781
5.795897 -11.902761 7.356311
7.664203 -10.638956 6.575236
6.273110 -12.120880 6.447257
11.159947 -8.107974 5.011004
9.427903 -9.390042 5.803365
10.711530 -8.830252 4.449263
7.133832 -12.361073 4.550923
8.102297 -10.801351 5.662386
6.721836 -12.274862 5.504479
8.034714 -11.645973 4.131808
7.207926 -11.452496 6.052345
9.762352 -10.222114 3.323721
9.002225 -10.134091 5.257116
10.243805 -9.537632 3.883805
8.911514 -10.931933 3.722279
9.857216 -9.488200 4.859425
8.529213 -10.891287 4.707298
12.318855 -7.613471 -3.476744
12.646838 -7.816176 -1.170078
11.802138 -8.312449 -2.904866
12.318855 -7.613471 3.476744
12.646838 -7.816176 1.170078
11.802138 -8.312449 2.904866
10.741781 -9.636264 -1.761873
12.047063 -8.465240 -0.599392
11.273771 -8.989561 -2.331362
10.808772 -9.703998 -0.591354
11.965135 -8.414217 -1.754298
10.741781 -9.636264 1.761873
12.047063 -8.465240 0.599392
11.273771 -8.989561 2.331362
10.808772 -9.703998 0.591354
11.965135 -8.414217 1.754298
11.437407 -9.092403 0.000000
1.004571 -7.734663 13.135808
2.896522 -6.801371 12.794999
1.628827 -8.440689 12.650652
0.991837 -6.711487 13.456075
6.445132 -4.989543 12.056561
4.690083 -5.895729 12.438121
2.868038 -9.710183 11.473044
3.506852 -7.453516 12.274841
2.255875 -9.103706 12.092003
2.588238 -7.937830 12.463447
0.974155 -4.672613 13.956846
2.880495 -5.827368 13.146221
0.982743 -5.684851 13.729827
1.954273 -6.265064 13.302549
14.245358 -0.706704 9.947587
12.045222 -1.959386 10.614709
13.954448 -1.796696 9.310600
8.216911 -4.054193 11.638152
10.062141 -3.057441 11.165789
13.278410 -3.793566 8.062902
11.862662 -2.965435 10.039936
13.626976 -2.829864 8.678869
12.877622 -2.402439 9.695175
5.189499 -11.557473 8.396786
5.895970 -9.578346 9.539881
4.650439 -11.195859 9.229517
6.174802 -10.955460 8.000851
7.069758 -5.570128 11.439108
6.516263 -7.595463 10.543536
6.200823 -6.033333 11.657584
3.499349 -10.278200 10.762255
5.338449 -9.141498 10.290876
4.082089 -10.766792 10.024566
3.827458 -9.163324 11.240834
5.009291 -10.161215 9.780819
8.047003 -9.754152 7.231597
6.874106 -9.039240 9.171656
7.129872 -10.351821 7.611292
6.535707 -9.995538 8.607877
4.443360 -6.965222 12.068914
5.653462 -8.089526 10.784327
5.322260 -6.499318 11.868518
4.142592 -8.055684 11.676369
5.936018 -7.069388 11.232376
4.758536 -8.622052 11.009836
0.969025 -0.598891 14.474370
2.886902 -1.784204 14.136016
0.968867 -1.603198 14.402389
6.499178 -4.016713 12.467742
4.744015 -2.931963 13.463887
5.610705 -4.473073 12.644970
0.974327 -3.620062 14.148581
2.879249 -2.784056 13.953496
0.969981 -2.615514 14.293658
1.936511 -4.235138 13.845286
1.934614 -2.200184 14.219293
3.823710 -5.364745 12.981630
3.835585 -3.375346 13.591828
4.716211 -4.924469 12.816599
2.892604 -4.820452 13.453287
4.735057 -3.931638 13.159816
2.893026 -3.800575 13.723499
11.674752 -7.215394 5.684871
10.737033 -6.635851 7.734857
12.092132 -6.431965 6.258232
10.776372 -7.870062 6.073863
8.110637 -5.012649 11.163612
9.536693 -5.894000 9.575145
8.998947 -4.534263 10.916166
7.821771 -6.036594 10.710248
12.886587 -4.744399 7.437118
11.055071 -5.795394 8.292617
12.499329 -5.605138 6.844756
12.296603 -4.362642 8.483592
11.606989 -6.133991 7.305161
8.989571 -9.121259 6.836334
9.794308 -7.261368 8.080131
9.878515 -8.507100 6.459190
8.449438 -8.820054 7.849769
10.316749 -7.585505 7.105716
10.850099 -3.527911 10.362093
10.415976 -5.403345 9.252626
9.914934 -4.037446 10.649042
11.611608 -3.953705 9.465573
9.737311 -4.987008 10.116015
11.339528 -4.901031 8.880241
7.212376 -8.025615 9.728226
9.178092 -6.878930 9.045584
7.521274 -7.045547 10.229390
7.851840 -8.451667 8.822380
8.530541 -6.476988 9.905735
8.828480 -7.857268 8.457510
1.043794 8.036655 13.648681
3.212348 7.542967 14.190117
1.746767 9.051864 13.566663
1.024734 6.934092 13.902385
7.732172 5.985914 14.464157
5.461072 6.864912 14.482789
3.343763 11.320823 13.376091
4.044155 8.595508 14.155534
2.514151 10.145996 13.476425
2.884707 8.847065 13.891066
0.995904 4.776932 14.268443
3.141579 6.355551 14.337774
1.009880 5.841830 14.108958
2.078777 6.664202 14.150035
14.978886 0.743094 10.459812
13.673528 2.224261 12.049635
15.985258 2.058172 10.665585
13.736223 0.000000 10.788635
9.936431 4.902597 14.073621
11.958168 3.633560 13.269778
17.089076 4.882251 10.376810
14.534447 3.633329 12.301194
17.056513 3.542063 10.863103
15.321982 2.858457 11.535460
11.488379 -1.305632 11.353114
12.405228 1.409830 12.259167
12.571339 -0.681791 11.086651
13.116107 0.711336 11.567082
7.050571 15.702243 11.408063
8.217666 13.350074 13.296462
6.271187 15.097784 12.446142
8.619635 15.293133 11.168684
8.933554 7.038578 14.454795
8.948449 10.430458 14.478894
7.721263 7.512704 14.516019
4.311798 12.664507 13.260946
7.285997 12.476457 14.045146
5.346777 14.102496 13.130318
4.685975 11.218701 13.762206
6.871799 13.939264 13.417433
11.729167 14.217476 10.540646
9.711434 12.770240 12.957311
10.194109 14.800770 10.882432
9.194369 14.061626 12.109478
5.287175 8.287950 14.360858
7.514858 10.752995 14.335055
6.493880 7.930051 14.481204
5.011530 9.745420 14.125569
7.652280 9.113339 14.479959
6.089589 11.033804 14.089497
0.971705 0.600547 14.514396
2.960161 1.829480 14.494735
0.976088 1.615147 14.509733
1.947026 0.000000 14.451336
7.493389 4.631169 14.374992
5.091993 3.147025 14.451474
6.428246 5.124849 14.487482
0.991056 3.682216 14.391504
2.995443 2.896408 14.516599
0.981874 2.647582 14.468907
2.016582 4.410251 14.417758
1.974915 2.246017 14.515502
3.887520 -1.193277 14.065181
3.976029 1.220445 14.385407
2.927280 -0.602657 14.300571
2.952097 0.607766 14.421810
4.260896 5.978127 14.465895
4.095428 3.604009 14.512609
5.341482 5.577351 14.515810
3.105363 5.175009 14.442813
5.218444 4.333007 14.503260
3.056913 4.015874 14.500923
17.069009 10.549228 8.311536
15.173154 9.377525 10.930596
17.103097 9.097364 8.851635
15.965410 11.659653 8.998549
10.349415 6.396290 14.245103
13.294666 8.216556 13.348271
11.496062 5.792474 13.945290
10.528824 8.125811 14.416980
17.105864 6.297792 9.872150
15.281627 8.011079 11.463036
17.113793 7.674425 9.371683
16.264375 5.770345 11.221012
16.192425 8.557274 10.191124
13.286952 13.481592 10.104380
13.982948 10.366770 11.535686
14.683888 12.645352 9.601243
12.225803 12.762061 11.358120
14.959906 10.999438 10.303715
13.597512 4.421233 12.985935
14.336262 7.437015 12.735059
12.591118 5.127210 13.523372
15.385925 5.238844 12.542327
13.261370 6.791871 13.777131
15.339207 6.629724 12.012480
10.204670 11.355308 13.764304
12.970471 9.721297 12.783210
10.633887 9.961284 14.462733
11.196302 12.051623 12.580241
12.009187 9.118221 13.945168
12.636689 11.246540 12.105699
7.568459 -3.456189 12.246025
8.016842 -1.200117 12.971522
8.486009 -2.965518 12.048561
6.705217 -2.925970 12.820167
8.729146 3.986225 14.124054
8.409988 1.258971 13.607646
9.726655 3.399073 13.810048
7.432813 3.243473 14.211308
10.416625 -1.904553 11.611669
9.005365 -0.637636 12.815726
9.438168 -2.447704 11.836367
10.809800 -0.658741 12.040467
8.750202 -1.824348 12.442910
4.878377 -1.802559 13.726584
7.062046 -0.628282 13.459792
5.800947 -2.369712 13.317534
4.958093 -0.612854 13.972073
6.894078 -1.791357 13.153637
11.561777 2.113930 12.888198
9.261250 0.655754 13.179882
10.681477 2.770145 13.395595
11.194689 0.682195 12.469174
9.499318 1.980533 13.508164
10.059928 0.000000 12.654465
5.095639 1.882837 14.337905
7.215600 0.641943 13.752457
6.220921 2.541274 14.281690
5.031167 0.621886 14.178000
7.337471 1.906569 13.999615
6.069841 0.000000 13.867771
16.470046 0.000000 -8.666334
18.290153 0.000000 -6.593307
17.632989 1.299714 -8.794806
15.980526 -1.177912 -7.970607
20.431900 0.000000 -1.416083
19.675499 0.000000 -4.144145
18.491200 4.051644 -8.196654
19.426736 1.355941 -6.503877
18.418876 2.705911 -8.674686
18.703343 1.338733 -7.744141
14.976024 -3.281427 -6.638471
17.548540 -1.224847 -5.875076
15.479229 -2.274048 -7.290209
16.812165 -1.203368 -6.961096
16.470046 0.000000 8.666334
18.290153 0.000000 6.593307
17.632989 1.299714 8.794806
15.980526 -1.177912 7.970607
20.431900 0.000000 1.416083
19.675499 0.000000 4.144145
18.491200 4.051644 8.196654
19.426736 1.355941 6.503877
18.418876 2.705911 8.674686
18.703343 1.338733 7.744141
14.976024 -3.281427 6.638471
17.548540 -1.224847 5.875076
15.479229 -2.274048 7.290209
16.812165 -1.203368 6.961096
18.816076 9.808434 -6.061946
19.840427 6.990796 -4.320550
18.732782 8.311930 -6.626595
19.562028 10.231352 -4.464677
20.511012 1.373164 -0.848662
20.328826 4.151618 -2.565841
20.395290 1.372017 -2.270296
18.573636 5.470822 -7.675678
19.727768 5.567134 -4.899123
18.650994 6.863133 -7.166195
19.103317 4.107422 -6.844916
19.305312 6.946279 -5.767672
20.483088 10.747009 -0.956118
20.264157 7.201807 -2.661065
20.151994 10.562053 -2.744444
19.994391 8.709300 -3.557788
19.856332 1.367385 -5.080449
20.042107 4.135609 -3.998879
20.174198 1.369041 -3.691560
19.527484 2.731268 -5.973267
20.253534 2.755606 -3.133876
19.628486 4.137845 -5.435897
12.927753 -6.738973 -4.164914
14.801872 -5.215456 -3.223329
13.436361 -5.961853 -4.753022
13.186787 -6.896967 -3.009645
19.212757 -1.286249 -0.794946
16.863925 -3.444005 -2.128512
19.029898 -1.280165 -2.118308
14.453972 -4.257385 -5.973200
15.442613 -4.357873 -3.834963
13.947411 -5.132324 -5.358957
15.594901 -3.353074 -5.587815
14.417612 -5.187627 -4.307418
13.452418 -7.058177 -0.627937
15.006512 -5.333259 -1.970638
13.363672 -7.004161 -1.819961
14.085869 -6.135623 -2.506429
18.192930 -1.252837 -4.654851
16.570906 -3.419341 -3.306291
18.684372 -1.267940 -3.418945
16.838824 -2.355211 -5.150832
17.744947 -2.414299 -2.745717
16.132496 -3.400862 -4.467720
18.816076 9.808434 6.061946
19.840427 6.990796 4.320550
18.732782 8.311930 6.626595
19.562028 10.231352 4.464677
20.511012 1.373164 0.848662
20.328826 4.151618 2.565841
20.395290 1.372017 2.270296
20.529811 2.765978 0.000000
18.573636 5.470822 7.675678
19.727768 5.567134 4.899123
18.650994 6.863133 7.166195
19.103317 4.107422 6.844916
19.305312 6.946279 5.767672
20.483088 10.747009 0.956118
20.264157 7.201807 2.661065
20.151994 10.562053 2.744444
20.529811 8.985777 0.000000
19.994391 8.709300 3.557788
19.856332 1.367385 5.080449
20.042107 4.135609 3.998879
20.174198 1.369041 3.691560
19.527484 2.731268 5.973267
20.253534 2.755606 3.133876
19.628486 4.137845 5.435897
20.428897 5.646408 -1.733169
20.428897 5.646408 1.733169
20.506946 4.197705 -0.864206
20.499314 7.274332 -0.899157
20.506946 4.197705 0.864206
20.499314 7.274332 0.899157
12.927753 -6.738973 4.164914
14.801872 -5.215456 3.223329
13.436361 -5.961853 4.753022
13.186787 -6.896967 3.009645
19.212757 -1.286249 0.794946
16.863925 -3.444005 2.128512
19.029898 -1.280165 2.118308
18.092245 -2.437565 0.000000
14.453972 -4.257385 5.973200
15.442613 -4.357873 3.834963
13.947411 -5.132324 5.358957
15.594901 -3.353074 5.587815
14.417612 -5.187627 4.307418
13.452418 -7.058177 0.627937
15.006512 -5.333259 1.970638
13.363672 -7.004161 1.819961
14.279679 -6.250131 0.000000
14.085869 -6.135623 2.506429
18.192930 -1.252837 4.654851
16.570906 -3.419341 3.306291
18.684372 -1.267940 3.418945
16.838824 -2.355211 5.150832
17.744947 -2.414299 2.745717
16.132496 -3.400862 4.467720
16.013645 -4.426062 -1.358583
16.013645 -4.426062 1.358583
17.020661 -3.484073 -0.717287
15.136890 -5.371436 -0.663946
17.020661 -3.484073 0.717287
15.136890 -5.371436 0.663946
-8.434196 12.078119 -0.599189
-9.545777 10.832234 -1.762070
-8.167400 12.241054 -1.576089
-11.561281 8.162638 -4.027414
-10.581309 9.535433 -2.897397
-7.522267 12.388064 -3.539199
-9.242760 10.920761 -2.729978
-7.862298 12.344852 -2.563610
-8.719481 11.581656 -2.160665
-15.084749 1.153618 -8.882245
-14.272210 3.230932 -7.586605
-12.499939 6.682151 -5.173033
-13.404464 5.054465 -6.353781
-5.795897 11.902761 -7.356311
-7.664203 10.638956 -6.575236
-6.273110 12.120880 -6.447257
-11.159947 8.107974 -5.011004
-9.427903 9.390042 -5.803365
-10.711530 8.830252 -4.449263
-7.133832 12.361073 -4.550923
-8.102297 10.801351 -5.662386
-6.721836 12.274862 -5.504479
-8.034714 11.645973 -4.131808
-7.207926 11.452496 -6.052345
-9.762352 10.222114 -3.323721
-9.002225 10.134091 -5.257116
-10.243805 9.537632 -3.883805
-8.911514 10.931933 -3.722279
-9.857216 9.488200 -4.859425
-8.529213 10.891287 -4.707298
-14.278571 -20.447508 -1.014389
-16.907031 -19.185541 -3.120895
-13.386156 -20.062769 -2.583169
-18.010818 -12.716219 -6.274134
-17.845673 -16.081773 -4.886542
-11.485738 -18.915317 -5.403998
-15.570565 -18.397364 -4.598984
-12.429489 -19.515948 -4.052805
-14.620224 -19.419321 -3.622853
-16.509542 -1.262581 -9.721195
-17.812609 -4.032405 -9.468556
-17.990129 -9.617068 -7.445118
-17.913005 -6.754515 -8.490851
-7.996012 -16.421031 -10.148755
-11.212401 -15.564336 -9.619289
-8.813120 -17.028678 -9.057780
-16.981416 -12.337413 -7.624941
-14.323879 -14.266356 -8.817093
-16.845067 -13.886548 -6.996959
-10.541646 -18.265926 -6.724887
-12.161879 -16.213269 -8.499473
-9.664117 -17.647813 -7.913899
-12.425787 -18.010645 -6.389894
-10.489499 -16.666505 -8.807813
-16.223451 -16.987500 -5.523488
-13.866248 -15.609677 -8.097607
-16.612181 -15.466994 -6.298292
-14.359312 -17.614856 -5.997787
-15.431600 -14.853902 -7.607493
-13.223185 -16.885203 -7.297915
-1.043794 -8.036655 -13.648681
-3.212348 -7.542967 -14.190117
-1.746767 -9.051864 -13.566663
-1.024734 -6.934092 -13.902385
-7.732172 -5.985914 -14.464157
-5.461072 -6.864912 -14.482789
-3.343763 -11.320823 -13.376091
-4.044155 -8.595508 -14.155534
-2.514151 -10.145996 -13.476425
-2.884707 -8.847065 -13.891066
-0.995904 -4.776932 -14.268443
-3.141579 -6.355551 -14.337774
-1.009880 -5.841830 -14.108958
-2.078777 -6.664202 -14.150035
-14.978886 -0.743094 -10.459812
-13.673528 -2.224261 -12.049635
-15.985258 -2.058172 -10.665585
-9.936431 -4.902597 -14.073621
-11.958168 -3.633560 -13.269778
-17.089076 -4.882251 -10.376810
-14.534447 -3.633329 -12.301194
-17.056513 -3.542063 -10.863103
-15.321982 -2.858457 -11.535460
-7.050571 -15.702243 -11.408063
-8.217666 -13.350074 -13.296462
-6.271187 -15.097784 -12.446142
-8.619635 -15.293133 -11.168684
-8.933554 -7.038578 -14.454795
-8.948449 -10.430458 -14.478894
-7.721263 -7.512704 -14.516019
-4.311798 -12.664507 -13.260946
-7.285997 -12.476457 -14.045146
-5.346777 -14.102496 -13.130318
-4.685975 -11.218701 -13.762206
-6.871799 -13.939264 -13.417433
-11.729167 -14.217476 -10.540646
-9.711434 -12.770240 -12.957311
-10.194109 -14.800770 -10.882432
-9.194369 -14.061626 -12.109478
-5.287175 -8.287950 -14.360858
-7.514858 -10.752995 -14.335055
-6.493880 -7.930051 -14.481204
-5.011530 -9.745420 -14.125569
-7.652280 -9.113339 -14.479959
-6.089589 -11.033804 -14.089497
-0.971705 -0.600547 -14.514396
-2.960161 -1.829480 -14.494735
-0.976088 -1.615147 -14.509733
-7.493389 -4.631169 -14.374992
-5.091993 -3.147025 -14.451474
-6.428246 -5.124849 -14.487482
-0.991056 -3.682216 -14.391504
-2.995443 -2.896408 -14.516599
-0.981874 -2.647582 -14.468907
-2.016582 -4.410251 -14.417758
-1.974915 -2.246017 -14.515502
-4.260896 -5.978127 -14.465895
-4.095428 -3.604009 -14.512609
-5.341482 -5.577351 -14.515810
-3.105363 -5.175009 -14.442813
-5.218444 -4.333007 -14.503260
-3.056913 -4.015874 -14.500923
-17.069009 -10.549228 -8.311536
-15.173154 -9.377525 -10.930596
-17.103097 -9.097364 -8.851635
-15.965410 -11.659653 -8.998549
-10.349415 -6.396290 -14.245103
-13.294666 -8.216556 -13.348271
-11.496062 -5.792474 -13.945290
-10.528824 -8.125811 -14.416980
-17.105864 -6.297792 -9.872150
-15.281627 -8.011079 -11.463036
-17.113793 -7.674425 -9.371683
-16.264375 -5.770345 -11.221012
-16.192425 -8.557274 -10.191124
-13.286952 -13.481592 -10.104380
-13.982948 -10.366770 -11.535686
-14.683888 -12.645352 -9.601243
-12.225803 -12.762061 -11.358120
-14.959906 -10.999438 -10.303715
-13.597512 -4.421233 -12.985935
-14.336262 -7.437015 -12.735059
-12.591118 -5.127210 -13.523372
-15.385925 -5.238844 -12.542327
-13.261370 -6.791871 -13.777131
-15.339207 -6.629724 -12.012480
-10.204670 -11.355308 -13.764304
-12.970471 -9.721297 -12.783210
-10.633887 -9.961284 -14.462733
-11.196302 -12.051623 -12.580241
-12.009187 -9.118221 -13.945168
-12.636689 -11.246540 -12.105699
-1.004571 7.734663 -13.135808
-2.896522 6.801371 -12.794999
-1.628827 8.440689 -12.650652
-0.991837 6.711487 -13.456075
-6.445132 4.989543 -12.056561
-4.690083 5.895729 -12.438121
-2.868038 9.710183 -11.473044
-3.506852 7.453516 -12.274841
-2.255875 9.103706 -12.092003
-2.588238 7.937830 -12.463447
-0.974155 4.672613 -13.956846
-2.880495 5.827368 -13.146221
-0.982743 5.684851 -13.729827
-1.954273 6.265064 -13.302549
-14.245358 0.706704 -9.947587
-12.045222 1.959386 -10.614709
-13.954448 1.796696 -9.310600
-13.736223 0.000000 -10.788635
-8.216911 4.054193 -11.638152
-10.062141 3.057441 -11.165789
-13.278410 3.793566 -8.062902
-11.862662 2.965435 -10.039936
-13.626976 2.829864 -8.678869
-12.877622 2.402439 -9.695175
-12.405228 -1.409830 -12.259167
-11.488379 1.305632 -11.353114
-13.116107 -0.711336 -11.567082
-12.571339 0.681791 -11.086651
-5.189499 11.557473 -8.396786
-5.895970 9.578346 -9.539881
-4.650439 11.195859 -9.229517
-6.174802 10.955460 -8.000851
-7.069758 5.570128 -11.439108
-6.516263 7.595463 -10.543536
-6.200823 6.033333 -11.657584
-3.499349 10.278200 -10.762255
-5.338449 9.141498 -10.290876
-4.082089 10.766792 -10.024566
-3.827458 9.163324 -11.240834
-5.009291 10.161215 -9.780819
-8.047003 9.754152 -7.231597
-6.874106 9.039240 -9.171656
-7.129872 10.351821 -7.611292
-6.535707 9.995538 -8.607877
-4.443360 6.965222 -12.068914
-5.653462 8.089526 -10.784327
-5.322260 6.499318 -11.868518
-4.142592 8.055684 -11.676369
-5.936018 7.069388 -11.232376
-4.758536 8.622052 -11.009836
-0.969025 0.598891 -14.474370
-2.886902 1.784204 -14.136016
-0.968867 1.603198 -14.402389
-1.947026 0.000000 -14.451336
-6.499178 4.016713 -12.467742
-4.744015 2.931963 -13.463887
-5.610705 4.473073 -12.644970
-0.974327 3.620062 -14.148581
-2.879249 2.784056 -13.953496
-0.969981 2.615514 -14.293658
-1.936511 4.235138 -13.845286
-1.934614 2.200184 -14.219293
-3.976029 -1.220445 -14.385407
-3.887520 1.193277 -14.065181
-2.952097 -0.607766 -14.421810
-2.927280 0.602657 -14.300571
-3.823710 5.364745 -12.981630
-3.835585 3.375346 -13.591828
-4.716211 4.924469 -12.816599
-2.892604 4.820452 -13.453287
-4.735057 3.931638 -13.159816
-2.893026 3.800575 -13.723499
-11.674752 7.215394 -5.684871
-10.737033 6.635851 -7.734857
-12.092132 6.431965 -6.258232
-10.776372 7.870062 -6.073863
-8.110637 5.012649 -11.163612
-9.536693 5.894000 -9.575145
-8.998947 4.534263 -10.916166
-7.821771 6.036594 -10.710248
-12.886587 4.744399 -7.437118
-11.055071 5.795394 -8.292617
-12.499329 5.605138 -6.844756
-12.296603 4.362642 -8.483592
-11.606989 6.133991 -7.305161
-8.989571 9.121259 -6.836334
-9.794308 7.261368 -8.080131
-9.878515 8.507100 -6.459190
-8.449438 8.820054 -7.849769
-10.316749 7.585505 -7.105716
-10.850099 3.527911 -10.362093
-10.415976 5.403345 -9.252626
-9.914934 4.037446 -10.649042
-11.611608 3.953705 -9.465573
-9.737311 4.987008 -10.116015
-11.339528 4.901031 -8.880241
-7.212376 8.025615 -9.728226
-9.178092 6.878930 -9.045584
-7.521274 7.045547 -10.229390
-7.851840 8.451667 -8.822380
-8.530541 6.476988 -9.905735
-8.828480 7.857268 -8.457510
-8.729146 -3.986225 -14.124054
-8.409988 -1.258971 -13.607646
-9.726655 -3.399073 -13.810048
-7.432813 -3.243473 -14.211308
-7.568459 3.456189 -12.246025
-8.016842 1.200117 -12.971522
-8.486009 2.965518 -12.048561
-6.705217 2.925970 -12.820167
-11.561777 -2.113930 -12.888198
-9.261250 -0.655754 -13.179882
-10.681477 -2.770145 -13.395595
-11.194689 -0.682195 -12.469174
-9.499318 -1.980533 -13.508164
-5.095639 -1.882837 -14.337905
-7.215600 -0.641943 -13.752457
-6.220921 -2.541274 -14.281690
-5.031167 -0.621886 -14.178000
-7.337471 -1.906569 -13.999615
-10.416625 1.904553 -11.611669
-9.005365 0.637636 -12.815726
-9.438168 2.447704 -11.836367
-10.809800 0.658741 -12.040467
-8.750202 1.824348 -12.442910
-10.059928 0.000000 -12.654465
-4.878377 1.802559 -13.726584
-7.062046 0.628282 -13.459792
-5.800947 2.369712 -13.317534
-4.958093 0.612854 -13.972073
-6.894078 1.791357 -13.153637
-6.069841 0.000000 -13.867771
-8.434196 12.078119 0.599189
-9.545777 10.832234 1.762070
-8.167400 12.241054 1.576089
-9.031189 11.498622 0.000000
-11.561281 8.162638 4.027414
-10.581309 9.535433 2.897397
-7.522267 12.388064 3.539199
-9.242760 10.920761 2.729978
-7.862298 12.344852 2.563610
-8.719481 11.581656 2.160665
-10.170940 10.292120 -1.169680
-10.170940 10.292120 1.169680
-9.612738 10.900044 -0.591151
-9.612738 10.900044 0.591151
-15.084749 1.153618 8.882245
-14.272210 3.230932 7.586605
-12.499939 6.682151 5.173033
-13.404464 5.054465 6.353781
-5.795897 11.902761 7.356311
-7.664203 10.638956 6.575236
-6.273110 12.120880 6.447257
-11.159947 8.107974 5.011004
-9.427903 9.390042 5.803365
-10.711530 8.830252 4.449263
-7.133832 12.361073 4.550923
-8.102297 10.801351 5.662386
-6.721836 12.274862 5.504479
-8.034714 11.645973 4.131808
-7.207926 11.452496 6.052345
-9.762352 10.222114 3.323721
-9.002225 10.134091 5.257116
-10.243805 9.537632 3.883805
-8.911514 10.931933 3.722279
-9.857216 9.488200 4.859425
-8.529213 10.891287 4.707298
-12.318855 7.613471 -3.476744
-12.646838 7.816176 -1.170078
-11.802138 8.312449 -2.904866
-12.318855 7.613471 3.476744
-12.646838 7.816176 1.170078
-11.802138 8.312449 2.904866
-10.741781 9.636264 -1.761873
-12.047063 8.465240 -0.599392
-11.273771 8.989561 -2.331362
-10.808772 9.703998 -0.591354
-11.965135 8.414217 -1.754298
-10.741781 9.636264 1.761873
-12.047063 8.465240 0.599392
-11.273771 8.989561 2.331362
-10.808772 9.703998 0.591354
-11.965135 8.414217 1.754298
-11.437407 9.092403 0.000000
-14.278571 -20.447508 1.014389
-16.907031 -19.185541 3.120895
-13.386156 -20.062769 2.583169
-16.124419 -20.529811 0.000000
-18.010818 -12.716219 6.274134
-17.845673 -16.081773 4.886542
-11.485738 -18.915317 5.403998
-15.570565 -18.397364 4.598984
-12.429489 -19.515948 4.052805
-14.620224 -19.419321 3.622853
-18.878093 -19.103014 -2.171021
-18.878093 -19.103014 2.171021
-17.901857 -20.299215 -1.100904
-17.901857 -20.299215 1.100904
-16.509542 -1.262581 9.721195
-17.812609 -4.032405 9.468556
-17.990129 -9.617068 7.445118
-17.913005 -6.754515 8.490851
-7.996012 -16.421031 10.148755
-11.212401 -15.564336 9.619289
-8.813120 -17.028678 9.057780
-16.981416 -12.337413 7.624941
-14.323879 -14.266356 8.817093
-16.845067 -13.886548 6.996959
-10.541646 -18.265926 6.724887
-12.161879 -16.213269 8.499473
-9.664117 -17.647813 7.913899
-12.425787 -18.010645 6.389894
-10.489499 -16.666505 8.807813
-16.223451 -16.987500 5.523488
-13.866248 -15.609677 8.097607
-16.612181 -15.466994 6.298292
-14.359312 -17.614856 5.997787
-15.431600 -14.853902 7.607493
-13.223185 -16.885203 7.297915
-18.917233 -11.691493 -5.339002
-20.308564 -12.551383 -1.878936
-19.000003 -13.382029 -4.676479
-18.917233 -11.691493 5.339002
-20.308564 -12.551383 1.878936
-19.000003 -13.382029 4.676479
-19.089958 -17.125268 -3.131146
-20.445854 -14.366910 -1.017267
-19.069393 -15.205692 -3.943459
-20.266523 -18.195064 -1.108793
-19.881093 -13.980940 -2.914915
-19.089958 -17.125268 3.131146
-20.445854 -14.366910 1.017267
-19.069393 -15.205692 3.943459
-20.266523 -18.195064 1.108793
-19.881093 -13.980940 2.914915
-20.529811 -16.320597 0.000000
-1.043794 -8.036655 13.648681
-3.212348 -7.542967 14.190117
-1.746767 -9.051864 13.566663
-1.024734 -6.934092 13.902385
-7.732172 -5.985914 14.464157
-5.461072 -6.864912 14.482789
-3.343763 -11.320823 13.376091
-4.044155 -8.595508 14.155534
-2.514151 -10.145996 13.476425
-2.884707 -8.847065 13.891066
-0.995904 -4.776932 14.268443
-3.141579 -6.355551 14.337774
-1.009880 -5.841830 14.108958
-2.078777 -6.664202 14.150035
-14.978886 -0.743094 10.459812
-13.673528 -2.224261 12.049635
-15.985258 -2.058172 10.665585
-9.936431 -4.902597 14.073621
-11.958168 -3.633560 13.269778
-17.089076 -4.882251 10.376810
-14.534447 -3.633329 12.301194
-17.056513 -3.542063 10.863103
-15.321982 -2.858457 11.535460
-7.050571 -15.702243 11.408063
-8.217666 -13.350074 13.296462
-6.271187 -15.097784 12.446142
-8.619635 -15.293133 11.168684
-8.933554 -7.038578 14.454795
-8.948449 -10.430458 14.478894
-7.721263 -7.512704 14.516019
-4.311798 -12.664507 13.260946
-7.285997 -12.476457 14.045146
-5.346777 -14.102496 13.130318
-4.685975 -11.218701 13.762206
-6.871799 -13.939264 13.417433
-11.729167 -14.217476 10.540646
