-8.637584 -23.162933 -32.140092
-4.735414 -12.884865 -33.245625
-33.428905 -3.458124 -26.255561
-25.516111 -9.969134 -31.900221
-37.823826 -10.165076 -27.259124
-17.799172 -33.856037 -28.799666
-20.851406 -20.208662 -33.738284
-13.406676 -29.322659 -31.809104
-24.883033 -31.339280 -27.349100
-14.735582 -21.971071 -33.351195
-4.542960 -2.807703 -33.719027
-14.525262 -8.977105 -33.512495
-4.626979 -7.669688 -33.672679
-9.721035 -11.089510 -33.727467
-37.465734 -23.155097 -22.441341
-27.973292 -17.288445 -32.884577
-37.752749 -16.680323 -24.870723
-31.782585 -27.735963 -25.235013
-33.456150 -14.100862 -30.840959
-27.013344 -24.577552 -30.954537
-4.571790 16.880786 -30.139208
-12.943881 12.654538 -28.475232
-7.429998 19.924617 -27.646715
-4.500362 12.245298 -31.595408
-30.477184 3.152776 -23.937235
-21.212915 8.287877 -26.520369
-29.320909 7.879935 -21.131185
-27.767218 0.000000 -27.440284
-12.911557 24.559241 -20.891338
-15.806277 15.319049 -25.575094
-10.310983 22.551856 -24.464163
-17.399328 21.913824 -19.123712
-11.764948 17.541791 -26.627728
-4.492901 2.776765 -33.347479
-13.101949 8.097450 -30.228647
-4.489163 7.441244 -32.669727
-9.152715 0.000000 -33.114834
-8.913588 10.168394 -30.925998
-26.127069 16.147417 -15.649673
-20.568703 12.712158 -24.179961
-27.797002 12.281569 -18.312084
-21.853462 19.071035 -17.351401
-24.739906 10.427201 -22.806044
-19.051029 17.333199 -21.830537
-19.944183 -6.008487 -32.270366
-18.127206 5.461095 -29.330435
-24.100551 -3.152916 -30.316277
-14.341712 -2.954555 -32.766518
-22.636974 2.961446 -28.475232
-13.835988 2.850370 -31.611091
-20.921090 26.636990 2.755520
-25.746754 20.594122 8.046115
-19.515429 27.078941 7.277410
-23.717444 24.000023 0.000000
-34.137958 5.178357 19.120462
-30.114470 13.689024 13.383024
-15.684783 26.185685 16.183643
-23.925535 20.352276 12.578398
-17.734368 26.920052 11.894105
-21.861025 23.714753 9.995127
-29.108092 17.989790 -5.419696
-29.108092 17.989790 5.419696
-26.495185 21.062895 -2.755520
-26.495185 21.062895 2.755520
-36.651070 -46.664596 4.827317
-41.765324 -33.406936 13.052076
-31.372116 -43.530873 11.698834
-47.155637 -47.717468 0.000000
-41.113729 -6.236506 23.027549
-41.734312 -18.971013 18.546941
-22.324242 -37.270237 23.034273
-36.579142 -31.116077 19.230793
-26.519594 -40.255668 17.786190
-34.869361 -37.826144 15.942696
-45.838851 -28.329968 -8.534831
-45.838851 -28.329968 8.534831
-46.615056 -37.057602 -4.848001
-46.615056 -37.057602 4.848001
-4.917258 -18.156384 32.416680
-15.337283 -14.994439 33.740474
-8.637584 -23.162933 32.140092
-4.735414 -12.884865 33.245625
-33.428905 -3.458124 26.255561
-25.516111 -9.969134 31.900221
-37.823826 -10.165076 27.259124
-17.799172 -33.856037 28.799666
-20.851406 -20.208662 33.738284
-13.406676 -29.322659 31.809104
-24.883033 -31.339280 27.349100
-14.735582 -21.971071 33.351195
-4.542960 -2.807703 33.719027
-14.525262 -8.977105 33.512495
-4.626979 -7.669688 33.672679
-9.721035 -11.089510 33.727467
-37.465734 -23.155097 22.441341
-27.973292 -17.288445 32.884577
-37.752749 -16.680323 24.870723
-31.782585 -27.735963 25.235013
-33.456150 -14.100862 30.840959
-27.013344 -24.577552 30.954537
-4.571790 16.880786 30.139208
-12.943881 12.654538 28.475232
-7.429998 19.924617 27.646715
-4.500362 12.245298 31.595408
-30.477184 3.152776 23.937235
-21.212915 8.287877 26.520369
-29.320909 7.879935 21.131185
-27.767218 0.000000 27.440284
-12.911557 24.559241 20.891338
-15.806277 15.319049 25.575094
-10.310983 22.551856 24.464163
-17.399328 21.913824 19.123712
-11.764948 17.541791 26.627728
-4.492901 2.776765 33.347479
-13.101949 8.097450 30.228647
-4.489163 7.441244 32.669727
-9.152715 0.000000 33.114834
-8.913588 10.168394 30.925998
-26.127069 16.147417 15.649673
-20.568703 12.712158 24.179961
-27.797002 12.281569 18.312084
-21.853462 19.071035 17.351401
-24.739906 10.427201 22.806044
-19.051029 17.333199 21.830537
-19.944183 -6.008487 32.270366
-18.127206 5.461095 29.330435
-24.100551 -3.152916 30.316277
-14.341712 -2.954555 32.766518
-22.636974 2.961446 28.475232
-13.835988 2.850370 31.611091
-40.493572 0.000000 -17.849753
-46.817844 0.000000 -6.520974
-37.658394 5.363957 -14.595103
-44.178878 -6.292716 -17.122219
-40.493572 0.000000 17.849753
-46.817844 0.000000 6.520974
-37.658394 5.363957 14.595103
-44.178878 -6.292716 17.122219
-32.184068 13.949484 -8.621255
-41.827204 5.635373 -3.482852
-34.841088 10.042007 -11.455666
-33.060486 14.470380 -2.981062
-40.365216 5.546604 -9.194060
-45.123280 -19.557704 -12.087326
-47.527918 -6.403429 -3.957537
-44.628625 -12.863001 -14.673784
-47.379224 -20.737607 -4.272182
-46.368554 -6.371525 -10.561451
-32.184068 13.949484 8.621255
-41.827204 5.635373 3.482852
-34.841088 10.042007 11.455666
-33.060486 14.470380 2.981062
-40.365216 5.546604 9.194060
-37.384614 10.332853 0.000000
-45.123280 -19.557704 12.087326
-47.527918 -6.403429 3.957537
-44.628625 -12.863001 14.673784
-47.379224 -20.737607 4.272182
-46.368554 -6.371525 10.561451
-47.717468 -13.188784 0.000000
-16.451674 31.265794 0.000000
-12.643576 35.073891 0.000000
-3.092821 44.624647 0.000000
-8.301892 39.415576 0.000000
25.108341 47.717468 0.000000
17.201383 47.717468 0.000000
3.307176 47.717468 0.000000
10.050475 47.717468 0.000000
-25.108341 -47.717468 0.000000
-17.201383 -47.717468 0.000000
-3.307176 -47.717468 0.000000
-10.050475 -47.717468 0.000000
16.451674 -31.265794 0.000000
12.643576 -35.073891 0.000000
3.092821 -44.624647 0.000000
8.301892 -39.415576 0.000000
-27.902015 -47.386095 3.623890
-24.169150 -45.467928 10.292995
-23.673097 -47.462955 3.498457
-16.661403 -40.260043 21.522000
-20.349078 -42.930107 16.187795
-15.917363 -47.544318 3.318483
-20.334169 -45.872765 10.051274
-19.672102 -47.511285 3.400724
-22.039904 -46.797113 6.874948
-1.521464 -21.416175 30.668854
-4.893253 -26.508545 30.081023
-13.085200 -37.562976 26.520674
-8.907889 -32.531650 29.316161
-1.969761 -47.606447 3.187141
-5.885918 -46.633367 9.523615
-5.298206 -47.596626 3.201885
-13.231951 -41.071530 21.409746
-9.687712 -44.487009 15.675047
-14.974099 -42.330418 18.782446
-12.170396 -47.566545 3.275620
-9.281620 -46.518842 9.598979
-8.707089 -47.583824 3.229084
-14.397377 -47.067135 6.583181
-7.304462 -47.207085 6.422786
-18.491458 -44.745703 13.179745
-11.289050 -45.458702 12.828349
-16.740230 -43.568713 16.032277
-16.532272 -46.139533 9.920504
-13.168583 -44.077333 15.859545
-12.835859 -46.349016 9.770752
17.643416 -29.963880 2.291512
16.211060 -30.496865 6.903857
15.841447 -31.761026 2.341080
12.317035 -29.762462 15.910259
14.429537 -30.441751 11.478770
11.935831 -35.651693 2.488405
14.328955 -32.325333 7.082869
13.936584 -33.659088 2.409223
15.127800 -32.120711 4.718843
1.479703 -20.828350 29.827064
4.415922 -23.922664 27.146651
0.000000 -23.167806 29.497538
9.907337 -28.440458 20.079882
7.251346 -26.481950 23.864424
-3.261376 -28.359265 28.697148
3.024879 -26.302810 26.616192
-1.579330 -25.681577 29.120769
1.525903 -24.812800 28.135648
1.888122 -45.633347 3.055046
5.180146 -41.041629 8.381652
4.762198 -42.781377 2.877957
0.000000 -46.874187 6.315352
10.155272 -31.521622 16.431575
7.897415 -36.265777 12.778286
11.312694 -31.979958 14.189839
9.692531 -37.882105 2.608711
7.712189 -38.652962 7.975886
7.356778 -40.204439 2.728312
11.051229 -36.128087 5.053160
6.307107 -40.761403 5.545816
-3.892639 -45.882616 12.681643
3.510772 -41.381547 11.437578
-1.968795 -46.717971 9.563016
1.859202 -44.117422 9.030691
13.384009 -32.386676 9.539422
9.041799 -36.409479 10.274678
12.397955 -32.267357 11.873639
12.283430 -34.281538 7.370906
10.220266 -34.208848 12.308748
10.077819 -36.390006 7.671311
-11.161278 -39.546814 24.441275
-3.503965 -37.872759 23.406652
-9.401963 -38.199104 26.904287
-9.481601 -41.543728 21.728244
8.678558 -30.750001 19.004546
3.155411 -34.105396 21.078294
7.362100 -29.911373 21.067095
7.595886 -33.281449 17.406898
-5.151368 -31.406833 28.174521
-1.726712 -34.704871 24.386448
-7.157256 -34.610360 27.597861
-1.649266 -30.145295 27.064119
-5.338722 -36.412598 25.606356
-5.870192 -44.701829 15.886866
-1.843771 -39.499450 20.724461
-7.700733 -43.277305 18.851038
-1.938276 -44.189550 15.680985
-5.709295 -41.922397 21.972346
4.545725 -27.714352 24.862061
1.642424 -33.010775 23.196040
5.974411 -28.890469 23.036893
1.581641 -28.909246 25.954407
4.609370 -31.438070 22.108129
0.000000 -31.713438 25.211253
5.061798 -38.545865 13.699059
1.736058 -37.191888 19.513735
6.387477 -35.896944 15.636248
1.807085 -41.198608 14.619628
4.790343 -35.174688 18.435740
0.000000 -40.573493 17.758778
-17.643416 29.963880 2.291512
-16.211060 30.496865 6.903857
-15.841447 31.761026 2.341080
-12.317035 29.762462 15.910259
-14.429537 30.441751 11.478770
-11.935831 35.651693 2.488405
-14.328955 32.325333 7.082869
-13.936584 33.659088 2.409223
-15.127800 32.120711 4.718843
-1.479703 20.828350 29.827064
-4.415922 23.922664 27.146651
-9.907337 28.440458 20.079882
-7.251346 26.481950 23.864424
-1.888122 45.633347 3.055046
-5.180146 41.041629 8.381652
-4.762198 42.781377 2.877957
-10.155272 31.521622 16.431575
-7.897415 36.265777 12.778286
-11.312694 31.979958 14.189839
-9.692531 37.882105 2.608711
-7.712189 38.652962 7.975886
-7.356778 40.204439 2.728312
-11.051229 36.128087 5.053160
-6.307107 40.761403 5.545816
-13.384009 32.386676 9.539422
-9.041799 36.409479 10.274678
-12.397955 32.267357 11.873639
-12.283430 34.281538 7.370906
-10.220266 34.208848 12.308748
-10.077819 36.390006 7.671311
27.902015 47.386095 3.623890
24.169150 45.467928 10.292995
23.673097 47.462955 3.498457
16.661403 40.260043 21.522000
20.349078 42.930107 16.187795
15.917363 47.544318 3.318483
20.334169 45.872765 10.051274
19.672102 47.511285 3.400724
22.039904 46.797113 6.874948
1.521464 21.416175 30.668854
4.893253 26.508545 30.081023
0.000000 23.167806 29.497538
13.085200 37.562976 26.520674
8.907889 32.531650 29.316161
-3.024879 26.302810 26.616192
3.261376 28.359265 28.697148
-1.525903 24.812800 28.135648
1.579330 25.681577 29.120769
1.969761 47.606447 3.187141
5.885918 46.633367 9.523615
5.298206 47.596626 3.201885
0.000000 46.874187 6.315352
13.231951 41.071530 21.409746
9.687712 44.487009 15.675047
14.974099 42.330418 18.782446
12.170396 47.566545 3.275620
9.281620 46.518842 9.598979
8.707089 47.583824 3.229084
14.397377 47.067135 6.583181
7.304462 47.207085 6.422786
-3.510772 41.381547 11.437578
3.892639 45.882616 12.681643
-1.859202 44.117422 9.030691
1.968795 46.717971 9.563016
18.491458 44.745703 13.179745
11.289050 45.458702 12.828349
16.740230 43.568713 16.032277
16.532272 46.139533 9.920504
13.168583 44.077333 15.859545
12.835859 46.349016 9.770752
-8.678558 30.750001 19.004546
-3.155411 34.105396 21.078294
-7.362100 29.911373 21.067095
-7.595886 33.281449 17.406898
11.161278 39.546814 24.441275
3.503965 37.872759 23.406652
9.401963 38.199104 26.904287
9.481601 41.543728 21.728244
-4.545725 27.714352 24.862061
-1.642424 33.010775 23.196040
-5.974411 28.890469 23.036893
-1.581641 28.909246 25.954407
-4.609370 31.438070 22.108129
-5.061798 38.545865 13.699059
-1.736058 37.191888 19.513735
-6.387477 35.896944 15.636248
-1.807085 41.198608 14.619628
-4.790343 35.174688 18.435740
5.151368 31.406833 28.174521
1.726712 34.704871 24.386448
7.157256 34.610360 27.597861
1.649266 30.145295 27.064119
5.338722 36.412598 25.606356
0.000000 31.713438 25.211253
5.870192 44.701829 15.886866
1.843771 39.499450 20.724461
7.700733 43.277305 18.851038
1.938276 44.189550 15.680985
5.709295 41.922397 21.972346
0.000000 40.573493 17.758778
0.000000 -16.639818 31.623355
0.000000 -11.786335 32.695864
0.000000 -2.335723 33.700898
0.000000 -7.029228 33.373243
0.000000 16.639818 31.623355
0.000000 11.786335 32.695864
0.000000 2.335723 33.700898
0.000000 7.029228 33.373243
-27.902015 -47.386095 -3.623890
-24.169150 -45.467928 -10.292995
-23.673097 -47.462955 -3.498457
-16.661403 -40.260043 -21.522000
-20.349078 -42.930107 -16.187795
-15.917363 -47.544318 -3.318483
-20.334169 -45.872765 -10.051274
-19.672102 -47.511285 -3.400724
-22.039904 -46.797113 -6.874948
-1.521464 -21.416175 -30.668854
-4.893253 -26.508545 -30.081023
-13.085200 -37.562976 -26.520674
-8.907889 -32.531650 -29.316161
-1.969761 -47.606447 -3.187141
-5.885918 -46.633367 -9.523615
-5.298206 -47.596626 -3.201885
-13.231951 -41.071530 -21.409746
-9.687712 -44.487009 -15.675047
-14.974099 -42.330418 -18.782446
-12.170396 -47.566545 -3.275620
-9.281620 -46.518842 -9.598979
-8.707089 -47.583824 -3.229084
-14.397377 -47.067135 -6.583181
-7.304462 -47.207085 -6.422786
-18.491458 -44.745703 -13.179745
-11.289050 -45.458702 -12.828349
-16.740230 -43.568713 -16.032277
-16.532272 -46.139533 -9.920504
-13.168583 -44.077333 -15.859545
-12.835859 -46.349016 -9.770752
17.643416 -29.963880 -2.291512
16.211060 -30.496865 -6.903857
15.841447 -31.761026 -2.341080
12.317035 -29.762462 -15.910259
14.429537 -30.441751 -11.478770
11.935831 -35.651693 -2.488405
14.328955 -32.325333 -7.082869
13.936584 -33.659088 -2.409223
15.127800 -32.120711 -4.718843
1.479703 -20.828350 -29.827064
4.415922 -23.922664 -27.146651
0.000000 -23.167806 -29.497538
9.907337 -28.440458 -20.079882
7.251346 -26.481950 -23.864424
-3.261376 -28.359265 -28.697148
3.024879 -26.302810 -26.616192
-1.579330 -25.681577 -29.120769
1.525903 -24.812800 -28.135648
1.888122 -45.633347 -3.055046
5.180146 -41.041629 -8.381652
4.762198 -42.781377 -2.877957
0.000000 -46.874187 -6.315352
10.155272 -31.521622 -16.431575
7.897415 -36.265777 -12.778286
11.312694 -31.979958 -14.189839
9.692531 -37.882105 -2.608711
7.712189 -38.652962 -7.975886
7.356778 -40.204439 -2.728312
11.051229 -36.128087 -5.053160
6.307107 -40.761403 -5.545816
-3.892639 -45.882616 -12.681643
3.510772 -41.381547 -11.437578
-1.968795 -46.717971 -9.563016
1.859202 -44.117422 -9.030691
13.384009 -32.386676 -9.539422
9.041799 -36.409479 -10.274678
12.397955 -32.267357 -11.873639
12.283430 -34.281538 -7.370906
10.220266 -34.208848 -12.308748
10.077819 -36.390006 -7.671311
-11.161278 -39.546814 -24.441275
-3.503965 -37.872759 -23.406652
-9.401963 -38.199104 -26.904287
-9.481601 -41.543728 -21.728244
8.678558 -30.750001 -19.004546
3.155411 -34.105396 -21.078294
7.362100 -29.911373 -21.067095
7.595886 -33.281449 -17.406898
-5.151368 -31.406833 -28.174521
-1.726712 -34.704871 -24.386448
-7.157256 -34.610360 -27.597861
-1.649266 -30.145295 -27.064119
-5.338722 -36.412598 -25.606356
-5.870192 -44.701829 -15.886866
-1.843771 -39.499450 -20.724461
-7.700733 -43.277305 -18.851038
-1.938276 -44.189550 -15.680985
-5.709295 -41.922397 -21.972346
4.545725 -27.714352 -24.862061
1.642424 -33.010775 -23.196040
5.974411 -28.890469 -23.036893
1.581641 -28.909246 -25.954407
4.609370 -31.438070 -22.108129
0.000000 -31.713438 -25.211253
5.061798 -38.545865 -13.699059
1.736058 -37.191888 -19.513735
6.387477 -35.896944 -15.636248
1.807085 -41.198608 -14.619628
4.790343 -35.174688 -18.435740
0.000000 -40.573493 -17.758778
-17.643416 29.963880 -2.291512
-16.211060 30.496865 -6.903857
-15.841447 31.761026 -2.341080
-12.317035 29.762462 -15.910259
-14.429537 30.441751 -11.478770
-11.935831 35.651693 -2.488405
-14.328955 32.325333 -7.082869
-13.936584 33.659088 -2.409223
-15.127800 32.120711 -4.718843
-1.479703 20.828350 -29.827064
-4.415922 23.922664 -27.146651
-9.907337 28.440458 -20.079882
-7.251346 26.481950 -23.864424
-1.888122 45.633347 -3.055046
-5.180146 41.041629 -8.381652
-4.762198 42.781377 -2.877957
-10.155272 31.521622 -16.431575
-7.897415 36.265777 -12.778286
-11.312694 31.979958 -14.189839
-9.692531 37.882105 -2.608711
-7.712189 38.652962 -7.975886
-7.356778 40.204439 -2.728312
-11.051229 36.128087 -5.053160
-6.307107 40.761403 -5.545816
-13.384009 32.386676 -9.539422
-9.041799 36.409479 -10.274678
-12.397955 32.267357 -11.873639
-12.283430 34.281538 -7.370906
-10.220266 34.208848 -12.308748
-10.077819 36.390006 -7.671311
27.902015 47.386095 -3.623890
24.169150 45.467928 -10.292995
23.673097 47.462955 -3.498457
16.661403 40.260043 -21.522000
20.349078 42.930107 -16.187795
15.917363 47.544318 -3.318483
20.334169 45.872765 -10.051274
19.672102 47.511285 -3.400724
22.039904 46.797113 -6.874948
1.521464 21.416175 -30.668854
4.893253 26.508545 -30.081023
0.000000 23.167806 -29.497538
13.085200 37.562976 -26.520674
8.907889 32.531650 -29.316161
-3.024879 26.302810 -26.616192
3.261376 28.359265 -28.697148
-1.525903 24.812800 -28.135648
1.579330 25.681577 -29.120769
1.969761 47.606447 -3.187141
5.885918 46.633367 -9.523615
5.298206 47.596626 -3.201885
0.000000 46.874187 -6.315352
13.231951 41.071530 -21.409746
9.687712 44.487009 -15.675047
14.974099 42.330418 -18.782446
12.170396 47.566545 -3.275620
9.281620 46.518842 -9.598979
8.707089 47.583824 -3.229084
14.397377 47.067135 -6.583181
7.304462 47.207085 -6.422786
-3.510772 41.381547 -11.437578
3.892639 45.882616 -12.681643
-1.859202 44.117422 -9.030691
1.968795 46.717971 -9.563016
18.491458 44.745703 -13.179745
11.289050 45.458702 -12.828349
16.740230 43.568713 -16.032277
16.532272 46.139533 -9.920504
13.168583 44.077333 -15.859545
12.835859 46.349016 -9.770752
-8.678558 30.750001 -19.004546
-3.155411 34.105396 -21.078294
-7.362100 29.911373 -21.067095
-7.595886 33.281449 -17.406898
11.161278 39.546814 -24.441275
3.503965 37.872759 -23.406652
9.401963 38.199104 -26.904287
9.481601 41.543728 -21.728244
-4.545725 27.714352 -24.862061
-1.642424 33.010775 -23.196040
-5.974411 28.890469 -23.036893
-1.581641 28.909246 -25.954407
-4.609370 31.438070 -22.108129
-5.061798 38.545865 -13.699059
-1.736058 37.191888 -19.513735
-6.387477 35.896944 -15.636248
-1.807085 41.198608 -14.619628
-4.790343 35.174688 -18.435740
5.151368 31.406833 -28.174521
1.726712 34.704871 -24.386448
7.157256 34.610360 -27.597861
1.649266 30.145295 -27.064119
5.338722 36.412598 -25.606356
0.000000 31.713438 -25.211253
5.870192 44.701829 -15.886866
1.843771 39.499450 -20.724461
7.700733 43.277305 -18.851038
1.938276 44.189550 -15.680985
5.709295 41.922397 -21.972346
0.000000 40.573493 -17.758778
0.000000 -16.639818 -31.623355
0.000000 -11.786335 -32.695864
0.000000 -2.335723 -33.700898
0.000000 -7.029228 -33.373243
0.000000 16.639818 -31.623355
0.000000 11.786335 -32.695864
0.000000 2.335723 -33.700898
0.000000 7.029228 -33.373243
33.187703 47.526172 -2.357746
39.297035 44.592980 -7.253901
31.113462 46.631923 -6.004065
41.862569 29.556326 -14.582979
41.478723 37.378888 -11.357796
26.696318 43.964898 -12.560519
36.190687 42.761019 -10.689425
28.889880 45.360945 -9.419941
33.981807 45.136356 -8.420603
38.373152 2.934618 -22.594988
41.401872 9.372525 -22.007778
41.814482 22.352964 -17.304699
41.635222 15.699528 -19.735296
18.585141 38.167426 -23.588766
26.060998 36.176209 -22.358127
20.484348 39.579781 -21.053010
39.469928 28.675867 -17.722660
33.293013 33.159312 -20.493582
39.153014 32.276524 -16.263041
24.501962 42.455518 -15.630664
28.267872 37.684525 -19.755338
22.462322 41.018838 -18.394286
28.881274 41.862168 -14.852040
24.380758 38.737982 -20.472013
37.708191 39.484071 -12.838251
32.229340 36.281595 -18.821278
38.611715 35.949957 -14.639129
33.375368 40.942235 -13.940664
35.867690 34.524945 -17.682107
30.734667 39.246301 -16.962554
19.603613 -28.073190 -1.392695
22.187264 -25.177376 -4.095581
18.983500 -28.451899 -3.663307
26.871902 -18.972431 -9.360925
24.594152 -22.163219 -6.734425
17.484015 -28.793594 -8.226165
21.482960 -25.383139 -6.345292
18.274352 -28.693157 -5.958602
20.266702 -26.919260 -5.022036
35.061504 -2.681357 -20.645014
33.172918 -7.509660 -17.633556
29.053626 -15.531333 -12.023687
31.156015 -11.748100 -14.768101
13.471413 -27.665604 -17.098283
17.813919 -24.728141 -15.282832
14.580599 -28.172579 -14.985368
25.939081 -18.845376 -11.647083
21.913288 -21.825287 -13.488769
24.896825 -20.524166 -10.341428
16.581176 -28.730859 -10.577716
18.832180 -25.105595 -13.161092
15.623573 -28.530480 -12.794068
18.675097 -27.068752 -9.603568
16.753394 -26.619052 -14.067474
22.690649 -23.759273 -7.725331
20.923883 -23.554683 -12.219122
23.809689 -22.168332 -9.027133
20.713045 -25.409108 -8.651697
22.911140 -22.053437 -11.294768
19.824462 -25.314633 -10.941180
2.334927 -17.977689 -30.531577
6.732391 -15.808436 -29.739434
3.785884 -19.618706 -29.403927
2.305327 -15.599518 -31.275975
14.980430 -11.597202 -28.023082
10.901166 -13.703452 -28.909942
6.666185 -22.569393 -26.666812
8.150981 -17.324217 -28.530431
5.243332 -21.159756 -28.105459
6.015846 -18.449910 -28.968807
2.264231 -10.860561 -32.439918
6.695139 -13.544560 -30.555780
2.284190 -13.213306 -31.912257
4.542319 -14.561897 -30.919134
33.110506 -1.642593 -23.121190
27.996726 -4.554203 -24.671783
32.434344 -4.176064 -21.640642
19.098577 -9.423165 -27.050572
23.387449 -7.106414 -25.952659
30.863027 -8.817390 -18.740614
27.572403 -6.892565 -23.335838
31.673200 -6.577457 -20.172308
29.931476 -5.583993 -22.534509
12.061961 -26.863051 -19.516662
13.704013 -22.262963 -22.173558
10.809022 -26.022550 -21.452179
14.352101 -25.463792 -18.596389
16.432248 -12.946656 -26.587936
15.145760 -17.654146 -24.506355
14.412583 -14.023285 -27.095739
8.133541 -23.889634 -25.014725
12.408164 -21.247597 -23.919097
9.488005 -25.025269 -23.300114
8.896166 -21.298327 -26.127086
11.643102 -23.617727 -22.733572
18.703661 -22.671589 -16.808411
15.977494 -21.009919 -21.317692
16.571971 -24.060752 -17.690937
15.190952 -23.232643 -20.007300
10.327708 -16.189274 -28.051795
13.140349 -18.802498 -25.066026
12.370536 -15.106374 -27.586012
9.628633 -18.723838 -27.139400
13.797094 -16.431389 -26.107427
11.060272 -20.040248 -25.590178
2.252307 -1.392002 -33.642798
6.710031 -4.147027 -32.856362
2.251938 -3.726316 -33.475493
15.106048 -9.336051 -28.978789
11.026521 -6.814765 -31.294131
13.040969 -10.396769 -29.390723
2.264630 -8.414115 -32.885568
6.692242 -6.470984 -32.432131
2.254529 -6.079243 -33.222771
4.501035 -9.843737 -32.180617
4.496626 -5.113891 -33.049922
8.887453 -12.469283 -30.173221
8.915056 -7.845321 -31.591506
10.961896 -11.445951 -29.789638
6.723283 -11.204184 -31.269495
11.005700 -9.138312 -30.587379
6.724264 -8.833681 -31.897547
27.135642 -16.770749 -13.213355
24.956101 -15.423718 -17.978139
28.105760 -14.949826 -14.546017
25.047537 -18.292396 -14.117489
18.851565 -11.650908 -25.947600
22.166149 -13.699433 -22.255524
20.916265 -10.538993 -25.372460
18.180154 -14.030864 -24.893845
29.952313 -11.027413 -17.286103
25.695316 -13.470241 -19.274541
29.052209 -13.028030 -15.909277
28.581012 -10.140095 -19.718426
26.978141 -14.257244 -16.979396
20.894474 -21.200556 -15.889701
22.764923 -16.877608 -18.780660
22.960647 -19.773065 -15.013104
19.639041 -20.500464 -18.245230
23.979235 -17.631001 -16.515826
25.218901 -8.199929 -24.084627
24.209868 -12.559003 -21.505892
23.045296 -9.384241 -24.751584
26.988878 -9.189603 -22.000844
22.632447 -11.591310 -23.512669
26.356480 -11.391474 -20.640357
16.763736 -18.653948 -22.611329
21.332652 -15.988707 -21.024663
17.481707 -16.375975 -23.776186
18.250042 -19.644221 -20.505871
19.827549 -15.054473 -23.023915
20.520048 -18.262659 -19.657802
2.426092 18.679609 -31.723650
7.466465 17.532129 -32.982110
4.060014 21.039261 -31.533013
2.381790 16.116920 -32.313332
17.971900 13.913068 -33.619062
12.693178 15.956124 -33.662367
7.771913 26.313005 -31.090068
9.399835 19.978552 -32.901728
5.843645 23.582352 -31.323274
6.704927 20.563245 -32.287023
2.314781 11.103031 -33.164163
7.301975 14.772217 -33.325307
2.347265 13.578174 -32.793470
4.831704 15.489614 -32.888947
34.815447 1.727174 -24.311756
31.781401 5.169852 -28.006983
37.154558 4.783812 -24.790034
31.927124 0.000000 -25.076039
23.095261 11.395114 -32.711338
27.794387 8.445489 -30.842964
39.720164 11.347823 -24.118835
33.782435 8.444953 -28.591683
39.644477 8.232823 -25.249125
35.612904 6.643915 -26.811886
26.702456 -3.034683 -26.388059
28.833488 3.276871 -28.494000
29.219580 -1.584689 -25.768719
30.485787 1.653360 -26.885385
16.387651 36.496745 -26.515776
19.100332 31.029597 -30.904986
14.576129 35.091800 -28.928586
20.034630 35.545850 -25.959389
20.764273 16.359777 -33.597300
20.798892 24.243529 -33.653315
17.946542 17.461789 -33.739604
10.021919 29.436131 -30.822436
16.934854 28.999048 -32.645152
12.427522 32.778450 -30.518818
10.891618 26.075642 -31.987514
15.972133 32.399052 -31.186158
27.262120 33.045700 -24.499638
22.572300 29.681887 -30.116696
23.694181 34.401450 -25.294051
21.370485 32.683457 -28.146076
12.288988 19.263693 -33.378962
17.466795 24.993200 -33.318988
15.093734 18.431828 -33.658683
11.648307 22.651295 -32.832080
17.786206 21.182147 -33.655789
14.154041 25.645887 -32.748238
2.258535 1.395852 -33.735830
6.880306 4.252263 -33.690133
2.268723 3.754089 -33.724994
4.525476 0.000000 -33.589260
17.416894 10.764232 -33.411815
11.835326 7.314634 -33.589582
14.941182 11.911693 -33.673275
2.303512 8.558580 -33.450193
6.962312 6.732126 -33.740952
2.282171 6.153778 -33.630101
4.687143 10.250753 -33.511214
4.590297 5.220422 -33.738403
9.035769 -2.773535 -32.691720
9.241489 2.836681 -33.436022
6.803881 -1.400756 -33.238838
6.861564 1.412631 -33.520634
9.903607 13.894969 -33.623100
9.519008 8.376803 -33.731677
12.415213 12.963444 -33.739118
7.217799 12.028281 -33.569450
12.129237 10.071214 -33.709949
7.105187 9.334101 -33.704515
39.673522 24.519585 -19.318515
35.266983 21.796194 -25.406000
39.752752 21.145015 -20.573868
37.108426 27.100549 -20.915341
24.055161 14.866907 -33.109913
30.900812 19.097752 -31.025406
26.720313 13.463456 -32.413056
24.472161 18.886834 -33.509408
39.759184 14.637966 -22.945852
35.519107 18.620162 -26.643551
39.777614 17.837678 -21.782615
37.803310 13.412021 -26.081013
37.636076 19.889684 -23.687245
30.882882 31.335284 -23.485625
32.500587 24.095498 -26.812411
34.129782 29.391610 -22.316182
28.416452 29.662877 -26.399695
34.771330 25.566010 -23.948938
31.604717 10.276278 -30.183227
33.321794 17.285865 -29.600116
29.265553 11.917182 -31.432394
35.761526 12.176654 -29.152148
30.823420 15.786355 -32.022206
35.652940 15.409476 -27.920625
23.718729 26.393158 -31.992391
30.147283 22.595225 -29.712033
24.716358 23.153028 -33.615752
26.023581 28.011605 -29.240272
27.912971 21.193495 -32.412773
29.371474 26.140349 -28.137294
17.591381 -8.033226 -28.463452
18.633556 -2.789435 -30.149728
19.724043 -6.892757 -28.004488
15.584945 -6.800837 -29.797932
20.289166 9.265188 -32.828560
19.547347 2.926229 -31.628272
22.607677 7.900471 -32.098713
17.276098 7.538809 -33.031363
24.211376 -4.426755 -26.989018
20.931183 -1.482058 -29.787610
21.937148 -5.689202 -27.511284
25.125235 -1.531112 -27.985674
20.338107 -4.240334 -28.921073
11.338820 -4.189690 -31.904718
16.414323 -1.460316 -31.284613
13.483149 -5.507926 -30.953964
11.524102 -1.424457 -32.475310
16.023915 -4.163654 -30.573017
26.873055 4.913411 -29.956057
21.525937 1.524170 -30.634017
24.826973 6.438651 -31.135401
26.019832 1.585628 -28.982119
22.079279 4.603355 -31.397044
23.382306 0.000000 -29.412791
11.843800 4.376281 -33.325612
16.771230 1.492068 -31.964855
14.459294 5.906686 -33.194951
11.693949 1.445452 -32.953945
17.054494 4.431440 -32.539324
14.108141 0.000000 -32.232880
33.187703 47.526172 2.357746
39.297035 44.592980 7.253901
31.113462 46.631923 6.004065
37.478011 47.717468 0.000000
41.862569 29.556326 14.582979
41.478723 37.378888 11.357796
26.696318 43.964898 12.560519
36.190687 42.761019 10.689425
28.889880 45.360945 9.419941
33.981807 45.136356 8.420603
43.878378 44.401162 -5.046107
43.878378 44.401162 5.046107
41.609313 47.181494 -2.558832
41.609313 47.181494 2.558832
38.373152 2.934618 22.594988
41.401872 9.372525 22.007778
41.814482 22.352964 17.304699
41.635222 15.699528 19.735296
18.585141 38.167426 23.588766
26.060998 36.176209 22.358127
20.484348 39.579781 21.053010
39.469928 28.675867 17.722660
33.293013 33.159312 20.493582
39.153014 32.276524 16.263041
24.501962 42.455518 15.630664
28.267872 37.684525 19.755338
22.462322 41.018838 18.394286
28.881274 41.862168 14.852040
24.380758 38.737982 20.472013
37.708191 39.484071 12.838251
32.229340 36.281595 18.821278
38.611715 35.949957 14.639129
33.375368 40.942235 13.940664
35.867690 34.524945 17.682107
30.734667 39.246301 16.962554
43.969352 27.174554 -12.409449
47.203224 29.173197 -4.367214
44.161734 31.103870 -10.869547
43.969352 27.174554 12.409449
47.203224 29.173197 4.367214
44.161734 31.103870 10.869547
44.370817 39.804284 -7.277728
47.522327 33.393029 -2.364434
44.323018 35.342611 -9.165788
47.105507 42.290813 -2.577169
46.209653 32.495919 -6.775142
44.370817 39.804284 7.277728
47.522327 33.393029 2.364434
44.323018 35.342611 9.165788
47.105507 42.290813 2.577169
46.209653 32.495919 6.775142
47.717468 37.933987 0.000000
19.603613 -28.073190 1.392695
22.187264 -25.177376 4.095581
18.983500 -28.451899 3.663307
20.991205 -26.726262 0.000000
26.871902 -18.972431 9.360925
24.594152 -22.163219 6.734425
17.484015 -28.793594 8.226165
21.482960 -25.383139 6.345292
18.274352 -28.693157 5.958602
20.266702 -26.919260 5.022036
23.640329 -23.921989 -2.718688
23.640329 -23.921989 2.718688
22.342900 -25.334987 -1.374013
22.342900 -25.334987 1.374013
35.061504 -2.681357 20.645014
33.172918 -7.509660 17.633556
29.053626 -15.531333 12.023687
31.156015 -11.748100 14.768101
13.471413 -27.665604 17.098283
17.813919 -24.728141 15.282832
14.580599 -28.172579 14.985368
25.939081 -18.845376 11.647083
21.913288 -21.825287 13.488769
24.896825 -20.524166 10.341428
16.581176 -28.730859 10.577716
18.832180 -25.105595 13.161092
15.623573 -28.530480 12.794068
18.675097 -27.068752 9.603568
16.753394 -26.619052 14.067474
22.690649 -23.759273 7.725331
20.923883 -23.554683 12.219122
23.809689 -22.168332 9.027133
20.713045 -25.409108 8.651697
22.911140 -22.053437 11.294768
19.824462 -25.314633 10.941180
28.632732 -17.696001 -8.081002
29.395064 -18.167149 -2.719614
27.431727 -19.320638 -6.751783
28.632732 -17.696001 8.081002
29.395064 -18.167149 2.719614
27.431727 -19.320638 6.751783
24.967137 -22.397582 -4.095125
28.001005 -19.675770 -1.393167
26.203641 -20.894450 -5.418787
25.122843 -22.555016 -1.374485
27.810580 -19.557177 -4.077516
24.967137 -22.397582 4.095125
28.001005 -19.675770 1.393167
26.203641 -20.894450 5.418787
25.122843 -22.555016 1.374485
27.810580 -19.557177 4.077516
26.583982 -21.133486 0.000000
2.334927 -17.977689 30.531577
6.732391 -15.808436 29.739434
3.785884 -19.618706 29.403927
2.305327 -15.599518 31.275975
14.980430 -11.597202 28.023082
10.901166 -13.703452 28.909942
6.666185 -22.569393 26.666812
8.150981 -17.324217 28.530431
5.243332 -21.159756 28.105459
6.015846 -18.449910 28.968807
2.264231 -10.860561 32.439918
6.695139 -13.544560 30.555780
2.284190 -13.213306 31.912257
4.542319 -14.561897 30.919134
33.110506 -1.642593 23.121190
27.996726 -4.554203 24.671783
32.434344 -4.176064 21.640642
19.098577 -9.423165 27.050572
23.387449 -7.106414 25.952659
30.863027 -8.817390 18.740614
27.572403 -6.892565 23.335838
31.673200 -6.577457 20.172308
29.931476 -5.583993 22.534509
12.061961 -26.863051 19.516662
13.704013 -22.262963 22.173558
10.809022 -26.022550 21.452179
14.352101 -25.463792 18.596389
16.432248 -12.946656 26.587936
15.145760 -17.654146 24.506355
14.412583 -14.023285 27.095739
8.133541 -23.889634 25.014725
12.408164 -21.247597 23.919097
9.488005 -25.025269 23.300114
8.896166 -21.298327 26.127086
11.643102 -23.617727 22.733572
18.703661 -22.671589 16.808411
15.977494 -21.009919 21.317692
16.571971 -24.060752 17.690937
15.190952 -23.232643 20.007300
10.327708 -16.189274 28.051795
13.140349 -18.802498 25.066026
12.370536 -15.106374 27.586012
9.628633 -18.723838 27.139400
13.797094 -16.431389 26.107427
11.060272 -20.040248 25.590178
2.252307 -1.392002 33.642798
6.710031 -4.147027 32.856362
2.251938 -3.726316 33.475493
15.106048 -9.336051 28.978789
11.026521 -6.814765 31.294131
13.040969 -10.396769 29.390723
2.264630 -8.414115 32.885568
6.692242 -6.470984 32.432131
2.254529 -6.079243 33.222771
4.501035 -9.843737 32.180617
4.496626 -5.113891 33.049922
8.887453 -12.469283 30.173221
8.915056 -7.845321 31.591506
10.961896 -11.445951 29.789638
6.723283 -11.204184 31.269495
11.005700 -9.138312 30.587379
6.724264 -8.833681 31.897547
27.135642 -16.770749 13.213355
24.956101 -15.423718 17.978139
28.105760 -14.949826 14.546017
25.047537 -18.292396 14.117489
18.851565 -11.650908 25.947600
22.166149 -13.699433 22.255524
20.916265 -10.538993 25.372460
18.180154 -14.030864 24.893845
29.952313 -11.027413 17.286103
25.695316 -13.470241 19.274541
29.052209 -13.028030 15.909277
28.581012 -10.140095 19.718426
26.978141 -14.257244 16.979396
20.894474 -21.200556 15.889701
22.764923 -16.877608 18.780660
22.960647 -19.773065 15.013104
19.639041 -20.500464 18.245230
23.979235 -17.631001 16.515826
25.218901 -8.199929 24.084627
24.209868 -12.559003 21.505892
23.045296 -9.384241 24.751584
26.988878 -9.189603 22.000844
22.632447 -11.591310 23.512669
26.356480 -11.391474 20.640357
16.763736 -18.653948 22.611329
21.332652 -15.988707 21.024663
17.481707 -16.375975 23.776186
18.250042 -19.644221 20.505871
19.827549 -15.054473 23.023915
20.520048 -18.262659 19.657802
2.426092 18.679609 31.723650
7.466465 17.532129 32.982110
4.060014 21.039261 31.533013
2.381790 16.116920 32.313332
17.971900 13.913068 33.619062
12.693178 15.956124 33.662367
7.771913 26.313005 31.090068
9.399835 19.978552 32.901728
5.843645 23.582352 31.323274
6.704927 20.563245 32.287023
2.314781 11.103031 33.164163
7.301975 14.772217 33.325307
2.347265 13.578174 32.793470
4.831704 15.489614 32.888947
34.815447 1.727174 24.311756
31.781401 5.169852 28.006983
37.154558 4.783812 24.790034
31.927124 0.000000 25.076039
23.095261 11.395114 32.711338
27.794387 8.445489 30.842964
39.720164 11.347823 24.118835
33.782435 8.444953 28.591683
39.644477 8.232823 25.249125
35.612904 6.643915 26.811886
26.702456 -3.034683 26.388059
28.833488 3.276871 28.494000
29.219580 -1.584689 25.768719
30.485787 1.653360 26.885385
16.387651 36.496745 26.515776
19.100332 31.029597 30.904986
14.576129 35.091800 28.928586
20.034630 35.545850 25.959389
20.764273 16.359777 33.597300
20.798892 24.243529 33.653315
17.946542 17.461789 33.739604
10.021919 29.436131 30.822436
16.934854 28.999048 32.645152
12.427522 32.778450 30.518818
10.891618 26.075642 31.987514
15.972133 32.399052 31.186158
27.262120 33.045700 24.499638
22.572300 29.681887 30.116696
23.694181 34.401450 25.294051
21.370485 32.683457 28.146076
12.288988 19.263693 33.378962
17.466795 24.993200 33.318988
15.093734 18.431828 33.658683
11.648307 22.651295 32.832080
17.786206 21.182147 33.655789
14.154041 25.645887 32.748238
2.258535 1.395852 33.735830
6.880306 4.252263 33.690133
2.268723 3.754089 33.724994
4.525476 0.000000 33.589260
17.416894 10.764232 33.411815
11.835326 7.314634 33.589582
14.941182 11.911693 33.673275
2.303512 8.558580 33.450193
6.962312 6.732126 33.740952
2.282171 6.153778 33.630101
4.687143 10.250753 33.511214
4.590297 5.220422 33.738403
9.035769 -2.773535 32.691720
9.241489 2.836681 33.436022
6.803881 -1.400756 33.238838
6.861564 1.412631 33.520634
9.903607 13.894969 33.623100
9.519008 8.376803 33.731677
12.415213 12.963444 33.739118
7.217799 12.028281 33.569450
12.129237 10.071214 33.709949
7.105187 9.334101 33.704515
39.673522 24.519585 19.318515
35.266983 21.796194 25.406000
39.752752 21.145015 20.573868
37.108426 27.100549 20.915341
24.055161 14.866907 33.109913
30.900812 19.097752 31.025406
26.720313 13.463456 32.413056
24.472161 18.886834 33.509408
39.759184 14.637966 22.945852
35.519107 18.620162 26.643551
39.777614 17.837678 21.782615
37.803310 13.412021 26.081013
37.636076 19.889684 23.687245
30.882882 31.335284 23.485625
32.500587 24.095498 26.812411
34.129782 29.391610 22.316182
28.416452 29.662877 26.399695
34.771330 25.566010 23.948938
31.604717 10.276278 30.183227
33.321794 17.285865 29.600116
29.265553 11.917182 31.432394
35.761526 12.176654 29.152148
30.823420 15.786355 32.022206
35.652940 15.409476 27.920625
23.718729 26.393158 31.992391
30.147283 22.595225 29.712033
24.716358 23.153028 33.615752
26.023581 28.011605 29.240272
27.912971 21.193495 32.412773
29.371474 26.140349 28.137294
17.591381 -8.033226 28.463452
18.633556 -2.789435 30.149728
19.724043 -6.892757 28.004488
15.584945 -6.800837 29.797932
20.289166 9.265188 32.828560
19.547347 2.926229 31.628272
22.607677 7.900471 32.098713
17.276098 7.538809 33.031363
24.211376 -4.426755 26.989018
20.931183 -1.482058 29.787610
21.937148 -5.689202 27.511284
25.125235 -1.531112 27.985674
20.338107 -4.240334 28.921073
11.338820 -4.189690 31.904718
16.414323 -1.460316 31.284613
13.483149 -5.507926 30.953964
11.524102 -1.424457 32.475310
16.023915 -4.163654 30.573017
26.873055 4.913411 29.956057
21.525937 1.524170 30.634017
24.826973 6.438651 31.135401
26.019832 1.585628 28.982119
22.079279 4.603355 31.397044
23.382306 0.000000 29.412791
11.843800 4.376281 33.325612
16.771230 1.492068 31.964855
14.459294 5.906686 33.194951
11.693949 1.445452 32.953945
17.054494 4.431440 32.539324
14.108141 0.000000 32.232880
38.281351 0.000000 -20.143173
42.511830 0.000000 -15.324834
40.984382 3.020926 -20.441780
37.143559 -2.737822 -18.526092
47.489894 0.000000 -3.291403
45.731789 0.000000 -9.632242
42.979121 9.417242 -19.051495
45.153590 3.151616 -15.116971
42.811019 6.289352 -20.162584
43.472207 3.111619 -17.999717
34.808795 -7.627025 -15.429807
40.788097 -2.846914 -13.655448
35.978393 -5.285573 -16.944642
39.076538 -2.796989 -16.179685
38.281351 0.000000 20.143173
42.511830 0.000000 15.324834
40.984382 3.020926 20.441780
37.143559 -2.737822 18.526092
47.489894 0.000000 3.291403
45.731789 0.000000 9.632242
42.979121 9.417242 19.051495
45.153590 3.151616 15.116971
42.811019 6.289352 20.162584
43.472207 3.111619 17.999717
34.808795 -7.627025 15.429807
40.788097 -2.846914 13.655448
35.978393 -5.285573 16.944642
39.076538 -2.796989 16.179685
43.734232 22.797758 -14.089789
46.115132 16.248718 -10.042260
43.540632 19.319430 -15.402204
45.468048 23.780746 -10.377256
47.673775 3.191648 -1.972547
47.250318 9.649611 -5.963787
47.404801 3.188980 -5.276853
43.170727 12.715839 -17.840589
45.853279 12.939698 -11.387038
43.350532 15.951991 -16.656398
44.401866 9.546887 -15.909648
44.871363 16.145246 -13.405808
47.608870 24.979288 -2.222306
47.100008 16.739170 -6.185118
46.839307 24.549394 -6.378915
46.472992 20.243038 -8.269371
46.152100 3.178216 -11.808496
46.583897 9.612403 -9.294600
46.890917 3.182063 -8.580298
45.387758 6.348290 -13.883672
47.075318 6.404859 -7.284074
45.622517 9.617600 -12.634663
30.047995 -15.663403 -9.680516
34.404012 -12.122292 -7.491988
31.230153 -13.857143 -11.047455
30.650068 -16.030631 -6.995321
44.656237 -2.989631 -1.847694
39.196844 -8.004905 -4.947303
44.231219 -2.975490 -4.923586
33.595389 -9.895445 -13.883517
35.893287 -10.129010 -8.913610
32.417987 -11.929068 -12.455831
36.247251 -7.793556 -12.987765
33.510877 -12.057609 -10.011739
31.267474 -16.405331 -1.459516
34.879657 -12.396102 -4.580356
31.061201 -16.279781 -4.230139
32.739805 -14.261038 -5.825697
42.285853 -2.911971 -10.819276
38.515781 -7.947579 -7.684818
43.428113 -2.947074 -7.946659
39.138503 -5.474220 -11.972086
41.244606 -5.611558 -6.381874
37.496783 -7.904629 -10.384329
43.734232 22.797758 14.089789
46.115132 16.248718 10.042260
43.540632 19.319430 15.402204
45.468048 23.780746 10.377256
47.673775 3.191648 1.972547
47.250318 9.649611 5.963787
47.404801 3.188980 5.276853
47.717468 6.428967 0.000000
43.170727 12.715839 17.840589
45.853279 12.939698 11.387038
43.350532 15.951991 16.656398
44.401866 9.546887 15.909648
44.871363 16.145246 13.405808
47.608870 24.979288 2.222306
47.100008 16.739170 6.185118
46.839307 24.549394 6.378915
47.717468 20.885654 0.000000
46.472992 20.243038 8.269371
46.152100 3.178216 11.808496
46.583897 9.612403 9.294600
46.890917 3.182063 8.580298
45.387758 6.348290 13.883672
47.075318 6.404859 7.284074
45.622517 9.617600 12.634663
47.482914 13.123955 -4.028406
47.482914 13.123955 4.028406
47.664324 9.756731 -2.008676
47.646585 16.907740 -2.089912
47.664324 9.756731 2.008676
47.646585 16.907740 2.089912
30.047995 -15.663403 9.680516
34.404012 -12.122292 7.491988
31.230153 -13.857143 11.047455
30.650068 -16.030631 6.995321
44.656237 -2.989631 1.847694
39.196844 -8.004905 4.947303
44.231219 -2.975490 4.923586
42.051831 -5.665637 0.000000
33.595389 -9.895445 13.883517
35.893287 -10.129010 8.913610
32.417987 -11.929068 12.455831
36.247251 -7.793556 12.987765
33.510877 -12.057609 10.011739
31.267474 -16.405331 1.459516
34.879657 -12.396102 4.580356
31.061201 -16.279781 4.230139
33.190279 -14.527189 0.000000
32.739805 -14.261038 5.825697
42.285853 -2.911971 10.819276
38.515781 -7.947579 7.684818
43.428113 -2.947074 7.946659
39.138503 -5.474220 11.972086
41.244606 -5.611558 6.381874
37.496783 -7.904629 10.384329
37.220537 -10.287503 -3.157756
37.220537 -10.287503 3.157756
39.561146 -8.098037 -1.667191
35.182696 -12.484837 -1.543211
39.561146 -8.098037 1.667191
35.182696 -12.484837 1.543211
-19.603613 28.073190 -1.392695
-22.187264 25.177376 -4.095581
-18.983500 28.451899 -3.663307
-26.871902 18.972431 -9.360925
-24.594152 22.163219 -6.734425
-17.484015 28.793594 -8.226165
-21.482960 25.383139 -6.345292
-18.274352 28.693157 -5.958602
-20.266702 26.919260 -5.022036
-35.061504 2.681357 -20.645014
-33.172918 7.509660 -17.633556
-29.053626 15.531333 -12.023687
-31.156015 11.748100 -14.768101
-13.471413 27.665604 -17.098283
-17.813919 24.728141 -15.282832
-14.580599 28.172579 -14.985368
-25.939081 18.845376 -11.647083
-21.913288 21.825287 -13.488769
-24.896825 20.524166 -10.341428
-16.581176 28.730859 -10.577716
-18.832180 25.105595 -13.161092
-15.623573 28.530480 -12.794068
-18.675097 27.068752 -9.603568
-16.753394 26.619052 -14.067474
-22.690649 23.759273 -7.725331
-20.923883 23.554683 -12.219122
-23.809689 22.168332 -9.027133
-20.713045 25.409108 -8.651697
-22.911140 22.053437 -11.294768
-19.824462 25.314633 -10.941180
-33.187703 -47.526172 -2.357746
-39.297035 -44.592980 -7.253901
-31.113462 -46.631923 -6.004065
-41.862569 -29.556326 -14.582979
-41.478723 -37.378888 -11.357796
-26.696318 -43.964898 -12.560519
-36.190687 -42.761019 -10.689425
-28.889880 -45.360945 -9.419941
-33.981807 -45.136356 -8.420603
-38.373152 -2.934618 -22.594988
-41.401872 -9.372525 -22.007778
-41.814482 -22.352964 -17.304699
-41.635222 -15.699528 -19.735296
-18.585141 -38.167426 -23.588766
-26.060998 -36.176209 -22.358127
-20.484348 -39.579781 -21.053010
-39.469928 -28.675867 -17.722660
-33.293013 -33.159312 -20.493582
-39.153014 -32.276524 -16.263041
-24.501962 -42.455518 -15.630664
-28.267872 -37.684525 -19.755338
-22.462322 -41.018838 -18.394286
-28.881274 -41.862168 -14.852040
-24.380758 -38.737982 -20.472013
-37.708191 -39.484071 -12.838251
-32.229340 -36.281595 -18.821278
-38.611715 -35.949957 -14.639129
-33.375368 -40.942235 -13.940664
-35.867690 -34.524945 -17.682107
-30.734667 -39.246301 -16.962554
-2.426092 -18.679609 -31.723650
-7.466465 -17.532129 -32.982110
-4.060014 -21.039261 -31.533013
-2.381790 -16.116920 -32.313332
-17.971900 -13.913068 -33.619062
-12.693178 -15.956124 -33.662367
-7.771913 -26.313005 -31.090068
-9.399835 -19.978552 -32.901728
-5.843645 -23.582352 -31.323274
-6.704927 -20.563245 -32.287023
-2.314781 -11.103031 -33.164163
-7.301975 -14.772217 -33.325307
-2.347265 -13.578174 -32.793470
-4.831704 -15.489614 -32.888947
-34.815447 -1.727174 -24.311756
-31.781401 -5.169852 -28.006983
-37.154558 -4.783812 -24.790034
-23.095261 -11.395114 -32.711338
-27.794387 -8.445489 -30.842964
-39.720164 -11.347823 -24.118835
-33.782435 -8.444953 -28.591683
-39.644477 -8.232823 -25.249125
-35.612904 -6.643915 -26.811886
-16.387651 -36.496745 -26.515776
-19.100332 -31.029597 -30.904986
-14.576129 -35.091800 -28.928586
-20.034630 -35.545850 -25.959389
-20.764273 -16.359777 -33.597300
-20.798892 -24.243529 -33.653315
-17.946542 -17.461789 -33.739604
-10.021919 -29.436131 -30.822436
-16.934854 -28.999048 -32.645152
-12.427522 -32.778450 -30.518818
-10.891618 -26.075642 -31.987514
-15.972133 -32.399052 -31.186158
-27.262120 -33.045700 -24.499638
-22.572300 -29.681887 -30.116696
-23.694181 -34.401450 -25.294051
-21.370485 -32.683457 -28.146076
-12.288988 -19.263693 -33.378962
-17.466795 -24.993200 -33.318988
-15.093734 -18.431828 -33.658683
-11.648307 -22.651295 -32.832080
-17.786206 -21.182147 -33.655789
-14.154041 -25.645887 -32.748238
-2.258535 -1.395852 -33.735830
-6.880306 -4.252263 -33.690133
-2.268723 -3.754089 -33.724994
-17.416894 -10.764232 -33.411815
-11.835326 -7.314634 -33.589582
-14.941182 -11.911693 -33.673275
-2.303512 -8.558580 -33.450193
-6.962312 -6.732126 -33.740952
-2.282171 -6.153778 -33.630101
-4.687143 -10.250753 -33.511214
-4.590297 -5.220422 -33.738403
-9.903607 -13.894969 -33.623100
-9.519008 -8.376803 -33.731677
-12.415213 -12.963444 -33.739118
-7.217799 -12.028281 -33.569450
-12.129237 -10.071214 -33.709949
-7.105187 -9.334101 -33.704515
-39.673522 -24.519585 -19.318515
-35.266983 -21.796194 -25.406000
-39.752752 -21.145015 -20.573868
-37.108426 -27.100549 -20.915341
-24.055161 -14.866907 -33.109913
-30.900812 -19.097752 -31.025406
-26.720313 -13.463456 -32.413056
-24.472161 -18.886834 -33.509408
-39.759184 -14.637966 -22.945852
-35.519107 -18.620162 -26.643551
-39.777614 -17.837678 -21.782615
-37.803310 -13.412021 -26.081013
-37.636076 -19.889684 -23.687245
-30.882882 -31.335284 -23.485625
-32.500587 -24.095498 -26.812411
-34.129782 -29.391610 -22.316182
-28.416452 -29.662877 -26.399695
-34.771330 -25.566010 -23.948938
-31.604717 -10.276278 -30.183227
-33.321794 -17.285865 -29.600116
-29.265553 -11.917182 -31.432394
-35.761526 -12.176654 -29.152148
-30.823420 -15.786355 -32.022206
-35.652940 -15.409476 -27.920625
-23.718729 -26.393158 -31.992391
-30.147283 -22.595225 -29.712033
-24.716358 -23.153028 -33.615752
-26.023581 -28.011605 -29.240272
-27.912971 -21.193495 -32.412773
-29.371474 -26.140349 -28.137294
-2.334927 17.977689 -30.531577
-6.732391 15.808436 -29.739434
-3.785884 19.618706 -29.403927
-2.305327 15.599518 -31.275975
-14.980430 11.597202 -28.023082
-10.901166 13.703452 -28.909942
-6.666185 22.569393 -26.666812
-8.150981 17.324217 -28.530431
-5.243332 21.159756 -28.105459
-6.015846 18.449910 -28.968807
-2.264231 10.860561 -32.439918
-6.695139 13.544560 -30.555780
-2.284190 13.213306 -31.912257
-4.542319 14.561897 -30.919134
-33.110506 1.642593 -23.121190
-27.996726 4.554203 -24.671783
-32.434344 4.176064 -21.640642
-31.927124 0.000000 -25.076039
-19.098577 9.423165 -27.050572
-23.387449 7.106414 -25.952659
-30.863027 8.817390 -18.740614
-27.572403 6.892565 -23.335838
-31.673200 6.577457 -20.172308
-29.931476 5.583993 -22.534509
-28.833488 -3.276871 -28.494000
-26.702456 3.034683 -26.388059
-30.485787 -1.653360 -26.885385
-29.219580 1.584689 -25.768719
-12.061961 26.863051 -19.516662
-13.704013 22.262963 -22.173558
-10.809022 26.022550 -21.452179
-14.352101 25.463792 -18.596389
-16.432248 12.946656 -26.587936
-15.145760 17.654146 -24.506355
-14.412583 14.023285 -27.095739
-8.133541 23.889634 -25.014725
-12.408164 21.247597 -23.919097
-9.488005 25.025269 -23.300114
-8.896166 21.298327 -26.127086
-11.643102 23.617727 -22.733572
-18.703661 22.671589 -16.808411
-15.977494 21.009919 -21.317692
-16.571971 24.060752 -17.690937
-15.190952 23.232643 -20.007300
-10.327708 16.189274 -28.051795
-13.140349 18.802498 -25.066026
-12.370536 15.106374 -27.586012
-9.628633 18.723838 -27.139400
-13.797094 16.431389 -26.107427
-11.060272 20.040248 -25.590178
-2.252307 1.392002 -33.642798
-6.710031 4.147027 -32.856362
-2.251938 3.726316 -33.475493
-4.525476 0.000000 -33.589260
-15.106048 9.336051 -28.978789
-11.026521 6.814765 -31.294131
-13.040969 10.396769 -29.390723
-2.264630 8.414115 -32.885568
-6.692242 6.470984 -32.432131
-2.254529 6.079243 -33.222771
-4.501035 9.843737 -32.180617
-4.496626 5.113891 -33.049922
-9.241489 -2.836681 -33.436022
-9.035769 2.773535 -32.691720
-6.861564 -1.412631 -33.520634
-6.803881 1.400756 -33.238838
-8.887453 12.469283 -30.173221
-8.915056 7.845321 -31.591506
-10.961896 11.445951 -29.789638
-6.723283 11.204184 -31.269495
-11.005700 9.138312 -30.587379
-6.724264 8.833681 -31.897547
-27.135642 16.770749 -13.213355
-24.956101 15.423718 -17.978139
-28.105760 14.949826 -14.546017
-25.047537 18.292396 -14.117489
