-20.643988 0.000000 12.758687
0.000000 27.417922 0.000000
0.000000 -27.417922 0.000000
-8.540676 -22.359779 13.819103
6.404686 -16.767687 10.363000
-6.404686 16.767687 10.363000
8.540676 22.359779 13.819103
0.000000 0.000000 19.387398
-8.540676 -22.359779 -13.819103
6.404686 -16.767687 -10.363000
-6.404686 16.767687 -10.363000
8.540676 22.359779 -13.819103
0.000000 0.000000 -19.387398
24.054833 14.866704 -9.188129
16.073140 -9.933747 -6.139393
9.783320 -6.046424 -15.829744
11.818546 7.304263 -19.122809
24.054833 14.866704 9.188129
16.073140 -9.933747 6.139393
9.783320 -6.046424 15.829744
11.818546 7.304263 19.122809
27.417922 0.000000 0.000000
-16.073140 9.933747 -6.139393
-24.054833 -14.866704 -9.188129
-11.818546 -7.304263 -19.122809
-9.783320 6.046424 -15.829744
-16.073140 9.933747 6.139393
-24.054833 -14.866704 9.188129
-11.818546 -7.304263 19.122809
-9.783320 6.046424 15.829744
-27.417922 0.000000 0.000000
-6.065715 21.352207 0.000000
7.788857 27.417922 0.000000
-7.788857 -27.417922 0.000000
6.065715 -21.352207 0.000000
-12.782779 -25.415052 7.656668
-3.907855 -16.879336 17.080443
-4.487196 -26.268505 7.260436
8.827488 -17.551040 5.287516
3.362123 -14.522139 14.695162
3.794354 -22.212533 6.139393
0.000000 -20.643988 12.758687
-8.827488 17.551040 5.287516
-3.362123 14.522139 14.695162
-3.794354 22.212533 6.139393
12.782779 25.415052 7.656668
3.907855 16.879336 17.080443
4.487196 26.268505 7.260436
0.000000 20.643988 12.758687
0.000000 -5.399691 19.007706
0.000000 5.399691 19.007706
-12.782779 -25.415052 -7.656668
-3.907855 -16.879336 -17.080443
-4.487196 -26.268505 -7.260436
8.827488 -17.551040 -5.287516
3.362123 -14.522139 -14.695162
3.794354 -22.212533 -6.139393
0.000000 -20.643988 -12.758687
-8.827488 17.551040 -5.287516
-3.362123 14.522139 -14.695162
-3.794354 22.212533 -6.139393
12.782779 25.415052 -7.656668
3.907855 16.879336 -17.080443
4.487196 26.268505 -7.260436
0.000000 20.643988 -12.758687
0.000000 -5.399691 -19.007706
0.000000 5.399691 -19.007706
23.438672 23.717929 -5.426453
23.858831 7.187833 -12.000060
17.091794 20.011421 -12.367738
13.450828 -13.611087 -3.114097
18.488393 -5.569908 -9.298940
11.424457 -13.375987 -8.266814
5.077202 -8.476370 -16.852939
14.733349 -3.370860 -14.559877
8.300907 -11.471571 -13.431149
5.109172 -3.157642 -18.485159
13.578863 -8.392199 -11.597734
5.782236 9.653420 -19.193180
17.176695 3.929876 -16.974455
11.662554 16.117254 -18.870409
5.343676 3.302573 -19.333602
19.008068 11.747632 -16.234829
10.979413 0.000000 -17.765063
23.438672 23.717929 5.426453
23.858831 7.187833 12.000060
17.091794 20.011421 12.367738
27.417922 16.945207 0.000000
13.450828 -13.611087 3.114097
18.488393 -5.569908 9.298940
11.424457 -13.375987 8.266814
16.945207 -10.472714 0.000000
5.077202 -8.476370 16.852939
14.733349 -3.370860 14.559877
8.300907 -11.471571 13.431149
5.109172 -3.157642 18.485159
13.578863 -8.392199 11.597734
5.782236 9.653420 19.193180
17.176695 3.929876 16.974455
11.662554 16.117254 18.870409
5.343676 3.302573 19.333602
19.008068 11.747632 16.234829
10.979413 0.000000 17.765063
25.441533 0.000000 -7.227406
25.441533 0.000000 7.227406
26.890067 7.432232 -4.593372
21.106083 -5.833578 -3.605349
26.890067 7.432232 4.593372
21.106083 -5.833578 3.605349
-13.450828 13.611087 -3.114097
-18.488393 5.569908 -9.298940
-11.424457 13.375987 -8.266814
-23.438672 -23.717929 -5.426453
-23.858831 -7.187833 -12.000060
-17.091794 -20.011421 -12.367738
-5.782236 -9.653420 -19.193180
-17.176695 -3.929876 -16.974455
-11.662554 -16.117254 -18.870409
-5.343676 -3.302573 -19.333602
-19.008068 -11.747632 -16.234829
-5.077202 8.476370 -16.852939
-14.733349 3.370860 -14.559877
-8.300907 11.471571 -13.431149
-5.109172 3.157642 -18.485159
-13.578863 8.392199 -11.597734
-10.979413 0.000000 -17.765063
-13.450828 13.611087 3.114097
-18.488393 5.569908 9.298940
-11.424457 13.375987 8.266814
-16.945207 10.472714 0.000000
-23.438672 -23.717929 5.426453
-23.858831 -7.187833 12.000060
-17.091794 -20.011421 12.367738
-27.417922 -16.945207 0.000000
-5.782236 -9.653420 19.193180
-17.176695 -3.929876 16.974455
-11.662554 -16.117254 18.870409
-5.343676 -3.302573 19.333602
-19.008068 -11.747632 16.234829
-5.077202 8.476370 16.852939
-14.733349 3.370860 14.559877
-8.300907 11.471571 13.431149
-5.109172 3.157642 18.485159
-13.578863 8.392199 11.597734
-10.979413 0.000000 17.765063
-25.441533 0.000000 -7.227406
-25.441533 0.000000 7.227406
-21.106083 5.833578 -3.605349
-26.890067 -7.432232 -4.593372
-21.106083 5.833578 3.605349
-26.890067 -7.432232 4.593372
-8.388331 19.029591 0.000000
-3.351997 24.065924 0.000000
12.085946 27.417922 0.000000
3.818877 27.417922 0.000000
-12.085946 -27.417922 0.000000
-3.818877 -27.417922 0.000000
8.388331 -19.029591 0.000000
3.351997 -24.065924 0.000000
-14.985578 -26.755474 4.058515
-10.622704 -23.903200 10.865590
-10.457480 -26.982467 3.843307
-1.806497 -13.715706 17.463006
-6.472948 -20.712779 16.567583
-2.260878 -27.151947 3.658178
-6.608602 -24.670618 10.692943
-6.170749 -27.091796 3.722697
-8.528509 -25.938479 7.476069
9.751630 -17.410706 2.641015
7.706925 -17.342117 7.883142
7.578748 -19.554743 2.785323
1.698028 -12.892160 16.414458
4.945077 -15.823747 12.656981
0.000000 -15.704757 15.891869
2.075672 -24.927721 3.358508
5.215288 -19.469229 8.438514
5.023936 -22.056876 3.030846
0.000000 -25.536426 7.058094
6.485996 -19.726409 5.685607
-4.274676 -22.958419 14.189083
3.464714 -18.608281 11.500550
-1.983466 -19.071652 15.161404
-2.246645 -24.915676 10.905445
1.809683 -17.400667 13.833020
1.972069 -21.870584 9.572625
-9.751630 17.410706 2.641015
-7.706925 17.342117 7.883142
-7.578748 19.554743 2.785323
-1.698028 12.892160 16.414458
-4.945077 15.823747 12.656981
-2.075672 24.927721 3.358508
-5.215288 19.469229 8.438514
-5.023936 22.056876 3.030846
-6.485996 19.726409 5.685607
14.985578 26.755474 4.058515
10.622704 23.903200 10.865590
10.457480 26.982467 3.843307
1.806497 13.715706 17.463006
6.472948 20.712779 16.567583
0.000000 15.704757 15.891869
2.260878 27.151947 3.658178
6.608602 24.670618 10.692943
6.170749 27.091796 3.722697
0.000000 25.536426 7.058094
8.528509 25.938479 7.476069
-3.464714 18.608281 11.500550
4.274676 22.958419 14.189083
-1.809683 17.400667 13.833020
-1.972069 21.870584 9.572625
1.983466 19.071652 15.161404
2.246645 24.915676 10.905445
0.000000 -8.158903 18.509116
0.000000 -2.687351 19.294048
0.000000 8.158903 18.509116
0.000000 2.687351 19.294048
-14.985578 -26.755474 -4.058515
-10.622704 -23.903200 -10.865590
-10.457480 -26.982467 -3.843307
-1.806497 -13.715706 -17.463006
-6.472948 -20.712779 -16.567583
-2.260878 -27.151947 -3.658178
-6.608602 -24.670618 -10.692943
-6.170749 -27.091796 -3.722697
-8.528509 -25.938479 -7.476069
9.751630 -17.410706 -2.641015
7.706925 -17.342117 -7.883142
7.578748 -19.554743 -2.785323
1.698028 -12.892160 -16.414458
4.945077 -15.823747 -12.656981
0.000000 -15.704757 -15.891869
2.075672 -24.927721 -3.358508
5.215288 -19.469229 -8.438514
5.023936 -22.056876 -3.030846
0.000000 -25.536426 -7.058094
6.485996 -19.726409 -5.685607
-4.274676 -22.958419 -14.189083
3.464714 -18.608281 -11.500550
-1.983466 -19.071652 -15.161404
-2.246645 -24.915676 -10.905445
1.809683 -17.400667 -13.833020
1.972069 -21.870584 -9.572625
-9.751630 17.410706 -2.641015
-7.706925 17.342117 -7.883142
-7.578748 19.554743 -2.785323
-1.698028 12.892160 -16.414458
-4.945077 15.823747 -12.656981
-2.075672 24.927721 -3.358508
-5.215288 19.469229 -8.438514
-5.023936 22.056876 -3.030846
-6.485996 19.726409 -5.685607
14.985578 26.755474 -4.058515
10.622704 23.903200 -10.865590
10.457480 26.982467 -3.843307
1.806497 13.715706 -17.463006
6.472948 20.712779 -16.567583
0.000000 15.704757 -15.891869
2.260878 27.151947 -3.658178
6.608602 24.670618 -10.692943
6.170749 27.091796 -3.722697
0.000000 25.536426 -7.058094
8.528509 25.938479 -7.476069
-3.464714 18.608281 -11.500550
4.274676 22.958419 -14.189083
-1.809683 17.400667 -13.833020
-1.972069 21.870584 -9.572625
1.983466 19.071652 -15.161404
2.246645 24.915676 -10.905445
0.000000 -8.158903 -18.509116
0.000000 -2.687351 -19.294048
0.000000 8.158903 -18.509116
0.000000 2.687351 -19.294048
21.059294 26.812953 -2.773722
23.997887 19.195251 -7.499576
18.026066 25.012351 -6.722018
23.623488 3.583426 -13.231371
23.980067 10.900531 -10.656864
12.827259 21.415060 -13.235235
21.017965 17.878949 -11.049798
15.237861 23.130455 -10.219745
20.035544 21.734478 -9.160494
12.021023 -15.305316 -1.583291
14.793796 -11.833151 -4.623207
11.213347 -15.559256 -4.181518
19.615287 -2.975426 -10.986403
17.303437 -7.865559 -7.689736
9.012300 -15.046001 -9.298940
13.747344 -11.694189 -7.227406
10.189969 -15.467960 -6.834220
12.561100 -13.626231 -5.743088
2.626899 -9.699510 -17.317651
7.437409 -7.271156 -16.361549
4.269194 -11.448461 -15.885492
2.585857 -7.036011 -18.154367
17.511848 -1.811550 -13.754067
12.188703 -4.762121 -15.238307
16.847465 -4.527722 -12.141742
7.418836 -14.111464 -12.003929
9.082109 -8.802153 -14.695162
5.924575 -12.958043 -14.056834
9.997459 -12.591438 -10.988271
6.760007 -10.079316 -15.299994
2.581570 -1.595498 -19.161087
7.528233 -4.652704 -17.369041
2.579423 -4.275655 -18.771659
5.121647 -5.842645 -17.769732
15.012321 -9.278125 -8.992126
11.818546 -7.304263 -13.893534
15.971845 -7.056852 -10.521918
12.556754 -10.958003 -9.969920
14.215272 -5.991353 -13.104097
10.946508 -9.959462 -12.543582
2.825401 10.432455 -18.626260
8.812631 8.615636 -19.386898
4.963059 13.309161 -18.467336
2.720916 7.403499 -19.102563
19.207874 1.986999 -15.086151
14.661271 5.728152 -18.329509
21.733146 5.840739 -15.662787
15.954732 0.000000 -15.766879
10.227205 19.453299 -16.547965
11.980984 11.611670 -19.385639
7.703326 16.848471 -18.277154
14.297512 18.007199 -15.714486
8.466900 12.624331 -19.163222
2.610334 1.613275 -19.374575
8.346052 5.158144 -19.255904
2.658610 4.406917 -19.347944
5.259047 0.000000 -19.027412
5.585598 6.371908 -19.379424
21.527390 13.304659 -12.894543
16.073140 9.933747 -18.895109
21.692306 9.584327 -14.290438
18.261917 15.936773 -14.499755
19.223528 8.102197 -17.720869
15.521564 14.121986 -17.786130
10.415689 -3.137884 -16.852939
11.459704 3.452409 -18.542190
13.006951 -1.701614 -16.361549
7.950004 -1.637791 -18.163378
13.847906 1.811630 -17.419393
8.240587 1.697654 -18.827274
21.059294 26.812953 2.773722
23.997887 19.195251 7.499576
18.026066 25.012351 6.722018
27.095100 27.417922 0.000000
23.623488 3.583426 13.231371
23.980067 10.900531 10.656864
12.827259 21.415060 13.235235
21.017965 17.878949 11.049798
15.237861 23.130455 10.219745
20.035544 21.734478 9.160494
26.338490 16.278082 -4.904018
26.338490 16.278082 4.904018
26.784488 21.292882 -2.785607
26.784488 21.292882 2.785607
12.021023 -15.305316 1.583291
14.793796 -11.833151 4.623207
11.213347 -15.559256 4.181518
13.627777 -13.790144 0.000000
19.615287 -2.975426 10.986403
17.303437 -7.865559 7.689736
9.012300 -15.046001 9.298940
13.747344 -11.694189 7.227406
10.189969 -15.467960 6.834220
12.561100 -13.626231 5.743088
16.725183 -10.336732 -3.114097
16.725183 -10.336732 3.114097
15.223836 -12.102503 -1.583291
15.223836 -12.102503 1.583291
2.626899 -9.699510 17.317651
7.437409 -7.271156 16.361549
4.269194 -11.448461 15.885492
2.585857 -7.036011 18.154367
17.511848 -1.811550 13.754067
12.188703 -4.762121 15.238307
16.847465 -4.527722 12.141742
7.418836 -14.111464 12.003929
9.082109 -8.802153 14.695162
5.924575 -12.958043 14.056834
9.997459 -12.591438 10.988271
6.760007 -10.079316 15.299994
2.581570 -1.595498 19.161087
7.528233 -4.652704 17.369041
2.579423 -4.275655 18.771659
5.121647 -5.842645 17.769732
15.012321 -9.278125 8.992126
11.818546 -7.304263 13.893534
15.971845 -7.056852 10.521918
12.556754 -10.958003 9.969920
14.215272 -5.991353 13.104097
10.946508 -9.959462 12.543582
2.825401 10.432455 18.626260
8.812631 8.615636 19.386898
4.963059 13.309161 18.467336
2.720916 7.403499 19.102563
19.207874 1.986999 15.086151
14.661271 5.728152 18.329509
21.733146 5.840739 15.662787
15.954732 0.000000 15.766879
10.227205 19.453299 16.547965
11.980984 11.611670 19.385639
7.703326 16.848471 18.277154
14.297512 18.007199 15.714486
8.466900 12.624331 19.163222
2.610334 1.613275 19.374575
8.346052 5.158144 19.255904
2.658610 4.406917 19.347944
5.259047 0.000000 19.027412
5.585598 6.371908 19.379424
21.527390 13.304659 12.894543
16.073140 9.933747 18.895109
21.692306 9.584327 14.290438
18.261917 15.936773 14.499755
19.223528 8.102197 17.720869
15.521564 14.121986 17.786130
10.415689 -3.137884 16.852939
11.459704 3.452409 18.542190
13.006951 -1.701614 16.361549
7.950004 -1.637791 18.163378
13.847906 1.811630 17.419393
8.240587 1.697654 18.827274
23.267152 0.000000 -10.256268
26.901008 0.000000 -3.746879
25.384688 3.615724 -9.838235
21.638091 -3.082069 -8.386183
23.267152 0.000000 10.256268
26.901008 0.000000 3.746879
25.384688 3.615724 9.838235
21.638091 -3.082069 8.386183
25.927330 11.237637 -6.945242
27.309009 3.679339 -2.273956
25.643107 7.390936 -8.431392
27.223570 11.915596 -2.454748
26.642851 3.661007 -6.068491
18.492605 -8.015217 -4.953677
24.033442 -3.238022 -2.001208
20.019298 -5.770024 -6.582297
18.996185 -8.314518 -1.712885
23.193400 -3.187016 -5.282804
25.927330 11.237637 6.945242
27.309009 3.679339 2.273956
25.643107 7.390936 8.431392
27.223570 11.915596 2.454748
26.642851 3.661007 6.068491
27.417922 7.578127 0.000000
18.492605 -8.015217 4.953677
24.033442 -3.238022 2.001208
20.019298 -5.770024 6.582297
18.996185 -8.314518 1.712885
23.193400 -3.187016 5.282804
21.480780 -5.937142 0.000000
-12.021023 15.305316 -1.583291
-14.793796 11.833151 -4.623207
-11.213347 15.559256 -4.181518
-19.615287 2.975426 -10.986403
-17.303437 7.865559 -7.689736
-9.012300 15.046001 -9.298940
-13.747344 11.694189 -7.227406
-10.189969 15.467960 -6.834220
-12.561100 13.626231 -5.743088
-21.059294 -26.812953 -2.773722
-23.997887 -19.195251 -7.499576
-18.026066 -25.012351 -6.722018
-23.623488 -3.583426 -13.231371
-23.980067 -10.900531 -10.656864
-12.827259 -21.415060 -13.235235
-21.017965 -17.878949 -11.049798
-15.237861 -23.130455 -10.219745
-20.035544 -21.734478 -9.160494
-2.825401 -10.432455 -18.626260
-8.812631 -8.615636 -19.386898
-4.963059 -13.309161 -18.467336
-2.720916 -7.403499 -19.102563
-19.207874 -1.986999 -15.086151
-14.661271 -5.728152 -18.329509
-21.733146 -5.840739 -15.662787
-10.227205 -19.453299 -16.547965
-11.980984 -11.611670 -19.385639
-7.703326 -16.848471 -18.277154
-14.297512 -18.007199 -15.714486
-8.466900 -12.624331 -19.163222
-2.610334 -1.613275 -19.374575
-8.346052 -5.158144 -19.255904
-2.658610 -4.406917 -19.347944
-5.585598 -6.371908 -19.379424
-21.527390 -13.304659 -12.894543
-16.073140 -9.933747 -18.895109
-21.692306 -9.584327 -14.290438
-18.261917 -15.936773 -14.499755
-19.223528 -8.102197 -17.720869
-15.521564 -14.121986 -17.786130
-2.626899 9.699510 -17.317651
-7.437409 7.271156 -16.361549
-4.269194 11.448461 -15.885492
-2.585857 7.036011 -18.154367
-17.511848 1.811550 -13.754067
-12.188703 4.762121 -15.238307
-16.847465 4.527722 -12.141742
-15.954732 0.000000 -15.766879
-7.418836 14.111464 -12.003929
-9.082109 8.802153 -14.695162
-5.924575 12.958043 -14.056834
-9.997459 12.591438 -10.988271
-6.760007 10.079316 -15.299994
-2.581570 1.595498 -19.161087
-7.528233 4.652704 -17.369041
-2.579423 4.275655 -18.771659
-5.259047 0.000000 -19.027412
-5.121647 5.842645 -17.769732
-15.012321 9.278125 -8.992126
-11.818546 7.304263 -13.893534
-15.971845 7.056852 -10.521918
-12.556754 10.958003 -9.969920
-14.215272 5.991353 -13.104097
-10.946508 9.959462 -12.543582
-11.459704 -3.452409 -18.542190
-10.415689 3.137884 -16.852939
-13.847906 -1.811630 -17.419393
-8.240587 -1.697654 -18.827274
-13.006951 1.701614 -16.361549
-7.950004 1.637791 -18.163378
-12.021023 15.305316 1.583291
-14.793796 11.833151 4.623207
-11.213347 15.559256 4.181518
-13.627777 13.790144 0.000000
-19.615287 2.975426 10.986403
-17.303437 7.865559 7.689736
-9.012300 15.046001 9.298940
-13.747344 11.694189 7.227406
-10.189969 15.467960 6.834220
-12.561100 13.626231 5.743088
-16.725183 10.336732 -3.114097
-16.725183 10.336732 3.114097
-15.223836 12.102503 -1.583291
-15.223836 12.102503 1.583291
-21.059294 -26.812953 2.773722
-23.997887 -19.195251 7.499576
-18.026066 -25.012351 6.722018
-27.095100 -27.417922 0.000000
-23.623488 -3.583426 13.231371
-23.980067 -10.900531 10.656864
-12.827259 -21.415060 13.235235
-21.017965 -17.878949 11.049798
-15.237861 -23.130455 10.219745
-20.035544 -21.734478 9.160494
-26.338490 -16.278082 -4.904018
-26.338490 -16.278082 4.904018
-26.784488 -21.292882 -2.785607
-26.784488 -21.292882 2.785607
-2.825401 -10.432455 18.626260
-8.812631 -8.615636 19.386898
-4.963059 -13.309161 18.467336
-2.720916 -7.403499 19.102563
-19.207874 -1.986999 15.086151
-14.661271 -5.728152 18.329509
-21.733146 -5.840739 15.662787
-10.227205 -19.453299 16.547965
-11.980984 -11.611670 19.385639
-7.703326 -16.848471 18.277154
-14.297512 -18.007199 15.714486
-8.466900 -12.624331 19.163222
-2.610334 -1.613275 19.374575
-8.346052 -5.158144 19.255904
-2.658610 -4.406917 19.347944
-5.585598 -6.371908 19.379424
-21.527390 -13.304659 12.894543
-16.073140 -9.933747 18.895109
-21.692306 -9.584327 14.290438
-18.261917 -15.936773 14.499755
-19.223528 -8.102197 17.720869
-15.521564 -14.121986 17.786130
-2.626899 9.699510 17.317651
-7.437409 7.271156 16.361549
-4.269194 11.448461 15.885492
-2.585857 7.036011 18.154367
-17.511848 1.811550 13.754067
-12.188703 4.762121 15.238307
-16.847465 4.527722 12.141742
-15.954732 0.000000 15.766879
-7.418836 14.111464 12.003929
-9.082109 8.802153 14.695162
-5.924575 12.958043 14.056834
-9.997459 12.591438 10.988271
-6.760007 10.079316 15.299994
-2.581570 1.595498 19.161087
-7.528233 4.652704 17.369041
-2.579423 4.275655 18.771659
-5.259047 0.000000 19.027412
-5.121647 5.842645 17.769732
-15.012321 9.278125 8.992126
-11.818546 7.304263 13.893534
-15.971845 7.056852 10.521918
-12.556754 10.958003 9.969920
-14.215272 5.991353 13.104097
-10.946508 9.959462 12.543582
-11.459704 -3.452409 18.542190
-10.415689 3.137884 16.852939
-13.847906 -1.811630 17.419393
-8.240587 -1.697654 18.827274
-13.006951 1.701614 16.361549
-7.950004 1.637791 18.163378
-23.267152 0.000000 -10.256268
-26.901008 0.000000 -3.746879
-21.638091 3.082069 -8.386183
-25.384688 -3.615724 -9.838235
-23.267152 0.000000 10.256268
-26.901008 0.000000 3.746879
-21.638091 3.082069 8.386183
-25.384688 -3.615724 9.838235
-18.492605 8.015217 -4.953677
-24.033442 3.238022 -2.001208
-20.019298 5.770024 -6.582297
-18.996185 8.314518 -1.712885
-23.193400 3.187016 -5.282804
-25.927330 -11.237637 -6.945242
-27.309009 -3.679339 -2.273956
-25.643107 -7.390936 -8.431392
-27.223570 -11.915596 -2.454748
-26.642851 -3.661007 -6.068491
-18.492605 8.015217 4.953677
-24.033442 3.238022 2.001208
-20.019298 5.770024 6.582297
-18.996185 8.314518 1.712885
-23.193400 3.187016 5.282804
-21.480780 5.937142 0.000000
-25.927330 -11.237637 6.945242
-27.309009 -3.679339 2.273956
-25.643107 -7.390936 8.431392
-27.223570 -11.915596 2.454748
-26.642851 -3.661007 6.068491
-27.417922 -7.578127 0.000000
-9.452947 17.964974 0.000000
-7.264857 20.153064 0.000000
-1.777100 25.640822 0.000000
-4.770174 22.647748 0.000000
14.426971 27.417922 0.000000
9.883722 27.417922 0.000000
1.900266 27.417922 0.000000
5.774890 27.417922 0.000000
-14.426971 -27.417922 0.000000
-9.883722 -27.417922 0.000000
-1.900266 -27.417922 0.000000
-5.774890 -27.417922 0.000000
9.452947 -17.964974 0.000000
7.264857 -20.153064 0.000000
1.777100 -25.640822 0.000000
4.770174 -22.647748 0.000000
-16.032185 -27.227519 2.082247
-13.887323 -26.125361 5.914240
-13.602296 -27.271681 2.010174
-9.573455 -23.132969 12.366300
-11.692352 -24.667158 9.301325
-9.145938 -27.318432 1.906763
-11.683786 -26.357976 5.775349
-11.303369 -27.299451 1.954018
-12.663881 -26.889096 3.950268
-0.874216 -12.305494 17.621979
-2.811609 -15.231513 17.284218
-7.518609 -21.583265 15.238482
-5.118373 -18.692321 16.844737
-1.131803 -27.354130 1.831295
-3.381982 -26.795009 5.472162
-3.044290 -27.348487 1.839767
-7.602930 -23.599240 12.301800
-5.566450 -25.561736 9.006706
-8.603949 -24.322584 10.792183
-6.992973 -27.331203 1.882135
-5.333114 -26.729205 5.515466
-5.002995 -27.341131 1.855396
-8.272571 -27.044248 3.782622
-4.197062 -27.124661 3.690461
-10.624984 -25.710379 7.572933
-6.486562 -26.120060 7.371026
-9.618748 -25.034094 9.211966
-9.499258 -26.511258 5.700210
-7.566520 -25.326341 9.112716
-7.375341 -26.631625 5.614164
10.137709 -17.216909 1.316677
9.314693 -17.523156 3.966879
9.102317 -18.249529 1.345158
7.077230 -17.101177 9.141856
8.291050 -17.491488 6.595572
6.858195 -20.485063 1.429810
8.233257 -18.573774 4.069737
8.007805 -19.340135 1.384313
8.692264 -18.456200 2.711394
0.850221 -11.967736 17.138296
2.537339 -13.745694 15.598161
0.000000 -13.311962 16.948954
5.692645 -16.341568 11.537675
4.166542 -15.216231 13.712230
-1.873950 -16.294916 16.489060
1.738062 -15.113300 15.293365
-0.907465 -14.756346 16.732467
0.876767 -14.257157 16.166428
1.084894 -26.220409 1.755395
2.976454 -23.582060 4.816003
2.736305 -24.581699 1.653642
0.000000 -26.933382 3.628731
5.835105 -18.111970 9.441399
4.537766 -20.837908 7.342260
6.500147 -18.375325 8.153322
5.569220 -21.766632 1.498936
4.431337 -22.209558 4.582854
4.227122 -23.101020 1.567657
6.349912 -20.758793 2.903489
3.623993 -23.421045 3.186563
-2.236667 -26.363637 7.286730
2.017250 -23.777373 6.571904
-1.131247 -26.843622 5.494801
1.068277 -25.349375 5.188934
7.690301 -18.609021 5.481245
5.195316 -20.920478 5.903715
7.123726 -18.540461 6.822460
7.057921 -19.697787 4.235240
5.872450 -19.656021 7.072468
5.790602 -20.909289 4.407849
-6.413145 -22.723156 14.043682
-2.013339 -21.761262 13.449200
-5.402262 -21.948777 15.458902
-5.448022 -23.870560 12.484805
4.986602 -17.668605 10.919799
1.813064 -19.596578 12.111351
4.230180 -17.186739 12.104916
4.364511 -19.123147 10.001808
-2.959918 -18.046014 16.188764
-0.992149 -19.941030 14.012180
-4.112479 -19.886724 15.857421
-0.947650 -17.321148 15.550739
-3.067570 -20.922270 14.713125
-3.372946 -25.685170 9.128415
-1.059410 -22.695941 11.908043
-4.424754 -24.866654 10.831595
-1.113712 -25.390820 9.010118
-3.280497 -24.088139 12.625063
2.611922 -15.924356 14.285461
0.943718 -18.967621 13.328184
3.432829 -16.600140 13.236740
0.908793 -16.610928 14.913111
2.648492 -18.063963 12.703083
0.000000 -18.222186 14.486103
2.908452 -22.148022 7.871325
0.997519 -21.370042 11.212373
3.670172 -20.625981 8.984412
1.038331 -23.672258 8.400274
2.752477 -20.210981 10.592969
0.000000 -23.313074 10.203995
-10.137709 17.216909 1.316677
-9.314693 17.523156 3.966879
-9.102317 18.249529 1.345158
-7.077230 17.101177 9.141856
-8.291050 17.491488 6.595572
-6.858195 20.485063 1.429810
-8.233257 18.573774 4.069737
-8.007805 19.340135 1.384313
-8.692264 18.456200 2.711394
-0.850221 11.967736 17.138296
-2.537339 13.745694 15.598161
-5.692645 16.341568 11.537675
-4.166542 15.216231 13.712230
-1.084894 26.220409 1.755395
-2.976454 23.582060 4.816003
-2.736305 24.581699 1.653642
-5.835105 18.111970 9.441399
-4.537766 20.837908 7.342260
-6.500147 18.375325 8.153322
-5.569220 21.766632 1.498936
-4.431337 22.209558 4.582854
-4.227122 23.101020 1.567657
-6.349912 20.758793 2.903489
-3.623993 23.421045 3.186563
-7.690301 18.609021 5.481245
-5.195316 20.920478 5.903715
-7.123726 18.540461 6.822460
-7.057921 19.697787 4.235240
-5.872450 19.656021 7.072468
-5.790602 20.909289 4.407849
16.032185 27.227519 2.082247
13.887323 26.125361 5.914240
13.602296 27.271681 2.010174
9.573455 23.132969 12.366300
11.692352 24.667158 9.301325
9.145938 27.318432 1.906763
11.683786 26.357976 5.775349
11.303369 27.299451 1.954018
12.663881 26.889096 3.950268
0.874216 12.305494 17.621979
2.811609 15.231513 17.284218
0.000000 13.311962 16.948954
7.518609 21.583265 15.238482
5.118373 18.692321 16.844737
-1.738062 15.113300 15.293365
1.873950 16.294916 16.489060
-0.876767 14.257157 16.166428
0.907465 14.756346 16.732467
1.131803 27.354130 1.831295
3.381982 26.795009 5.472162
3.044290 27.348487 1.839767
0.000000 26.933382 3.628731
7.602930 23.599240 12.301800
5.566450 25.561736 9.006706
8.603949 24.322584 10.792183
6.992973 27.331203 1.882135
5.333114 26.729205 5.515466
5.002995 27.341131 1.855396
8.272571 27.044248 3.782622
4.197062 27.124661 3.690461
-2.017250 23.777373 6.571904
2.236667 26.363637 7.286730
-1.068277 25.349375 5.188934
1.131247 26.843622 5.494801
10.624984 25.710379 7.572933
6.486562 26.120060 7.371026
9.618748 25.034094 9.211966
9.499258 26.511258 5.700210
7.566520 25.326341 9.112716
7.375341 26.631625 5.614164
-4.986602 17.668605 10.919799
-1.813064 19.596578 12.111351
-4.230180 17.186739 12.104916
-4.364511 19.123147 10.001808
6.413145 22.723156 14.043682
2.013339 21.761262 13.449200
5.402262 21.948777 15.458902
5.448022 23.870560 12.484805
-2.611922 15.924356 14.285461
-0.943718 18.967621 13.328184
-3.432829 16.600140 13.236740
-0.908793 16.610928 14.913111
-2.648492 18.063963 12.703083
-2.908452 22.148022 7.871325
-0.997519 21.370042 11.212373
-3.670172 20.625981 8.984412
-1.038331 23.672258 8.400274
-2.752477 20.210981 10.592969
2.959918 18.046014 16.188764
0.992149 19.941030 14.012180
4.112479 19.886724 15.857421
0.947650 17.321148 15.550739
3.067570 20.922270 14.713125
0.000000 18.222186 14.486103
3.372946 25.685170 9.128415
1.059410 22.695941 11.908043
4.424754 24.866654 10.831595
1.113712 25.390820 9.010118
3.280497 24.088139 12.625063
0.000000 23.313074 10.203995
0.000000 -9.561053 18.170425
0.000000 -6.772296 18.786676
0.000000 -1.342080 19.364158
0.000000 -4.038915 19.175891
0.000000 9.561053 18.170425
0.000000 6.772296 18.786676
0.000000 1.342080 19.364158
0.000000 4.038915 19.175891
-16.032185 -27.227519 -2.082247
-13.887323 -26.125361 -5.914240
-13.602296 -27.271681 -2.010174
-9.573455 -23.132969 -12.366300
-11.692352 -24.667158 -9.301325
-9.145938 -27.318432 -1.906763
-11.683786 -26.357976 -5.775349
-11.303369 -27.299451 -1.954018
-12.663881 -26.889096 -3.950268
-0.874216 -12.305494 -17.621979
-2.811609 -15.231513 -17.284218
-7.518609 -21.583265 -15.238482
-5.118373 -18.692321 -16.844737
-1.131803 -27.354130 -1.831295
-3.381982 -26.795009 -5.472162
-3.044290 -27.348487 -1.839767
-7.602930 -23.599240 -12.301800
-5.566450 -25.561736 -9.006706
-8.603949 -24.322584 -10.792183
-6.992973 -27.331203 -1.882135
-5.333114 -26.729205 -5.515466
-5.002995 -27.341131 -1.855396
-8.272571 -27.044248 -3.782622
-4.197062 -27.124661 -3.690461
-10.624984 -25.710379 -7.572933
-6.486562 -26.120060 -7.371026
-9.618748 -25.034094 -9.211966
-9.499258 -26.511258 -5.700210
-7.566520 -25.326341 -9.112716
-7.375341 -26.631625 -5.614164
10.137709 -17.216909 -1.316677
9.314693 -17.523156 -3.966879
9.102317 -18.249529 -1.345158
7.077230 -17.101177 -9.141856
8.291050 -17.491488 -6.595572
6.858195 -20.485063 -1.429810
8.233257 -18.573774 -4.069737
8.007805 -19.340135 -1.384313
8.692264 -18.456200 -2.711394
0.850221 -11.967736 -17.138296
2.537339 -13.745694 -15.598161
0.000000 -13.311962 -16.948954
5.692645 -16.341568 -11.537675
4.166542 -15.216231 -13.712230
-1.873950 -16.294916 -16.489060
1.738062 -15.113300 -15.293365
-0.907465 -14.756346 -16.732467
0.876767 -14.257157 -16.166428
1.084894 -26.220409 -1.755395
2.976454 -23.582060 -4.816003
2.736305 -24.581699 -1.653642
0.000000 -26.933382 -3.628731
5.835105 -18.111970 -9.441399
4.537766 -20.837908 -7.342260
6.500147 -18.375325 -8.153322
5.569220 -21.766632 -1.498936
4.431337 -22.209558 -4.582854
4.227122 -23.101020 -1.567657
6.349912 -20.758793 -2.903489
3.623993 -23.421045 -3.186563
-2.236667 -26.363637 -7.286730
2.017250 -23.777373 -6.571904
-1.131247 -26.843622 -5.494801
1.068277 -25.349375 -5.188934
7.690301 -18.609021 -5.481245
5.195316 -20.920478 -5.903715
7.123726 -18.540461 -6.822460
7.057921 -19.697787 -4.235240
5.872450 -19.656021 -7.072468
5.790602 -20.909289 -4.407849
-6.413145 -22.723156 -14.043682
-2.013339 -21.761262 -13.449200
-5.402262 -21.948777 -15.458902
-5.448022 -23.870560 -12.484805
4.986602 -17.668605 -10.919799
1.813064 -19.596578 -12.111351
4.230180 -17.186739 -12.104916
4.364511 -19.123147 -10.001808
-2.959918 -18.046014 -16.188764
-0.992149 -19.941030 -14.012180
-4.112479 -19.886724 -15.857421
-0.947650 -17.321148 -15.550739
-3.067570 -20.922270 -14.713125
-3.372946 -25.685170 -9.128415
-1.059410 -22.695941 -11.908043
-4.424754 -24.866654 -10.831595
-1.113712 -25.390820 -9.010118
-3.280497 -24.088139 -12.625063
2.611922 -15.924356 -14.285461
0.943718 -18.967621 -13.328184
3.432829 -16.600140 -13.236740
0.908793 -16.610928 -14.913111
2.648492 -18.063963 -12.703083
0.000000 -18.222186 -14.486103
2.908452 -22.148022 -7.871325
0.997519 -21.370042 -11.212373
3.670172 -20.625981 -8.984412
1.038331 -23.672258 -8.400274
2.752477 -20.210981 -10.592969
0.000000 -23.313074 -10.203995
-10.137709 17.216909 -1.316677
-9.314693 17.523156 -3.966879
-9.102317 18.249529 -1.345158
-7.077230 17.101177 -9.141856
-8.291050 17.491488 -6.595572
-6.858195 20.485063 -1.429810
-8.233257 18.573774 -4.069737
-8.007805 19.340135 -1.384313
-8.692264 18.456200 -2.711394
-0.850221 11.967736 -17.138296
-2.537339 13.745694 -15.598161
-5.692645 16.341568 -11.537675
-4.166542 15.216231 -13.712230
-1.084894 26.220409 -1.755395
-2.976454 23.582060 -4.816003
-2.736305 24.581699 -1.653642
-5.835105 18.111970 -9.441399
-4.537766 20.837908 -7.342260
-6.500147 18.375325 -8.153322
-5.569220 21.766632 -1.498936
-4.431337 22.209558 -4.582854
-4.227122 23.101020 -1.567657
-6.349912 20.758793 -2.903489
-3.623993 23.421045 -3.186563
-7.690301 18.609021 -5.481245
-5.195316 20.920478 -5.903715
-7.123726 18.540461 -6.822460
-7.057921 19.697787 -4.235240
-5.872450 19.656021 -7.072468
-5.790602 20.909289 -4.407849
16.032185 27.227519 -2.082247
13.887323 26.125361 -5.914240
13.602296 27.271681 -2.010174
9.573455 23.132969 -12.366300
11.692352 24.667158 -9.301325
9.145938 27.318432 -1.906763
11.683786 26.357976 -5.775349
11.303369 27.299451 -1.954018
12.663881 26.889096 -3.950268
0.874216 12.305494 -17.621979
2.811609 15.231513 -17.284218
0.000000 13.311962 -16.948954
7.518609 21.583265 -15.238482
5.118373 18.692321 -16.844737
-1.738062 15.113300 -15.293365
1.873950 16.294916 -16.489060
-0.876767 14.257157 -16.166428
0.907465 14.756346 -16.732467
1.131803 27.354130 -1.831295
3.381982 26.795009 -5.472162
3.044290 27.348487 -1.839767
0.000000 26.933382 -3.628731
7.602930 23.599240 -12.301800
5.566450 25.561736 -9.006706
8.603949 24.322584 -10.792183
6.992973 27.331203 -1.882135
5.333114 26.729205 -5.515466
5.002995 27.341131 -1.855396
8.272571 27.044248 -3.782622
4.197062 27.124661 -3.690461
-2.017250 23.777373 -6.571904
2.236667 26.363637 -7.286730
-1.068277 25.349375 -5.188934
1.131247 26.843622 -5.494801
10.624984 25.710379 -7.572933
6.486562 26.120060 -7.371026
9.618748 25.034094 -9.211966
9.499258 26.511258 -5.700210
7.566520 25.326341 -9.112716
7.375341 26.631625 -5.614164
-4.986602 17.668605 -10.919799
-1.813064 19.596578 -12.111351
-4.230180 17.186739 -12.104916
-4.364511 19.123147 -10.001808
6.413145 22.723156 -14.043682
2.013339 21.761262 -13.449200
5.402262 21.948777 -15.458902
5.448022 23.870560 -12.484805
-2.611922 15.924356 -14.285461
-0.943718 18.967621 -13.328184
-3.432829 16.600140 -13.236740
-0.908793 16.610928 -14.913111
-2.648492 18.063963 -12.703083
-2.908452 22.148022 -7.871325
-0.997519 21.370042 -11.212373
-3.670172 20.625981 -8.984412
-1.038331 23.672258 -8.400274
-2.752477 20.210981 -10.592969
2.959918 18.046014 -16.188764
0.992149 19.941030 -14.012180
4.112479 19.886724 -15.857421
0.947650 17.321148 -15.550739
3.067570 20.922270 -14.713125
0.000000 18.222186 -14.486103
3.372946 25.685170 -9.128415
1.059410 22.695941 -11.908043
4.424754 24.866654 -10.831595
1.113712 25.390820 -9.010118
3.280497 24.088139 -12.625063
0.000000 23.313074 -10.203995
0.000000 -9.561053 -18.170425
0.000000 -6.772296 -18.786676
0.000000 -1.342080 -19.364158
0.000000 -4.038915 -19.175891
0.000000 9.561053 -18.170425
0.000000 6.772296 -18.786676
0.000000 1.342080 -19.364158
0.000000 4.038915 -19.175891
19.069282 27.308005 -1.354734
22.579635 25.622626 -4.168010
17.877446 26.794180 -3.449868
24.053763 16.982733 -8.379216
23.833209 21.477490 -6.526062
15.339405 25.261737 -7.217134
20.794763 24.570002 -6.142023
16.599801 26.063890 -5.412592
19.525565 25.934844 -4.838384
22.048783 1.686198 -12.982827
23.789051 5.385347 -12.645422
24.026132 12.843762 -9.943086
23.923132 9.020773 -11.339680
10.678814 21.930574 -13.553840
14.974357 20.786444 -12.846729
11.770076 22.742098 -12.096823
22.678978 16.476831 -10.183242
19.129792 19.052969 -11.775382
22.496882 18.545729 -9.344561
14.078553 24.394464 -8.981204
16.242402 21.653105 -11.351195
12.906598 23.568964 -10.569150
16.594856 24.053532 -8.533816
14.008910 22.258410 -11.762989
21.666703 22.687104 -7.376715
18.518617 20.846997 -10.814495
22.185858 20.656442 -8.411479
19.177112 23.524949 -8.010149
20.609172 19.837646 -10.159940
17.659795 22.550484 -9.746493
11.264016 -16.130540 -0.800227
12.748553 -14.466638 -2.353275
10.907706 -16.348142 -2.104895
15.440294 -10.901346 -5.378683
14.131524 -12.734737 -3.869525
10.046119 -16.544476 -4.726662
12.343868 -14.584867 -3.645934
10.500237 -16.486766 -3.423746
11.645020 -15.467505 -2.885606
20.145947 -1.540678 -11.862393
19.060786 -4.314966 -10.132043
16.693888 -8.924130 -6.908676
17.901897 -6.750326 -8.485585
7.740523 -15.896345 -9.824482
10.235678 -14.208512 -8.781344
8.377849 -16.187648 -8.610424
14.904305 -10.828342 -6.692283
12.591129 -12.540565 -7.750495
14.305436 -11.792956 -5.942069
9.527358 -16.508429 -6.077837
10.820759 -14.425393 -7.562216
8.977130 -16.393293 -7.351328
10.730501 -15.553401 -5.518103
9.626312 -15.295009 -8.083013
13.037792 -13.651812 -4.438888
12.022629 -13.534256 -7.020970
13.680780 -12.737675 -5.186890
11.901483 -14.599788 -4.971168
13.164484 -12.671657 -6.489847
11.390914 -14.545504 -6.286679
1.341623 -10.329779 -17.543101
3.868356 -9.083350 -17.087945
2.175327 -11.272688 -16.895167
1.324615 -8.963308 -17.970824
8.607587 -6.663622 -16.101748
6.263687 -7.873850 -16.611328
3.830315 -12.968120 -15.322451
4.683462 -9.954301 -16.393266
3.012760 -12.158158 -16.149081
3.456637 -10.601111 -16.645151
1.301002 -6.240356 -18.639613
3.846951 -7.782552 -17.557008
1.312470 -7.592218 -18.336425
2.609966 -8.367102 -17.765787
19.024925 -0.943816 -13.285176
16.086605 -2.616794 -14.176130
18.636410 -2.399519 -12.434470
10.973828 -5.414445 -15.542955
13.438166 -4.083266 -14.912107
17.733549 -5.066373 -10.768146
15.842793 -3.960391 -13.408511
18.199065 -3.779333 -11.590782
17.198290 -3.208499 -12.948076
6.930667 -15.435207 -11.214055
7.874172 -12.792049 -12.740678
6.210743 -14.952265 -12.326182
8.246556 -14.631209 -10.685277
9.441785 -7.439004 -15.277130
8.702584 -10.143874 -14.081077
8.281308 -8.057622 -15.568908
4.673441 -13.726716 -14.373180
7.129592 -12.208631 -13.743645
5.451701 -14.379239 -13.387984
5.111637 -12.237780 -15.012331
6.689996 -13.570481 -13.062456
10.746914 -13.026841 -9.657925
9.180489 -12.072064 -12.248907
9.522069 -13.825038 -10.165014
8.728551 -13.349216 -11.495970
5.934185 -9.302175 -16.118247
7.550297 -10.803704 -14.402657
7.107971 -8.679953 -15.850613
5.532505 -10.758507 -15.593995
7.927655 -9.441292 -15.001035
6.355108 -11.514901 -14.703829
1.294150 -0.799829 -19.330774
3.855509 -2.382835 -18.878897
1.293939 -2.141099 -19.234642
8.679766 -5.364390 -16.650887
6.335716 -3.915688 -17.981256
7.493194 -5.973867 -16.887580
1.301231 -4.834656 -18.895678
3.845287 -3.718155 -18.635138
1.295427 -3.493065 -19.089431
2.586244 -5.656101 -18.490622
2.583711 -2.938385 -18.990114
5.106631 -7.164710 -17.337194
5.122491 -4.507833 -18.152125
6.298583 -6.576715 -17.116792
3.863123 -6.437798 -17.967101
6.323752 -5.250772 -17.575165
3.863687 -5.075734 -18.327973
15.591836 -9.636284 -7.592245
14.339495 -8.862296 -10.330037
16.149254 -8.590002 -8.357978
14.392034 -10.510605 -8.111750
10.831898 -6.694481 -14.909200
12.736420 -7.871541 -12.787775
12.018251 -6.055587 -14.578731
10.446112 -8.061977 -14.303724
17.210263 -6.336228 -9.932401
14.764240 -7.739850 -11.074935
16.693073 -7.485760 -9.141292
16.422329 -5.826385 -11.329986
15.501337 -8.192052 -9.756170
12.005730 -12.181602 -9.130044
13.080470 -9.697684 -10.791157
13.192930 -11.361381 -8.626361
11.284373 -11.779337 -10.483504
13.778199 -10.130575 -9.489808
14.490498 -4.711587 -13.838757
13.910719 -7.216262 -12.357044
13.241568 -5.392079 -14.221983
15.507506 -5.280242 -12.641438
13.004350 -6.660237 -13.510116
15.144138 -6.545413 -11.859717
9.632254 -10.718349 -12.992216
12.257503 -9.186932 -12.080535
10.044793 -9.409451 -13.661530
10.486269 -11.287349 -11.782444
11.392687 -8.650131 -13.229283
11.790589 -10.493519 -11.295153
1.394005 10.733094 -18.228053
4.290147 10.073765 -18.951150
2.332838 12.088923 -18.118516
1.368550 9.260602 -18.566878
10.326452 7.994293 -19.317136
7.293358 9.168210 -19.342018
4.465654 15.119158 -17.864004
5.401040 11.479452 -18.904964
3.357693 13.550155 -17.998002
3.852576 11.815410 -18.551761
1.330047 6.379677 -19.055756
4.195633 8.487950 -19.148348
1.348712 7.801866 -18.842760
2.776243 8.900158 -18.897620
20.004565 0.992415 -13.969262
18.261236 2.970539 -16.092498
21.348592 2.748725 -14.244075
18.344967 0.000000 -14.408411
13.270278 6.547505 -18.795568
15.970343 4.852683 -17.722021
22.822761 6.520332 -13.858412
19.411008 4.852375 -16.428461
22.779272 4.730488 -14.507864
20.462775 3.817519 -15.405809
15.342932 -1.743695 -15.162282
16.567399 1.882853 -16.372332
16.789243 -0.910544 -14.806417
17.516791 0.950002 -15.448041
9.416160 20.970620 -15.235668
10.974836 17.829258 -17.757658
8.375280 20.163354 -16.622041
11.511673 20.424246 -14.915973
11.930918 9.400144 -19.304632
11.950810 13.930060 -19.336817
10.311882 10.033348 -19.386398
5.758482 16.913671 -17.710226
9.730577 16.662527 -18.757538
7.140715 18.834130 -17.535770
6.258202 14.982771 -18.379667
9.177408 18.616132 -17.919217
15.664508 18.987688 -14.077217
12.969790 17.054879 -17.304716
13.614411 19.766687 -14.533678
12.279241 18.779548 -16.172420
7.061114 11.068702 -19.179177
10.036224 14.360813 -19.144717
8.672690 10.590722 -19.339901
6.692986 13.015180 -18.864945
10.219755 12.171024 -19.338239
8.132753 14.735839 -18.816770
1.297729 0.802041 -19.384230
3.953347 2.443303 -19.357972
1.303583 2.157057 -19.378003
2.600288 0.000000 -19.300012
10.007552 6.185007 -19.198054
6.800446 4.202907 -19.300197
8.585035 6.844325 -19.348286
1.323572 4.917664 -19.220106
4.000466 3.868204 -19.387173
1.311310 3.535892 -19.323479
2.693180 5.889968 -19.255168
2.637533 2.999596 -19.385708
5.191852 -1.593642 -18.784295
5.310056 1.629925 -19.211963
3.909434 -0.804858 -19.098663
3.942578 0.811682 -19.260580
5.690502 7.983893 -19.319456
5.469515 4.813217 -19.381843
7.133642 7.448650 -19.386119
4.147266 6.911315 -19.288629
6.969324 5.786806 -19.369358
4.082561 5.363270 -19.366236
22.795960 14.088678 -11.100202
20.264013 12.523849 -14.598003
22.841485 12.149689 -11.821514
21.322085 15.571671 -12.017720
13.821825 8.542358 -19.024585
17.755260 10.973354 -17.826850
15.353192 7.735951 -18.624178
14.061429 10.852163 -19.254130
22.845181 8.410811 -13.184429
20.408881 10.698936 -15.309086
22.855771 10.249330 -12.516046
21.721358 7.706397 -14.985857
21.625267 11.428389 -13.610425
17.744957 18.004902 -13.494576
18.674472 13.845003 -15.406111
19.610590 16.888090 -12.822628
16.327775 17.043956 -15.168968
19.979216 14.689942 -13.760791
18.159716 5.904634 -17.342944
19.146329 9.932264 -17.007894
16.815659 6.847479 -18.060701
20.548172 6.996569 -16.750497
17.710791 9.070662 -18.399600
20.485779 8.854112 -16.042878
13.628515 15.165213 -18.382469
17.322291 12.982963 -17.072201
14.201742 13.303470 -19.315234
14.952857 16.095154 -16.801132
16.038480 12.177544 -18.624016
16.876520 15.019951 -16.167374
10.107810 -4.615802 -16.354780
10.706632 -1.602778 -17.323695
11.333214 -3.960501 -16.091064
8.954935 -3.907684 -17.121557
11.657927 5.323673 -18.862922
11.231686 1.681378 -18.173250
12.990117 4.539522 -18.443561
9.926652 4.331715 -18.979451
13.911585 -2.543564 -15.507587
12.026823 -0.851574 -17.115626
12.604839 -3.268951 -15.807675
14.436678 -0.879760 -16.080254
11.686048 -2.436448 -16.617724
6.515159 -2.407349 -18.332093
9.431486 -0.839081 -17.975788
7.747266 -3.164793 -17.785800
6.621620 -0.818477 -18.659949
9.207161 -2.392389 -17.566913
15.440956 2.823191 -17.212414
12.368562 0.875771 -17.601963
14.265300 3.699577 -17.890052
14.950703 0.911084 -16.652800
12.686506 2.645036 -18.040389
13.435210 0.000000 -16.900260
6.805315 2.514562 -19.148523
9.636561 0.857326 -18.366647
8.308148 3.393915 -19.073447
6.719212 0.830540 -18.934967
9.799321 2.546256 -18.696731
8.106380 0.000000 -18.520651
19.069282 27.308005 1.354734
22.579635 25.622626 4.168010
17.877446 26.794180 3.449868
21.534445 27.417922 0.000000
24.053763 16.982733 8.379216
23.833209 21.477490 6.526062
15.339405 25.261737 7.217134
20.794763 24.570002 6.142023
16.599801 26.063890 5.412592
19.525565 25.934844 4.838384
25.212024 25.512409 -2.899436
25.212024 25.512409 2.899436
23.908244 27.109957 -1.470276
23.908244 27.109957 1.470276
22.048783 1.686198 12.982827
23.789051 5.385347 12.645422
24.026132 12.843762 9.943086
23.923132 9.020773 11.339680
10.678814 21.930574 13.553840
14.974357 20.786444 12.846729
11.770076 22.742098 12.096823
22.678978 16.476831 10.183242
19.129792 19.052969 11.775382
22.496882 18.545729 9.344561
14.078553 24.394464 8.981204
16.242402 21.653105 11.351195
12.906598 23.568964 10.569150
16.594856 24.053532 8.533816
14.008910 22.258410 11.762989
21.666703 22.687104 7.376715
18.518617 20.846997 10.814495
22.185858 20.656442 8.411479
19.177112 23.524949 8.010149
20.609172 19.837646 10.159940
17.659795 22.550484 9.746493
25.264297 15.614194 -7.130330
27.122443 16.762591 -2.509352
25.374837 17.871935 -6.245520
25.264297 15.614194 7.130330
27.122443 16.762591 2.509352
25.374837 17.871935 6.245520
25.494973 22.871095 -4.181701
27.305796 19.187260 -1.358577
25.467509 20.307468 -5.266559
27.066296 24.299827 -1.480812
26.551548 18.671791 -3.892920
25.494973 22.871095 4.181701
27.305796 19.187260 1.358577
25.467509 20.307468 5.266559
27.066296 24.299827 1.480812
26.551548 18.671791 3.892920
27.417922 21.796443 0.000000
11.264016 -16.130540 0.800227
12.748553 -14.466638 2.353275
10.907706 -16.348142 2.104895
12.061311 -15.356611 0.000000
15.440294 -10.901346 5.378683
14.131524 -12.734737 3.869525
10.046119 -16.544476 4.726662
12.343868 -14.584867 3.645934
10.500237 -16.486766 3.423746
11.645020 -15.467505 2.885606
13.583468 -13.745307 -1.562128
13.583468 -13.745307 1.562128
12.837980 -14.557199 -0.789492
12.837980 -14.557199 0.789492
20.145947 -1.540678 11.862393
19.060786 -4.314966 10.132043
16.693888 -8.924130 6.908676
17.901897 -6.750326 8.485585
7.740523 -15.896345 9.824482
10.235678 -14.208512 8.781344
8.377849 -16.187648 8.610424
14.904305 -10.828342 6.692283
12.591129 -12.540565 7.750495
14.305436 -11.792956 5.942069
9.527358 -16.508429 6.077837
10.820759 -14.425393 7.562216
8.977130 -16.393293 7.351328
10.730501 -15.553401 5.518103
9.626312 -15.295009 8.083013
13.037792 -13.651812 4.438888
12.022629 -13.534256 7.020970
13.680780 -12.737675 5.186890
11.901483 -14.599788 4.971168
13.164484 -12.671657 6.489847
11.390914 -14.545504 6.286679
16.452047 -10.167924 -4.643253
16.890074 -10.438640 -1.562660
15.761962 -11.101422 -3.879499
16.452047 -10.167924 4.643253
16.890074 -10.438640 1.562660
15.761962 -11.101422 3.879499
14.345837 -12.869399 -2.353013
16.089063 -11.305477 -0.800498
15.056318 -12.005717 -3.113574
14.435304 -12.959859 -0.789764
15.979647 -11.237335 -2.342895
14.345837 -12.869399 2.353013
16.089063 -11.305477 0.800498
15.056318 -12.005717 3.113574
14.435304 -12.959859 0.789764
15.979647 -11.237335 2.342895
15.274858 -12.143064 0.000000
1.341623 -10.329779 17.543101
3.868356 -9.083350 17.087945
2.175327 -11.272688 16.895167
1.324615 -8.963308 17.970824
8.607587 -6.663622 16.101748
6.263687 -7.873850 16.611328
3.830315 -12.968120 15.322451
4.683462 -9.954301 16.393266
3.012760 -12.158158 16.149081
3.456637 -10.601111 16.645151
1.301002 -6.240356 18.639613
3.846951 -7.782552 17.557008
1.312470 -7.592218 18.336425
2.609966 -8.367102 17.765787
19.024925 -0.943816 13.285176
16.086605 -2.616794 14.176130
18.636410 -2.399519 12.434470
10.973828 -5.414445 15.542955
13.438166 -4.083266 14.912107
17.733549 -5.066373 10.768146
15.842793 -3.960391 13.408511
18.199065 -3.779333 11.590782
17.198290 -3.208499 12.948076
6.930667 -15.435207 11.214055
7.874172 -12.792049 12.740678
6.210743 -14.952265 12.326182
8.246556 -14.631209 10.685277
9.441785 -7.439004 15.277130
8.702584 -10.143874 14.081077
8.281308 -8.057622 15.568908
4.673441 -13.726716 14.373180
7.129592 -12.208631 13.743645
5.451701 -14.379239 13.387984
5.111637 -12.237780 15.012331
6.689996 -13.570481 13.062456
10.746914 -13.026841 9.657925
9.180489 -12.072064 12.248907
9.522069 -13.825038 10.165014
8.728551 -13.349216 11.495970
5.934185 -9.302175 16.118247
7.550297 -10.803704 14.402657
7.107971 -8.679953 15.850613
5.532505 -10.758507 15.593995
7.927655 -9.441292 15.001035
6.355108 -11.514901 14.703829
1.294150 -0.799829 19.330774
3.855509 -2.382835 18.878897
1.293939 -2.141099 19.234642
8.679766 -5.364390 16.650887
6.335716 -3.915688 17.981256
7.493194 -5.973867 16.887580
1.301231 -4.834656 18.895678
3.845287 -3.718155 18.635138
1.295427 -3.493065 19.089431
2.586244 -5.656101 18.490622
2.583711 -2.938385 18.990114
5.106631 -7.164710 17.337194
5.122491 -4.507833 18.152125
6.298583 -6.576715 17.116792
3.863123 -6.437798 17.967101
6.323752 -5.250772 17.575165
3.863687 -5.075734 18.327973
15.591836 -9.636284 7.592245
14.339495 -8.862296 10.330037
16.149254 -8.590002 8.357978
14.392034 -10.510605 8.111750
10.831898 -6.694481 14.909200
12.736420 -7.871541 12.787775
12.018251 -6.055587 14.578731
10.446112 -8.061977 14.303724
17.210263 -6.336228 9.932401
14.764240 -7.739850 11.074935
16.693073 -7.485760 9.141292
16.422329 -5.826385 11.329986
15.501337 -8.192052 9.756170
12.005730 -12.181602 9.130044
13.080470 -9.697684 10.791157
13.192930 -11.361381 8.626361
11.284373 -11.779337 10.483504
13.778199 -10.130575 9.489808
14.490498 -4.711587 13.838757
13.910719 -7.216262 12.357044
13.241568 -5.392079 14.221983
15.507506 -5.280242 12.641438
13.004350 -6.660237 13.510116
15.144138 -6.545413 11.859717
9.632254 -10.718349 12.992216
12.257503 -9.186932 12.080535
10.044793 -9.409451 13.661530
10.486269 -11.287349 11.782444
11.392687 -8.650131 13.229283
11.790589 -10.493519 11.295153
1.394005 10.733094 18.228053
4.290147 10.073765 18.951150
2.332838 12.088923 18.118516
1.368550 9.260602 18.566878
10.326452 7.994293 19.317136
7.293358 9.168210 19.342018
4.465654 15.119158 17.864004
5.401040 11.479452 18.904964
3.357693 13.550155 17.998002
3.852576 11.815410 18.551761
1.330047 6.379677 19.055756
4.195633 8.487950 19.148348
1.348712 7.801866 18.842760
2.776243 8.900158 18.897620
20.004565 0.992415 13.969262
18.261236 2.970539 16.092498
21.348592 2.748725 14.244075
18.344967 0.000000 14.408411
13.270278 6.547505 18.795568
15.970343 4.852683 17.722021
22.822761 6.520332 13.858412
19.411008 4.852375 16.428461
22.779272 4.730488 14.507864
20.462775 3.817519 15.405809
15.342932 -1.743695 15.162282
16.567399 1.882853 16.372332
16.789243 -0.910544 14.806417
17.516791 0.950002 15.448041
9.416160 20.970620 15.235668
10.974836 17.829258 17.757658
8.375280 20.163354 16.622041
11.511673 20.424246 14.915973
11.930918 9.400144 19.304632
11.950810 13.930060 19.336817
10.311882 10.033348 19.386398
5.758482 16.913671 17.710226
9.730577 16.662527 18.757538
7.140715 18.834130 17.535770
6.258202 14.982771 18.379667
9.177408 18.616132 17.919217
15.664508 18.987688 14.077217
12.969790 17.054879 17.304716
13.614411 19.766687 14.533678
12.279241 18.779548 16.172420
7.061114 11.068702 19.179177
10.036224 14.360813 19.144717
8.672690 10.590722 19.339901
6.692986 13.015180 18.864945
10.219755 12.171024 19.338239
8.132753 14.735839 18.816770
1.297729 0.802041 19.384230
3.953347 2.443303 19.357972
1.303583 2.157057 19.378003
2.600288 0.000000 19.300012
10.007552 6.185007 19.198054
6.800446 4.202907 19.300197
