-6.490072 -10.757954 47.231271
-12.863498 -14.674351 44.630348
-36.623956 -22.634850 21.937131
-29.024184 -17.937932 34.119975
-37.928490 -16.757972 24.986497
-31.566421 -27.547321 25.063380
-33.917238 -14.295198 31.266005
-27.561113 -25.075929 31.582225
-6.856731 25.317657 45.202523
-19.638201 19.199215 43.202059
-11.508922 30.862840 42.824219
-6.672663 18.156038 46.846344
-39.903538 4.127905 31.340834
-30.556604 11.938452 38.201841
-41.759635 11.222817 30.095608
-35.114907 0.000000 34.701461
-21.429028 40.760434 34.672896
-24.693160 23.931993 39.954372
-16.552049 36.202118 39.271913
-29.532557 37.195187 32.459421
-18.507991 27.595815 41.889328
-6.492245 4.012428 48.187128
-19.151953 11.836558 44.187138
-6.570820 10.891801 47.818909
-12.875514 0.000000 46.584049
-13.258931 15.125452 46.002318
-43.475570 26.869380 26.041131
-31.375235 19.390961 36.883800
-42.999248 18.998388 28.327007
-37.048214 32.331161 29.415862
-36.669471 15.455190 33.803102
-30.833307 28.053070 35.331826
-24.917568 -7.506794 40.317471
-25.510823 7.685521 41.277378
-30.013656 -3.926489 37.754420
-19.179425 -3.951179 43.819245
-30.464636 3.985487 38.321711
-19.372648 3.990985 44.260701
-48.166768 0.000000 -21.232133
-54.881799 0.000000 -7.644154
-51.126801 7.282359 -19.814996
-47.267597 -6.732665 -18.319301
-48.166768 0.000000 21.232133
-54.881799 0.000000 7.644154
-51.126801 7.282359 19.814996
-47.267597 -6.732665 18.319301
-54.679032 23.699437 -14.647057
-58.340925 7.860264 -4.857911
-53.506033 15.421676 -17.592655
-58.749248 25.714199 -5.297416
-55.580408 7.637331 -12.659652
-43.724667 -18.951505 -11.712674
-52.209668 -7.034201 -4.347375
-45.663993 -13.161418 -15.014211
-45.124675 -19.750804 -4.068889
-50.397574 -6.925155 -11.479148
-54.679032 23.699437 14.647057
-58.340925 7.860264 4.857911
-53.506033 15.421676 17.592655
-58.749248 25.714199 5.297416
-55.580408 7.637331 12.659652
-60.291358 16.664121 0.000000
-43.724667 -18.951505 11.712674
-52.209668 -7.034201 4.347375
-45.663993 -13.161418 15.014211
-45.124675 -19.750804 4.068889
-50.397574 -6.925155 11.479148
-48.974797 -13.536301 0.000000
-28.069299 53.344657 0.000000
-19.904483 55.215997 0.000000
-4.038083 58.263339 0.000000
-11.967777 56.820399 0.000000
26.261980 49.909915 0.000000
20.138646 55.865576 0.000000
4.113005 59.344339 0.000000
12.447781 59.099358 0.000000
-26.261980 -49.909915 0.000000
-20.138646 -55.865576 0.000000
-4.113005 -59.344339 0.000000
-12.447781 -59.099358 0.000000
28.069299 -53.344657 0.000000
19.904483 -55.215997 0.000000
4.038083 -58.263339 0.000000
11.967777 -56.820399 0.000000
-27.922957 -47.421661 3.626610
-25.496497 -47.964983 10.858277
-25.296347 -50.717459 3.738344
-18.761874 -45.335550 24.235238
-22.358484 -47.169317 17.786287
-18.877186 -56.385150 3.935552
-22.622173 -51.034376 11.182245
-22.283541 -53.818330 3.852165
-24.061438 -51.089416 7.505529
-2.133035 -30.024661 42.996564
-6.436328 -34.867943 39.566992
-14.847084 -42.620723 30.091607
-10.706667 -39.100799 35.236002
-2.442573 -59.033657 3.952166
-7.300367 -57.839869 11.812243
-6.601411 -59.304019 3.989456
-15.349567 -47.644539 24.836121
-11.740257 -53.912518 18.996135
-17.288070 -48.871803 21.684926
-14.898305 -58.228254 4.009827
-11.429623 -57.284489 11.820428
-10.817627 -59.117816 4.011792
-17.258718 -56.421278 7.891526
-9.077034 -58.662815 7.981402
-20.915590 -50.611625 14.907539
-13.668063 -55.038499 15.531748
-19.163108 -49.874582 18.352690
-19.271769 -53.785132 11.564392
-15.592696 -52.191225 18.779019
-15.491074 -55.936734 11.791921
30.890220 -52.460976 4.011996
27.770143 -52.242253 11.826562
26.713044 -53.557842 3.947706
20.278960 -49.001385 26.194901
24.229848 -51.117302 19.274967
18.546163 -55.396402 3.866540
23.647452 -53.347347 11.689045
22.576530 -54.525946 3.902814
25.223876 -53.557610 7.868130
2.156339 -30.352690 43.466315
6.664945 -36.106449 40.972409
0.000000 -33.029577 42.053666
15.939546 -45.756794 32.305774
11.329358 -41.374868 37.285298
-4.366637 -37.970058 38.422447
4.471243 -38.879654 39.342882
-2.188620 -35.589278 40.355276
2.214896 -36.016560 40.839778
2.416265 -58.397843 3.909600
7.153054 -56.672721 11.573884
6.426731 -57.734773 3.883891
0.000000 -58.323604 7.857931
16.150706 -50.131249 26.132392
11.763671 -54.020036 19.034019
18.156826 -51.327699 22.774633
14.389695 -56.240412 3.872937
11.169840 -55.982475 11.551762
10.431100 -57.005467 3.868446
16.947786 -55.404795 7.749352
8.814573 -56.966591 7.750622
-4.809871 -56.694054 15.669851
4.761513 -56.124054 15.512307
-2.435555 -57.793835 11.830209
2.416307 -57.337088 11.736714
21.865201 -52.909499 15.584372
13.588181 -54.716832 15.440974
20.075331 -52.248767 19.226335
19.460385 -54.311534 11.677574
15.896479 -53.208033 19.144878
15.283227 -55.186220 11.633707
-12.956702 -45.908390 28.372945
-4.467818 -48.290610 29.845238
-10.886623 -44.231110 31.152732
-11.253076 -49.305462 25.787794
13.633181 -48.305301 29.854318
4.530948 -48.972952 30.266949
11.424753 -46.417470 32.692624
11.588413 -50.774742 26.556258
-6.610312 -40.301718 36.153966
-2.302534 -46.278209 32.518811
-8.756988 -42.346184 33.766308
-2.248454 -41.097252 36.896667
-6.665764 -45.463645 31.971305
-7.199196 -54.822265 19.483631
-2.385458 -51.104107 26.813159
-9.316102 -52.355513 22.805389
-2.420402 -55.181239 19.581467
-6.872418 -50.463017 26.448651
6.842257 -41.715841 37.422551
2.323645 -46.702514 32.816962
9.139271 -44.194792 35.240365
2.274681 -41.576636 37.327053
6.852293 -46.735860 32.865963
0.000000 -44.057966 35.024790
7.169331 -54.594842 19.402806
2.395559 -51.320508 26.926700
9.405902 -52.860178 23.025214
2.414445 -55.045408 19.533266
6.970674 -51.184489 26.826789
0.000000 -53.379055 23.363698
-30.890220 52.460976 4.011996
-27.770143 52.242253 11.826562
-26.713044 53.557842 3.947706
-20.278960 49.001385 26.194901
-24.229848 51.117302 19.274967
-18.546163 55.396402 3.866540
-23.647452 53.347347 11.689045
-22.576530 54.525946 3.902814
-25.223876 53.557610 7.868130
-2.156339 30.352690 43.466315
-6.664945 36.106449 40.972409
-15.939546 45.756794 32.305774
-11.329358 41.374868 37.285298
-2.416265 58.397843 3.909600
-7.153054 56.672721 11.573884
-6.426731 57.734773 3.883891
-16.150706 50.131249 26.132392
-11.763671 54.020036 19.034019
-18.156826 51.327699 22.774633
-14.389695 56.240412 3.872937
-11.169840 55.982475 11.551762
-10.431100 57.005467 3.868446
-16.947786 55.404795 7.749352
-8.814573 56.966591 7.750622
-21.865201 52.909499 15.584372
-13.588181 54.716832 15.440974
-20.075331 52.248767 19.226335
-19.460385 54.311534 11.677574
-15.896479 53.208033 19.144878
-15.283227 55.186220 11.633707
27.922957 47.421661 3.626610
25.496497 47.964983 10.858277
25.296347 50.717459 3.738344
18.761874 45.335550 24.235238
22.358484 47.169317 17.786287
18.877186 56.385150 3.935552
22.622173 51.034376 11.182245
22.283541 53.818330 3.852165
24.061438 51.089416 7.505529
2.133035 30.024661 42.996564
6.436328 34.867943 39.566992
0.000000 33.029577 42.053666
14.847084 42.620723 30.091607
10.706667 39.100799 35.236002
-4.471243 38.879654 39.342882
4.366637 37.970058 38.422447
-2.214896 36.016560 40.839778
2.188620 35.589278 40.355276
2.442573 59.033657 3.952166
7.300367 57.839869 11.812243
6.601411 59.304019 3.989456
0.000000 58.323604 7.857931
15.349567 47.644539 24.836121
11.740257 53.912518 18.996135
17.288070 48.871803 21.684926
14.898305 58.228254 4.009827
11.429623 57.284489 11.820428
10.817627 59.117816 4.011792
17.258718 56.421278 7.891526
9.077034 58.662815 7.981402
-4.761513 56.124054 15.512307
4.809871 56.694054 15.669851
-2.416307 57.337088 11.736714
2.435555 57.793835 11.830209
20.915590 50.611625 14.907539
13.668063 55.038499 15.531748
19.163108 49.874582 18.352690
19.271769 53.785132 11.564392
15.592696 52.191225 18.779019
15.491074 55.936734 11.791921
-13.633181 48.305301 29.854318
-4.530948 48.972952 30.266949
-11.424753 46.417470 32.692624
-11.588413 50.774742 26.556258
12.956702 45.908390 28.372945
4.467818 48.290610 29.845238
10.886623 44.231110 31.152732
11.253076 49.305462 25.787794
-6.842257 41.715841 37.422551
-2.323645 46.702514 32.816962
-9.139271 44.194792 35.240365
-2.274681 41.576636 37.327053
-6.852293 46.735860 32.865963
-7.169331 54.594842 19.402806
-2.395559 51.320508 26.926700
-9.405902 52.860178 23.025214
-2.414445 55.045408 19.533266
-6.970674 51.184489 26.826789
6.610312 40.301718 36.153966
2.302534 46.278209 32.518811
8.756988 42.346184 33.766308
2.248454 41.097252 36.896667
6.665764 45.463645 31.971305
0.000000 44.057966 35.024790
7.199196 54.822265 19.483631
2.385458 51.104107 26.813159
9.316102 52.355513 22.805389
2.420402 55.181239 19.581467
6.872418 50.463017 26.448651
0.000000 53.379055 23.363698
0.000000 -23.919237 45.457619
0.000000 -16.989047 47.128436
0.000000 -3.372504 48.660056
0.000000 -10.144632 48.164504
0.000000 23.919237 45.457619
0.000000 16.989047 47.128436
0.000000 3.372504 48.660056
0.000000 10.144632 48.164504
-27.922957 -47.421661 -3.626610
-25.496497 -47.964983 -10.858277
-25.296347 -50.717459 -3.738344
-18.761874 -45.335550 -24.235238
-22.358484 -47.169317 -17.786287
-18.877186 -56.385150 -3.935552
-22.622173 -51.034376 -11.182245
-22.283541 -53.818330 -3.852165
-24.061438 -51.089416 -7.505529
-2.133035 -30.024661 -42.996564
-6.436328 -34.867943 -39.566992
-14.847084 -42.620723 -30.091607
-10.706667 -39.100799 -35.236002
-2.442573 -59.033657 -3.952166
-7.300367 -57.839869 -11.812243
-6.601411 -59.304019 -3.989456
-15.349567 -47.644539 -24.836121
-11.740257 -53.912518 -18.996135
-17.288070 -48.871803 -21.684926
-14.898305 -58.228254 -4.009827
-11.429623 -57.284489 -11.820428
-10.817627 -59.117816 -4.011792
-17.258718 -56.421278 -7.891526
-9.077034 -58.662815 -7.981402
-20.915590 -50.611625 -14.907539
-13.668063 -55.038499 -15.531748
-19.163108 -49.874582 -18.352690
-19.271769 -53.785132 -11.564392
-15.592696 -52.191225 -18.779019
-15.491074 -55.936734 -11.791921
30.890220 -52.460976 -4.011996
27.770143 -52.242253 -11.826562
26.713044 -53.557842 -3.947706
20.278960 -49.001385 -26.194901
24.229848 -51.117302 -19.274967
18.546163 -55.396402 -3.866540
23.647452 -53.347347 -11.689045
22.576530 -54.525946 -3.902814
25.223876 -53.557610 -7.868130
2.156339 -30.352690 -43.466315
6.664945 -36.106449 -40.972409
0.000000 -33.029577 -42.053666
15.939546 -45.756794 -32.305774
11.329358 -41.374868 -37.285298
-4.366637 -37.970058 -38.422447
4.471243 -38.879654 -39.342882
-2.188620 -35.589278 -40.355276
2.214896 -36.016560 -40.839778
2.416265 -58.397843 -3.909600
7.153054 -56.672721 -11.573884
6.426731 -57.734773 -3.883891
0.000000 -58.323604 -7.857931
16.150706 -50.131249 -26.132392
11.763671 -54.020036 -19.034019
18.156826 -51.327699 -22.774633
14.389695 -56.240412 -3.872937
11.169840 -55.982475 -11.551762
10.431100 -57.005467 -3.868446
16.947786 -55.404795 -7.749352
8.814573 -56.966591 -7.750622
-4.809871 -56.694054 -15.669851
4.761513 -56.124054 -15.512307
-2.435555 -57.793835 -11.830209
2.416307 -57.337088 -11.736714
21.865201 -52.909499 -15.584372
13.588181 -54.716832 -15.440974
20.075331 -52.248767 -19.226335
19.460385 -54.311534 -11.677574
15.896479 -53.208033 -19.144878
15.283227 -55.186220 -11.633707
-12.956702 -45.908390 -28.372945
-4.467818 -48.290610 -29.845238
-10.886623 -44.231110 -31.152732
-11.253076 -49.305462 -25.787794
13.633181 -48.305301 -29.854318
4.530948 -48.972952 -30.266949
11.424753 -46.417470 -32.692624
11.588413 -50.774742 -26.556258
-6.610312 -40.301718 -36.153966
-2.302534 -46.278209 -32.518811
-8.756988 -42.346184 -33.766308
-2.248454 -41.097252 -36.896667
-6.665764 -45.463645 -31.971305
-7.199196 -54.822265 -19.483631
-2.385458 -51.104107 -26.813159
-9.316102 -52.355513 -22.805389
-2.420402 -55.181239 -19.581467
-6.872418 -50.463017 -26.448651
6.842257 -41.715841 -37.422551
2.323645 -46.702514 -32.816962
9.139271 -44.194792 -35.240365
2.274681 -41.576636 -37.327053
6.852293 -46.735860 -32.865963
0.000000 -44.057966 -35.024790
7.169331 -54.594842 -19.402806
2.395559 -51.320508 -26.926700
9.405902 -52.860178 -23.025214
2.414445 -55.045408 -19.533266
6.970674 -51.184489 -26.826789
0.000000 -53.379055 -23.363698
-30.890220 52.460976 -4.011996
-27.770143 52.242253 -11.826562
-26.713044 53.557842 -3.947706
-20.278960 49.001385 -26.194901
-24.229848 51.117302 -19.274967
-18.546163 55.396402 -3.866540
-23.647452 53.347347 -11.689045
-22.576530 54.525946 -3.902814
-25.223876 53.557610 -7.868130
-2.156339 30.352690 -43.466315
-6.664945 36.106449 -40.972409
-15.939546 45.756794 -32.305774
-11.329358 41.374868 -37.285298
-2.416265 58.397843 -3.909600
-7.153054 56.672721 -11.573884
-6.426731 57.734773 -3.883891
-16.150706 50.131249 -26.132392
-11.763671 54.020036 -19.034019
-18.156826 51.327699 -22.774633
-14.389695 56.240412 -3.872937
-11.169840 55.982475 -11.551762
-10.431100 57.005467 -3.868446
-16.947786 55.404795 -7.749352
-8.814573 56.966591 -7.750622
-21.865201 52.909499 -15.584372
-13.588181 54.716832 -15.440974
-20.075331 52.248767 -19.226335
-19.460385 54.311534 -11.677574
-15.896479 53.208033 -19.144878
-15.283227 55.186220 -11.633707
27.922957 47.421661 -3.626610
25.496497 47.964983 -10.858277
25.296347 50.717459 -3.738344
18.761874 45.335550 -24.235238
22.358484 47.169317 -17.786287
18.877186 56.385150 -3.935552
22.622173 51.034376 -11.182245
22.283541 53.818330 -3.852165
24.061438 51.089416 -7.505529
2.133035 30.024661 -42.996564
6.436328 34.867943 -39.566992
0.000000 33.029577 -42.053666
14.847084 42.620723 -30.091607
10.706667 39.100799 -35.236002
-4.471243 38.879654 -39.342882
4.366637 37.970058 -38.422447
-2.214896 36.016560 -40.839778
2.188620 35.589278 -40.355276
2.442573 59.033657 -3.952166
7.300367 57.839869 -11.812243
6.601411 59.304019 -3.989456
0.000000 58.323604 -7.857931
15.349567 47.644539 -24.836121
11.740257 53.912518 -18.996135
17.288070 48.871803 -21.684926
14.898305 58.228254 -4.009827
11.429623 57.284489 -11.820428
10.817627 59.117816 -4.011792
17.258718 56.421278 -7.891526
9.077034 58.662815 -7.981402
-4.761513 56.124054 -15.512307
4.809871 56.694054 -15.669851
-2.416307 57.337088 -11.736714
2.435555 57.793835 -11.830209
20.915590 50.611625 -14.907539
13.668063 55.038499 -15.531748
19.163108 49.874582 -18.352690
19.271769 53.785132 -11.564392
15.592696 52.191225 -18.779019
15.491074 55.936734 -11.791921
-13.633181 48.305301 -29.854318
-4.530948 48.972952 -30.266949
-11.424753 46.417470 -32.692624
-11.588413 50.774742 -26.556258
12.956702 45.908390 -28.372945
4.467818 48.290610 -29.845238
10.886623 44.231110 -31.152732
11.253076 49.305462 -25.787794
-6.842257 41.715841 -37.422551
-2.323645 46.702514 -32.816962
-9.139271 44.194792 -35.240365
-2.274681 41.576636 -37.327053
-6.852293 46.735860 -32.865963
-7.169331 54.594842 -19.402806
-2.395559 51.320508 -26.926700
-9.405902 52.860178 -23.025214
-2.414445 55.045408 -19.533266
-6.970674 51.184489 -26.826789
6.610312 40.301718 -36.153966
2.302534 46.278209 -32.518811
8.756988 42.346184 -33.766308
2.248454 41.097252 -36.896667
6.665764 45.463645 -31.971305
0.000000 44.057966 -35.024790
7.199196 54.822265 -19.483631
2.385458 51.104107 -26.813159
9.316102 52.355513 -22.805389
2.420402 55.181239 -19.581467
6.872418 50.463017 -26.448651
0.000000 53.379055 -23.363698
0.000000 -23.919237 -45.457619
0.000000 -16.989047 -47.128436
0.000000 -3.372504 -48.660056
0.000000 -10.144632 -48.164504
0.000000 23.919237 -45.457619
0.000000 16.989047 -47.128436
0.000000 3.372504 -48.660056
0.000000 10.144632 -48.164504
30.599022 43.819073 -2.173839
33.653213 38.188557 -6.212099
29.663690 44.459048 -5.724297
38.321314 27.056085 -13.349370
36.168940 32.593934 -9.903859
27.158881 44.726671 -12.778153
32.576675 38.490892 -9.621976
28.502235 44.752291 -9.293544
31.207337 41.451164 -7.733097
43.599169 3.334282 -25.672186
43.004998 9.735439 -22.859944
40.196394 21.487975 -16.635062
41.793817 15.759330 -19.810471
20.421672 41.939022 -25.919741
26.731124 37.106435 -22.933038
22.240230 42.972489 -22.857636
36.998205 26.880100 -16.612815
32.147916 32.018814 -19.788715
36.035079 29.706196 -14.967940
25.607907 44.371832 -16.336185
28.337767 37.777704 -19.804185
23.982137 43.794199 -19.638856
28.597702 41.451143 -14.706215
25.432528 40.409113 -21.355162
33.856751 35.451247 -11.526977
31.117058 35.029464 -18.171729
34.986484 32.574637 -13.264670
31.340066 38.445489 -13.090532
33.632939 32.373854 -16.580416
29.912278 38.196160 -16.508675
35.670343 -51.081416 -2.534120
41.991176 -47.650203 -7.751216
34.162116 -51.201154 -6.592373
48.881610 -34.511995 -17.028087
46.619133 -42.011211 -12.765354
30.750857 -50.642127 -14.468165
40.117127 -47.400295 -11.849153
32.510163 -51.045270 -10.600384
37.302185 -49.546650 -9.243384
44.881540 -3.432352 -26.427275
47.115808 -10.666041 -25.045106
49.351073 -26.381835 -20.423676
48.668652 -18.351647 -23.069176
22.614568 -46.442470 -28.703025
31.202725 -43.313624 -26.769292
24.774984 -47.870131 -25.462757
46.128581 -33.513541 -20.712507
39.095853 -38.938849 -24.065532
45.456187 -37.472664 -18.881199
28.826510 -49.948833 -18.389445
33.530052 -44.699654 -23.432875
26.857040 -49.044110 -21.993100
33.485176 -48.535327 -17.219572
29.226604 -46.437427 -24.540968
42.536055 -44.539305 -14.481961
37.809338 -42.563177 -22.079884
44.282554 -41.229868 -16.789153
38.107554 -46.747302 -15.917265
41.739070 -40.176523 -20.576589
35.888681 -45.827663 -19.807070
3.436103 -26.456152 -44.930582
10.218948 -23.995279 -45.140835
5.660945 -29.335394 -43.967008
3.386878 -22.918073 -45.949181
22.523441 -17.436675 -42.133384
16.626858 -20.901008 -44.094504
10.319426 -34.937998 -41.280908
12.560023 -26.695262 -43.963160
7.976051 -32.187791 -42.753454
9.165294 -28.108909 -44.134717
3.310418 -15.878680 -47.428772
10.069908 -20.371866 -45.957807
3.348338 -19.369064 -46.779399
6.775490 -21.721059 -46.120114
41.856443 -2.076474 -29.228510
37.759496 -6.142304 -33.275108
43.004253 -5.536986 -28.693031
27.969960 -13.800272 -39.615695
33.058307 -10.044962 -36.684246
44.888838 -12.824484 -27.257352
38.617434 -9.653609 -32.683774
44.024956 -9.142501 -28.039003
40.889553 -7.628323 -30.784516
19.933808 -44.394349 -32.253579
22.617282 -36.743087 -36.595531
17.606439 -42.387223 -34.942705
24.262918 -43.047765 -31.438091
25.050001 -19.736420 -40.531753
24.197924 -28.205496 -39.153063
22.168608 -21.569813 -41.677112
12.823201 -37.663988 -39.437787
20.128313 -34.467491 -38.801153
15.211345 -40.120976 -37.355174
14.028099 -33.584697 -41.199023
19.010694 -38.562694 -37.119058
32.441919 -39.324378 -29.154565
26.552058 -34.915149 -35.426619
28.470346 -41.335937 -30.392710
25.580376 -39.121954 -33.690729
15.992585 -25.069295 -43.438557
21.021846 -30.080115 -40.100467
19.134521 -23.366265 -42.669545
15.083962 -29.332269 -42.515866
21.675838 -25.814431 -41.015909
17.629487 -31.943092 -40.789386
3.252759 -2.010316 -48.586591
9.707288 -5.999434 -47.532741
3.262687 -5.398816 -48.500465
22.235636 -13.742379 -42.655882
16.038282 -9.912204 -45.517901
19.419573 -15.482042 -43.766327
3.301370 -12.266069 -47.940472
9.774852 -9.451678 -47.371164
3.276734 -8.835575 -48.285998
6.631557 -14.503174 -47.412999
6.539730 -7.437459 -48.066611
13.392254 -18.789613 -45.467179
13.090346 -11.519609 -46.387115
16.457585 -17.184319 -44.724516
10.016286 -16.691889 -46.585005
16.261377 -13.502234 -45.194117
9.918885 -13.030462 -47.051709
46.437415 -28.699901 -22.612107
40.465805 -25.009243 -29.151183
46.381057 -24.670699 -24.004319
43.303806 -31.625080 -24.407230
28.339929 -17.515039 -39.007538
34.407354 -21.264914 -34.546087
31.006550 -15.623144 -37.612473
28.111532 -21.695585 -38.492751
45.590171 -16.784735 -26.311036
40.271645 -21.111582 -30.208519
46.089209 -20.668018 -25.238907
42.455943 -15.062703 -29.290928
43.326075 -22.896700 -27.268394
36.385212 -36.918217 -27.670003
37.367496 -27.703759 -30.827525
39.929603 -34.386253 -26.108467
33.396155 -34.861004 -31.025981
40.347356 -29.665845 -27.789456
36.118600 -11.743967 -34.494089
37.113053 -19.252602 -32.967933
33.614458 -13.688094 -36.103294
39.280994 -13.375018 -32.021155
34.066878 -17.447506 -35.391808
39.835764 -17.217325 -31.196289
27.281188 -30.357307 -36.797522
34.210317 -25.640447 -33.716407
27.769197 -26.012772 -37.767799
30.334645 -32.652006 -34.084213
31.183518 -23.676724 -36.210560
33.953617 -30.218415 -32.526897
3.383098 26.048047 -44.237495
9.829190 23.080083 -43.419132
5.509848 28.552398 -42.793477
3.341194 22.608944 -45.329399
21.420375 16.582729 -40.069938
15.828172 19.897009 -41.976384
9.799278 33.176957 -39.200154
11.940392 25.378290 -41.794301
7.667915 30.944291 -41.101774
8.800587 26.990394 -42.378500
3.279409 15.729942 -46.984502
9.743578 19.711686 -44.468477
3.310017 19.147387 -46.244014
6.609183 21.187908 -44.988079
41.233180 2.045554 -28.793283
36.507494 5.938642 -32.171797
41.274986 5.314335 -27.539239
39.495358 0.000000 -31.020244
26.677655 13.162654 -37.785319
31.680085 9.626181 -35.154857
40.749004 11.641757 -24.743566
36.566632 9.140948 -30.948083
41.100072 8.535101 -26.176178
38.920565 7.260990 -29.302124
35.373841 -4.020169 -34.957345
34.691320 3.942602 -34.282861
37.515898 -2.034630 -33.085233
37.093673 2.011731 -32.712873
18.153549 40.429554 -29.373059
20.369527 33.091479 -32.958587
16.170759 38.930846 -32.093376
21.586685 38.299538 -27.970426
23.531377 18.539925 -38.074568
22.142937 25.810170 -35.828025
20.828051 20.265466 -39.156858
12.025904 35.322186 -36.985696
18.383262 31.479285 -35.437235
14.109938 37.215939 -34.650401
13.131027 31.437016 -38.564420
17.347913 35.189785 -33.872418
27.721838 33.602946 -24.912773
23.609678 31.046008 -31.500800
24.786118 35.986826 -26.459717
22.651688 34.642896 -29.833490
15.100179 23.670396 -41.014631
19.327707 27.655976 -36.868792
18.003559 21.985182 -40.147525
14.157353 27.530386 -39.904113
20.127948 23.971000 -38.086928
16.325132 29.579714 -37.771496
3.248905 2.007934 -48.529026
9.615379 5.942631 -47.082699
3.252305 5.381636 -48.346128
6.488787 0.000000 -48.161462
21.393890 13.222151 -41.041113
15.683351 9.692844 -44.510577
18.659156 14.875808 -42.052557
3.277398 12.177002 -47.592362
9.628875 9.310527 -46.663726
3.259652 8.789513 -48.034267
6.522766 14.265248 -46.635186
6.484836 7.375029 -47.663144
12.904355 -3.961000 -46.688395
12.804649 3.930395 -46.327655
9.730866 -2.003351 -47.537968
9.699841 1.996964 -47.386402
12.893712 18.090148 -43.774611
12.795265 11.259935 -45.341462
15.812761 16.511020 -42.972166
9.749394 16.247121 -45.343711
15.765961 13.090878 -43.817243
9.713130 12.760161 -46.075678
38.050527 23.516519 -18.528219
35.015155 21.640556 -25.224586
38.854798 20.667382 -20.109136
35.670170 26.050180 -20.104700
26.638535 16.463520 -36.665711
31.220579 19.295379 -31.346463
29.170446 14.697994 -35.385188
26.018435 20.080200 -35.626701
40.209357 14.803705 -23.205656
35.603066 18.664176 -26.706530
39.585063 17.751331 -21.677173
38.423540 13.632069 -26.508918
37.317854 19.721512 -23.486963
30.596275 31.044479 -23.267668
32.442147 24.052172 -26.764199
33.179408 28.573175 -21.694768
28.745304 30.006153 -26.705208
34.141597 25.102992 -23.515207
34.084484 11.082574 -32.551462
33.622864 17.442047 -29.867559
31.662775 12.893352 -34.007108
36.371490 12.384344 -29.649380
31.503004 16.134407 -32.728220
36.039594 15.576591 -28.223422
24.522690 27.287771 -33.076793
30.449521 22.821750 -30.009907
25.308729 23.707931 -34.421413
26.708167 28.748489 -30.009478
28.344403 21.521068 -32.913756
29.661036 26.398056 -28.414688
25.446705 -11.620414 -41.173634
25.491003 -3.815992 -41.245310
28.040659 -9.799079 -39.812541
22.395446 -9.772750 -42.819397
24.547802 11.209924 -39.719178
25.196572 3.771915 -40.768909
27.125476 9.479259 -38.513152
21.795017 9.510739 -41.671397
32.972163 -6.028558 -36.754883
27.938464 -1.978217 -39.759820
30.566877 -7.927244 -38.333790
32.856066 -2.002222 -36.596639
28.030949 -5.844231 -39.860403
16.194395 -5.983824 -45.567143
22.434839 -1.995937 -42.759318
19.294319 -7.881815 -44.294969
16.153667 -1.996703 -45.521582
22.460162 -5.836049 -42.853131
32.142391 5.876844 -35.829916
27.753802 1.965142 -39.497023
29.669632 7.694552 -37.208560
32.577586 1.985252 -36.286456
27.486178 5.730650 -39.085731
30.301858 0.000000 -38.116951
15.976643 5.903365 -44.954440
22.311779 1.984988 -42.524773
18.915510 7.727070 -43.425316
16.080903 1.987709 -45.316532
22.101195 5.742775 -42.168237
19.308696 0.000000 -44.114590
30.599022 43.819073 2.173839
33.653213 38.188557 6.212099
29.663690 44.459048 5.724297
32.379000 41.225344 0.000000
38.321314 27.056085 13.349370
36.168940 32.593934 9.903859
27.158881 44.726671 12.778153
32.576675 38.490892 9.621976
28.502235 44.752291 9.293544
31.207337 41.451164 7.733097
35.453064 35.875466 -4.077178
35.453064 35.875466 4.077178
33.997435 38.550258 -2.090727
33.997435 38.550258 2.090727
43.599169 3.334282 25.672186
43.004998 9.735439 22.859944
40.196394 21.487975 16.635062
41.793817 15.759330 19.810471
20.421672 41.939022 25.919741
26.731124 37.106435 22.933038
22.240230 42.972489 22.857636
36.998205 26.880100 16.612815
32.147916 32.018814 19.788715
36.035079 29.706196 14.967940
25.607907 44.371832 16.336185
28.337767 37.777704 19.804185
23.982137 43.794199 19.638856
28.597702 41.451143 14.706215
25.432528 40.409113 21.355162
33.856751 35.451247 11.526977
31.117058 35.029464 18.171729
34.986484 32.574637 13.264670
31.340066 38.445489 13.090532
33.632939 32.373854 16.580416
29.912278 38.196160 16.508675
40.326279 24.923011 -11.381266
41.620430 25.722840 -3.850697
39.247387 27.642611 -9.659977
40.326279 24.923011 11.381266
41.620430 25.722840 3.850697
39.247387 27.642611 9.659977
36.854324 33.061370 -6.044868
40.258439 28.288834 -2.003025
38.086293 30.369525 -7.876063
37.182498 33.382044 -2.034275
39.911075 28.066583 -5.851660
36.854324 33.061370 6.044868
40.258439 28.288834 2.003025
38.086293 30.369525 7.876063
37.182498 33.382044 2.034275
39.911075 28.066583 5.851660
38.790476 30.837290 0.000000
35.670343 -51.081416 2.534120
41.991176 -47.650203 7.751216
34.162116 -51.201154 6.592373
39.157987 -49.856434 0.000000
48.881610 -34.511995 17.028087
46.619133 -42.011211 12.765354
30.750857 -50.642127 14.468165
40.117127 -47.400295 11.849153
32.510163 -51.045270 10.600384
37.302185 -49.546650 9.243384
45.531631 -46.074113 -5.236235
45.531631 -46.074113 5.236235
42.522697 -48.217196 -2.615002
42.522697 -48.217196 2.615002
44.881540 -3.432352 26.427275
47.115808 -10.666041 25.045106
49.351073 -26.381835 20.423676
48.668652 -18.351647 23.069176
22.614568 -46.442470 28.703025
31.202725 -43.313624 26.769292
24.774984 -47.870131 25.462757
46.128581 -33.513541 20.712507
39.095853 -38.938849 24.065532
45.456187 -37.472664 18.881199
28.826510 -49.948833 18.389445
33.530052 -44.699654 23.432875
26.857040 -49.044110 21.993100
33.485176 -48.535327 17.219572
29.226604 -46.437427 24.540968
42.536055 -44.539305 14.481961
37.809338 -42.563177 22.079884
44.282554 -41.229868 16.789153
38.107554 -46.747302 15.917265
41.739070 -40.176523 20.576589
35.888681 -45.827663 19.807070
51.919599 -32.088077 -14.653243
55.655184 -34.396795 -5.149184
51.240641 -36.089666 -12.611882
51.919599 -32.088077 14.653243
55.655184 -34.396795 5.149184
51.240641 -36.089666 12.611882
48.152086 -43.196394 -7.897934
54.090038 -38.008033 -2.691205
50.004716 -39.873124 -10.340735
48.924322 -43.923726 -2.676677
53.072997 -37.322415 -7.781428
48.152086 -43.196394 7.897934
54.090038 -38.008033 2.691205
50.004716 -39.873124 10.340735
48.924322 -43.923726 2.676677
53.072997 -37.322415 7.781428
51.846452 -41.216408 0.000000
3.436103 -26.456152 44.930582
10.218948 -23.995279 45.140835
5.660945 -29.335394 43.967008
3.386878 -22.918073 45.949181
22.523441 -17.436675 42.133384
16.626858 -20.901008 44.094504
10.319426 -34.937998 41.280908
12.560023 -26.695262 43.963160
7.976051 -32.187791 42.753454
9.165294 -28.108909 44.134717
3.310418 -15.878680 47.428772
10.069908 -20.371866 45.957807
3.348338 -19.369064 46.779399
6.775490 -21.721059 46.120114
41.856443 -2.076474 29.228510
37.759496 -6.142304 33.275108
43.004253 -5.536986 28.693031
27.969960 -13.800272 39.615695
33.058307 -10.044962 36.684246
44.888838 -12.824484 27.257352
38.617434 -9.653609 32.683774
44.024956 -9.142501 28.039003
40.889553 -7.628323 30.784516
19.933808 -44.394349 32.253579
22.617282 -36.743087 36.595531
17.606439 -42.387223 34.942705
24.262918 -43.047765 31.438091
25.050001 -19.736420 40.531753
24.197924 -28.205496 39.153063
22.168608 -21.569813 41.677112
12.823201 -37.663988 39.437787
20.128313 -34.467491 38.801153
15.211345 -40.120976 37.355174
14.028099 -33.584697 41.199023
19.010694 -38.562694 37.119058
32.441919 -39.324378 29.154565
26.552058 -34.915149 35.426619
28.470346 -41.335937 30.392710
25.580376 -39.121954 33.690729
15.992585 -25.069295 43.438557
21.021846 -30.080115 40.100467
19.134521 -23.366265 42.669545
15.083962 -29.332269 42.515866
21.675838 -25.814431 41.015909
17.629487 -31.943092 40.789386
3.252759 -2.010316 48.586591
9.707288 -5.999434 47.532741
3.262687 -5.398816 48.500465
22.235636 -13.742379 42.655882
16.038282 -9.912204 45.517901
19.419573 -15.482042 43.766327
3.301370 -12.266069 47.940472
9.774852 -9.451678 47.371164
3.276734 -8.835575 48.285998
6.631557 -14.503174 47.412999
6.539730 -7.437459 48.066611
13.392254 -18.789613 45.467179
13.090346 -11.519609 46.387115
16.457585 -17.184319 44.724516
10.016286 -16.691889 46.585005
16.261377 -13.502234 45.194117
9.918885 -13.030462 47.051709
46.437415 -28.699901 22.612107
40.465805 -25.009243 29.151183
46.381057 -24.670699 24.004319
43.303806 -31.625080 24.407230
28.339929 -17.515039 39.007538
34.407354 -21.264914 34.546087
31.006550 -15.623144 37.612473
28.111532 -21.695585 38.492751
45.590171 -16.784735 26.311036
40.271645 -21.111582 30.208519
46.089209 -20.668018 25.238907
42.455943 -15.062703 29.290928
43.326075 -22.896700 27.268394
36.385212 -36.918217 27.670003
37.367496 -27.703759 30.827525
39.929603 -34.386253 26.108467
33.396155 -34.861004 31.025981
40.347356 -29.665845 27.789456
36.118600 -11.743967 34.494089
37.113053 -19.252602 32.967933
33.614458 -13.688094 36.103294
39.280994 -13.375018 32.021155
34.066878 -17.447506 35.391808
39.835764 -17.217325 31.196289
27.281188 -30.357307 36.797522
34.210317 -25.640447 33.716407
27.769197 -26.012772 37.767799
30.334645 -32.652006 34.084213
31.183518 -23.676724 36.210560
33.953617 -30.218415 32.526897
3.383098 26.048047 44.237495
9.829190 23.080083 43.419132
5.509848 28.552398 42.793477
3.341194 22.608944 45.329399
21.420375 16.582729 40.069938
15.828172 19.897009 41.976384
9.799278 33.176957 39.200154
11.940392 25.378290 41.794301
7.667915 30.944291 41.101774
8.800587 26.990394 42.378500
3.279409 15.729942 46.984502
9.743578 19.711686 44.468477
3.310017 19.147387 46.244014
6.609183 21.187908 44.988079
41.233180 2.045554 28.793283
36.507494 5.938642 32.171797
41.274986 5.314335 27.539239
39.495358 0.000000 31.020244
26.677655 13.162654 37.785319
31.680085 9.626181 35.154857
40.749004 11.641757 24.743566
36.566632 9.140948 30.948083
41.100072 8.535101 26.176178
38.920565 7.260990 29.302124
35.373841 -4.020169 34.957345
34.691320 3.942602 34.282861
37.515898 -2.034630 33.085233
37.093673 2.011731 32.712873
18.153549 40.429554 29.373059
20.369527 33.091479 32.958587
16.170759 38.930846 32.093376
21.586685 38.299538 27.970426
23.531377 18.539925 38.074568
22.142937 25.810170 35.828025
20.828051 20.265466 39.156858
12.025904 35.322186 36.985696
18.383262 31.479285 35.437235
14.109938 37.215939 34.650401
13.131027 31.437016 38.564420
17.347913 35.189785 33.872418
27.721838 33.602946 24.912773
23.609678 31.046008 31.500800
24.786118 35.986826 26.459717
22.651688 34.642896 29.833490
15.100179 23.670396 41.014631
19.327707 27.655976 36.868792
18.003559 21.985182 40.147525
14.157353 27.530386 39.904113
20.127948 23.971000 38.086928
16.325132 29.579714 37.771496
3.248905 2.007934 48.529026
9.615379 5.942631 47.082699
3.252305 5.381636 48.346128
6.488787 0.000000 48.161462
21.393890 13.222151 41.041113
15.683351 9.692844 44.510577
18.659156 14.875808 42.052557
3.277398 12.177002 47.592362
9.628875 9.310527 46.663726
3.259652 8.789513 48.034267
6.522766 14.265248 46.635186
6.484836 7.375029 47.663144
12.904355 -3.961000 46.688395
12.804649 3.930395 46.327655
9.730866 -2.003351 47.537968
9.699841 1.996964 47.386402
12.893712 18.090148 43.774611
12.795265 11.259935 45.341462
15.812761 16.511020 42.972166
9.749394 16.247121 45.343711
15.765961 13.090878 43.817243
9.713130 12.760161 46.075678
38.050527 23.516519 18.528219
35.015155 21.640556 25.224586
38.854798 20.667382 20.109136
35.670170 26.050180 20.104700
26.638535 16.463520 36.665711
31.220579 19.295379 31.346463
29.170446 14.697994 35.385188
26.018435 20.080200 35.626701
40.209357 14.803705 23.205656
35.603066 18.664176 26.706530
39.585063 17.751331 21.677173
38.423540 13.632069 26.508918
37.317854 19.721512 23.486963
30.596275 31.044479 23.267668
32.442147 24.052172 26.764199
33.179408 28.573175 21.694768
28.745304 30.006153 26.705208
34.141597 25.102992 23.515207
34.084484 11.082574 32.551462
33.622864 17.442047 29.867559
31.662775 12.893352 34.007108
36.371490 12.384344 29.649380
31.503004 16.134407 32.728220
36.039594 15.576591 28.223422
24.522690 27.287771 33.076793
30.449521 22.821750 30.009907
25.308729 23.707931 34.421413
26.708167 28.748489 30.009478
28.344403 21.521068 32.913756
29.661036 26.398056 28.414688
25.446705 -11.620414 41.173634
25.491003 -3.815992 41.245310
28.040659 -9.799079 39.812541
22.395446 -9.772750 42.819397
24.547802 11.209924 39.719178
25.196572 3.771915 40.768909
27.125476 9.479259 38.513152
21.795017 9.510739 41.671397
32.972163 -6.028558 36.754883
27.938464 -1.978217 39.759820
30.566877 -7.927244 38.333790
32.856066 -2.002222 36.596639
28.030949 -5.844231 39.860403
16.194395 -5.983824 45.567143
22.434839 -1.995937 42.759318
19.294319 -7.881815 44.294969
16.153667 -1.996703 45.521582
22.460162 -5.836049 42.853131
32.142391 5.876844 35.829916
27.753802 1.965142 39.497023
29.669632 7.694552 37.208560
32.577586 1.985252 36.286456
27.486178 5.730650 39.085731
30.301858 0.000000 38.116951
15.976643 5.903365 44.954440
22.311779 1.984988 42.524773
18.915510 7.727070 43.425316
16.080903 1.987709 45.316532
22.101195 5.742775 42.168237
19.308696 0.000000 44.114590
45.941087 0.000000 -24.173632
50.224697 0.000000 -18.105199
45.788480 3.375033 -22.837919
47.353996 -3.490426 -23.618752
55.670160 0.000000 -3.858357
53.652784 0.000000 -11.300599
44.859982 9.829361 -19.885230
49.679425 3.467508 -16.632176
45.413612 6.671698 -21.388320
47.834815 3.423882 -19.806060
49.808720 -10.913689 -22.078873
51.879537 -3.621071 -17.368751
48.665597 -7.149446 -22.919898
49.713523 -3.558355 -20.583941
45.941087 0.000000 24.173632
50.224697 0.000000 18.105199
45.788480 3.375033 22.837919
47.353996 -3.490426 23.618752
55.670160 0.000000 3.858357
53.652784 0.000000 11.300599
44.859982 9.829361 19.885230
49.679425 3.467508 16.632176
45.413612 6.671698 21.388320
47.834815 3.423882 19.806060
49.808720 -10.913689 22.078873
51.879537 -3.621071 17.368751
48.665597 -7.149446 22.919898
49.713523 -3.558355 20.583941
41.527881 21.647632 -13.378973
45.892891 16.170411 -9.993863
42.470698 18.844690 -15.023722
42.472017 22.213759 -9.693466
54.169326 3.626510 -2.241306
50.149592 10.241710 -6.329725
53.642661 3.608609 -5.971218
44.150743 13.004501 -18.245587
46.972910 13.255656 -11.665083
43.353361 15.953032 -16.657485
46.539524 10.006507 -16.675593
44.736248 16.096630 -13.365441
43.510117 22.828766 -2.030983
46.636979 16.574611 -6.124314
43.153603 22.617645 -5.876969
44.587704 19.421831 -7.933904
51.354168 3.536451 -13.139499
49.274838 10.167668 -9.831507
52.675339 3.574599 -9.638755
48.955844 6.847351 -14.975115
51.478549 7.003943 -7.965396
48.031756 10.125487 -13.301876
52.167904 -27.194058 -16.806852
56.690297 -19.974889 -12.345160
51.999603 -23.072763 -18.394508
54.724846 -28.622246 -12.489952
57.394258 -3.842412 -2.374741
58.594312 -11.966317 -7.395591
56.729202 -3.816245 -6.314796
50.815708 -14.967651 -20.999928
55.963925 -15.792901 -13.897880
51.533184 -18.963017 -19.800386
52.445095 -11.276269 -18.791620
54.262873 -19.524422 -16.211624
57.904670 -30.381260 -2.702897
58.768303 -20.886039 -7.717385
56.758436 -29.748203 -7.729774
57.074632 -24.860977 -10.155819
53.905382 -3.712137 -13.792253
56.996895 -11.761084 -11.372241
55.521293 -3.767729 -10.159520
53.494594 -7.482177 -16.363474
57.221424 -7.785293 -8.854004
54.896232 -11.572575 -15.202918
41.527881 21.647632 13.378973
45.892891 16.170411 9.993863
42.470698 18.844690 15.023722
42.472017 22.213759 9.693466
54.169326 3.626510 2.241306
50.149592 10.241710 6.329725
53.642661 3.608609 5.971218
52.509679 7.074621 0.000000
44.150743 13.004501 18.245587
46.972910 13.255656 11.665083
43.353361 15.953032 16.657485
46.539524 10.006507 16.675593
44.736248 16.096630 13.365441
43.510117 22.828766 2.030983
46.636979 16.574611 6.124314
43.153603 22.617645 5.876969
45.335058 19.842887 0.000000
44.587704 19.421831 7.933904
51.354168 3.536451 13.139499
49.274838 10.167668 9.831507
52.675339 3.574599 9.638755
48.955844 6.847351 14.975115
51.478549 7.003943 7.965396
48.031756 10.125487 13.301876
48.734017 13.469751 -4.134549
48.734017 13.469751 4.134549
50.664228 10.370801 -2.135099
47.090088 16.710263 -2.065502
50.664228 10.370801 2.135099
47.090088 16.710263 2.065502
52.167904 -27.194058 16.806852
56.690297 -19.974889 12.345160
51.999603 -23.072763 18.394508
54.724846 -28.622246 12.489952
57.394258 -3.842412 2.374741
58.594312 -11.966317 7.395591
56.729202 -3.816245 6.314796
58.840629 -7.927589 0.000000
50.815708 -14.967651 20.999928
55.963925 -15.792901 13.897880
51.533184 -18.963017 19.800386
52.445095 -11.276269 18.791620
54.262873 -19.524422 16.211624
57.904670 -30.381260 2.702897
58.768303 -20.886039 7.717385
56.758436 -29.748203 7.729774
59.401255 -25.999579 0.000000
57.074632 -24.860977 10.155819
53.905382 -3.712137 13.792253
56.996895 -11.761084 11.372241
55.521293 -3.767729 10.159520
53.494594 -7.482177 16.363474
57.221424 -7.785293 8.854004
54.896232 -11.572575 15.202918
59.692628 -16.498637 -5.064267
59.692628 -16.498637 5.064267
59.676142 -12.215511 -2.514880
60.001978 -21.292141 -2.631853
59.676142 -12.215511 2.514880
60.001978 -21.292141 2.631853
-35.670343 51.081416 -2.534120
-41.991176 47.650203 -7.751216
-34.162116 51.201154 -6.592373
-48.881610 34.511995 -17.028087
-46.619133 42.011211 -12.765354
-30.750857 50.642127 -14.468165
-40.117127 47.400295 -11.849153
-32.510163 51.045270 -10.600384
-37.302185 49.546650 -9.243384
-44.881540 3.432352 -26.427275
-47.115808 10.666041 -25.045106
-49.351073 26.381835 -20.423676
-48.668652 18.351647 -23.069176
-22.614568 46.442470 -28.703025
-31.202725 43.313624 -26.769292
-24.774984 47.870131 -25.462757
-46.128581 33.513541 -20.712507
-39.095853 38.938849 -24.065532
-45.456187 37.472664 -18.881199
-28.826510 49.948833 -18.389445
-33.530052 44.699654 -23.432875
-26.857040 49.044110 -21.993100
-33.485176 48.535327 -17.219572
-29.226604 46.437427 -24.540968
-42.536055 44.539305 -14.481961
-37.809338 42.563177 -22.079884
-44.282554 41.229868 -16.789153
-38.107554 46.747302 -15.917265
-41.739070 40.176523 -20.576589
-35.888681 45.827663 -19.807070
-30.599022 -43.819073 -2.173839
-33.653213 -38.188557 -6.212099
-29.663690 -44.459048 -5.724297
-38.321314 -27.056085 -13.349370
-36.168940 -32.593934 -9.903859
-27.158881 -44.726671 -12.778153
-32.576675 -38.490892 -9.621976
-28.502235 -44.752291 -9.293544
-31.207337 -41.451164 -7.733097
-43.599169 -3.334282 -25.672186
-43.004998 -9.735439 -22.859944
-40.196394 -21.487975 -16.635062
-41.793817 -15.759330 -19.810471
-20.421672 -41.939022 -25.919741
-26.731124 -37.106435 -22.933038
-22.240230 -42.972489 -22.857636
-36.998205 -26.880100 -16.612815
-32.147916 -32.018814 -19.788715
-36.035079 -29.706196 -14.967940
-25.607907 -44.371832 -16.336185
-28.337767 -37.777704 -19.804185
-23.982137 -43.794199 -19.638856
-28.597702 -41.451143 -14.706215
-25.432528 -40.409113 -21.355162
-33.856751 -35.451247 -11.526977
-31.117058 -35.029464 -18.171729
-34.986484 -32.574637 -13.264670
-31.340066 -38.445489 -13.090532
-33.632939 -32.373854 -16.580416
-29.912278 -38.196160 -16.508675
-3.383098 -26.048047 -44.237495
-9.829190 -23.080083 -43.419132
-5.509848 -28.552398 -42.793477
-3.341194 -22.608944 -45.329399
-21.420375 -16.582729 -40.069938
-15.828172 -19.897009 -41.976384
-9.799278 -33.176957 -39.200154
-11.940392 -25.378290 -41.794301
-7.667915 -30.944291 -41.101774
-8.800587 -26.990394 -42.378500
-3.279409 -15.729942 -46.984502
-9.743578 -19.711686 -44.468477
-3.310017 -19.147387 -46.244014
-6.609183 -21.187908 -44.988079
-41.233180 -2.045554 -28.793283
-36.507494 -5.938642 -32.171797
-41.274986 -5.314335 -27.539239
-26.677655 -13.162654 -37.785319
-31.680085 -9.626181 -35.154857
-40.749004 -11.641757 -24.743566
-36.566632 -9.140948 -30.948083
-41.100072 -8.535101 -26.176178
-38.920565 -7.260990 -29.302124
-18.153549 -40.429554 -29.373059
-20.369527 -33.091479 -32.958587
-16.170759 -38.930846 -32.093376
-21.586685 -38.299538 -27.970426
-23.531377 -18.539925 -38.074568
-22.142937 -25.810170 -35.828025
-20.828051 -20.265466 -39.156858
-12.025904 -35.322186 -36.985696
-18.383262 -31.479285 -35.437235
-14.109938 -37.215939 -34.650401
-13.131027 -31.437016 -38.564420
-17.347913 -35.189785 -33.872418
-27.721838 -33.602946 -24.912773
-23.609678 -31.046008 -31.500800
-24.786118 -35.986826 -26.459717
-22.651688 -34.642896 -29.833490
-15.100179 -23.670396 -41.014631
-19.327707 -27.655976 -36.868792
-18.003559 -21.985182 -40.147525
-14.157353 -27.530386 -39.904113
-20.127948 -23.971000 -38.086928
-16.325132 -29.579714 -37.771496
-3.248905 -2.007934 -48.529026
-9.615379 -5.942631 -47.082699
-3.252305 -5.381636 -48.346128
-21.393890 -13.222151 -41.041113
-15.683351 -9.692844 -44.510577
-18.659156 -14.875808 -42.052557
-3.277398 -12.177002 -47.592362
-9.628875 -9.310527 -46.663726
-3.259652 -8.789513 -48.034267
-6.522766 -14.265248 -46.635186
-6.484836 -7.375029 -47.663144
-12.893712 -18.090148 -43.774611
-12.795265 -11.259935 -45.341462
-15.812761 -16.511020 -42.972166
-9.749394 -16.247121 -45.343711
-15.765961 -13.090878 -43.817243
-9.713130 -12.760161 -46.075678
-38.050527 -23.516519 -18.528219
-35.015155 -21.640556 -25.224586
-38.854798 -20.667382 -20.109136
-35.670170 -26.050180 -20.104700
-26.638535 -16.463520 -36.665711
-31.220579 -19.295379 -31.346463
-29.170446 -14.697994 -35.385188
-26.018435 -20.080200 -35.626701
-40.209357 -14.803705 -23.205656
-35.603066 -18.664176 -26.706530
-39.585063 -17.751331 -21.677173
-38.423540 -13.632069 -26.508918
-37.317854 -19.721512 -23.486963
-30.596275 -31.044479 -23.267668
-32.442147 -24.052172 -26.764199
-33.179408 -28.573175 -21.694768
-28.745304 -30.006153 -26.705208
-34.141597 -25.102992 -23.515207
-34.084484 -11.082574 -32.551462
-33.622864 -17.442047 -29.867559
-31.662775 -12.893352 -34.007108
-36.371490 -12.384344 -29.649380
-31.503004 -16.134407 -32.728220
-36.039594 -15.576591 -28.223422
-24.522690 -27.287771 -33.076793
-30.449521 -22.821750 -30.009907
-25.308729 -23.707931 -34.421413
-26.708167 -28.748489 -30.009478
-28.344403 -21.521068 -32.913756
-29.661036 -26.398056 -28.414688
-3.436103 26.456152 -44.930582
-10.218948 23.995279 -45.140835
-5.660945 29.335394 -43.967008
-3.386878 22.918073 -45.949181
-22.523441 17.436675 -42.133384
-16.626858 20.901008 -44.094504
-10.319426 34.937998 -41.280908
-12.560023 26.695262 -43.963160
-7.976051 32.187791 -42.753454
-9.165294 28.108909 -44.134717
-3.310418 15.878680 -47.428772
-10.069908 20.371866 -45.957807
-3.348338 19.369064 -46.779399
-6.775490 21.721059 -46.120114
-41.856443 2.076474 -29.228510
-37.759496 6.142304 -33.275108
-43.004253 5.536986 -28.693031
-39.495358 0.000000 -31.020244
-27.969960 13.800272 -39.615695
-33.058307 10.044962 -36.684246
-44.888838 12.824484 -27.257352
-38.617434 9.653609 -32.683774
-44.024956 9.142501 -28.039003
-40.889553 7.628323 -30.784516
-34.691320 -3.942602 -34.282861
-35.373841 4.020169 -34.957345
-37.093673 -2.011731 -32.712873
-37.515898 2.034630 -33.085233
-19.933808 44.394349 -32.253579
-22.617282 36.743087 -36.595531
-17.606439 42.387223 -34.942705
-24.262918 43.047765 -31.438091
-25.050001 19.736420 -40.531753
-24.197924 28.205496 -39.153063
-22.168608 21.569813 -41.677112
-12.823201 37.663988 -39.437787
-20.128313 34.467491 -38.801153
-15.211345 40.120976 -37.355174
-14.028099 33.584697 -41.199023
-19.010694 38.562694 -37.119058
-32.441919 39.324378 -29.154565
-26.552058 34.915149 -35.426619
-28.470346 41.335937 -30.392710
-25.580376 39.121954 -33.690729
-15.992585 25.069295 -43.438557
-21.021846 30.080115 -40.100467
-19.134521 23.366265 -42.669545
-15.083962 29.332269 -42.515866
-21.675838 25.814431 -41.015909
-17.629487 31.943092 -40.789386
-3.252759 2.010316 -48.586591
-9.707288 5.999434 -47.532741
-3.262687 5.398816 -48.500465
-6.488787 0.000000 -48.161462
-22.235636 13.742379 -42.655882
-16.038282 9.912204 -45.517901
-19.419573 15.482042 -43.766327
-3.301370 12.266069 -47.940472
-9.774852 9.451678 -47.371164
-3.276734 8.835575 -48.285998
-6.631557 14.503174 -47.412999
-6.539730 7.437459 -48.066611
-12.804649 -3.930395 -46.327655
-12.904355 3.961000 -46.688395
-9.699841 -1.996964 -47.386402
-9.730866 2.003351 -47.537968
-13.392254 18.789613 -45.467179
-13.090346 11.519609 -46.387115
-16.457585 17.184319 -44.724516
-10.016286 16.691889 -46.585005
-16.261377 13.502234 -45.194117
-9.918885 13.030462 -47.051709
-46.437415 28.699901 -22.612107
-40.465805 25.009243 -29.151183
-46.381057 24.670699 -24.004319
-43.303806 31.625080 -24.407230
-28.339929 17.515039 -39.007538
-34.407354 21.264914 -34.546087
-31.006550 15.623144 -37.612473
-28.111532 21.695585 -38.492751
-45.590171 16.784735 -26.311036
-40.271645 21.111582 -30.208519
-46.089209 20.668018 -25.238907
-42.455943 15.062703 -29.290928
-43.326075 22.896700 -27.268394
-36.385212 36.918217 -27.670003
-37.367496 27.703759 -30.827525
-39.929603 34.386253 -26.108467
-33.396155 34.861004 -31.025981
-40.347356 29.665845 -27.789456
-36.118600 11.743967 -34.494089
-37.113053 19.252602 -32.967933
-33.614458 13.688094 -36.103294
-39.280994 13.375018 -32.021155
-34.066878 17.447506 -35.391808
-39.835764 17.217325 -31.196289
-27.281188 30.357307 -36.797522
-34.210317 25.640447 -33.716407
-27.769197 26.012772 -37.767799
-30.334645 32.652006 -34.084213
-31.183518 23.676724 -36.210560
-33.953617 30.218415 -32.526897
-24.547802 -11.209924 -39.719178
-25.196572 -3.771915 -40.768909
-27.125476 -9.479259 -38.513152
-21.795017 -9.510739 -41.671397
-25.446705 11.620414 -41.173634
-25.491003 3.815992 -41.245310
-28.040659 9.799079 -39.812541
-22.395446 9.772750 -42.819397
-32.142391 -5.876844 -35.829916
-27.753802 -1.965142 -39.497023
-29.669632 -7.694552 -37.208560
-32.577586 -1.985252 -36.286456
-27.486178 -5.730650 -39.085731
-15.976643 -5.903365 -44.954440
-22.311779 -1.984988 -42.524773
-18.915510 -7.727070 -43.425316
-16.080903 -1.987709 -45.316532
-22.101195 -5.742775 -42.168237
-32.972163 6.028558 -36.754883
-27.938464 1.978217 -39.759820
-30.566877 7.927244 -38.333790
-32.856066 2.002222 -36.596639
-28.030949 5.844231 -39.860403
-30.301858 0.000000 -38.116951
-16.194395 5.983824 -45.567143
-22.434839 1.995937 -42.759318
-19.294319 7.881815 -44.294969
-16.153667 1.996703 -45.521582
-22.460162 5.836049 -42.853131
-19.308696 0.000000 -44.114590
-35.670343 51.081416 2.534120
-41.991176 47.650203 7.751216
-34.162116 51.201154 6.592373
-39.157987 49.856434 0.000000
-48.881610 34.511995 17.028087
-46.619133 42.011211 12.765354
-30.750857 50.642127 14.468165
-40.117127 47.400295 11.849153
-32.510163 51.045270 10.600384
-37.302185 49.546650 9.243384
-45.531631 46.074113 -5.236235
-45.531631 46.074113 5.236235
-42.522697 48.217196 -2.615002
-42.522697 48.217196 2.615002
-44.881540 3.432352 26.427275
-47.115808 10.666041 25.045106
-49.351073 26.381835 20.423676
-48.668652 18.351647 23.069176
-22.614568 46.442470 28.703025
-31.202725 43.313624 26.769292
-24.774984 47.870131 25.462757
-46.128581 33.513541 20.712507
-39.095853 38.938849 24.065532
-45.456187 37.472664 18.881199
-28.826510 49.948833 18.389445
-33.530052 44.699654 23.432875
-26.857040 49.044110 21.993100
