-29.69006824 -25.90986926 -23.5735778
-25.48056854 -10.73937001 -23.48881083
-22.98974151 -20.91675781 -26.3438996
-4.010965387 14.81000799 -26.44200924
-11.2423745 10.99106645 -24.73208864
-6.609809672 17.72516171 -24.59482707
-3.90457172 10.62417737 -27.41258155
-24.53195349 2.537759566 -19.2677623
-17.93744272 7.008151172 -22.42537607
-24.25198282 6.51767098 -17.47807847
-22.36287678 0 -22.09957396
-11.89713637 22.62969814 -19.24997101
-13.85892081 13.43171954 -22.42420491
-9.331680552 20.40995691 -22.14064005
-15.88077356 20.00125966 -17.4546592
-10.41106279 15.52311944 -23.56346608
-3.850659663 2.379838551 -28.5805974
-11.23077577 6.941001145 -25.9115001
-3.864530117 6.405851462 -28.12398252
-7.7948986 0 -28.20220807
-7.701179339 8.785309338 -26.71950627
-23.02744633 14.23174451 -13.79305095
-17.74527231 10.96718143 -20.86081873
-23.72973099 10.48452373 -15.63265129
-19.63665409 17.13647594 -15.59128087
-20.95414667 8.831605702 -19.31620899
-16.87621011 15.35448319 -19.33841598
-16.44686308 -4.954865985 -26.61158348
-15.30475189 4.610787731 -24.76360874
-19.59935054 -2.564053694 -24.65418103
-12.06543963 -2.485617259 -27.56591782
-18.74879364 2.452780948 -23.58425865
-11.726244 2.415739117 -26.79095735
-20.39646574 25.96903268 2.686421248
-23.8961925 19.11390841 7.467795811
-18.90897953 26.23745211 7.051261806
-22.81750076 23.08935724 0
-27.49236717 4.170293269 15.39830706
-26.12991491 11.87777924 11.61226758
-14.75677597 24.63638159 15.22612118
-21.89184089 18.62231215 11.50922185
-16.95514935 25.73722944 11.37149818
-20.61034706 22.35802249 9.423301366
-26.71117973 16.50841695 -4.973410018
-26.71117973 16.50841695 4.973410018
-24.97351258 19.85320975 -2.59726442
-24.97351258 19.85320975 2.59726442
-39.71485501 -50.56544506 5.2308489
-41.94228301 -33.54848083 13.10737706
-33.71997763 -46.7886856 12.57436394
-46.37679967 -46.92935068 0
-30.37248576 -4.607175954 17.0114439
-36.01638601 -16.37183602 16.00586581
-22.30895705 -37.24471931 23.01850244
-36.19873577 -30.79248385 19.03080162
-27.7850984 -42.17665311 18.6349403
-36.62090148 -39.72620822 16.74352159
-44.67227499 -27.6089843 -8.31762364
-44.67227499 -27.6089843 8.31762364
-47.07845556 -37.42599084 -4.896195406
-47.07845556 -37.42599084 4.896195406
-4.261309327 -15.73437292 28.09238418
-12.86684049 -12.57921971 28.3057498
-7.471933843 -20.03707251 27.80275528
-4.075192442 -11.08842926 28.61044774
-25.93650133 -2.683055974 20.37091513
-20.4592788 -7.993431445 25.57817345
-28.24585866 -7.591016974 20.35641117
-16.09617897 -30.61675179 26.04416466
-17.13301135 -16.60488624 27.72179469
-11.47549953 -25.09885005 27.22713267
-23.37800818 -29.44375538 25.69491744
-12.45781588 -18.5748725 28.19590353
-3.887040939 -2.402323416 28.85062869
-12.19317058 -7.53579385 28.13192493
-3.964648934 -6.571808579 28.85259371
-8.271805742 -9.436265412 28.69931417
-33.44400316 -20.66953067 20.03239235
-22.06328902 -13.63586252 25.93695181
-30.80310722 -13.60975852 20.29244385
-29.69006824 -25.90986926 23.5735778
-25.48056854 -10.73937001 23.48881083
-22.98974151 -20.91675781 26.3438996
-4.010965387 14.81000799 26.44200924
-11.2423745 10.99106645 24.73208864
-6.609809672 17.72516171 24.59482707
-3.90457172 10.62417737 27.41258155
-24.53195349 2.537759566 19.2677623
-17.93744272 7.008151172 22.42537607
-24.25198282 6.51767098 17.47807847
-22.36287678 0 22.09957396
-11.89713637 22.62969814 19.24997101
-13.85892081 13.43171954 22.42420491
-9.331680552 20.40995691 22.14064005
-15.88077356 20.00125966 17.4546592
-10.41106279 15.52311944 23.56346608
-3.850659663 2.379838551 28.5805974
-11.23077577 6.941001145 25.9115001
-3.864530117 6.405851462 28.12398252
-7.7948986 0 28.20220807
-7.701179339 8.785309338 26.71950627
-23.02744633 14.23174451 13.79305095
-17.74527231 10.96718143 20.86081873
-23.72973099 10.48452373 15.63265129
-19.63665409 17.13647594 15.59128087
-20.95414667 8.831605702 19.31620899
-16.87621011 15.35448319 19.33841598
-16.44686308 -4.954865985 26.61158348
-15.30475189 4.610787731 24.76360874
-19.59935054 -2.564053694 24.65418103
-12.06543963 -2.485617259 27.56591782
-18.74879364 2.452780948 23.58425865
-11.726244 2.415739117 26.79095735
-31.09696585 0 -13.70768557
-36.87241337 0 -5.13573547
-30.37290167 4.326231467 -11.77149601
-33.87627436 -4.82524211 -13.12928323
-31.09696585 0 13.70768557
-36.87241337 0 5.13573547
-30.37290167 4.326231467 11.77149601
-33.87627436 -4.82524211 13.12928323
-28.36177047 12.29279213 -7.597363353
-34.9783077 4.712622226 -2.912560712
-29.46831914 8.493450748 -9.689112392
-29.72307594 13.00961501 -2.680128086
-33.08433815 4.546134996 -7.535680829
-40.57510105 -17.58639445 -10.86898951
-40.37293501 -5.439439566 -3.361758532
-37.11709393 -10.69800445 -12.20401113
-45.3065362 -19.83040364 -4.085287821
-37.47955595 -5.150084012 -8.536787708
-28.36177047 12.29279213 7.597363353
-34.9783077 4.712622226 2.912560712
-29.46831914 8.493450748 9.689112392
-29.72307594 13.00961501 2.680128086
-33.08433815 4.546134996 7.535680829
-32.64675116 9.023340097 0
-40.57510105 -17.58639445 10.86898951
-40.37293501 -5.439439566 3.361758532
-37.11709393 -10.69800445 12.20401113
-45.3065362 -19.83040364 4.085287821
-37.47955595 -5.150084012 8.536787708
-43.82396957 -12.11264729 0
-16.39970645 31.16703155 0
-12.71380528 35.26871012 0
-3.017132406 43.53258461 0
-8.31905024 39.49704023 0
27.44911285 52.16601707 0
18.38368633 50.99723409 0
3.249621579 46.88704615 0
10.3866025 49.31332847 0
-27.44911285 -52.16601707 0
-18.38368633 -50.99723409 0
-3.249621579 -46.88704615 0
-10.3866025 -49.31332847 0
16.39970645 -31.16703155 0
12.71380528 -35.26871012 0
3.017132406 -43.53258461 0
8.31905024 -39.49704023 0
-30.54813195 -51.88000607 3.967565416
-25.88191068 -48.69003769 11.02241404
-25.73382288 -51.59456963 3.802994767
-16.48054058 -39.82301472 21.28837596
-21.14581382 -44.61096751 16.82160239
-16.89776189 -50.4727165 3.522878219
-21.59974769 -48.72783974 10.67685547
-21.15932099 -51.10315861 3.65782073
-23.71275693 -50.34906607 7.396764203
-1.337088818 -18.82090288 26.95231658
-4.311874392 -23.35900199 26.50702545
-11.92234661 -34.22483627 24.16383968
-7.811336593 -28.52703744 25.70737148
-1.907284645 -46.09647143 3.086051382
-5.825494805 -46.15464372 9.425848595
-5.288841101 -47.51249783 3.196225437
-12.83318773 -39.83378303 20.76453393
-9.586646854 -44.0229089 15.51152045
-14.99805724 -42.3981463 18.81249745
-12.70472694 -49.65491434 3.41943329
-9.414976087 -47.18721571 9.736895134
-8.910670406 -48.69638875 3.30458404
-15.11409071 -49.41017627 6.910897634
-7.369673383 -47.62853035 6.480126482
-19.33639825 -46.79029201 13.78197375
-11.45396573 -46.12278278 13.01575177
-17.18360041 -44.72264608 16.4568972
-17.35942335 -48.44801006 10.41685217
-13.30211361 -44.5242818 16.0203622
-13.27546465 -47.93638831 10.10538267
17.48407694 -29.69327288 2.270817055
15.97867352 -30.05969016 6.804890008
15.8011436 -31.68022131 2.335123962
11.78328764 -28.47273333 15.22080274
14.04521444 -29.6309525 11.17303948
11.99497353 -35.8283483 2.500735379
14.20859645 -32.0538101 7.023375132
13.9697845 -33.73927326 2.414962529
15.06120748 -31.9793153 4.698070354
1.306714242 -18.39334941 26.34004222
3.968426438 -21.4984187 24.39569686
0 -20.53185986 26.14141815
9.286528579 -26.65833585 18.82164603
6.651496551 -24.29129623 21.89029889
-2.904296432 -25.25428426 25.55517351
2.734340406 -23.77643312 24.05971468
-1.403803671 -22.82733518 25.88429638
1.365154391 -22.19885693 25.1716544
1.824565667 -44.09726643 2.952209264
5.102365327 -40.42538216 8.255800522
4.697034255 -42.19597934 2.838576557
0 -44.57711757 6.005868461
9.748120248 -30.25783734 15.77278989
7.742444099 -35.55413237 12.52753771
10.96816506 -31.00600693 13.75768701
9.731940224 -38.03613101 2.619318033
7.66275455 -38.4052013 7.924761231
7.345185485 -40.14108833 2.724013078
11.07262506 -36.1980331 5.062942903
6.260441887 -40.45981836 5.504783341
-3.732803479 -43.99863617 12.16092395
3.416758451 -40.27340652 11.13129579
-1.877674972 -44.55576368 9.120418737
1.795520641 -42.60630544 8.721371028
13.19082894 -31.91921939 9.40173324
8.944800887 -36.01888796 10.16445402
12.12788926 -31.56447345 11.61499465
12.22828099 -34.12762443 7.337812602
10.02483689 -33.55471737 12.07338342
10.04361224 -36.26648931 7.645272526
-10.30380994 -36.50862028 22.56356822
-3.200228499 -34.58980839 21.37767725
-8.27267647 -33.610943 23.67276609
-8.908430049 -39.03237263 20.41475224
8.222367693 -29.13362162 18.00556837
2.962449978 -32.01976895 19.78930552
6.894322 -28.01084565 19.72852107
7.282267381 -31.90732513 16.68820247
-4.587469338 -27.96885992 25.09037506
-1.579692646 -31.74995248 22.31008343
-6.352559376 -30.71908486 24.49500745
-1.486291991 -27.16645668 24.38974993
-4.803760964 -32.76390988 23.04049678
-5.623885757 -42.8261934 15.22027161
-1.710930312 -36.65357694 19.23129573
-7.326463657 -41.17395314 17.93484496
-1.813316898 -41.34067659 14.67004186
-5.168179453 -37.94907703 19.88985129
4.157319871 -25.34632682 22.73774648
1.520779342 -30.56586479 21.47804769
5.528203551 -26.73274565 21.31635128
1.437907738 -26.28208893 23.59577416
4.299679019 -29.32583385 20.62274566
0 -28.95910172 23.02163617
4.927769531 -37.52523079 13.336329
1.639355756 -35.12022198 18.42677936
6.183295162 -34.74946675 15.13642124
1.733867611 -39.52936206 14.02728364
4.569242346 -33.55118206 17.58482878
0 -38.30081567 16.76404109
-17.48407694 29.69327288 2.270817055
-15.97867352 30.05969016 6.804890008
-15.8011436 31.68022131 2.335123962
-11.78328764 28.47273333 15.22080274
-14.04521444 29.6309525 11.17303948
-11.99497353 35.8283483 2.500735379
-14.20859645 32.0538101 7.023375132
-13.9697845 33.73927326 2.414962529
-15.06120748 31.9793153 4.698070354
-1.306714242 18.39334941 26.34004222
-3.968426438 21.4984187 24.39569686
-9.286528579 26.65833585 18.82164603
-6.651496551 24.29129623 21.89029889
-1.824565667 44.09726643 2.952209264
-5.102365327 40.42538216 8.255800522
-4.697034255 42.19597934 2.838576557
-9.748120248 30.25783734 15.77278989
-7.742444099 35.55413237 12.52753771
-10.96816506 31.00600693 13.75768701
-9.731940224 38.03613101 2.619318033
-7.66275455 38.4052013 7.924761231
-7.345185485 40.14108833 2.724013078
-11.07262506 36.1980331 5.062942903
-6.260441887 40.45981836 5.504783341
-13.19082894 31.91921939 9.40173324
-8.944800887 36.01888796 10.16445402
-12.12788926 31.56447345 11.61499465
-12.22828099 34.12762443 7.337812602
-10.02483689 33.55471737 12.07338342
-10.04361224 36.26648931 7.645272526
30.54813195 51.88000607 3.967565416
25.88191068 48.69003769 11.02241404
25.73382288 51.59456963 3.802994767
16.48054058 39.82301472 21.28837596
21.14581382 44.61096751 16.82160239
16.89776189 50.4727165 3.522878219
21.59974769 48.72783974 10.67685547
21.15932099 51.10315861 3.65782073
23.71275693 50.34906607 7.396764203
1.337088818 18.82090288 26.95231658
4.311874392 23.35900199 26.50702545
0 20.53185986 26.14141815
11.92234661 34.22483627 24.16383968
7.811336593 28.52703744 25.70737148
-2.734340406 23.77643312 24.05971468
2.904296432 25.25428426 25.55517351
-1.365154391 22.19885693 25.1716544
1.403803671 22.82733518 25.88429638
1.907284645 46.09647143 3.086051382
5.825494805 46.15464372 9.425848595
5.288841101 47.51249783 3.196225437
0 44.57711757 6.005868461
12.83318773 39.83378303 20.76453393
9.586646854 44.0229089 15.51152045
14.99805724 42.3981463 18.81249745
12.70472694 49.65491434 3.41943329
9.414976087 47.18721571 9.736895134
8.910670406 48.69638875 3.30458404
15.11409071 49.41017627 6.910897634
7.369673383 47.62853035 6.480126482
-3.416758451 40.27340652 11.13129579
3.732803479 43.99863617 12.16092395
-1.795520641 42.60630544 8.721371028
1.877674972 44.55576368 9.120418737
19.33639825 46.79029201 13.78197375
11.45396573 46.12278278 13.01575177
17.18360041 44.72264608 16.4568972
17.35942335 48.44801006 10.41685217
13.30211361 44.5242818 16.0203622
13.27546465 47.93638831 10.10538267
-8.222367693 29.13362162 18.00556837
-2.962449978 32.01976895 19.78930552
-6.894322 28.01084565 19.72852107
-7.282267381 31.90732513 16.68820247
10.30380994 36.50862028 22.56356822
3.200228499 34.58980839 21.37767725
8.27267647 33.610943 23.67276609
8.908430049 39.03237263 20.41475224
-4.157319871 25.34632682 22.73774648
-1.520779342 30.56586479 21.47804769
-5.528203551 26.73274565 21.31635128
-1.437907738 26.28208893 23.59577416
-4.299679019 29.32583385 20.62274566
-4.927769531 37.52523079 13.336329
-1.639355756 35.12022198 18.42677936
-6.183295162 34.74946675 15.13642124
-1.733867611 39.52936206 14.02728364
-4.569242346 33.55118206 17.58482878
4.587469338 27.96885992 25.09037506
1.579692646 31.74995248 22.31008343
6.352559376 30.71908486 24.49500745
1.486291991 27.16645668 24.38974993
4.803760964 32.76390988 23.04049678
0 28.95910172 23.02163617
5.623885757 42.8261934 15.22027161
1.710930312 36.65357694 19.23129573
7.326463657 41.17395314 17.93484496
1.813316898 41.34067659 14.67004186
5.168179453 37.94907703 19.88985129
0 38.30081567 16.76404109
0 -14.50641293 27.5688977
0 -10.18870001 28.2639461
0 -2.003132592 28.90212536
0 -6.043950917 28.69536373
0 14.50641293 27.5688977
0 10.18870001 28.2639461
0 2.003132592 28.90212536
0 6.043950917 28.69536373
-30.54813195 -51.88000607 -3.967565416
-25.88191068 -48.69003769 -11.02241404
-25.73382288 -51.59456963 -3.802994767
-16.48054058 -39.82301472 -21.28837596
-21.14581382 -44.61096751 -16.82160239
-16.89776189 -50.4727165 -3.522878219
-21.59974769 -48.72783974 -10.67685547
-21.15932099 -51.10315861 -3.65782073
-23.71275693 -50.34906607 -7.396764203
-1.337088818 -18.82090288 -26.95231658
-4.311874392 -23.35900199 -26.50702545
-11.92234661 -34.22483627 -24.16383968
-7.811336593 -28.52703744 -25.70737148
-1.907284645 -46.09647143 -3.086051382
-5.825494805 -46.15464372 -9.425848595
-5.288841101 -47.51249783 -3.196225437
-12.83318773 -39.83378303 -20.76453393
-9.586646854 -44.0229089 -15.51152045
-14.99805724 -42.3981463 -18.81249745
-12.70472694 -49.65491434 -3.41943329
-9.414976087 -47.18721571 -9.736895134
-8.910670406 -48.69638875 -3.30458404
-15.11409071 -49.41017627 -6.910897634
-7.369673383 -47.62853035 -6.480126482
-19.33639825 -46.79029201 -13.78197375
-11.45396573 -46.12278278 -13.01575177
-17.18360041 -44.72264608 -16.4568972
-17.35942335 -48.44801006 -10.41685217
-13.30211361 -44.5242818 -16.0203622
-13.27546465 -47.93638831 -10.10538267
17.48407694 -29.69327288 -2.270817055
15.97867352 -30.05969016 -6.804890008
15.8011436 -31.68022131 -2.335123962
11.78328764 -28.47273333 -15.22080274
14.04521444 -29.6309525 -11.17303948
11.99497353 -35.8283483 -2.500735379
14.20859645 -32.0538101 -7.023375132
13.9697845 -33.73927326 -2.414962529
15.06120748 -31.9793153 -4.698070354
1.306714242 -18.39334941 -26.34004222
3.968426438 -21.4984187 -24.39569686
0 -20.53185986 -26.14141815
9.286528579 -26.65833585 -18.82164603
6.651496551 -24.29129623 -21.89029889
-2.904296432 -25.25428426 -25.55517351
2.734340406 -23.77643312 -24.05971468
-1.403803671 -22.82733518 -25.88429638
1.365154391 -22.19885693 -25.1716544
1.824565667 -44.09726643 -2.952209264
5.102365327 -40.42538216 -8.255800522
4.697034255 -42.19597934 -2.838576557
0 -44.57711757 -6.005868461
9.748120248 -30.25783734 -15.77278989
7.742444099 -35.55413237 -12.52753771
10.96816506 -31.00600693 -13.75768701
9.731940224 -38.03613101 -2.619318033
7.66275455 -38.4052013 -7.924761231
7.345185485 -40.14108833 -2.724013078
11.07262506 -36.1980331 -5.062942903
6.260441887 -40.45981836 -5.504783341
-3.732803479 -43.99863617 -12.16092395
3.416758451 -40.27340652 -11.13129579
-1.877674972 -44.55576368 -9.120418737
1.795520641 -42.60630544 -8.721371028
13.19082894 -31.91921939 -9.40173324
8.944800887 -36.01888796 -10.16445402
12.12788926 -31.56447345 -11.61499465
12.22828099 -34.12762443 -7.337812602
10.02483689 -33.55471737 -12.07338342
10.04361224 -36.26648931 -7.645272526
-10.30380994 -36.50862028 -22.56356822
-3.200228499 -34.58980839 -21.37767725
-8.27267647 -33.610943 -23.67276609
-8.908430049 -39.03237263 -20.41475224
8.222367693 -29.13362162 -18.00556837
2.962449978 -32.01976895 -19.78930552
6.894322 -28.01084565 -19.72852107
7.282267381 -31.90732513 -16.68820247
-4.587469338 -27.96885992 -25.09037506
-1.579692646 -31.74995248 -22.31008343
-6.352559376 -30.71908486 -24.49500745
-1.486291991 -27.16645668 -24.38974993
-4.803760964 -32.76390988 -23.04049678
-5.623885757 -42.8261934 -15.22027161
-1.710930312 -36.65357694 -19.23129573
-7.326463657 -41.17395314 -17.93484496
-1.813316898 -41.34067659 -14.67004186
-5.168179453 -37.94907703 -19.88985129
4.157319871 -25.34632682 -22.73774648
1.520779342 -30.56586479 -21.47804769
5.528203551 -26.73274565 -21.31635128
1.437907738 -26.28208893 -23.59577416
4.299679019 -29.32583385 -20.62274566
0 -28.95910172 -23.02163617
4.927769531 -37.52523079 -13.336329
1.639355756 -35.12022198 -18.42677936
6.183295162 -34.74946675 -15.13642124
1.733867611 -39.52936206 -14.02728364
4.569242346 -33.55118206 -17.58482878
0 -38.30081567 -16.76404109
-17.48407694 29.69327288 -2.270817055
-15.97867352 30.05969016 -6.804890008
-15.8011436 31.68022131 -2.335123962
-11.78328764 28.47273333 -15.22080274
-14.04521444 29.6309525 -11.17303948
-11.99497353 35.8283483 -2.500735379
-14.20859645 32.0538101 -7.023375132
-13.9697845 33.73927326 -2.414962529
-15.06120748 31.9793153 -4.698070354
-1.306714242 18.39334941 -26.34004222
-3.968426438 21.4984187 -24.39569686
-9.286528579 26.65833585 -18.82164603
-6.651496551 24.29129623 -21.89029889
-1.824565667 44.09726643 -2.952209264
-5.102365327 40.42538216 -8.255800522
-4.697034255 42.19597934 -2.838576557
-9.748120248 30.25783734 -15.77278989
-7.742444099 35.55413237 -12.52753771
-10.96816506 31.00600693 -13.75768701
-9.731940224 38.03613101 -2.619318033
-7.66275455 38.4052013 -7.924761231
-7.345185485 40.14108833 -2.724013078
-11.07262506 36.1980331 -5.062942903
-6.260441887 40.45981836 -5.504783341
-13.19082894 31.91921939 -9.40173324
-8.944800887 36.01888796 -10.16445402
-12.12788926 31.56447345 -11.61499465
-12.22828099 34.12762443 -7.337812602
-10.02483689 33.55471737 -12.07338342
-10.04361224 36.26648931 -7.645272526
30.54813195 51.88000607 -3.967565416
25.88191068 48.69003769 -11.02241404
25.73382288 51.59456963 -3.802994767
16.48054058 39.82301472 -21.28837596
21.14581382 44.61096751 -16.82160239
16.89776189 50.4727165 -3.522878219
21.59974769 48.72783974 -10.67685547
21.15932099 51.10315861 -3.65782073
23.71275693 50.34906607 -7.396764203
1.337088818 18.82090288 -26.95231658
4.311874392 23.35900199 -26.50702545
0 20.53185986 -26.14141815
11.92234661 34.22483627 -24.16383968
7.811336593 28.52703744 -25.70737148
-2.734340406 23.77643312 -24.05971468
2.904296432 25.25428426 -25.55517351
-1.365154391 22.19885693 -25.1716544
1.403803671 22.82733518 -25.88429638
1.907284645 46.09647143 -3.086051382
5.825494805 46.15464372 -9.425848595
5.288841101 47.51249783 -3.196225437
0 44.57711757 -6.005868461
12.83318773 39.83378303 -20.76453393
9.586646854 44.0229089 -15.51152045
14.99805724 42.3981463 -18.81249745
12.70472694 49.65491434 -3.41943329
9.414976087 47.18721571 -9.736895134
8.910670406 48.69638875 -3.30458404
15.11409071 49.41017627 -6.910897634
7.369673383 47.62853035 -6.480126482
-3.416758451 40.27340652 -11.13129579
3.732803479 43.99863617 -12.16092395
-1.795520641 42.60630544 -8.721371028
1.877674972 44.55576368 -9.120418737
19.33639825 46.79029201 -13.78197375
11.45396573 46.12278278 -13.01575177
17.18360041 44.72264608 -16.4568972
17.35942335 48.44801006 -10.41685217
13.30211361 44.5242818 -16.0203622
13.27546465 47.93638831 -10.10538267
-8.222367693 29.13362162 -18.00556837
-2.962449978 32.01976895 -19.78930552
-6.894322 28.01084565 -19.72852107
-7.282267381 31.90732513 -16.68820247
10.30380994 36.50862028 -22.56356822
3.200228499 34.58980839 -21.37767725
8.27267647 33.610943 -23.67276609
8.908430049 39.03237263 -20.41475224
-4.157319871 25.34632682 -22.73774648
-1.520779342 30.56586479 -21.47804769
-5.528203551 26.73274565 -21.31635128
-1.437907738 26.28208893 -23.59577416
-4.299679019 29.32583385 -20.62274566
-4.927769531 37.52523079 -13.336329
-1.639355756 35.12022198 -18.42677936
-6.183295162 34.74946675 -15.13642124
-1.733867611 39.52936206 -14.02728364
-4.569242346 33.55118206 -17.58482878
4.587469338 27.96885992 -25.09037506
1.579692646 31.74995248 -22.31008343
6.352559376 30.71908486 -24.49500745
1.486291991 27.16645668 -24.38974993
4.803760964 32.76390988 -23.04049678
0 28.95910172 -23.02163617
5.623885757 42.8261934 -15.22027161
1.710930312 36.65357694 -19.23129573
7.326463657 41.17395314 -17.93484496
1.813316898 41.34067659 -14.67004186
5.168179453 37.94907703 -19.88985129
0 38.30081567 -16.76404109
0 -14.50641293 -27.5688977
0 -10.18870001 -28.2639461
0 -2.003132592 -28.90212536
0 -6.043950917 -28.69536373
0 14.50641293 -27.5688977
0 10.18870001 -28.2639461
0 2.003132592 -28.90212536
0 6.043950917 -28.69536373
36.40726899 52.13672512 -2.586472742
41.90083646 47.54768799 -7.734540365
33.95841374 50.89585135 -6.553063999
40.66473381 28.71061532 -14.16570842
42.76692881 38.53976524 -11.71053519
28.5121454 46.95529848 -13.41485955
38.76388715 45.80137749 -11.44945521
31.22128804 49.02156504 -10.18012812
36.78919415 48.86527011 -9.116266384
29.12270992 2.227182791 -17.14811645
31.68118155 7.171962005 -16.84060128
37.58335093 20.09110837 -15.55366776
34.50205229 13.0098009 -16.35413924
18.19166526 37.35936282 -23.08935602
26.41020493 36.66095508 -22.6577163
20.70205341 40.00043096 -21.27675913
37.97006182 27.58617735 -17.04919522
33.63874017 33.50365136 -20.70639528
39.12865865 32.25644669 -16.2529246
25.79845313 44.70199896 -16.45774111
29.33266112 39.10401908 -20.49947835
23.24585138 42.44965494 -19.03591474
30.70448477 44.50483367 -15.78961671
25.04617649 39.79524946 -21.03075078
39.77989724 41.6533453 -13.54359056
33.45962349 37.66656489 -19.5397392
39.82920852 37.08352076 -15.10072543
35.57429407 43.6397016 -14.85914012
36.75490126 35.37894173 -18.11948578
32.41752971 41.39521419 -17.89133107
19.27554325 -27.60338053 -1.369387724
21.41309667 -24.29887623 -3.952676712
18.65658429 -27.96192862 -3.6002209
24.5564857 -17.33767194 -8.554341407
23.15667373 -20.86782461 -6.340811704
17.04974772 -28.07841999 -8.021843599
20.66221895 -24.41339504 -6.10287481
17.90690902 -28.11622327 -5.838792683
19.7180815 -26.19055407 -4.886089181
27.72764743 -2.120494259 -16.32667181
27.21726438 -6.161423801 -14.46774
25.66679996 -13.72082177 -10.6220672
26.53953771 -10.00734967 -12.57986891
12.7285369 -26.1399944 -16.15540501
16.66606303 -23.13476135 -14.29806883
13.90091641 -26.85929923 -14.28681707
23.5298978 -17.09504548 -10.56531915
20.21385697 -20.13268075 -12.44268099
22.9447329 -18.9149227 -9.530585172
16.06139978 -27.83022193 -10.24613212
17.75605673 -23.67099181 -12.40903098
15.02106523 -27.4302294 -12.30067733
17.98412853 -26.06722291 -9.248241698
15.89266841 -25.25146719 -13.34474141
21.53206413 -22.54612416 -7.330875161
19.58734796 -22.05010206 -11.4386126
22.27836239 -20.74256921 -8.446550811
19.80836394 -24.2993182 -8.27381858
21.28631463 -20.48943839 -10.49375898
18.82912653 -24.04364962 -10.39185094
2.048761094 -15.77436479 -26.78966238
5.899993016 -13.85387009 -26.0624289
3.34507839 -17.33441882 -25.98030669
2.011098881 -13.60855472 -27.2842293
12.94687604 -10.02291187 -24.21902151
9.505536666 -11.94905836 -25.2087273
5.988112371 -20.27367311 -23.95430963
7.186799005 -15.27493131 -25.15555911
4.669526989 -18.84413287 -25.02973125
5.312490187 -16.29279949 -25.58185713
1.957703292 -9.390277501 -28.04825972
5.830875869 -11.79611805 -26.61139186
1.982896054 -11.47041837 -27.70290264
3.961123096 -12.69868102 -26.96298584
26.21268249 -1.300395999 -18.30441364
22.87146973 -3.720481758 -20.1552116
26.06283115 -3.355703775 -17.38948028
16.2880034 -8.036438937 -23.06977106
19.58062161 -5.949687473 -21.72828623
25.62137819 -7.319880844 -15.55778546
22.78813892 -5.696592334 -19.2866873
25.86247653 -5.370765385 -16.47152286
24.41059563 -4.554021533 -18.37800425
11.26847728 -25.095893 -18.23277925
12.45948584 -20.24115743 -20.15987157
9.999077186 -24.07262001 -19.84471768
13.3643848 -23.71136494 -17.31657954
14.25561178 -11.23172588 -23.0660644
13.43166501 -15.65616856 -21.73289052
12.57300286 -12.23339397 -23.63731854
7.377170294 -21.66804104 -22.68850495
11.19044812 -19.16239397 -21.57171781
8.689798265 -22.91994439 -21.33992277
7.979960448 -19.10483766 -23.43628837
10.63139006 -21.56549566 -20.75816797
17.22341657 -20.87731462 -15.47816051
14.45931643 -19.01356106 -19.29208985
15.3554623 -22.29451003 -16.39228809
13.94109911 -21.32115045 -18.36117645
9.082412813 -14.23720301 -24.66936413
11.70823058 -16.75328289 -22.33417183
10.84071641 -13.23822291 -24.17454991
8.548038906 -16.62251435 -24.09362156
12.15968944 -14.48135309 -23.00906323
9.894027264 -17.9271135 -22.89183382
1.930799417 -1.193299665 -28.84042718
5.749354772 -3.553296663 -28.152311
1.932513612 -3.197758613 -28.72718168
12.95975646 -8.009569975 -24.86143577
9.447473728 -5.838859872 -26.81266976
11.24688044 -8.966452069 -25.34734602
1.951536149 -7.250831288 -28.33901179
5.749851726 -5.559751416 -27.86509354
1.938109963 -5.226031137 -28.5600109
3.888226572 -8.50352765 -27.79927738
3.860985697 -4.390995083 -28.37800696
7.72181068 -10.83386235 -26.21582243
7.666475716 -6.746559987 -27.16702041
9.493815754 -9.913043405 -25.80003731
5.823729977 -9.705100203 -27.08573798
9.475870833 -7.868056217 -26.33563074
5.798214118 -7.617127331 -27.50469255
24.13757695 -14.91784296 -11.75348526
21.82929093 -13.49124375 -15.7256145
24.58136931 -13.07515598 -12.72198344
22.49677008 -16.42955221 -12.67980536
16.22368287 -10.02678744 -22.33054017
19.1875116 -11.85853433 -19.26487684
17.85668381 -8.997374648 -21.66103701
15.82434665 -12.21272697 -21.66807005
25.31039712 -9.31841915 -14.60715648
22.1463733 -11.60978105 -16.61241167
24.974101 -11.19926317 -13.676065
24.0102053 -8.518444125 -16.56496434
23.39950611 -12.36602831 -14.72708848
19.09387209 -19.37357735 -14.52039087
20.11855051 -14.91562299 -16.59744956
20.81024642 -17.92120024 -13.60703816
17.79522321 -18.57577113 -16.53227015
21.34808595 -15.69641919 -14.70360768
21.10540351 -6.862424658 -20.15614297
20.76918075 -10.77412757 -18.44949148
19.49111083 -7.936946302 -20.93424523
22.60326513 -7.69631944 -18.42577221
19.35794401 -9.914258992 -20.11081411
22.38734133 -9.675981717 -17.532034
14.95913528 -16.64586812 -20.17724093
18.73438387 -14.04131883 -18.46390694
15.40254981 -14.42832578 -20.94840569
16.40547293 -17.65873954 -18.4333009
17.32807023 -13.15669206 -20.12149894
18.29885331 -16.28581577 -17.52994139
2.115152026 16.28553947 -27.65779223
6.42709829 15.09157461 -28.39084585
3.543846096 18.3644463 -27.52408097
2.066867425 13.98592517 -28.04083146
14.9190777 11.54970515 -27.90831258
10.75119039 13.51492355 -28.51220675
6.777782385 22.94722209 -27.11323499
8.075711166 17.16423866 -28.26696968
5.102095884 20.58978842 -27.34839933
5.808609922 17.81434195 -27.97088068
1.99465369 9.567512986 -28.57765269
6.266737896 12.67788608 -28.60061191
2.02895565 11.73685838 -28.34639804
4.17102885 13.37160285 -28.39179422
26.98201267 1.338562024 -18.84163976
24.77291172 4.029787645 -21.83083482
28.15090837 3.624552871 -18.78267419
25.23347478 0 -19.81874759
18.73591804 9.244230712 -26.53691365
22.04123388 6.697359039 -24.45878625
30.64121017 8.754018061 -18.6059224
25.85801806 6.464002522 -21.88487222
29.37350875 6.099888533 -18.70766012
27.06425233 5.049085643 -20.37586268
21.79709251 -2.477197738 -21.5404513
22.92297742 2.605152398 -22.65307992
23.49732266 -1.274349024 -20.72226544
24.1325311 1.308798789 -21.28245513
15.26496986 33.99643454 -24.69924007
16.66137188 27.06736502 -26.958666
12.92222003 31.11004011 -25.64614748
19.15203708 33.97993603 -24.8157905
17.04052565 13.42590665 -27.57214969
17.13011752 19.96714533 -27.71711238
14.92367561 14.52057278 -28.05659697
8.706677129 25.57303544 -26.77740642
14.25496544 24.410038 -27.47915799
10.71547141 28.26279752 -26.3144581
9.387140217 22.47376927 -27.5690245
13.69941002 27.78889361 -26.74858629
26.82057894 32.51048724 -24.10283836
20.07154889 26.39347595 -26.78011277
23.08552495 33.51774486 -24.64429714
19.7779424 30.24786512 -26.04861262
10.4544624 16.38796943 -28.39608207
14.63023459 20.93437238 -27.90807468
12.70405582 15.51365393 -28.32975422
9.96875668 19.38524178 -28.09807647
14.83620651 17.66890068 -28.07367864
12.0359325 21.80805876 -27.84756493
1.935361397 1.196119124 -28.90856966
5.871577528 3.62883448 -28.75078738
1.944804694 3.218096847 -28.90989094
3.873498097 0 -28.7501102
14.48028441 8.949307931 -27.77835077
10.00728205 6.184840442 -28.40144959
12.5336672 9.9923287 -28.24740612
1.979980233 7.356513806 -28.75205935
5.943732863 5.747222498 -28.80468577
1.958343513 5.280590045 -28.85817273
4.023376879 8.799100541 -28.76554846
3.929049594 4.468402321 -28.87827241
7.714177943 -2.367871914 -27.91015799
7.859261851 2.412405514 -28.4350765
5.816176429 -1.197410911 -28.4136277
5.857561742 1.205931152 -28.61580638
8.440682862 11.8424551 -28.65641911
8.092996115 7.121901352 -28.6784435
10.50221083 10.96596717 -28.54041393
6.178798177 10.29681247 -28.73713395
10.25423331 8.51435035 -28.4988796
6.07165977 7.976353518 -28.80182274
36.31193193 22.44200813 -17.68163215
30.55721894 18.88539991 -22.0131312
34.85398112 18.53929428 -18.03853012
34.94111925 25.51774949 -19.69378668
19.41070484 11.99647533 -26.71720888
24.82697767 15.34391604 -24.92708159
21.24838073 10.70633518 -25.77533243
19.71346773 15.21422681 -26.99339248
32.01605258 11.78721124 -18.47712969
29.37076327 15.39701903 -22.03156265
33.40443265 14.97971969 -18.29259809
29.49089342 10.46290628 -20.34616497
32.10521332 16.96676737 -20.206252
30.30295882 30.74686548 -23.04460847
28.74173101 21.30873314 -23.71142148
32.96590795 28.38931482 -21.55516847
26.79015061 27.96524102 -24.88881438
31.83587304 23.40768206 -21.9271268
24.45573959 7.951786863 -23.35579053
26.55465226 13.77537297 -23.58878939
22.9407447 9.341666586 -24.63929221
26.95864955 9.17931004 -21.97620267
23.87411016 12.22723401 -24.80262322
28.13416667 12.15980398 -22.03250307
20.10582593 22.37287922 -27.11922088
25.53177595 19.13592723 -25.16316194
19.96285996 18.70019255 -27.15070522
23.33459521 25.11719966 -26.2189098
22.56828277 17.13543071 -26.20647722
26.28421545 23.39271665 -25.17976119
14.97533152 -6.838589015 -24.23059539
15.61653863 -2.337788685 -25.2680903
16.6578984 -5.821263286 -23.65113022
13.26980062 -5.790571895 -25.3714469
16.68085063 7.617426145 -26.99018328
16.18890908 2.423472278 -26.19420513
18.41230587 6.434357901 -26.14206387
14.37538309 6.273017336 -27.48528628
20.03146732 -3.662509704 -22.32957069
17.37473888 -1.230239561 -24.72635908
18.35177654 -4.759367816 -23.01488505
20.54431012 -1.251953943 -22.883224
17.02139043 -3.548824997 -24.20465615
9.668713071 -3.572586555 -27.20543932
13.80338195 -1.228030858 -26.30833249
11.48686286 -4.692434387 -26.37098642
9.789743627 -1.21007886 -27.58783028
13.55208619 -3.521374412 -25.85686315
21.51264697 3.933325354 -23.98067818
17.73407205 1.255682584 -25.23773372
20.03611126 5.196184841 -25.12720206
21.04067048 1.282201749 -23.43609364
18.0758203 3.768665268 -25.70407023
19.18082498 0 -24.12771436
10.01705357 3.701298264 -28.18558593
14.03510794 1.248646578 -26.74998689
12.14374755 4.960774698 -27.87903066
9.906769593 1.224544065 -27.91761343
14.22276306 3.695643106 -27.13648901
11.90609994 0 -27.20187433
36.40726899 52.13672512 2.586472742
41.90083646 47.54768799 7.734540365
33.95841374 50.89585135 6.553063999
40.62041956 51.71842105 0
40.66473381 28.71061532 14.16570842
42.76692881 38.53976524 11.71053519
28.5121454 46.95529848 13.41485955
38.76388715 45.80137749 11.44945521
31.22128804 49.02156504 10.18012812
36.78919415 48.86527011 9.116266384
45.32317111 45.86316879 -5.212261128
45.32317111 45.86316879 5.212261128
43.7795671 49.64238187 -2.692294853
43.7795671 49.64238187 2.692294853
29.12270992 2.227182791 17.14811645
31.68118155 7.171962005 16.84060128
37.58335093 20.09110837 15.55366776
34.50205229 13.0098009 16.35413924
18.19166526 37.35936282 23.08935602
26.41020493 36.66095508 22.6577163
20.70205341 40.00043096 21.27675913
37.97006182 27.58617735 17.04919522
33.63874017 33.50365136 20.70639528
39.12865865 32.25644669 16.2529246
25.79845313 44.70199896 16.45774111
29.33266112 39.10401908 20.49947835
23.24585138 42.44965494 19.03591474
30.70448477 44.50483367 15.78961671
25.04617649 39.79524946 21.03075078
39.77989724 41.6533453 13.54359056
33.45962349 37.66656489 19.5397392
39.82920852 37.08352076 15.10072543
35.57429407 43.6397016 14.85914012
36.75490126 35.37894173 18.11948578
32.41752971 41.39521419 17.89133107
41.9837917 25.94741025 -11.84906487
46.83923383 28.94823851 -4.333538054
43.53063298 30.65937461 -10.71421421
41.9837917 25.94741025 11.84906487
46.83923383 28.94823851 4.333538054
43.53063298 30.65937461 10.71421421
45.51703667 40.83253751 -7.465731914
47.76566675 33.56401906 -2.376541273
44.79278033 35.71719318 -9.262932082
47.35096483 42.51118225 -2.590597685
46.10325933 32.42109998 -6.759542384
45.51703667 40.83253751 7.465731914
47.76566675 33.56401906 2.376541273
44.79278033 35.71719318 9.262932082
47.35096483 42.51118225 2.590597685
46.10325933 32.42109998 6.759542384
48.04008506 38.19045807 0
19.27554325 -27.60338053 1.369387724
21.41309667 -24.29887623 3.952676712
18.65658429 -27.96192862 3.6002209
20.50819932 -26.11129326 0
24.5564857 -17.33767194 8.554341407
23.15667373 -20.86782461 6.340811704
17.04974772 -28.07841999 8.021843599
20.66221895 -24.41339504 6.10287481
17.90690902 -28.11622327 5.838792683
19.7180815 -26.19055407 4.886089181
22.69270257 -22.96307214 -2.609709086
22.69270257 -22.96307214 2.609709086
21.65371927 -24.5535137 -1.331630274
21.65371927 -24.5535137 1.331630274
27.72764743 -2.120494259 16.32667181
27.21726438 -6.161423801 14.46774
25.66679996 -13.72082177 10.6220672
26.53953771 -10.00734967 12.57986891
12.7285369 -26.1399944 16.15540501
16.66606303 -23.13476135 14.29806883
13.90091641 -26.85929923 14.28681707
23.5298978 -17.09504548 10.56531915
20.21385697 -20.13268075 12.44268099
22.9447329 -18.9149227 9.530585172
16.06139978 -27.83022193 10.24613212
17.75605673 -23.67099181 12.40903098
15.02106523 -27.4302294 12.30067733
17.98412853 -26.06722291 9.248241698
15.89266841 -25.25146719 13.34474141
21.53206413 -22.54612416 7.330875161
19.58734796 -22.05010206 11.4386126
22.27836239 -20.74256921 8.446550811
19.80836394 -24.2993182 8.27381858
21.28631463 -20.48943839 10.49375898
18.82912653 -24.04364962 10.39185094
26.01812879 -16.08008792 -7.343083686
27.16375825 -16.78812586 -2.513174756
25.32366854 -17.83589594 -6.232925891
26.01812879 -16.08008792 7.343083686
27.16375825 -16.78812586 2.513174756
25.32366854 -17.83589594 6.232925891
23.68689929 -21.24910307 -3.885139563
26.18758921 -18.40151731 -1.302941859
24.54301902 -19.57029113 -5.07537859
23.94442729 -21.49704692 -1.310012967
25.88738173 -18.20473007 -3.795541933
23.68689929 -21.24910307 3.885139563
26.18758921 -18.40151731 1.302941859
24.54301902 -19.57029113 5.07537859
23.94442729 -21.49704692 1.310012967
25.88738173 -18.20473007 3.795541933
25.11881092 -19.96871767 0
2.048761094 -15.77436479 26.78966238
5.899993016 -13.85387009 26.0624289
3.34507839 -17.33441882 25.98030669
2.011098881 -13.60855472 27.2842293
12.94687604 -10.02291187 24.21902151
9.505536666 -11.94905836 25.2087273
5.988112371 -20.27367311 23.95430963
7.186799005 -15.27493131 25.15555911
4.669526989 -18.84413287 25.02973125
5.312490187 -16.29279949 25.58185713
1.957703292 -9.390277501 28.04825972
5.830875869 -11.79611805 26.61139186
1.982896054 -11.47041837 27.70290264
3.961123096 -12.69868102 26.96298584
26.21268249 -1.300395999 18.30441364
22.87146973 -3.720481758 20.1552116
26.06283115 -3.355703775 17.38948028
16.2880034 -8.036438937 23.06977106
19.58062161 -5.949687473 21.72828623
25.62137819 -7.319880844 15.55778546
22.78813892 -5.696592334 19.2866873
25.86247653 -5.370765385 16.47152286
24.41059563 -4.554021533 18.37800425
11.26847728 -25.095893 18.23277925
12.45948584 -20.24115743 20.15987157
9.999077186 -24.07262001 19.84471768
13.3643848 -23.71136494 17.31657954
14.25561178 -11.23172588 23.0660644
13.43166501 -15.65616856 21.73289052
12.57300286 -12.23339397 23.63731854
7.377170294 -21.66804104 22.68850495
11.19044812 -19.16239397 21.57171781
8.689798265 -22.91994439 21.33992277
7.979960448 -19.10483766 23.43628837
10.63139006 -21.56549566 20.75816797
17.22341657 -20.87731462 15.47816051
14.45931643 -19.01356106 19.29208985
15.3554623 -22.29451003 16.39228809
13.94109911 -21.32115045 18.36117645
9.082412813 -14.23720301 24.66936413
11.70823058 -16.75328289 22.33417183
10.84071641 -13.23822291 24.17454991
8.548038906 -16.62251435 24.09362156
12.15968944 -14.48135309 23.00906323
9.894027264 -17.9271135 22.89183382
1.930799417 -1.193299665 28.84042718
5.749354772 -3.553296663 28.152311
1.932513612 -3.197758613 28.72718168
12.95975646 -8.009569975 24.86143577
9.447473728 -5.838859872 26.81266976
11.24688044 -8.966452069 25.34734602
1.951536149 -7.250831288 28.33901179
5.749851726 -5.559751416 27.86509354
1.938109963 -5.226031137 28.5600109
3.888226572 -8.50352765 27.79927738
3.860985697 -4.390995083 28.37800696
7.72181068 -10.83386235 26.21582243
7.666475716 -6.746559987 27.16702041
9.493815754 -9.913043405 25.80003731
5.823729977 -9.705100203 27.08573798
9.475870833 -7.868056217 26.33563074
5.798214118 -7.617127331 27.50469255
24.13757695 -14.91784296 11.75348526
21.82929093 -13.49124375 15.7256145
24.58136931 -13.07515598 12.72198344
22.49677008 -16.42955221 12.67980536
16.22368287 -10.02678744 22.33054017
19.1875116 -11.85853433 19.26487684
17.85668381 -8.997374648 21.66103701
15.82434665 -12.21272697 21.66807005
25.31039712 -9.31841915 14.60715648
22.1463733 -11.60978105 16.61241167
24.974101 -11.19926317 13.676065
24.0102053 -8.518444125 16.56496434
23.39950611 -12.36602831 14.72708848
19.09387209 -19.37357735 14.52039087
20.11855051 -14.91562299 16.59744956
20.81024642 -17.92120024 13.60703816
17.79522321 -18.57577113 16.53227015
21.34808595 -15.69641919 14.70360768
21.10540351 -6.862424658 20.15614297
20.76918075 -10.77412757 18.44949148
19.49111083 -7.936946302 20.93424523
22.60326513 -7.69631944 18.42577221
19.35794401 -9.914258992 20.11081411
22.38734133 -9.675981717 17.532034
14.95913528 -16.64586812 20.17724093
18.73438387 -14.04131883 18.46390694
15.40254981 -14.42832578 20.94840569
16.40547293 -17.65873954 18.4333009
17.32807023 -13.15669206 20.12149894
18.29885331 -16.28581577 17.52994139
2.115152026 16.28553947 27.65779223
6.42709829 15.09157461 28.39084585
3.543846096 18.3644463 27.52408097
2.066867425 13.98592517 28.04083146
14.9190777 11.54970515 27.90831258
10.75119039 13.51492355 28.51220675
6.777782385 22.94722209 27.11323499
8.075711166 17.16423866 28.26696968
5.102095884 20.58978842 27.34839933
5.808609922 17.81434195 27.97088068
1.99465369 9.567512986 28.57765269
6.266737896 12.67788608 28.60061191
2.02895565 11.73685838 28.34639804
4.17102885 13.37160285 28.39179422
26.98201267 1.338562024 18.84163976
24.77291172 4.029787645 21.83083482
28.15090837 3.624552871 18.78267419
25.23347478 0 19.81874759
18.73591804 9.244230712 26.53691365
22.04123388 6.697359039 24.45878625
30.64121017 8.754018061 18.6059224
25.85801806 6.464002522 21.88487222
29.37350875 6.099888533 18.70766012
27.06425233 5.049085643 20.37586268
21.79709251 -2.477197738 21.5404513
22.92297742 2.605152398 22.65307992
23.49732266 -1.274349024 20.72226544
24.1325311 1.308798789 21.28245513
15.26496986 33.99643454 24.69924007
16.66137188 27.06736502 26.958666
12.92222003 31.11004011 25.64614748
19.15203708 33.97993603 24.8157905
17.04052565 13.42590665 27.57214969
17.13011752 19.96714533 27.71711238
14.92367561 14.52057278 28.05659697
8.706677129 25.57303544 26.77740642
14.25496544 24.410038 27.47915799
10.71547141 28.26279752 26.3144581
9.387140217 22.47376927 27.5690245
13.69941002 27.78889361 26.74858629
26.82057894 32.51048724 24.10283836
20.07154889 26.39347595 26.78011277
23.08552495 33.51774486 24.64429714
19.7779424 30.24786512 26.04861262
10.4544624 16.38796943 28.39608207
14.63023459 20.93437238 27.90807468
12.70405582 15.51365393 28.32975422
9.96875668 19.38524178 28.09807647
14.83620651 17.66890068 28.07367864
12.0359325 21.80805876 27.84756493
1.935361397 1.196119124 28.90856966
5.871577528 3.62883448 28.75078738
1.944804694 3.218096847 28.90989094
3.873498097 0 28.7501102
14.48028441 8.949307931 27.77835077
10.00728205 6.184840442 28.40144959
12.5336672 9.9923287 28.24740612
1.979980233 7.356513806 28.75205935
5.943732863 5.747222498 28.80468577
1.958343513 5.280590045 28.85817273
4.023376879 8.799100541 28.76554846
3.929049594 4.468402321 28.87827241
7.714177943 -2.367871914 27.91015799
7.859261851 2.412405514 28.4350765
5.816176429 -1.197410911 28.4136277
5.857561742 1.205931152 28.61580638
8.440682862 11.8424551 28.65641911
8.092996115 7.121901352 28.6784435
10.50221083 10.96596717 28.54041393
6.178798177 10.29681247 28.73713395
10.25423331 8.51435035 28.4988796
6.07165977 7.976353518 28.80182274
36.31193193 22.44200813 17.68163215
30.55721894 18.88539991 22.0131312
34.85398112 18.53929428 18.03853012
34.94111925 25.51774949 19.69378668
19.41070484 11.99647533 26.71720888
24.82697767 15.34391604 24.92708159
21.24838073 10.70633518 25.77533243
19.71346773 15.21422681 26.99339248
32.01605258 11.78721124 18.47712969
29.37076327 15.39701903 22.03156265
33.40443265 14.97971969 18.29259809
29.49089342 10.46290628 20.34616497
32.10521332 16.96676737 20.206252
30.30295882 30.74686548 23.04460847
28.74173101 21.30873314 23.71142148
32.96590795 28.38931482 21.55516847
26.79015061 27.96524102 24.88881438
31.83587304 23.40768206 21.9271268
24.45573959 7.951786863 23.35579053
26.55465226 13.77537297 23.58878939
22.9407447 9.341666586 24.63929221
26.95864955 9.17931004 21.97620267
23.87411016 12.22723401 24.80262322
28.13416667 12.15980398 22.03250307
20.10582593 22.37287922 27.11922088
25.53177595 19.13592723 25.16316194
19.96285996 18.70019255 27.15070522
23.33459521 25.11719966 26.2189098
22.56828277 17.13543071 26.20647722
26.28421545 23.39271665 25.17976119
14.97533152 -6.838589015 24.23059539
15.61653863 -2.337788685 25.2680903
16.6578984 -5.821263286 23.65113022
13.26980062 -5.790571895 25.3714469
16.68085063 7.617426145 26.99018328
16.18890908 2.423472278 26.19420513
18.41230587 6.434357901 26.14206387
14.37538309 6.273017336 27.48528628
20.03146732 -3.662509704 22.32957069
17.37473888 -1.230239561 24.72635908
18.35177654 -4.759367816 23.01488505
20.54431012 -1.251953943 22.883224
17.02139043 -3.548824997 24.20465615
9.668713071 -3.572586555 27.20543932
13.80338195 -1.228030858 26.30833249
11.48686286 -4.692434387 26.37098642
9.789743627 -1.21007886 27.58783028
13.55208619 -3.521374412 25.85686315
21.51264697 3.933325354 23.98067818
17.73407205 1.255682584 25.23773372
20.03611126 5.196184841 25.12720206
21.04067048 1.282201749 23.43609364
18.0758203 3.768665268 25.70407023
19.18082498 0 24.12771436
10.01705357 3.701298264 28.18558593
14.03510794 1.248646578 26.74998689
12.14374755 4.960774698 27.87903066
9.906769593 1.224544065 27.91761343
14.22276306 3.695643106 27.13648901
11.90609994 0 27.20187433
29.52537572 0 -15.53588745
32.6444556 0 -11.76780355
30.79196855 2.269651556 -15.35810979
29.25572346 -2.156416151 -14.59187684
37.78554391 0 -2.618819673
35.6030472 0 -7.498879323
33.53270364 7.347418484 -14.86415039
34.09004268 2.37940569 -11.41300615
32.13385987 4.720774444 -15.1339929
32.45542962 2.323068603 -13.43820758
28.60809204 -6.268376882 -12.68120182
32.21640751 -2.248630313 -10.78573179
28.95086918 -4.253162362 -13.6349088
30.76017296 -2.201726887 -12.73628463
29.52537572 0 15.53588745
32.6444556 0 11.76780355
30.79196855 2.269651556 15.35810979
29.25572346 -2.156416151 14.59187684
37.78554391 0 2.618819673
35.6030472 0 7.498879323
33.53270364 7.347418484 14.86415039
34.09004268 2.37940569 11.41300615
32.13385987 4.720774444 15.1339929
32.45542962 2.323068603 13.43820758
28.60809204 -6.268376882 12.68120182
32.21640751 -2.248630313 10.78573179
28.95086918 -4.253162362 13.6349088
30.76017296 -2.201726887 12.73628463
39.98801246 20.84493057 -12.88287559
40.95725814 14.43133503 -8.91905555
38.30068707 16.99441228 -13.54860878
42.69073376 22.32815209 -9.743384525
39.41659566 2.638849259 -1.630898533
40.92944166 8.35874116 -5.16598614
38.60903008 2.597277973 -4.297753949
35.08676258 10.33472586 -14.49983715
39.14643452 11.04704105 -9.721484533
36.6481632 13.48567465 -14.08117469
35.45508524 7.623231198 -12.70392394
38.8181201 13.96721786 -11.59733572
46.86388582 24.5884119 -2.18753119
43.29447236 15.38669624 -5.685379604
45.19685662 23.68855391 -6.155234435
43.14289086 18.79248893 -7.67681502
35.77822899 2.463829993 -9.154232479
39.26081742 8.101314229 -7.833470392
37.30340852 2.531445382 -6.825934877
35.69316553 4.992328137 -10.91819099
39.09772708 5.319463246 -6.049682333
37.39135029 7.882402421 -10.35513034
26.75058031 -13.94452875 -8.618192725
29.98886298 -10.56660891 -6.530523451
27.29450791 -12.11085638 -9.655247408
27.59451225 -14.43251057 -6.297946179
36.60963579 -2.450929835 -1.514757942
33.3070476 -6.802071526 -4.203911397
35.98808552 -2.420963738 -4.0060042
28.21609873 -8.310987497 -11.66048978
30.6282385 -8.643224141 -7.606106418
27.78288774 -10.22345876 -10.67490596
29.9533615 -6.440300406 -10.73259939
28.951177 -10.41697525 -8.649479119
28.57610226 -14.99322902 -1.333886721
30.74820023 -10.92779727 -4.037817784
28.2316483 -14.7967574 -3.84478981
29.18120472 -12.71095784 -5.192482615
33.6679867 -2.318510384 -8.614305012
32.40733632 -6.68712554 -6.466037292
34.94406896 -2.371338318 -6.394212983
31.77288461 -4.444006673 -9.719015319
34.17414223 -4.649582141 -5.287844587
31.24244661 -6.586163239 -8.652257918
39.98801246 20.84493057 12.88287559
40.95725814 14.43133503 8.91905555
38.30068707 16.99441228 13.54860878
42.69073376 22.32815209 9.743384525
39.41659566 2.638849259 1.630898533
40.92944166 8.35874116 5.16598614
38.60903008 2.597277973 4.297753949
41.00700168 5.524867276 0
35.08676258 10.33472586 14.49983715
39.14643452 11.04704105 9.721484533
36.6481632 13.48567465 14.08117469
35.45508524 7.623231198 12.70392394
38.8181201 13.96721786 11.59733572
46.86388582 24.5884119 2.18753119
43.29447236 15.38669624 5.685379604
45.19685662 23.68855391 6.155234435
46.2557876 20.24588538 0
43.14289086 18.79248893 7.67681502
35.77822899 2.463829993 9.154232479
39.26081742 8.101314229 7.833470392
37.30340852 2.531445382 6.825934877
35.69316553 4.992328137 10.91819099
39.09772708 5.319463246 6.049682333
37.39135029 7.882402421 10.35513034
43.02303856 11.8912754 -3.650034682
43.02303856 11.8912754 3.650034682
42.26068393 8.650623438 -1.780955413
44.89924788 15.93282695 -1.969405718
42.26068393 8.650623438 1.780955413
44.89924788 15.93282695 1.969405718
26.75058031 -13.94452875 8.618192725
29.98886298 -10.56660891 6.530523451
27.29450791 -12.11085638 9.655247408
27.59451225 -14.43251057 6.297946179
36.60963579 -2.450929835 1.514757942
33.3070476 -6.802071526 4.203911397
35.98808552 -2.420963738 4.0060042
35.33496909 -4.760675162 0
28.21609873 -8.310987497 11.66048978
30.6282385 -8.643224141 7.606106418
27.78288774 -10.22345876 10.67490596
29.9533615 -6.440300406 10.73259939
28.951177 -10.41697525 8.649479119
28.57610226 -14.99322902 1.333886721
30.74820023 -10.92779727 4.037817784
28.2316483 -14.7967574 3.84478981
29.93742514 -13.10343439 0
29.18120472 -12.71095784 5.192482615
33.6679867 -2.318510384 8.614305012
32.40733632 -6.68712554 6.466037292
34.94406896 -2.371338318 6.394212983
31.77288461 -4.444006673 9.719015319
34.17414223 -4.649582141 5.287844587
31.24244661 -6.586163239 8.652257918
32.37810987 -8.949089471 -2.746928807
32.37810987 -8.949089471 2.746928807
33.89199006 -6.937579241 -1.428280793
31.22089388 -11.07896285 -1.369435121
33.89199006 -6.937579241 1.428280793
31.22089388 -11.07896285 1.369435121
-19.27554325 27.60338053 -1.369387724
-21.41309667 24.29887623 -3.952676712
-18.65658429 27.96192862 -3.6002209
-24.5564857 17.33767194 -8.554341407
-23.15667373 20.86782461 -6.340811704
