31.325876 28.501224 35.89626
24.402674 -7.3516742 39.484356
25.365892 7.6418583 41.042876
29.078441 -3.8041406 36.578006
19.001178 -3.9144579 43.412004
29.770292 3.8946509 37.448291
19.301623 3.976353 44.098431
42.474774 0 -18.723076
45.692098 0 -6.3641761
44.283337 6.3075952 -17.162704
41.918732 -5.9707874 -16.246264
42.474774 0 18.723076
45.692098 0 6.3641761
44.283337 6.3075952 17.162704
41.918732 -5.9707874 16.246264
47.111683 20.419534 -12.619966
47.17152 6.355412 -3.9278606
45.903232 13.230373 -15.092872
48.619328 21.280393 -4.3840021
46.207494 6.3493942 -10.524766
39.823575 -17.260662 -10.667676
44.483565 -5.9932642 -3.704041
41.020768 -11.823134 -13.48753
40.662084 -17.797554 -3.6664978
43.626098 -5.9946834 -9.936797
47.111683 20.419534 12.619966
47.17152 6.355412 3.9278606
45.903232 13.230373 15.092872
48.619328 21.280393 4.3840021
46.207494 6.3493942 10.524766
48.274537 13.342754 0
39.823575 -17.260662 10.667676
44.483565 -5.9932642 3.704041
41.020768 -11.823134 13.48753
40.662084 -17.797554 3.6664978
43.626098 -5.9946834 9.936797
42.878994 -11.851462 0
-30.439749 38.756265 -4.0092234
-35.100003 28.075529 -10.969097
-28.646366 39.748716 -10.682387
-39.467543 5.9867973 -22.10553
-37.987448 17.267814 -16.881816
-23.219986 38.765678 -23.958507
-33.030244 28.097204 -17.365027
-26.1875 39.751564 -17.563462
-31.153451 33.79514 -14.243737
-42.621476 -54.266191 -5.6136803
-45.667378 -36.528082 -14.271506
-39.456058 -54.747875 -14.71338
-41.559231 -6.3040837 -23.277072
-44.534715 -20.243982 -19.791455
-29.343583 -48.989 -30.276867
-42.132912 -35.840395 -22.150582
-34.756961 -52.759657 -23.310837
-41.528205 -45.049631 -18.9872
-6.8601269 -25.330195 -45.224908
-19.80314 -19.360468 -43.564908
-11.64904 -31.238587 -43.345592
-6.6421769 -18.073087 -46.632314
-37.346231 -3.8633594 -29.332287
-30.23105 -11.811258 -37.794834
-39.119228 -10.513213 -28.192702
-22.619311 -43.024487 -36.598814
-25.06461 -24.291993 -40.555391
-17.064521 -37.322982 -40.487823
-30.732473 -38.706438 -33.778257
-18.8028 -28.035381 -42.556572
-6.435992 -3.9776618 -47.769606
-19.196648 -11.864181 -44.290256
-6.5231552 -10.812793 -47.472034
-13.260261 -15.126968 -46.006931
-41.662138 -25.748617 -24.954916
-31.362314 -19.382976 -36.868611
-40.612169 -17.943703 -26.754449
-37.291964 -32.543877 -29.609397
-35.671064 -15.034388 -32.882738
-31.325876 -28.501224 -35.89626
-6.6252358 24.462887 -43.676404
-18.392915 17.981766 -40.462556
-10.857474 29.11589 -40.400211
-6.4825521 17.638755 -45.511647
-36.275244 3.752569 -28.491118
-28.21161 11.022264 -35.270131
-36.153419 9.7161577 -26.055284
-33.49903 0 -33.104609
-19.088483 36.308453 -30.885815
-22.392867 21.702607 -36.23242
-15.175207 33.190734 -36.005176
-25.143204 31.666956 -27.635056
-17.030797 25.393287 -38.54598
-6.4020499 3.9566844 -47.517679
-18.348509 11.340002 -42.333442
-6.4296655 10.657824 -46.791666
-12.796482 0 -46.298107
-12.740226 14.533725 -44.202651
-34.65229 21.416293 -20.756136
-28.023797 17.319659 -32.94395
-35.583137 15.721723 -23.441428
-30.408128 26.536504 -24.143709
-32.259133 13.596352 -29.737511
-26.755834 24.343262 -30.659458
-25.365892 -7.6418583 -41.042876
-24.402674 7.3516742 -39.484356
-29.770292 -3.8946509 -37.448291
-19.301623 -3.976353 -44.098431
-29.078441 3.8041406 -36.578006
-19.001178 3.9144579 -43.412004
-30.439749 38.756265 4.0092234
-35.100003 28.075529 10.969097
-28.646366 39.748716 10.682387
-33.454921 33.853516 0
-39.467543 5.9867973 22.10553
-37.987448 17.267814 16.881816
-23.219986 38.765678 23.958507
-33.030244 28.097204 17.365027
-26.1875 39.751564 17.563462
-31.153451 33.79514 14.243737
-37.980352 23.473149 -7.0716406
-37.980352 23.473149 7.0716406
-35.999038 28.618179 -3.7439275
-35.999038 28.618179 3.7439275
-42.621476 -54.266191 5.6136803
-45.667378 -36.528082 14.271506
-39.456058 -54.747875 14.71338
-45.968978 -46.51667 0
-41.559231 -6.3040837 23.277072
-44.534715 -20.243982 19.791455
-29.343583 -48.989 30.276867
-42.132912 -35.840395 22.150582
-34.756961 -52.759657 23.310837
-41.528205 -45.049631 18.9872
-47.859955 -29.579079 -8.9111445
-47.859955 -29.579079 8.9111445
-47.592103 -37.834325 -4.9496151
-47.592103 -37.834325 4.9496151
-6.8601269 -25.330195 45.224908
-19.80314 -19.360468 43.564908
-11.64904 -31.238587 43.345592
-6.6421769 -18.073087 46.632314
-37.346231 -3.8633594 29.332287
-30.23105 -11.811258 37.794834
-39.119228 -10.513213 28.192702
-22.619311 -43.024487 36.598814
-25.06461 -24.291993 40.555391
-17.064521 -37.322982 40.487823
-30.732473 -38.706438 33.778257
-18.8028 -28.035381 42.556572
-6.435992 -3.9776618 47.769606
-19.196648 -11.864181 44.290256
-6.5231552 -10.812793 47.472034
-13.260261 -15.126968 46.006931
-41.662138 -25.748617 24.954916
-31.362314 -19.382976 36.868611
-40.612169 -17.943703 26.754449
-37.291964 -32.543877 29.609397
-35.671064 -15.034388 32.882738
-31.325876 -28.501224 35.89626
-6.6252358 24.462887 43.676404
-18.392915 17.981766 40.462556
-10.857474 29.11589 40.400211
-6.4825521 17.638755 45.511647
-36.275244 3.752569 28.491118
-28.21161 11.022264 35.270131
-36.153419 9.7161577 26.055284
-33.49903 0 33.104609
-19.088483 36.308453 30.885815
-22.392867 21.702607 36.23242
-15.175207 33.190734 36.005176
-25.143204 31.666956 27.635056
-17.030797 25.393287 38.54598
-6.4020499 3.9566844 47.517679
-18.348509 11.340002 42.333442
-6.4296655 10.657824 46.791666
-12.796482 0 46.298107
-12.740226 14.533725 44.202651
-34.65229 21.416293 20.756136
-28.023797 17.319659 32.94395
-35.583137 15.721723 23.441428
-30.408128 26.536504 24.143709
-32.259133 13.596352 29.737511
-26.755834 24.343262 30.659458
-25.365892 -7.6418583 41.042876
-24.402674 7.3516742 39.484356
-29.770292 -3.8946509 37.448291
-19.301623 -3.976353 44.098431
-29.078441 3.8041406 36.578006
-19.001178 3.9144579 43.412004
-42.474774 0 -18.723076
-45.692098 0 -6.3641761
-41.918732 5.9707874 -16.246264
-44.283337 -6.3075952 -17.162704
-42.474774 0 18.723076
-45.692098 0 6.3641761
-41.918732 5.9707874 16.246264
-44.283337 -6.3075952 17.162704
-39.823575 17.260662 -10.667676
-44.483565 5.9932642 -3.704041
-41.020768 11.823134 -13.48753
-40.662084 17.797554 -3.6664978
-43.626098 5.9946834 -9.936797
-47.111683 -20.419534 -12.619966
-47.17152 -6.355412 -3.9278606
-45.903232 -13.230373 -15.092872
-48.619328 -21.280393 -4.3840021
-46.207494 -6.3493942 -10.524766
-39.823575 17.260662 10.667676
-44.483565 5.9932642 3.704041
-41.020768 11.823134 13.48753
-40.662084 17.797554 3.6664978
-43.626098 5.9946834 9.936797
-42.878994 11.851462 0
-47.111683 -20.419534 12.619966
-47.17152 -6.355412 3.9278606
-45.903232 -13.230373 15.092872
-48.619328 -21.280393 4.3840021
-46.207494 -6.3493942 10.524766
-48.274537 -13.342754 0
-24.879268 47.282123 0
-19.442984 53.935776 0
-4.6267315 66.756626 0
-12.762652 60.594293 0
34.787813 66.112944 0
25.878187 71.787342 0
4.9554518 71.499556 0
15.490266 73.544411 0
-34.787813 -66.112944 0
-25.878187 -71.787342 0
-4.9554518 -71.499556 0
-15.490266 -73.544411 0
24.879268 -47.282123 0
19.442984 -53.935776 0
4.6267315 -66.756626 0
12.762652 -60.594293 0
-37.153956 -63.098702 4.8255243
-33.458185 -62.942813 14.248947
-33.355886 -66.87629 4.9293982
-22.939897 -55.431182 29.632107
-28.517414 -60.162709 22.685748
-24.094266 -71.968292 5.0232194
-29.302348 -66.104481 14.484287
-28.942962 -69.901901 5.003382
-31.493871 -66.87063 9.8239416
-2.16341 -30.452226 43.608855
-6.7862134 -36.763402 41.717897
-17.264077 -49.559054 34.990292
-11.829184 -43.200236 38.930243
-2.9120242 -70.379659 4.7117542
-8.7729216 -69.506726 14.194885
-8.0249333 -72.092282 4.8497384
-18.396352 -57.101658 29.765923
-14.106795 -64.779912 22.825273
-21.218017 -59.981409 26.614373
-18.687174 -73.036599 5.0295883
-13.990742 -70.120642 14.469117
-13.363753 -73.032275 4.9560408
-21.811281 -71.304271 9.9731787
-11.084869 -71.638996 9.7468839
-26.694508 -64.595474 19.026449
-16.76234 -67.498524 19.047941
-24.026361 -62.531857 23.010274
-24.51267 -68.41184 14.709294
-19.147564 -64.089932 23.060314
-19.320338 -69.763826 14.706785
26.446932 -44.914924 3.4349051
24.437077 -45.971961 10.407098
24.03249 -48.183513 3.5515685
18.557442 -44.841569 23.971168
21.791799 -45.973791 17.335487
18.371013 -54.873239 3.8300244
21.813844 -49.210828 10.782684
21.335817 -51.529426 3.6883317
23.002228 -48.840408 7.1751277
2.1344085 -30.043999 43.024258
6.4598111 -34.995162 39.711356
0 -33.227779 42.30602
14.82935 -42.569813 30.055663
10.74393 -39.236881 35.358634
-4.5782418 -39.810061 40.284374
4.4142289 -38.383888 38.841209
-2.2449912 -36.505936 41.39469
2.2077347 -35.900106 40.707729
2.7954866 -67.563104 4.5231924
7.8365997 -62.088369 12.679885
7.20584 -64.733928 4.3547327
0 -68.111166 9.1766073
15.350289 -47.646781 24.83729
12.010629 -55.154093 19.433605
17.161944 -48.515259 21.526724
14.929148 -58.348798 4.0181284
11.793124 -59.106331 12.196357
11.27303 -61.606574 4.1806817
17.001292 -55.579715 7.7738181
9.6125634 -62.123821 8.4522914
-5.638357 -66.459437 18.368937
5.2449948 -61.822869 17.087421
-2.8550887 -67.749029 13.868004
2.7468906 -65.181572 13.342454
20.377426 -49.309376 14.523964
13.825921 -55.674161 15.711131
18.853959 -49.06998 18.056615
18.820129 -52.524659 11.293376
15.583951 -52.161952 18.768486
15.469846 -55.860084 11.775762
-15.062404 -53.369345 32.984069
-4.8964929 -52.923956 32.708803
-12.326038 -50.079289 35.271706
-13.119197 -57.481888 30.064237
13.041933 -46.210381 28.559586
4.6525358 -50.287134 31.079158
10.996836 -44.678893 31.468114
11.448408 -50.161311 26.235421
-7.1055245 -43.320926 38.862445
-2.453672 -49.315904 34.653341
-9.6555742 -46.691481 37.231193
-2.3438847 -42.841543 38.462672
-7.327722 -49.978511 35.146285
-8.4245653 -64.153519 22.799925
-2.6192227 -56.112092 29.440735
-10.881777 -61.154439 26.638088
-2.7535053 -62.775444 22.276326
-7.7793334 -57.122344 29.938934
6.6907278 -40.791995 36.593786
2.3942506 -48.121604 33.814129
8.8615762 -42.851943 34.169594
2.2964896 -41.975256 37.684929
6.8269274 -46.562857 32.744302
0 -45.650526 36.290828
7.6133638 -57.976176 20.60452
2.5427719 -54.474273 28.581408
9.6319077 -54.130305 23.578466
2.6596969 -60.636765 21.5174
7.1477022 -52.484381 27.508088
0 -58.698859 25.692144
-26.446932 44.914924 3.4349051
-24.437077 45.971961 10.407098
-24.03249 48.183513 3.5515685
-18.557442 44.841569 23.971168
-21.791799 45.973791 17.335487
-18.371013 54.873239 3.8300244
-21.813844 49.210828 10.782684
-21.335817 51.529426 3.6883317
-23.002228 48.840408 7.1751277
-2.1344085 30.043999 43.024258
-6.4598111 34.995162 39.711356
-14.82935 42.569813 30.055663
-10.74393 39.236881 35.358634
-2.7954866 67.563104 4.5231924
-7.8365997 62.088369 12.679885
-7.20584 64.733928 4.3547327
-15.350289 47.646781 24.83729
-12.010629 55.154093 19.433605
-17.161944 48.515259 21.526724
-14.929148 58.348798 4.0181284
-11.793124 59.106331 12.196357
-11.27303 61.606574 4.1806817
-17.001292 55.579715 7.7738181
-9.6125634 62.123821 8.4522914
-20.377426 49.309376 14.523964
-13.825921 55.674161 15.711131
-18.853959 49.06998 18.056615
-18.820129 52.524659 11.293376
-15.583951 52.161952 18.768486
-15.469846 55.860084 11.775762
37.153956 63.098702 4.8255243
33.458185 62.942813 14.248947
33.355886 66.87629 4.9293982
22.939897 55.431182 29.632107
28.517414 60.162709 22.685748
24.094266 71.968292 5.0232194
29.302348 66.104481 14.484287
28.942962 69.901901 5.003382
31.493871 66.87063 9.8239416
2.16341 30.452226 43.608855
6.7862134 36.763402 41.717897
0 33.227779 42.30602
17.264077 49.559054 34.990292
11.829184 43.200236 38.930243
-4.4142289 38.383888 38.841209
4.5782418 39.810061 40.284374
-2.2077347 35.900106 40.707729
2.2449912 36.505936 41.39469
2.9120242 70.379659 4.7117542
8.7729216 69.506726 14.194885
8.0249333 72.092282 4.8497384
0 68.111166 9.1766073
18.396352 57.101658 29.765923
14.106795 64.779912 22.825273
21.218017 59.981409 26.614373
18.687174 73.036599 5.0295883
13.990742 70.120642 14.469117
13.363753 73.032275 4.9560408
21.811281 71.304271 9.9731787
11.084869 71.638996 9.7468839
-5.2449948 61.822869 17.087421
5.638357 66.459437 18.368937
-2.7468906 65.181572 13.342454
2.8550887 67.749029 13.868004
26.694508 64.595474 19.026449
16.76234 67.498524 19.047941
24.026361 62.531857 23.010274
24.51267 68.41184 14.709294
19.147564 64.089932 23.060314
19.320338 69.763826 14.706785
-13.041933 46.210381 28.559586
-4.6525358 50.287134 31.079158
-10.996836 44.678893 31.468114
-11.448408 50.161311 26.235421
15.062404 53.369345 32.984069
4.8964929 52.923956 32.708803
12.326038 50.079289 35.271706
13.119197 57.481888 30.064237
-6.6907278 40.791995 36.593786
-2.3942506 48.121604 33.814129
-8.8615762 42.851943 34.169594
-2.2964896 41.975256 37.684929
-6.8269274 46.562857 32.744302
-7.6133638 57.976176 20.60452
-2.5427719 54.474273 28.581408
-9.6319077 54.130305 23.578466
-2.6596969 60.636765 21.5174
-7.1477022 52.484381 27.508088
7.1055245 43.320926 38.862445
2.453672 49.315904 34.653341
9.6555742 46.691481 37.231193
2.3438847 42.841543 38.462672
7.327722 49.978511 35.146285
0 45.650526 36.290828
8.4245653 64.153519 22.799925
2.6192227 56.112092 29.440735
10.881777 61.154439 26.638088
2.7535053 62.775444 22.276326
7.7793334 57.122344 29.938934
0 58.698859 25.692144
0 -23.817224 45.263747
0 -16.852287 46.749058
0 -3.3362222 48.136559
0 -10.04357 47.684685
0 23.817224 45.263747
0 16.852287 46.749058
0 3.3362222 48.136559
0 10.04357 47.684685
-37.153956 -63.098702 -4.8255243
-33.458185 -62.942813 -14.248947
-33.355886 -66.87629 -4.9293982
-22.939897 -55.431182 -29.632107
-28.517414 -60.162709 -22.685748
-24.094266 -71.968292 -5.0232194
-29.302348 -66.104481 -14.484287
-28.942962 -69.901901 -5.003382
-31.493871 -66.87063 -9.8239416
-2.16341 -30.452226 -43.608855
-6.7862134 -36.763402 -41.717897
-17.264077 -49.559054 -34.990292
-11.829184 -43.200236 -38.930243
-2.9120242 -70.379659 -4.7117542
-8.7729216 -69.506726 -14.194885
-8.0249333 -72.092282 -4.8497384
-18.396352 -57.101658 -29.765923
-14.106795 -64.779912 -22.825273
-21.218017 -59.981409 -26.614373
-18.687174 -73.036599 -5.0295883
-13.990742 -70.120642 -14.469117
-13.363753 -73.032275 -4.9560408
-21.811281 -71.304271 -9.9731787
-11.084869 -71.638996 -9.7468839
-26.694508 -64.595474 -19.026449
-16.76234 -67.498524 -19.047941
-24.026361 -62.531857 -23.010274
-24.51267 -68.41184 -14.709294
-19.147564 -64.089932 -23.060314
-19.320338 -69.763826 -14.706785
26.446932 -44.914924 -3.4349051
24.437077 -45.971961 -10.407098
24.03249 -48.183513 -3.5515685
18.557442 -44.841569 -23.971168
21.791799 -45.973791 -17.335487
18.371013 -54.873239 -3.8300244
21.813844 -49.210828 -10.782684
21.335817 -51.529426 -3.6883317
23.002228 -48.840408 -7.1751277
2.1344085 -30.043999 -43.024258
6.4598111 -34.995162 -39.711356
0 -33.227779 -42.30602
14.82935 -42.569813 -30.055663
10.74393 -39.236881 -35.358634
-4.5782418 -39.810061 -40.284374
4.4142289 -38.383888 -38.841209
-2.2449912 -36.505936 -41.39469
2.2077347 -35.900106 -40.707729
2.7954866 -67.563104 -4.5231924
7.8365997 -62.088369 -12.679885
7.20584 -64.733928 -4.3547327
0 -68.111166 -9.1766073
15.350289 -47.646781 -24.83729
12.010629 -55.154093 -19.433605
17.161944 -48.515259 -21.526724
14.929148 -58.348798 -4.0181284
11.793124 -59.106331 -12.196357
11.27303 -61.606574 -4.1806817
17.001292 -55.579715 -7.7738181
9.6125634 -62.123821 -8.4522914
-5.638357 -66.459437 -18.368937
5.2449948 -61.822869 -17.087421
-2.8550887 -67.749029 -13.868004
2.7468906 -65.181572 -13.342454
20.377426 -49.309376 -14.523964
13.825921 -55.674161 -15.711131
18.853959 -49.06998 -18.056615
18.820129 -52.524659 -11.293376
15.583951 -52.161952 -18.768486
15.469846 -55.860084 -11.775762
-15.062404 -53.369345 -32.984069
-4.8964929 -52.923956 -32.708803
-12.326038 -50.079289 -35.271706
-13.119197 -57.481888 -30.064237
13.041933 -46.210381 -28.559586
4.6525358 -50.287134 -31.079158
10.996836 -44.678893 -31.468114
11.448408 -50.161311 -26.235421
-7.1055245 -43.320926 -38.862445
-2.453672 -49.315904 -34.653341
-9.6555742 -46.691481 -37.231193
-2.3438847 -42.841543 -38.462672
-7.327722 -49.978511 -35.146285
-8.4245653 -64.153519 -22.799925
-2.6192227 -56.112092 -29.440735
-10.881777 -61.154439 -26.638088
-2.7535053 -62.775444 -22.276326
-7.7793334 -57.122344 -29.938934
6.6907278 -40.791995 -36.593786
2.3942506 -48.121604 -33.814129
8.8615762 -42.851943 -34.169594
2.2964896 -41.975256 -37.684929
6.8269274 -46.562857 -32.744302
0 -45.650526 -36.290828
7.6133638 -57.976176 -20.60452
2.5427719 -54.474273 -28.581408
9.6319077 -54.130305 -23.578466
2.6596969 -60.636765 -21.5174
7.1477022 -52.484381 -27.508088
0 -58.698859 -25.692144
-26.446932 44.914924 -3.4349051
-24.437077 45.971961 -10.407098
-24.03249 48.183513 -3.5515685
-18.557442 44.841569 -23.971168
-21.791799 45.973791 -17.335487
-18.371013 54.873239 -3.8300244
-21.813844 49.210828 -10.782684
-21.335817 51.529426 -3.6883317
-23.002228 48.840408 -7.1751277
-2.1344085 30.043999 -43.024258
-6.4598111 34.995162 -39.711356
-14.82935 42.569813 -30.055663
-10.74393 39.236881 -35.358634
-2.7954866 67.563104 -4.5231924
-7.8365997 62.088369 -12.679885
-7.20584 64.733928 -4.3547327
-15.350289 47.646781 -24.83729
-12.010629 55.154093 -19.433605
-17.161944 48.515259 -21.526724
-14.929148 58.348798 -4.0181284
-11.793124 59.106331 -12.196357
-11.27303 61.606574 -4.1806817
-17.001292 55.579715 -7.7738181
-9.6125634 62.123821 -8.4522914
-20.377426 49.309376 -14.523964
-13.825921 55.674161 -15.711131
-18.853959 49.06998 -18.056615
-18.820129 52.524659 -11.293376
-15.583951 52.161952 -18.768486
-15.469846 55.860084 -11.775762
37.153956 63.098702 -4.8255243
33.458185 62.942813 -14.248947
33.355886 66.87629 -4.9293982
22.939897 55.431182 -29.632107
28.517414 60.162709 -22.685748
24.094266 71.968292 -5.0232194
29.302348 66.104481 -14.484287
28.942962 69.901901 -5.003382
31.493871 66.87063 -9.8239416
2.16341 30.452226 -43.608855
6.7862134 36.763402 -41.717897
0 33.227779 -42.30602
17.264077 49.559054 -34.990292
11.829184 43.200236 -38.930243
-4.4142289 38.383888 -38.841209
4.5782418 39.810061 -40.284374
-2.2077347 35.900106 -40.707729
2.2449912 36.505936 -41.39469
2.9120242 70.379659 -4.7117542
8.7729216 69.506726 -14.194885
8.0249333 72.092282 -4.8497384
0 68.111166 -9.1766073
18.396352 57.101658 -29.765923
14.106795 64.779912 -22.825273
21.218017 59.981409 -26.614373
18.687174 73.036599 -5.0295883
13.990742 70.120642 -14.469117
13.363753 73.032275 -4.9560408
21.811281 71.304271 -9.9731787
11.084869 71.638996 -9.7468839
-5.2449948 61.822869 -17.087421
5.638357 66.459437 -18.368937
-2.7468906 65.181572 -13.342454
2.8550887 67.749029 -13.868004
26.694508 64.595474 -19.026449
16.76234 67.498524 -19.047941
24.026361 62.531857 -23.010274
24.51267 68.41184 -14.709294
19.147564 64.089932 -23.060314
19.320338 69.763826 -14.706785
-13.041933 46.210381 -28.559586
-4.6525358 50.287134 -31.079158
-10.996836 44.678893 -31.468114
-11.448408 50.161311 -26.235421
15.062404 53.369345 -32.984069
4.8964929 52.923956 -32.708803
12.326038 50.079289 -35.271706
13.119197 57.481888 -30.064237
-6.6907278 40.791995 -36.593786
-2.3942506 48.121604 -33.814129
-8.8615762 42.851943 -34.169594
-2.2964896 41.975256 -37.684929
-6.8269274 46.562857 -32.744302
-7.6133638 57.976176 -20.60452
-2.5427719 54.474273 -28.581408
-9.6319077 54.130305 -23.578466
-2.6596969 60.636765 -21.5174
-7.1477022 52.484381 -27.508088
7.1055245 43.320926 -38.862445
2.453672 49.315904 -34.653341
9.6555742 46.691481 -37.231193
2.3438847 42.841543 -38.462672
7.327722 49.978511 -35.146285
0 45.650526 -36.290828
8.4245653 64.153519 -22.799925
2.6192227 56.112092 -29.440735
10.881777 61.154439 -26.638088
2.7535053 62.775444 -22.276326
7.7793334 57.122344 -29.938934
0 58.698859 -25.692144
0 -23.817224 -45.263747
0 -16.852287 -46.749058
0 -3.3362222 -48.136559
0 -10.04357 -47.684685
0 23.817224 -45.263747
0 16.852287 -46.749058
0 3.3362222 -48.136559
0 10.04357 -47.684685
40.775033 58.391545 -2.8967707
43.972467 49.898506 -8.1169459
39.463812 59.147178 -7.6154585
45.651765 32.231621 -15.902959
45.431444 40.940915 -12.440139
35.637123 58.689086 -16.767135
42.529542 50.250678 -12.561694
37.728583 59.238881 -12.301921
41.247477 54.786986 -10.221017
40.647499 3.1085504 -23.934175
42.412146 9.6012297 -22.544805
45.049907 24.08254 -18.643662
43.911727 16.557937 -20.81437
24.891615 51.118733 -31.593114
33.340832 46.281607 -28.603606
27.737135 53.59359 -28.507141
44.012709 31.976308 -19.762445
39.745303 39.585691 -24.465303
44.068883 36.329014 -18.304952
33.153759 57.446829 -21.14995
35.96042 47.93963 -25.131366
30.529075 55.749677 -25.000111
37.268695 54.019375 -19.165227
32.129104 51.049137 -26.978137
43.401179 45.445173 -14.776504
39.314774 44.257894 -22.959028
43.883539 40.85836 -16.637872
40.701492 49.929339 -17.000736
41.9637 40.392744 -20.687327
38.479657 49.136182 -21.237037
28.913511 -41.405352 -2.0540955
31.807187 -36.093747 -5.8713379
28.12131 -42.147375 -5.4266593
35.966609 -25.393588 -12.5291
34.124763 -30.751807 -9.3441182
26.070262 -42.933876 -12.265962
30.955833 -36.57579 -9.1432374
27.170427 -42.661176 -8.8592895
29.625477 -39.350059 -7.3411161
39.621239 -3.0300663 -23.32989
39.224941 -8.8797125 -20.850598
37.404697 -19.995605 -15.479733
38.484202 -14.511363 -18.241697
20.133998 -41.348241 -25.554618
26.028255 -36.130756 -22.330035
21.810208 -42.141604 -22.415677
34.965205 -25.403076 -15.699964
30.909835 -30.785706 -19.026612
34.153949 -28.155451 -14.186573
24.773639 -42.926262 -15.803976
27.451999 -36.596867 -19.185156
23.367872 -42.672478 -19.135836
27.504134 -39.866063 -14.143854
24.779661 -39.371789 -20.806963
32.178915 -33.694392 -10.955736
29.954538 -33.720779 -17.492841
33.223886 -30.933546 -12.596403
29.973299 -36.768849 -12.519643
32.147498 -30.944021 -15.848121
28.799567 -36.775296 -15.894567
3.3709074 -25.954184 -44.078087
9.7564907 -22.909375 -43.097991
5.4966439 -28.483974 -42.690926
3.3215763 -22.476196 -45.063249
21.023135 -16.275203 -39.326843
15.639922 -19.660367 -41.477146
9.7846034 -33.127276 -39.141453
11.846441 -25.178604 -41.465448
7.6554776 -30.894101 -41.035108
8.755234 -26.851301 -42.160105
3.2508005 -15.59272 -46.574625
9.6631779 -19.549033 -44.101541
3.2850487 -19.002954 -45.895187
6.562298 -21.037601 -44.668935
38.030834 -1.8866876 -26.557073
34.415809 -5.5983893 -30.328524
38.000961 -4.8927903 -25.354765
25.928873 -12.793207 -36.724769
30.385368 -9.2327735 -33.718131
37.644431 -10.754798 -22.85841
34.422711 -8.6050095 -29.13358
37.867952 -7.8638984 -24.117676
36.258326 -6.7643248 -27.297804
17.987508 -40.059768 -29.1044
20.066405 -32.599039 -32.468126
16.073602 -38.696943 -31.900553
21.243594 -37.690819 -27.525875
22.999541 -18.120902 -37.214039
21.707536 -25.302659 -35.123531
20.450132 -19.897754 -38.446367
11.999211 -35.243784 -36.903602
18.150786 -31.081196 -34.989093
14.057819 -37.078472 -34.52241
13.049568 -31.241993 -38.325181
17.179857 -34.848889 -33.544283
26.965118 -32.68569 -24.232731
23.12867 -30.413497 -30.859023
24.248515 -35.206284 -25.885814
22.244294 -34.019838 -29.29693
14.935085 -23.411603 -40.566209
19.035187 -27.23741 -36.310793
17.74677 -21.671603 -39.574893
14.029382 -27.281532 -39.54341
19.786446 -23.564295 -37.440725
16.150416 -29.263144 -37.367256
3.2150323 -1.9869993 -48.023065
9.5337643 -5.8921904 -46.683064
3.2186482 -5.3259443 -47.845816
21.021903 -12.992251 -40.327509
15.529703 -9.5978842 -44.074512
18.395308 -14.665457 -41.457916
3.2460576 -12.060558 -47.137258
9.5441767 -9.2286293 -46.253258
3.2268229 -8.7009908 -47.5505
6.4647064 -14.138273 -46.220086
6.4235218 -7.3052984 -47.21249
12.768396 -17.914328 -43.34916
12.678563 -11.157237 -44.927917
15.629264 -16.31942 -42.4735
9.66406 -16.104914 -44.946829
15.594478 -12.948491 -43.340652
9.6266369 -12.646535 -45.665386
35.796512 -22.123461 -17.430655
33.300775 -20.581011 -23.989563
36.389285 -19.355943 -18.83312
33.906011 -24.761802 -19.110371
25.87137 -15.989386 -35.609773
29.983146 -18.530603 -30.10404
28.154214 -14.185949 -34.152449
25.302947 -19.528009 -34.646993
37.302943 -13.733663 -21.528304
33.732122 -17.683372 -25.3031
36.894658 -16.544859 -20.20388
35.912037 -12.741027 -24.776198
35.15948 -18.580868 -22.128534
29.563074 -29.996142 -22.481946
31.131582 -23.080536 -25.683006
31.820734 -27.403123 -20.806382
27.892388 -29.115826 -25.912825
32.618743 -23.983296 -22.466333
32.396288 -10.533657 -30.939196
32.041867 -16.621896 -28.463142
30.34037 -12.354857 -32.586791
34.268709 -11.668355 -27.93523
30.203631 -15.468927 -31.378312
34.035627 -14.710461 -26.65407
23.957557 -26.658916 -32.314528
29.346052 -21.994706 -28.92237
24.664015 -23.103995 -33.544562
26.007614 -27.994419 -29.222332
27.43453 -20.830228 -31.857203
28.687271 -25.531415 -27.481842
3.4338672 26.438941 -44.901352
10.243491 24.052909 -45.249249
5.6845578 29.457757 -44.150402
3.3742972 22.832944 -45.778504
22.697497 17.571421 -42.45898
16.745611 21.050288 -44.409439
10.518114 35.610688 -42.075723
12.656227 26.899737 -44.2999
8.0616176 32.533101 -43.212112
9.2167061 28.266583 -44.382286
3.2855663 15.759477 -47.072719
10.066091 20.364145 -45.940389
3.3284774 19.254175 -46.501926
6.7589137 21.667918 -46.007278
38.610447 1.9154419 -26.961819
35.881274 5.8367751 -31.619947
39.558931 5.0933857 -26.394264
36.854571 0 -28.94613
27.923459 13.777329 -39.549833
32.32682 9.822695 -35.872528
41.273793 11.791686 -25.062228
36.757722 9.1887168 -31.10981
40.45182 8.4004807 -25.763313
38.259108 7.1375891 -28.804133
33.0157 -3.7521709 -32.626969
33.899218 3.852581 -33.500085
34.977555 -1.8969656 -30.846671
35.469657 1.9236542 -31.280655
21.487689 47.854978 -34.767811
23.512746 38.197819 -38.044422
18.663917 44.933084 -37.041434
26.002151 46.133548 -33.691661
25.292296 19.92732 -40.923795
24.70763 28.799617 -39.977785
22.433265 21.827321 -42.174668
13.215719 38.81688 -40.644974
20.742569 35.519336 -39.985249
15.881439 41.888395 -39.000754
14.317839 34.278363 -42.049957
19.819578 40.203494 -38.698432
33.866298 41.050935 -30.434612
27.489905 36.148388 -36.677924
30.182094 43.821214 -32.220038
26.862283 41.08247 -35.37907
16.153917 25.322191 -43.87676
21.488698 30.748133 -40.991016
19.360117 23.641753 -43.172618
15.297761 29.748022 -43.118482
22.034402 26.241456 -41.694399
18.0148 32.641245 -41.680885
3.2193056 1.9896403 -48.086895
9.6469555 5.9621464 -47.237317
3.2301667 5.3450042 -48.017041
6.4294727 0 -47.721218
22.326185 13.798341 -42.829586
16.033883 9.9094845 -45.505414
19.521331 15.563167 -43.995661
3.2727717 12.159813 -47.525185
9.7236745 9.4021926 -47.123145
3.2458015 8.7521657 -47.830168
6.5910065 14.414491 -47.123082
6.4870425 7.3775388 -47.679363
12.71008 -3.9013672 -45.9855
12.843006 3.942169 -46.466432
9.6233284 -1.981212 -47.012616
9.6616546 1.9891024 -47.19985
13.42179 18.831053 -45.567455
13.06823 11.500147 -46.308744
16.52919 17.259086 -44.919107
9.9923876 16.652064 -46.473857
16.292567 13.528132 -45.280801
9.8796303 12.978893 -46.865498
43.696193 27.005732 -21.277304
39.372067 24.333276 -28.363265
43.262737 23.012023 -22.390446
42.012277 30.681866 -23.679288
28.428251 17.569625 -39.129106
34.185393 21.127735 -34.323231
30.826593 15.53247 -37.394176
28.38201 21.904332 -38.863114
42.042535 15.478618 -24.263621
38.891481 20.38806 -29.173232
42.702111 19.149125 -23.384099
39.902767 14.156876 -27.529457
41.188006 21.766786 -25.922744
37.195051 37.73992 -28.285865
37.16698 27.5551 -30.662103
39.842315 34.311083 -26.051392
34.262227 35.765064 -31.830587
39.698938 29.189089 -27.342855
34.968797 11.370109 -33.396001
36.307843 18.834895 -32.252656
33.019131 13.445671 -35.463889
37.525817 12.777387 -30.590366
33.643446 17.230644 -34.951909
38.242987 16.528914 -29.948949
27.949246 31.100693 -37.698615
34.301287 25.708628 -33.806064
28.229419 26.443885 -38.393729
31.137632 33.516336 -34.986455
31.414371 23.852004 -36.478629
34.390497 30.607235 -32.94542
24.00062 -10.96005 -38.83382
24.741439 -3.703782 -40.032489
26.384049 -9.2201605 -37.460463
21.443224 -9.3572265 -40.998779
25.429784 11.612687 -41.146255
25.2261 3.7763356 -40.816687
27.827105 9.7244504 -39.509335
22.396657 9.7732781 -42.821713
30.852299 -5.6409669 -34.391818
27.132318 -1.9211369 -38.612577
28.681285 -7.4382327 -35.969078
31.33822 -1.9097262 -34.905991
26.78725 -5.5849294 -38.091846
15.841813 -5.853545 -44.575061
22.060335 -1.9626184 -42.045538
18.700796 -7.6393579 -42.932386
15.974428 -1.9745479 -45.016481
21.790562 -5.6620601 -41.57556
32.031571 5.8565825 -35.706383
27.430843 1.9422743 -39.037414
30.043023 7.7913872 -37.676828
31.735078 1.9339104 -35.34803
27.660296 5.7669525 -39.333329
29.463632 0 -37.06254
16.155954 5.9696201 -45.458979
22.261379 1.9805045 -42.428715
19.281525 7.8765886 -44.265597
16.080094 1.987609 -45.314252
22.371235 5.8129423 -42.683463
19.180665 0 -43.822079
40.775033 58.391545 2.8967707
43.972467 49.898506 8.1169459
39.463812 59.147178 7.6154585
42.913612 54.638142 0
45.651765 32.231621 15.902959
45.431444 40.940915 12.440139
35.637123 58.689086 16.767135
42.529542 50.250678 12.561694
37.728583 59.238881 12.301921
41.247477 54.786986 10.221017
45.69487 46.239296 -5.2550072
45.69487 46.239296 5.2550072
44.54757 50.513233 -2.7395244
44.54757 50.513233 2.7395244
40.647499 3.1085504 23.934175
42.412146 9.6012297 22.544805
45.049907 24.08254 18.643662
43.911727 16.557937 20.81437
24.891615 51.118733 31.593114
33.340832 46.281607 28.603606
27.737135 53.59359 28.507141
44.012709 31.976308 19.762445
39.745303 39.585691 24.465303
44.068883 36.329014 18.304952
33.153759 57.446829 21.14995
35.96042 47.93963 25.131366
30.529075 55.749677 25.000111
37.268695 54.019375 19.165227
32.129104 51.049137 26.978137
43.401179 45.445173 14.776504
39.314774 44.257894 22.959028
43.883539 40.85836 16.637872
40.701492 49.929339 17.000736
41.9637 40.392744 20.687327
38.479657 49.136182 21.237037
46.83231 28.943959 -13.21746
48.488284 29.967407 -4.4861072
46.957414 33.072916 -11.557649
46.83231 28.943959 13.21746
48.488284 29.967407 4.4861072
46.957414 33.072916 11.557649
46.468118 41.685736 -7.6217289
48.316605 33.951153 -2.4039527
46.852259 37.359395 -9.6888224
46.987311 42.184698 -2.570702
47.8587 33.655575 -7.0169206
46.468118 41.685736 7.6217289
48.316605 33.951153 2.4039527
46.852259 37.359395 9.6888224
46.987311 42.184698 2.570702
47.8587 33.655575 7.0169206
47.845117 38.035464 0
28.913511 -41.405352 2.0540955
31.807187 -36.093747 5.8713379
28.12131 -42.147375 5.4266593
30.545635 -38.89108 0
35.966609 -25.393588 12.5291
34.124763 -30.751807 9.3441182
26.070262 -42.933876 12.265962
30.955833 -36.57579 9.1432374
27.170427 -42.661176 8.8592895
29.625477 -39.350059 7.3411161
33.348816 -33.746146 -3.8351848
33.348816 -33.746146 3.8351848
32.028623 -36.31779 -1.9696516
32.028623 -36.31779 1.9696516
39.621239 -3.0300663 23.32989
39.224941 -8.8797125 20.850598
37.404697 -19.995605 15.479733
38.484202 -14.511363 18.241697
20.133998 -41.348241 25.554618
26.028255 -36.130756 22.330035
21.810208 -42.141604 22.415677
34.965205 -25.403076 15.699964
30.909835 -30.785706 19.026612
34.153949 -28.155451 14.186573
24.773639 -42.926262 15.803976
27.451999 -36.596867 19.185156
23.367872 -42.672478 19.135836
27.504134 -39.866063 14.143854
24.779661 -39.371789 20.806963
32.178915 -33.694392 10.955736
29.954538 -33.720779 17.492841
33.223886 -30.933546 12.596403
29.973299 -36.768849 12.519643
32.147498 -30.944021 15.848121
28.799567 -36.775296 15.894567
37.460616 -23.151934 -10.572491
38.292084 -23.665809 -3.5427608
36.612261 -25.786646 -9.0113923
37.460616 -23.151934 10.572491
38.292084 -23.665809 3.5427608
36.612261 -25.786646 9.0113923
34.592568 -31.032388 -5.6738939
37.263205 -26.18414 -1.854
35.652871 -28.429146 -7.3728427
34.798986 -31.242152 -1.9038719
37.046162 -26.051896 -5.4316138
34.592568 -31.032388 5.6738939
37.263205 -26.18414 1.854
35.652871 -28.429146 7.3728427
34.798986 -31.242152 1.9038719
37.046162 -26.051896 5.4316138
36.108165 -28.704931 0
3.3709074 -25.954184 44.078087
9.7564907 -22.909375 43.097991
5.4966439 -28.483974 42.690926
3.3215763 -22.476196 45.063249
21.023135 -16.275203 39.326843
15.639922 -19.660367 41.477146
9.7846034 -33.127276 39.141453
11.846441 -25.178604 41.465448
7.6554776 -30.894101 41.035108
8.755234 -26.851301 42.160105
3.2508005 -15.59272 46.574625
9.6631779 -19.549033 44.101541
3.2850487 -19.002954 45.895187
6.562298 -21.037601 44.668935
38.030834 -1.8866876 26.557073
34.415809 -5.5983893 30.328524
38.000961 -4.8927903 25.354765
25.928873 -12.793207 36.724769
30.385368 -9.2327735 33.718131
37.644431 -10.754798 22.85841
34.422711 -8.6050095 29.13358
37.867952 -7.8638984 24.117676
36.258326 -6.7643248 27.297804
17.987508 -40.059768 29.1044
20.066405 -32.599039 32.468126
16.073602 -38.696943 31.900553
21.243594 -37.690819 27.525875
22.999541 -18.120902 37.214039
21.707536 -25.302659 35.123531
20.450132 -19.897754 38.446367
11.999211 -35.243784 36.903602
18.150786 -31.081196 34.989093
14.057819 -37.078472 34.52241
13.049568 -31.241993 38.325181
17.179857 -34.848889 33.544283
26.965118 -32.68569 24.232731
23.12867 -30.413497 30.859023
24.248515 -35.206284 25.885814
22.244294 -34.019838 29.29693
14.935085 -23.411603 40.566209
19.035187 -27.23741 36.310793
17.74677 -21.671603 39.574893
14.029382 -27.281532 39.54341
19.786446 -23.564295 37.440725
16.150416 -29.263144 37.367256
3.2150323 -1.9869993 48.023065
9.5337643 -5.8921904 46.683064
3.2186482 -5.3259443 47.845816
21.021903 -12.992251 40.327509
15.529703 -9.5978842 44.074512
18.395308 -14.665457 41.457916
3.2460576 -12.060558 47.137258
9.5441767 -9.2286293 46.253258
3.2268229 -8.7009908 47.5505
6.4647064 -14.138273 46.220086
6.4235218 -7.3052984 47.21249
12.768396 -17.914328 43.34916
12.678563 -11.157237 44.927917
15.629264 -16.31942 42.4735
9.66406 -16.104914 44.946829
15.594478 -12.948491 43.340652
9.6266369 -12.646535 45.665386
35.796512 -22.123461 17.430655
33.300775 -20.581011 23.989563
36.389285 -19.355943 18.83312
33.906011 -24.761802 19.110371
25.87137 -15.989386 35.609773
29.983146 -18.530603 30.10404
28.154214 -14.185949 34.152449
25.302947 -19.528009 34.646993
37.302943 -13.733663 21.528304
33.732122 -17.683372 25.3031
36.894658 -16.544859 20.20388
35.912037 -12.741027 24.776198
35.15948 -18.580868 22.128534
29.563074 -29.996142 22.481946
31.131582 -23.080536 25.683006
31.820734 -27.403123 20.806382
27.892388 -29.115826 25.912825
32.618743 -23.983296 22.466333
32.396288 -10.533657 30.939196
32.041867 -16.621896 28.463142
30.34037 -12.354857 32.586791
34.268709 -11.668355 27.93523
30.203631 -15.468927 31.378312
34.035627 -14.710461 26.65407
23.957557 -26.658916 32.314528
29.346052 -21.994706 28.92237
24.664015 -23.103995 33.544562
26.007614 -27.994419 29.222332
27.43453 -20.830228 31.857203
28.687271 -25.531415 27.481842
3.4338672 26.438941 44.901352
10.243491 24.052909 45.249249
5.6845578 29.457757 44.150402
3.3742972 22.832944 45.778504
22.697497 17.571421 42.45898
16.745611 21.050288 44.409439
10.518114 35.610688 42.075723
12.656227 26.899737 44.2999
8.0616176 32.533101 43.212112
9.2167061 28.266583 44.382286
3.2855663 15.759477 47.072719
10.066091 20.364145 45.940389
3.3284774 19.254175 46.501926
6.7589137 21.667918 46.007278
38.610447 1.9154419 26.961819
35.881274 5.8367751 31.619947
39.558931 5.0933857 26.394264
36.854571 0 28.94613
27.923459 13.777329 39.549833
32.32682 9.822695 35.872528
41.273793 11.791686 25.062228
36.757722 9.1887168 31.10981
40.45182 8.4004807 25.763313
38.259108 7.1375891 28.804133
33.0157 -3.7521709 32.626969
33.899218 3.852581 33.500085
34.977555 -1.8969656 30.846671
35.469657 1.9236542 31.280655
21.487689 47.854978 34.767811
23.512746 38.197819 38.044422
18.663917 44.933084 37.041434
26.002151 46.133548 33.691661
25.292296 19.92732 40.923795
24.70763 28.799617 39.977785
22.433265 21.827321 42.174668
13.215719 38.81688 40.644974
20.742569 35.519336 39.985249
15.881439 41.888395 39.000754
14.317839 34.278363 42.049957
19.819578 40.203494 38.698432
33.866298 41.050935 30.434612
27.489905 36.148388 36.677924
30.182094 43.821214 32.220038
26.862283 41.08247 35.37907
16.153917 25.322191 43.87676
21.488698 30.748133 40.991016
19.360117 23.641753 43.172618
15.297761 29.748022 43.118482
22.034402 26.241456 41.694399
18.0148 32.641245 41.680885
3.2193056 1.9896403 48.086895
9.6469555 5.9621464 47.237317
3.2301667 5.3450042 48.017041
6.4294727 0 47.721218
22.326185 13.798341 42.829586
16.033883 9.9094845 45.505414
19.521331 15.563167 43.995661
3.2727717 12.159813 47.525185
9.7236745 9.4021926 47.123145
3.2458015 8.7521657 47.830168
6.5910065 14.414491 47.123082
6.4870425 7.3775388 47.679363
12.71008 -3.9013672 45.9855
12.843006 3.942169 46.466432
9.6233284 -1.981212 47.012616
9.6616546 1.9891024 47.19985
13.42179 18.831053 45.567455
13.06823 11.500147 46.308744
16.52919 17.259086 44.919107
9.9923876 16.652064 46.473857
16.292567 13.528132 45.280801
9.8796303 12.978893 46.865498
43.696193 27.005732 21.277304
39.372067 24.333276 28.363265
43.262737 23.012023 22.390446
42.012277 30.681866 23.679288
28.428251 17.569625 39.129106
34.185393 21.127735 34.323231
30.826593 15.53247 37.394176
28.38201 21.904332 38.863114
42.042535 15.478618 24.263621
38.891481 20.38806 29.173232
42.702111 19.149125 23.384099
39.902767 14.156876 27.529457
41.188006 21.766786 25.922744
37.195051 37.73992 28.285865
37.16698 27.5551 30.662103
39.842315 34.311083 26.051392
34.262227 35.765064 31.830587
39.698938 29.189089 27.342855
34.968797 11.370109 33.396001
36.307843 18.834895 32.252656
33.019131 13.445671 35.463889
37.525817 12.777387 30.590366
33.643446 17.230644 34.951909
38.242987 16.528914 29.948949
27.949246 31.100693 37.698615
34.301287 25.708628 33.806064
28.229419 26.443885 38.393729
31.137632 33.516336 34.986455
31.414371 23.852004 36.478629
34.390497 30.607235 32.94542
24.00062 -10.96005 38.83382
24.741439 -3.703782 40.032489
26.384049 -9.2201605 37.460463
21.443224 -9.3572265 40.998779
25.429784 11.612687 41.146255
25.2261 3.7763356 40.816687
27.827105 9.7244504 39.509335
22.396657 9.7732781 42.821713
30.852299 -5.6409669 34.391818
27.132318 -1.9211369 38.612577
28.681285 -7.4382327 35.969078
31.33822 -1.9097262 34.905991
26.78725 -5.5849294 38.091846
15.841813 -5.853545 44.575061
22.060335 -1.9626184 42.045538
18.700796 -7.6393579 42.932386
15.974428 -1.9745479 45.016481
21.790562 -5.6620601 41.57556
32.031571 5.8565825 35.706383
27.430843 1.9422743 39.037414
30.043023 7.7913872 37.676828
31.735078 1.9339104 35.34803
27.660296 5.7669525 39.333329
29.463632 0 37.06254
16.155954 5.9696201 45.458979
22.261379 1.9805045 42.428715
19.281525 7.8765886 44.265597
16.080094 1.987609 45.314252
22.371235 5.8129423 42.683463
19.180665 0 43.822079
41.174898 0 -21.665722
43.578074 0 -15.709198
42.123871 3.1049171 -21.010122
41.024444 -3.0238792 -20.461762
45.99485 0 -3.1877857
45.187908 0 -9.5176872
43.865284 9.611411 -19.444307
44.481521 3.1047067 -14.89197
43.028745 6.3213383 -20.265126
43.410807 3.1072238 -17.974294
40.465525 -8.8664831 -17.937285
43.258318 -3.01933 -14.482453
40.786737 -5.9919656 -19.209214
42.243728 -3.0236875 -17.491064
41.174898 0 21.665722
43.578074 0 15.709198
42.123871 3.1049171 21.010122
41.024444 -3.0238792 20.461762
45.99485 0 3.1877857
45.187908 0 9.5176872
43.865284 9.611411 19.444307
44.481521 3.1047067 14.89197
43.028745 6.3213383 20.265126
43.410807 3.1072238 17.974294
40.465525 -8.8664831 17.937285
43.258318 -3.01933 14.482453
40.786737 -5.9919656 19.209214
42.243728 -3.0236875 17.491064
46.447595 24.212179 -14.963949
47.475415 16.728015 -10.338482
45.966866 20.395975 -16.260468
47.603943 24.897864 -10.864735
46.70684 3.1269142 -1.9325392
47.471554 9.6947921 -5.9917111
46.477254 3.1265833 -5.1736032
44.675722 13.159132 -18.462538
46.874173 13.227792 -11.640563
45.364995 16.693267 -17.430407
45.13561 9.7046499 -16.172556
46.562494 16.753735 -13.911052
48.80626 25.607531 -2.2781981
48.196574 17.128885 -6.3291179
48.401996 25.36843 -6.5917335
48.044285 20.927473 -8.5489656
45.384261 3.1253392 -11.612036
46.944398 9.6867907 -9.3665282
46.033129 3.1238527 -8.4233359
45.363895 6.3449528 -13.876373
46.802093 6.3676851 -7.2417968
46.17037 9.7330915 -12.786385
38.347975 -19.990013 -12.354507
41.169285 -14.506043 -8.9652276
38.997642 -17.303659 -13.795152
38.969626 -20.381934 -8.8941092
45.351726 -3.0361924 -1.8764701
43.496464 -8.8829866 -5.4899876
45.135281 -3.0363071 -5.0242218
40.053033 -11.797529 -16.552181
41.800325 -11.795963 -10.380542
39.567707 -14.559999 -15.202939
41.517121 -8.9266352 -14.876014
40.466653 -14.56038 -12.089853
39.599638 -20.777027 -1.8484477
41.59133 -14.781406 -5.4617249
39.389866 -20.644997 -5.3643965
40.352614 -17.57708 -7.1803152
44.10386 -3.0371658 -11.284432
43.054648 -8.8841561 -8.5904301
44.717242 -3.0345553 -8.1825494
42.873756 -5.9966622 -13.114663
44.149649 -6.0068054 -6.831378
42.384454 -8.9349894 -11.737916
46.447595 24.212179 14.963949
47.475415 16.728015 10.338482
45.966866 20.395975 16.260468
47.603943 24.897864 10.864735
46.70684 3.1269142 1.9325392
47.471554 9.6947921 5.9917111
46.477254 3.1265833 5.1736032
47.328983 6.3766269 0
44.675722 13.159132 18.462538
46.874173 13.227792 11.640563
45.364995 16.693267 17.430407
45.13561 9.7046499 16.172556
46.562494 16.753735 13.911052
48.80626 25.607531 2.2781981
48.196574 17.128885 6.3291179
48.401996 25.36843 6.5917335
48.821756 21.368995 0
48.044285 20.927473 8.5489656
45.384261 3.1253392 11.612036
46.944398 9.6867907 9.3665282
46.033129 3.1238527 8.4233359
45.363895 6.3449528 13.876373
46.802093 6.3676851 7.2417968
46.17037 9.7330915 12.786385
48.10115 13.294831 -4.0808569
48.10115 13.294831 4.0808569
47.804123 9.7853473 -2.0145678
48.568285 17.234812 -2.1303399
47.804123 9.7853473 2.0145678
48.568285 17.234812 2.1303399
38.347975 -19.990013 12.354507
41.169285 -14.506043 8.9652276
38.997642 -17.303659 13.795152
38.969626 -20.381934 8.8941092
45.351726 -3.0361924 1.8764701
43.496464 -8.8829866 5.4899876
45.135281 -3.0363071 5.0242218
44.615541 -6.0110453 0
40.053033 -11.797529 16.552181
41.800325 -11.795963 10.380542
39.567707 -14.559999 15.202939
41.517121 -8.9266352 14.876014
40.466653 -14.56038 12.089853
39.599638 -20.777027 1.8484477
41.59133 -14.781406 5.4617249
39.389866 -20.644997 5.3643965
40.780278 -17.849287 0
40.352614 -17.57708 7.1803152
44.10386 -3.0371658 11.284432
43.054648 -8.8841561 8.5904301
44.717242 -3.0345553 8.1825494
42.873756 -5.9966622 13.114663
44.149649 -6.0068054 6.831378
42.384454 -8.9349894 11.737916
42.757351 -11.817841 -3.627494
42.757351 -11.817841 3.627494
43.743625 -8.9541766 -1.8434497
41.837691 -14.846411 -1.8351173
43.743625 -8.9541766 1.8434497
41.837691 -14.846411 1.8351173
-28.913511 41.405352 -2.0540955
-31.807187 36.093747 -5.8713379
-28.12131 42.147375 -5.4266593
-35.966609 25.393588 -12.5291
-34.124763 30.751807 -9.3441182
-26.070262 42.933876 -12.265962
-30.955833 36.57579 -9.1432374
-27.170427 42.661176 -8.8592895
-29.625477 39.350059 -7.3411161
-39.621239 3.0300663 -23.32989
-39.224941 8.8797125 -20.850598
-37.404697 19.995605 -15.479733
-38.484202 14.511363 -18.241697
-20.133998 41.348241 -25.554618
-26.028255 36.130756 -22.330035
-21.810208 42.141604 -22.415677
-34.965205 25.403076 -15.699964
-30.909835 30.785706 -19.026612
-34.153949 28.155451 -14.186573
-24.773639 42.926262 -15.803976
-27.451999 36.596867 -19.185156
-23.367872 42.672478 -19.135836
-27.504134 39.866063 -14.143854
-24.779661 39.371789 -20.806963
-32.178915 33.694392 -10.955736
-29.954538 33.720779 -17.492841
-33.223886 30.933546 -12.596403
-29.973299 36.768849 -12.519643
-32.147498 30.944021 -15.848121
-28.799567 36.775296 -15.894567
-40.775033 -58.391545 -2.8967707
-43.972467 -49.898506 -8.1169459
-39.463812 -59.147178 -7.6154585
-45.651765 -32.231621 -15.902959
-45.431444 -40.940915 -12.440139
-35.637123 -58.689086 -16.767135
-42.529542 -50.250678 -12.561694
-37.728583 -59.238881 -12.301921
-41.247477 -54.786986 -10.221017
-40.647499 -3.1085504 -23.934175
-42.412146 -9.6012297 -22.544805
-45.049907 -24.08254 -18.643662
-43.911727 -16.557937 -20.81437
-24.891615 -51.118733 -31.593114
-33.340832 -46.281607 -28.603606
-27.737135 -53.59359 -28.507141
-44.012709 -31.976308 -19.762445
-39.745303 -39.585691 -24.465303
-44.068883 -36.329014 -18.304952
-33.153759 -57.446829 -21.14995
-35.96042 -47.93963 -25.131366
-30.529075 -55.749677 -25.000111
-37.268695 -54.019375 -19.165227
-32.129104 -51.049137 -26.978137
-43.401179 -45.445173 -14.776504
-39.314774 -44.257894 -22.959028
-43.883539 -40.85836 -16.637872
-40.701492 -49.929339 -17.000736
-41.9637 -40.392744 -20.687327
-38.479657 -49.136182 -21.237037
-3.4338672 -26.438941 -44.901352
-10.243491 -24.052909 -45.249249
-5.6845578 -29.457757 -44.150402
-3.3742972 -22.832944 -45.778504
-22.697497 -17.571421 -42.45898
-16.745611 -21.050288 -44.409439
-10.518114 -35.610688 -42.075723
-12.656227 -26.899737 -44.2999
-8.0616176 -32.533101 -43.212112
-9.2167061 -28.266583 -44.382286
-3.2855663 -15.759477 -47.072719
-10.066091 -20.364145 -45.940389
-3.3284774 -19.254175 -46.501926
-6.7589137 -21.667918 -46.007278
-38.610447 -1.9154419 -26.961819
-35.881274 -5.8367751 -31.619947
-39.558931 -5.0933857 -26.394264
-27.923459 -13.777329 -39.549833
-32.32682 -9.822695 -35.872528
-41.273793 -11.791686 -25.062228
-36.757722 -9.1887168 -31.10981
-40.45182 -8.4004807 -25.763313
-38.259108 -7.1375891 -28.804133
-21.487689 -47.854978 -34.767811
-23.512746 -38.197819 -38.044422
-18.663917 -44.933084 -37.041434
-26.002151 -46.133548 -33.691661
-25.292296 -19.92732 -40.923795
-24.70763 -28.799617 -39.977785
-22.433265 -21.827321 -42.174668
-13.215719 -38.81688 -40.644974
-20.742569 -35.519336 -39.985249
-15.881439 -41.888395 -39.000754
-14.317839 -34.278363 -42.049957
-19.819578 -40.203494 -38.698432
-33.866298 -41.050935 -30.434612
-27.489905 -36.148388 -36.677924
-30.182094 -43.821214 -32.220038
-26.862283 -41.08247 -35.37907
-16.153917 -25.322191 -43.87676
-21.488698 -30.748133 -40.991016
-19.360117 -23.641753 -43.172618
-15.297761 -29.748022 -43.118482
-22.034402 -26.241456 -41.694399
-18.0148 -32.641245 -41.680885
-3.2193056 -1.9896403 -48.086895
-9.6469555 -5.9621464 -47.237317
-3.2301667 -5.3450042 -48.017041
-22.326185 -13.798341 -42.829586
-16.033883 -9.9094845 -45.505414
-19.521331 -15.563167 -43.995661
-3.2727717 -12.159813 -47.525185
-9.7236745 -9.4021926 -47.123145
-3.2458015 -8.7521657 -47.830168
-6.5910065 -14.414491 -47.123082
-6.4870425 -7.3775388 -47.679363
-13.42179 -18.831053 -45.567455
-13.06823 -11.500147 -46.308744
-16.52919 -17.259086 -44.919107
-9.9923876 -16.652064 -46.473857
-16.292567 -13.528132 -45.280801
-9.8796303 -12.978893 -46.865498
-43.696193 -27.005732 -21.277304
-39.372067 -24.333276 -28.363265
-43.262737 -23.012023 -22.390446
-42.012277 -30.681866 -23.679288
-28.428251 -17.569625 -39.129106
-34.185393 -21.127735 -34.323231
-30.826593 -15.53247 -37.394176
-28.38201 -21.904332 -38.863114
-42.042535 -15.478618 -24.263621
-38.891481 -20.38806 -29.173232
-42.702111 -19.149125 -23.384099
-39.902767 -14.156876 -27.529457
-41.188006 -21.766786 -25.922744
-37.195051 -37.73992 -28.285865
-37.16698 -27.5551 -30.662103
-39.842315 -34.311083 -26.051392
-34.262227 -35.765064 -31.830587
-39.698938 -29.189089 -27.342855
-34.968797 -11.370109 -33.396001
-36.307843 -18.834895 -32.252656
-33.019131 -13.445671 -35.463889
-37.525817 -12.777387 -30.590366
-33.643446 -17.230644 -34.951909
-38.242987 -16.528914 -29.948949
-27.949246 -31.100693 -37.698615
-34.301287 -25.708628 -33.806064
-28.229419 -26.443885 -38.393729
-31.137632 -33.516336 -34.986455
-31.414371 -23.852004 -36.478629
-34.390497 -30.607235 -32.94542
-3.3709074 25.954184 -44.078087
-9.7564907 22.909375 -43.097991
-5.4966439 28.483974 -42.690926
-3.3215763 22.476196 -45.063249
-21.023135 16.275203 -39.326843
-15.639922 19.660367 -41.477146
-9.7846034 33.127276 -39.141453
-11.846441 25.178604 -41.465448
-7.6554776 30.894101 -41.035108
-8.755234 26.851301 -42.160105
-3.2508005 15.59272 -46.574625
-9.6631779 19.549033 -44.101541
-3.2850487 19.002954 -45.895187
-6.562298 21.037601 -44.668935
-38.030834 1.8866876 -26.557073
-34.415809 5.5983893 -30.328524
-38.000961 4.8927903 -25.354765
-36.854571 0 -28.94613
-25.928873 12.793207 -36.724769
-30.385368 9.2327735 -33.718131
-37.644431 10.754798 -22.85841
