-21.71098344 21.96965644 5.026463656
-28.11680509 8.470612326 14.1416552
-16.76643964 19.63048946 12.1323097
-28.87250094 17.84418692 0
-25.19939743 -25.49963273 5.834091103
-28.02307071 -8.442373427 14.09451046
-20.77946045 -24.32901605 15.03615883
-29.5987654 -18.29304304 0
-8.565736784 -14.30046512 28.43255509
-22.26903379 -5.094958555 22.0068359
-14.30582377 -19.77016222 23.1473091
-8.830279698 -5.457412984 31.94825208
-22.28263394 -13.77142513 19.03164146
-7.5970189 12.68319428 25.21705533
-21.92912375 5.017190134 21.67092799
-11.78027726 16.27994278 19.06088901
-8.449895411 5.222322565 30.5720088
-20.21513452 12.49364022 17.26578614
-16.753495 0 27.10772434
-32.2970648 0 -9.174919288
-32.2970648 0 9.174919288
-33.14130331 9.16003095 -5.661210465
-31.53104203 -8.714965677 -5.386144999
-33.14130331 9.16003095 5.661210465
-31.53104203 -8.714965677 5.386144999
-12.97628824 29.43773332 0
-4.66755123 33.5110481 0
14.52984804 32.96210626 0
4.865344616 34.93112114 0
-14.52984804 -32.96210626 0
-4.865344616 -34.93112114 0
12.97628824 -29.43773332 0
4.66755123 -33.5110481 0
-17.64793814 -31.50889208 4.779556439
-13.45016006 -30.26553906 13.75769469
-12.86943344 -33.20580801 4.729742751
-2.508147838 -19.04293732 24.24570354
-7.857505615 -25.14322452 20.11137509
-2.848296551 -34.20652925 4.60864063
-8.2237008 -30.69995519 13.30622741
-7.781400785 -34.16313677 4.69437324
-10.71464237 -32.58735044 9.392427666
15.102134 -26.96357538 4.090081302
10.79863408 -24.29907748 11.04554221
11.32749016 -29.22727446 4.163051519
2.371709326 -18.00703745 22.926783
6.648383705 -21.2741565 17.01661379
0 -20.96030814 21.21003731
2.754064523 -33.07485263 4.456170006
7.021591582 -26.21235283 11.36117384
7.144767638 -31.36808921 4.310304395
0 -31.57186814 8.726249737
9.150043907 -27.82880444 8.020904715
-5.080379273 -27.28568997 16.86348381
4.528072605 -24.31936252 15.03019262
-2.510113225 -24.13552649 19.18703539
-2.664155241 -29.54593438 12.93208119
2.362597956 -22.71712088 18.05944455
2.513631924 -27.87660521 12.20142566
-15.102134 26.96357538 4.090081302
-10.79863408 24.29907748 11.04554221
-11.32749016 29.22727446 4.163051519
-2.371709326 18.00703745 22.926783
-6.648383705 21.2741565 17.01661379
-2.754064523 33.07485263 4.456170006
-7.021591582 26.21235283 11.36117384
-7.144767638 31.36808921 4.310304395
-9.150043907 27.82880444 8.020904715
17.64793814 31.50889208 4.779556439
13.45016006 30.26553906 13.75769469
12.86943344 33.20580801 4.729742751
2.508147838 19.04293732 24.24570354
7.857505615 25.14322452 20.11137509
0 20.96030814 21.21003731
2.848296551 34.20652925 4.60864063
8.2237008 30.69995519 13.30622741
7.781400785 34.16313677 4.69437324
0 31.57186814 8.726249737
10.71464237 32.58735044 9.392427666
-4.528072605 24.31936252 15.03019262
5.080379273 27.28568997 16.86348381
-2.362597956 22.71712088 18.05944455
-2.513631924 27.87660521 12.20142566
2.510113225 24.13552649 19.18703539
2.664155241 29.54593438 12.93208119
0 -12.72050861 28.85747705
0 -4.704877769 33.7790369
0 12.72050861 28.85747705
0 4.704877769 33.7790369
-17.64793814 -31.50889208 -4.779556439
-13.45016006 -30.26553906 -13.75769469
-12.86943344 -33.20580801 -4.729742751
-2.508147838 -19.04293732 -24.24570354
-7.857505615 -25.14322452 -20.11137509
-2.848296551 -34.20652925 -4.60864063
-8.2237008 -30.69995519 -13.30622741
-7.781400785 -34.16313677 -4.69437324
-10.71464237 -32.58735044 -9.392427666
15.102134 -26.96357538 -4.090081302
10.79863408 -24.29907748 -11.04554221
11.32749016 -29.22727446 -4.163051519
2.371709326 -18.00703745 -22.926783
6.648383705 -21.2741565 -17.01661379
0 -20.96030814 -21.21003731
2.754064523 -33.07485263 -4.456170006
7.021591582 -26.21235283 -11.36117384
7.144767638 -31.36808921 -4.310304395
0 -31.57186814 -8.726249737
9.150043907 -27.82880444 -8.020904715
-5.080379273 -27.28568997 -16.86348381
4.528072605 -24.31936252 -15.03019262
-2.510113225 -24.13552649 -19.18703539
-2.664155241 -29.54593438 -12.93208119
2.362597956 -22.71712088 -18.05944455
2.513631924 -27.87660521 -12.20142566
-15.102134 26.96357538 -4.090081302
-10.79863408 24.29907748 -11.04554221
-11.32749016 29.22727446 -4.163051519
-2.371709326 18.00703745 -22.926783
-6.648383705 21.2741565 -17.01661379
-2.754064523 33.07485263 -4.456170006
-7.021591582 26.21235283 -11.36117384
-7.144767638 31.36808921 -4.310304395
-9.150043907 27.82880444 -8.020904715
17.64793814 31.50889208 -4.779556439
13.45016006 30.26553906 -13.75769469
12.86943344 33.20580801 -4.729742751
2.508147838 19.04293732 -24.24570354
7.857505615 25.14322452 -20.11137509
0 20.96030814 -21.21003731
2.848296551 34.20652925 -4.60864063
8.2237008 30.69995519 -13.30622741
7.781400785 34.16313677 -4.69437324
0 31.57186814 -8.726249737
10.71464237 32.58735044 -9.392427666
-4.528072605 24.31936252 -15.03019262
5.080379273 27.28568997 -16.86348381
-2.362597956 22.71712088 -18.05944455
-2.513631924 27.87660521 -12.20142566
2.510113225 24.13552649 -19.18703539
2.664155241 29.54593438 -12.93208119
0 -12.72050861 -28.85747705
0 -4.704877769 -33.7790369
0 12.72050861 -28.85747705
0 4.704877769 -33.7790369
22.61231583 28.79028045 -2.978271163
26.70254024 21.35862893 -8.344807155
20.9298693 29.04156952 -7.804862647
28.06298473 4.256849749 -15.71790647
27.81651208 12.64444951 -12.36179997
16.20874186 27.06043316 -16.72426744
24.46236199 20.808928 -12.86062477
18.76940174 28.49119103 -12.58828297
23.2756018 25.24928023 -10.64188825
19.44340283 -24.75558118 -2.560893204
23.6768255 -18.93844277 -7.399241461
17.31008817 -24.01888525 -6.455026481
28.39251011 -4.306835168 -15.90247162
27.00822059 -12.27702742 -12.00259111
12.72716636 -21.24795604 -13.13195902
20.97786851 -17.84484081 -11.02871814
14.93260755 -22.66709297 -10.01501763
19.26032287 -20.89352162 -8.806053886
3.89254025 -14.37273739 -25.66129979
11.21304086 -10.96238852 -24.6675576
6.068293294 -16.27300713 -22.57986713
4.066261428 -11.06412834 -28.54774633
25.11712357 -2.598293717 -19.72736362
18.41774734 -7.19580598 -23.02585251
25.11618165 -6.749922653 -18.10089496
10.26377782 -19.52286555 -16.60714136
13.30420142 -12.89409939 -21.5266501
8.224295104 -17.98791844 -19.51322236
14.2588173 -17.95846444 -15.67195676
9.761814199 -14.55507577 -22.09401504
4.501385456 -2.782009208 -33.41045346
11.82894187 -7.310688125 -27.29158116
4.310117922 -7.144458539 -31.36673216
8.075093682 -9.211861302 -28.01681493
22.8383669 -14.11488699 -13.67979557
17.56916994 -10.85834418 -20.65379798
24.1970213 -10.69098694 -15.94049239
18.51181489 -16.15485353 -14.69817129
21.29249315 -8.974209589 -19.62810771
15.91206529 -14.47727526 -18.23360433
4.206322103 15.5313392 -27.72988475
12.58089036 12.29966161 -27.67668838
6.917039944 18.54904417 -25.73801814
4.327341376 11.77451603 -30.38069394
25.09643341 2.59615338 -19.71111325
19.2807496 7.532980594 -24.10477722
25.35291153 6.813543328 -18.27150301
22.60218369 0 -22.33606325
12.80412986 24.35490229 -20.71751732
15.33377246 14.86110889 -24.81056501
9.867221958 21.58127615 -23.41128251
17.68187147 22.2696773 -19.43425736
11.46922572 17.10086321 -25.95841718
4.571354951 2.825252734 -33.92978524
12.65315499 7.820079846 -29.19319497
4.488588804 7.440292167 -32.66554775
8.894265547 0 -32.17975505
8.785236886 10.02197459 -30.48068117
25.07293019 15.49592305 -15.01826119
19.28005428 11.91572885 -22.66506314
25.29468303 11.17596759 -16.66360901
21.76502839 18.99386137 -17.28118596
22.34914548 9.419559945 -20.60216394
18.60456655 16.92699383 -21.31893623
16.10389601 -4.851541973 -26.0566511
16.64244481 5.013787935 -26.92804136
19.49193376 -2.550001067 -24.51906061
12.79415678 -2.63574125 -29.23081839
19.69387663 2.57641992 -24.77308617
13.0580065 2.69009728 -29.833636
22.61231583 28.79028045 2.978271163
26.70254024 21.35862893 8.344807155
20.9298693 29.04156952 7.804862647
25.68978333 25.99586128 0
28.06298473 4.256849749 15.71790647
27.81651208 12.64444951 12.36179997
16.20874186 27.06043316 16.72426744
24.46236199 20.808928 12.86062477
18.76940174 28.49119103 12.58828297
23.2756018 25.24928023 10.64188825
29.04012511 17.94778435 -5.407041194
29.04012511 17.94778435 5.407041194
27.86664737 22.15316702 -2.898152652
27.86664737 22.15316702 2.898152652
19.44340283 -24.75558118 2.560893204
23.6768255 -18.93844277 7.399241461
17.31008817 -24.01888525 6.455026481
22.65036978 -22.92023499 0
28.39251011 -4.306835168 15.90247162
27.00822059 -12.27702742 12.00259111
12.72716636 -21.24795604 13.13195902
20.97786851 -17.84484081 11.02871814
14.93260755 -22.66709297 10.01501763
19.26032287 -20.89352162 8.806053886
27.79047249 -17.17545656 -5.174365778
27.79047249 -17.17545656 5.174365778
25.50612069 -20.27661757 -2.652656071
25.50612069 -20.27661757 2.652656071
3.89254025 -14.37273739 25.66129979
11.21304086 -10.96238852 24.6675576
6.068293294 -16.27300713 22.57986713
4.066261428 -11.06412834 28.54774633
25.11712357 -2.598293717 19.72736362
18.41774734 -7.19580598 23.02585251
25.11618165 -6.749922653 18.10089496
10.26377782 -19.52286555 16.60714136
13.30420142 -12.89409939 21.5266501
8.224295104 -17.98791844 19.51322236
14.2588173 -17.95846444 15.67195676
9.761814199 -14.55507577 22.09401504
4.501385456 -2.782009208 33.41045346
11.82894187 -7.310688125 27.29158116
4.310117922 -7.144458539 31.36673216
8.075093682 -9.211861302 28.01681493
22.8383669 -14.11488699 13.67979557
17.56916994 -10.85834418 20.65379798
24.1970213 -10.69098694 15.94049239
18.51181489 -16.15485353 14.69817129
21.29249315 -8.974209589 19.62810771
15.91206529 -14.47727526 18.23360433
4.206322103 15.5313392 27.72988475
12.58089036 12.29966161 27.67668838
6.917039944 18.54904417 25.73801814
4.327341376 11.77451603 30.38069394
25.09643341 2.59615338 19.71111325
19.2807496 7.532980594 24.10477722
25.35291153 6.813543328 18.27150301
22.60218369 0 22.33606325
12.80412986 24.35490229 20.71751732
15.33377246 14.86110889 24.81056501
9.867221958 21.58127615 23.41128251
17.68187147 22.2696773 19.43425736
11.46922572 17.10086321 25.95841718
4.571354951 2.825252734 33.92978524
12.65315499 7.820079846 29.19319497
4.488588804 7.440292167 32.66554775
8.894265547 0 32.17975505
8.785236886 10.02197459 30.48068117
25.07293019 15.49592305 15.01826119
19.28005428 11.91572885 22.66506314
25.29468303 11.17596759 16.66360901
21.76502839 18.99386137 17.28118596
22.34914548 9.419559945 20.60216394
18.60456655 16.92699383 21.31893623
16.10389601 -4.851541973 26.0566511
16.64244481 5.013787935 26.92804136
19.49193376 -2.550001067 24.51906061
12.79415678 -2.63574125 29.23081839
19.69387663 2.57641992 24.77308617
13.0580065 2.69009728 29.833636
30.35025837 0 -13.37853348
33.40662328 0 -4.653006528
30.40255332 4.330454966 -11.78298798
31.14654384 -4.436426902 -12.07133321
30.35025837 0 13.37853348
33.40662328 0 4.653006528
30.40255332 4.330454966 11.78298798
31.14654384 -4.436426902 12.07133321
29.77311865 12.90451028 -7.975425963
32.83172479 4.423413428 -2.733819845
30.15642696 8.691779329 -9.915360589
30.80479307 13.48307622 -2.777666458
32.04637181 4.403507537 -7.299261319
29.91276576 -12.96503728 -8.012833706
34.12996537 -4.598325189 -2.841921258
31.01606933 -8.939548131 -10.19800893
31.79381376 -13.91596474 -2.866846399
33.16053601 -4.556605381 -7.553036556
29.77311865 12.90451028 7.975425963
32.83172479 4.423413428 2.733819845
30.15642696 8.691779329 9.915360589
30.80479307 13.48307622 2.777666458
32.04637181 4.403507537 7.299261319
32.03320005 8.853758741 0
29.91276576 -12.96503728 8.012833706
34.12996537 -4.598325189 2.841921258
31.01606933 -8.939548131 10.19800893
31.79381376 -13.91596474 2.866846399
33.16053601 -4.556605381 7.553036556
33.99808077 -9.396838414 0
-19.44340283 24.75558118 -2.560893204
-23.6768255 18.93844277 -7.399241461
-17.31008817 24.01888525 -6.455026481
-28.39251011 4.306835168 -15.90247162
-27.00822059 12.27702742 -12.00259111
-12.72716636 21.24795604 -13.13195902
-20.97786851 17.84484081 -11.02871814
-14.93260755 22.66709297 -10.01501763
-19.26032287 20.89352162 -8.806053886
-22.61231583 -28.79028045 -2.978271163
-26.70254024 -21.35862893 -8.344807155
-20.9298693 -29.04156952 -7.804862647
-28.06298473 -4.256849749 -15.71790647
-27.81651208 -12.64444951 -12.36179997
-16.20874186 -27.06043316 -16.72426744
-24.46236199 -20.808928 -12.86062477
-18.76940174 -28.49119103 -12.58828297
-23.2756018 -25.24928023 -10.64188825
-4.206322103 -15.5313392 -27.72988475
-12.58089036 -12.29966161 -27.67668838
-6.917039944 -18.54904417 -25.73801814
-4.327341376 -11.77451603 -30.38069394
-25.09643341 -2.59615338 -19.71111325
-19.2807496 -7.532980594 -24.10477722
-25.35291153 -6.813543328 -18.27150301
-12.80412986 -24.35490229 -20.71751732
-15.33377246 -14.86110889 -24.81056501
-9.867221958 -21.58127615 -23.41128251
-17.68187147 -22.2696773 -19.43425736
-11.46922572 -17.10086321 -25.95841718
-4.571354951 -2.825252734 -33.92978524
-12.65315499 -7.820079846 -29.19319497
-4.488588804 -7.440292167 -32.66554775
-8.785236886 -10.02197459 -30.48068117
-25.07293019 -15.49592305 -15.01826119
-19.28005428 -11.91572885 -22.66506314
-25.29468303 -11.17596759 -16.66360901
-21.76502839 -18.99386137 -17.28118596
-22.34914548 -9.419559945 -20.60216394
-18.60456655 -16.92699383 -21.31893623
-3.89254025 14.37273739 -25.66129979
-11.21304086 10.96238852 -24.6675576
-6.068293294 16.27300713 -22.57986713
-4.066261428 11.06412834 -28.54774633
-25.11712357 2.598293717 -19.72736362
-18.41774734 7.19580598 -23.02585251
-25.11618165 6.749922653 -18.10089496
-22.60218369 0 -22.33606325
-10.26377782 19.52286555 -16.60714136
-13.30420142 12.89409939 -21.5266501
-8.224295104 17.98791844 -19.51322236
-14.2588173 17.95846444 -15.67195676
-9.761814199 14.55507577 -22.09401504
-4.501385456 2.782009208 -33.41045346
-11.82894187 7.310688125 -27.29158116
-4.310117922 7.144458539 -31.36673216
-8.894265547 0 -32.17975505
-8.075093682 9.211861302 -28.01681493
-22.8383669 14.11488699 -13.67979557
-17.56916994 10.85834418 -20.65379798
-24.1970213 10.69098694 -15.94049239
-18.51181489 16.15485353 -14.69817129
-21.29249315 8.974209589 -19.62810771
-15.91206529 14.47727526 -18.23360433
-16.64244481 -5.013787935 -26.92804136
-16.10389601 4.851541973 -26.0566511
-19.69387663 -2.57641992 -24.77308617
-13.0580065 -2.69009728 -29.833636
-19.49193376 2.550001067 -24.51906061
-12.79415678 2.63574125 -29.23081839
-19.44340283 24.75558118 2.560893204
-23.6768255 18.93844277 7.399241461
-17.31008817 24.01888525 6.455026481
-22.65036978 22.92023499 0
-28.39251011 4.306835168 15.90247162
-27.00822059 12.27702742 12.00259111
-12.72716636 21.24795604 13.13195902
-20.97786851 17.84484081 11.02871814
-14.93260755 22.66709297 10.01501763
-19.26032287 20.89352162 8.806053886
-27.79047249 17.17545656 -5.174365778
-27.79047249 17.17545656 5.174365778
-25.50612069 20.27661757 -2.652656071
-25.50612069 20.27661757 2.652656071
-22.61231583 -28.79028045 2.978271163
-26.70254024 -21.35862893 8.344807155
-20.9298693 -29.04156952 7.804862647
-25.68978333 -25.99586128 0
-28.06298473 -4.256849749 15.71790647
-27.81651208 -12.64444951 12.36179997
-16.20874186 -27.06043316 16.72426744
-24.46236199 -20.808928 12.86062477
-18.76940174 -28.49119103 12.58828297
-23.2756018 -25.24928023 10.64188825
-29.04012511 -17.94778435 -5.407041194
-29.04012511 -17.94778435 5.407041194
-27.86664737 -22.15316702 -2.898152652
-27.86664737 -22.15316702 2.898152652
-4.206322103 -15.5313392 27.72988475
-12.58089036 -12.29966161 27.67668838
-6.917039944 -18.54904417 25.73801814
-4.327341376 -11.77451603 30.38069394
-25.09643341 -2.59615338 19.71111325
-19.2807496 -7.532980594 24.10477722
-25.35291153 -6.813543328 18.27150301
-12.80412986 -24.35490229 20.71751732
-15.33377246 -14.86110889 24.81056501
-9.867221958 -21.58127615 23.41128251
-17.68187147 -22.2696773 19.43425736
-11.46922572 -17.10086321 25.95841718
-4.571354951 -2.825252734 33.92978524
-12.65315499 -7.820079846 29.19319497
-4.488588804 -7.440292167 32.66554775
-8.785236886 -10.02197459 30.48068117
-25.07293019 -15.49592305 15.01826119
-19.28005428 -11.91572885 22.66506314
-25.29468303 -11.17596759 16.66360901
-21.76502839 -18.99386137 17.28118596
-22.34914548 -9.419559945 20.60216394
-18.60456655 -16.92699383 21.31893623
-3.89254025 14.37273739 25.66129979
-11.21304086 10.96238852 24.6675576
-6.068293294 16.27300713 22.57986713
-4.066261428 11.06412834 28.54774633
-25.11712357 2.598293717 19.72736362
-18.41774734 7.19580598 23.02585251
-25.11618165 6.749922653 18.10089496
-22.60218369 0 22.33606325
-10.26377782 19.52286555 16.60714136
-13.30420142 12.89409939 21.5266501
-8.224295104 17.98791844 19.51322236
-14.2588173 17.95846444 15.67195676
-9.761814199 14.55507577 22.09401504
-4.501385456 2.782009208 33.41045346
-11.82894187 7.310688125 27.29158116
-4.310117922 7.144458539 31.36673216
-8.894265547 0 32.17975505
-8.075093682 9.211861302 28.01681493
-22.8383669 14.11488699 13.67979557
-17.56916994 10.85834418 20.65379798
-24.1970213 10.69098694 15.94049239
-18.51181489 16.15485353 14.69817129
-21.29249315 8.974209589 19.62810771
-15.91206529 14.47727526 18.23360433
-16.64244481 -5.013787935 26.92804136
-16.10389601 4.851541973 26.0566511
-19.69387663 -2.57641992 24.77308617
-13.0580065 -2.69009728 29.833636
-19.49193376 2.550001067 24.51906061
-12.79415678 2.63574125 29.23081839
-30.35025837 0 -13.37853348
-33.40662328 0 -4.653006528
-31.14654384 4.436426902 -12.07133321
-30.40255332 -4.330454966 -11.78298798
-30.35025837 0 13.37853348
-33.40662328 0 4.653006528
-31.14654384 4.436426902 12.07133321
-30.40255332 -4.330454966 11.78298798
-29.91276576 12.96503728 -8.012833706
-34.12996537 4.598325189 -2.841921258
-31.01606933 8.939548131 -10.19800893
-31.79381376 13.91596474 -2.866846399
-33.16053601 4.556605381 -7.553036556
-29.77311865 -12.90451028 -7.975425963
-32.83172479 -4.423413428 -2.733819845
-30.15642696 -8.691779329 -9.915360589
-30.80479307 -13.48307622 -2.777666458
-32.04637181 -4.403507537 -7.299261319
-29.91276576 12.96503728 8.012833706
-34.12996537 4.598325189 2.841921258
-31.01606933 8.939548131 10.19800893
-31.79381376 13.91596474 2.866846399
-33.16053601 4.556605381 7.553036556
-33.99808077 9.396838414 0
-29.77311865 -12.90451028 7.975425963
-32.83172479 -4.423413428 2.733819845
-30.15642696 -8.691779329 9.915360589
-30.80479307 -13.48307622 2.777666458
-32.04637181 -4.403507537 7.299261319
-32.03320005 -8.853758741 0
-14.87270631 28.26502464 0
-11.020618 30.57172679 0
-2.370986521 34.20969233 0
-6.875243735 32.64216114 0
16.88515967 32.08961734 0
12.14485095 33.6904033 0
2.421318648 34.93590758 0
7.308686332 34.70005227 0
-16.88515967 -32.08961734 0
-12.14485095 -33.6904033 0
-2.421318648 -34.93590758 0
-7.308686332 -34.70005227 0
14.87270631 -28.26502464 0
11.020618 -30.57172679 0
2.370986521 -34.20969233 0
6.875243735 -32.64216114 0
-18.453791 -31.34014186 2.396762691
-16.7625464 -31.53434173 7.138720517
-16.12544523 -32.33042408 2.383049892
-12.11552982 -29.27555197 15.64996927
-14.67674309 -30.96327788 11.67542374
-11.32558066 -33.82890737 2.361179053
-14.36546091 -32.40768767 7.100913961
-13.72969744 -33.15942446 2.373458578
-15.28351427 -32.45133715 4.767414923
-1.246478413 -17.54546805 25.12584081
-3.793722838 -20.55198534 23.32171549
-9.27950771 -26.63818142 18.80741635
-6.465364211 -23.61154007 21.2777311
-1.433738276 -34.65150083 2.319837261
-4.231020597 -33.52183029 6.845935132
-3.872110409 -34.78524575 2.340047196
-9.497357382 -29.47947784 15.36704705
-6.915770436 -31.75795839 11.18995162
-10.84544692 -30.65909388 13.60375809
-8.790754942 -34.35762026 2.366001272
-6.707583777 -33.61795077 6.936931038
-6.345635069 -34.67859298 2.353322861
-10.33554506 -33.78841062 4.725914065
-5.307365022 -34.30029839 4.666746387
-13.27686681 -32.12741416 9.463056534
-8.137279065 -32.76716236 9.246823932
-12.12507322 -31.55714433 11.6122977
-11.84195606 -33.04943919 7.105990979
-9.502458557 -31.80623432 11.44425858
-9.264981615 -33.45493121 7.052573086
16.02352769 -27.21281664 2.081122158
14.05646139 -26.44355138 5.986271235
14.16338458 -28.39662555 2.093092725
9.743749693 -23.54446358 12.58627444
11.87359199 -25.04951717 9.445502786
10.2671066 -30.66730163 2.140506326
12.20892715 -27.54266643 6.034929322
12.23840043 -29.55770266 2.115657436
13.23807344 -28.10827252 4.129376773
1.212859109 -17.07224171 24.44816097
3.484900541 -18.87898191 21.42324634
0 -18.54713373 23.61444027
7.676043089 -22.03520217 15.55756435
5.61348265 -20.50046466 18.47416023
-2.479335528 -21.55904043 21.81590312
2.338533571 -20.33469824 20.57697365
-1.232965606 -20.04932721 22.73426677
1.19766441 -19.47529237 22.08335908
1.41406053 -34.17591654 2.287998
3.981600721 -31.5457088 6.442365296
3.73295447 -33.53513327 2.255950558
0 -33.78326932 4.551614882
7.885495438 -24.47631258 12.75899964
6.0966912 -27.99665883 9.864653581
8.934272463 -25.25637719 11.20651663
8.125170177 -31.75626136 2.186861436
6.118172275 -30.66386066 6.327366241
5.98521303 -32.70890373 2.219657843
9.276455013 -30.32609014 4.241646569
4.994770744 -32.28007235 4.391883397
-2.735961123 -32.24883355 8.913358373
2.607681979 -30.73680447 8.495443815
-1.394555203 -33.09170811 6.77376415
1.365657519 -32.40598858 6.63339961
11.07981269 -26.81097403 7.897111224
7.159215835 -28.82870131 8.135398552
10.00665852 -26.04368331 9.583471835
10.25059253 -28.60813979 6.151063021
8.075787114 -27.03093897 9.72605094
8.213511056 -29.65817513 6.252185857
-7.849406166 -27.81213851 17.1888469
-2.461383717 -26.60397256 16.44215928
-6.471256619 -26.29197916 18.5178938
-6.638811786 -29.0880182 15.21364562
6.647574446 -23.55378959 14.55704253
2.321189734 -25.08867981 15.50565686
5.606753117 -22.77959982 16.04406452
5.767150175 -25.2688244 13.21612689
-3.799517961 -23.16488194 20.78081043
-1.245032489 -25.02367942 17.58366019
-5.11203505 -24.72027874 19.71163578
-1.232801316 -22.53315214 20.2300194
-3.769590145 -25.71037833 18.08025633
-4.105145963 -31.26090795 11.1100117
-1.293464146 -27.71012194 14.5388689
-5.379505737 -30.23225494 13.16878181
-1.341644438 -30.58731151 10.85413151
-3.875222563 -28.45511091 14.91387851
3.476997581 -21.19854131 19.01684065
1.207497452 -24.2692696 17.05355086
4.547826659 -21.99193503 17.53608921
1.196162328 -21.86346443 19.62878105
3.449568066 -23.52767718 16.54531991
0 -23.43504765 18.63017527
3.789218509 -28.85510334 10.2549976
1.254675721 -26.87915034 14.10287706
4.81351825 -27.05146496 11.78327056
1.305374715 -29.76042081 10.56070329
3.551276034 -26.07642575 13.66716324
0 -28.74262467 12.58047727
-16.02352769 27.21281664 2.081122158
-14.05646139 26.44355138 5.986271235
-14.16338458 28.39662555 2.093092725
-9.743749693 23.54446358 12.58627444
-11.87359199 25.04951717 9.445502786
-10.2671066 30.66730163 2.140506326
-12.20892715 27.54266643 6.034929322
-12.23840043 29.55770266 2.115657436
-13.23807344 28.10827252 4.129376773
-1.212859109 17.07224171 24.44816097
-3.484900541 18.87898191 21.42324634
-7.676043089 22.03520217 15.55756435
-5.61348265 20.50046466 18.47416023
-1.41406053 34.17591654 2.287998
-3.981600721 31.5457088 6.442365296
-3.73295447 33.53513327 2.255950558
-7.885495438 24.47631258 12.75899964
-6.0966912 27.99665883 9.864653581
-8.934272463 25.25637719 11.20651663
-8.125170177 31.75626136 2.186861436
-6.118172275 30.66386066 6.327366241
-5.98521303 32.70890373 2.219657843
-9.276455013 30.32609014 4.241646569
-4.994770744 32.28007235 4.391883397
-11.07981269 26.81097403 7.897111224
-7.159215835 28.82870131 8.135398552
-10.00665852 26.04368331 9.583471835
-10.25059253 28.60813979 6.151063021
-8.075787114 27.03093897 9.72605094
-8.213511056 29.65817513 6.252185857
18.453791 31.34014186 2.396762691
16.7625464 31.53434173 7.138720517
16.12544523 32.33042408 2.383049892
12.11552982 29.27555197 15.64996927
14.67674309 30.96327788 11.67542374
11.32558066 33.82890737 2.361179053
14.36546091 32.40768767 7.100913961
13.72969744 33.15942446 2.373458578
15.28351427 32.45133715 4.767414923
1.246478413 17.54546805 25.12584081
3.793722838 20.55198534 23.32171549
0 18.54713373 23.61444027
9.27950771 26.63818142 18.80741635
6.465364211 23.61154007 21.2777311
-2.338533571 20.33469824 20.57697365
2.479335528 21.55904043 21.81590312
-1.19766441 19.47529237 22.08335908
1.232965606 20.04932721 22.73426677
1.433738276 34.65150083 2.319837261
4.231020597 33.52183029 6.845935132
3.872110409 34.78524575 2.340047196
0 33.78326932 4.551614882
9.497357382 29.47947784 15.36704705
6.915770436 31.75795839 11.18995162
10.84544692 30.65909388 13.60375809
8.790754942 34.35762026 2.366001272
6.707583777 33.61795077 6.936931038
6.345635069 34.67859298 2.353322861
10.33554506 33.78841062 4.725914065
5.307365022 34.30029839 4.666746387
-2.607681979 30.73680447 8.495443815
2.735961123 32.24883355 8.913358373
-1.365657519 32.40598858 6.63339961
1.394555203 33.09170811 6.77376415
13.27686681 32.12741416 9.463056534
8.137279065 32.76716236 9.246823932
12.12507322 31.55714433 11.6122977
11.84195606 33.04943919 7.105990979
9.502458557 31.80623432 11.44425858
9.264981615 33.45493121 7.052573086
-6.647574446 23.55378959 14.55704253
-2.321189734 25.08867981 15.50565686
-5.606753117 22.77959982 16.04406452
-5.767150175 25.2688244 13.21612689
7.849406166 27.81213851 17.1888469
2.461383717 26.60397256 16.44215928
6.471256619 26.29197916 18.5178938
6.638811786 29.0880182 15.21364562
-3.476997581 21.19854131 19.01684065
-1.207497452 24.2692696 17.05355086
-4.547826659 21.99193503 17.53608921
-1.196162328 21.86346443 19.62878105
-3.449568066 23.52767718 16.54531991
-3.789218509 28.85510334 10.2549976
-1.254675721 26.87915034 14.10287706
-4.81351825 27.05146496 11.78327056
-1.305374715 29.76042081 10.56070329
-3.551276034 26.07642575 13.66716324
3.799517961 23.16488194 20.78081043
1.245032489 25.02367942 17.58366019
5.11203505 24.72027874 19.71163578
1.232801316 22.53315214 20.2300194
3.769590145 25.71037833 18.08025633
0 23.43504765 18.63017527
4.105145963 31.26090795 11.1100117
1.293464146 27.71012194 14.5388689
5.379505737 30.23225494 13.16878181
1.341644438 30.58731151 10.85413151
3.875222563 28.45511091 14.91387851
0 28.74262467 12.58047727
0 -14.42882913 27.42145258
0 -10.90850495 30.26071977
0 -2.386530942 34.43397444
0 -6.907743962 32.79646514
0 14.42882913 27.42145258
0 10.90850495 30.26071977
0 2.386530942 34.43397444
0 6.907743962 32.79646514
-18.453791 -31.34014186 -2.396762691
-16.7625464 -31.53434173 -7.138720517
-16.12544523 -32.33042408 -2.383049892
-12.11552982 -29.27555197 -15.64996927
-14.67674309 -30.96327788 -11.67542374
-11.32558066 -33.82890737 -2.361179053
-14.36546091 -32.40768767 -7.100913961
-13.72969744 -33.15942446 -2.373458578
-15.28351427 -32.45133715 -4.767414923
-1.246478413 -17.54546805 -25.12584081
-3.793722838 -20.55198534 -23.32171549
-9.27950771 -26.63818142 -18.80741635
-6.465364211 -23.61154007 -21.2777311
-1.433738276 -34.65150083 -2.319837261
-4.231020597 -33.52183029 -6.845935132
-3.872110409 -34.78524575 -2.340047196
-9.497357382 -29.47947784 -15.36704705
-6.915770436 -31.75795839 -11.18995162
-10.84544692 -30.65909388 -13.60375809
-8.790754942 -34.35762026 -2.366001272
-6.707583777 -33.61795077 -6.936931038
-6.345635069 -34.67859298 -2.353322861
-10.33554506 -33.78841062 -4.725914065
-5.307365022 -34.30029839 -4.666746387
-13.27686681 -32.12741416 -9.463056534
-8.137279065 -32.76716236 -9.246823932
-12.12507322 -31.55714433 -11.6122977
-11.84195606 -33.04943919 -7.105990979
-9.502458557 -31.80623432 -11.44425858
-9.264981615 -33.45493121 -7.052573086
16.02352769 -27.21281664 -2.081122158
14.05646139 -26.44355138 -5.986271235
14.16338458 -28.39662555 -2.093092725
9.743749693 -23.54446358 -12.58627444
11.87359199 -25.04951717 -9.445502786
10.2671066 -30.66730163 -2.140506326
12.20892715 -27.54266643 -6.034929322
12.23840043 -29.55770266 -2.115657436
13.23807344 -28.10827252 -4.129376773
1.212859109 -17.07224171 -24.44816097
3.484900541 -18.87898191 -21.42324634
0 -18.54713373 -23.61444027
7.676043089 -22.03520217 -15.55756435
5.61348265 -20.50046466 -18.47416023
-2.479335528 -21.55904043 -21.81590312
2.338533571 -20.33469824 -20.57697365
-1.232965606 -20.04932721 -22.73426677
1.19766441 -19.47529237 -22.08335908
1.41406053 -34.17591654 -2.287998
3.981600721 -31.5457088 -6.442365296
3.73295447 -33.53513327 -2.255950558
0 -33.78326932 -4.551614882
7.885495438 -24.47631258 -12.75899964
6.0966912 -27.99665883 -9.864653581
8.934272463 -25.25637719 -11.20651663
8.125170177 -31.75626136 -2.186861436
6.118172275 -30.66386066 -6.327366241
5.98521303 -32.70890373 -2.219657843
9.276455013 -30.32609014 -4.241646569
4.994770744 -32.28007235 -4.391883397
-2.735961123 -32.24883355 -8.913358373
2.607681979 -30.73680447 -8.495443815
-1.394555203 -33.09170811 -6.77376415
1.365657519 -32.40598858 -6.63339961
11.07981269 -26.81097403 -7.897111224
7.159215835 -28.82870131 -8.135398552
10.00665852 -26.04368331 -9.583471835
10.25059253 -28.60813979 -6.151063021
8.075787114 -27.03093897 -9.72605094
8.213511056 -29.65817513 -6.252185857
-7.849406166 -27.81213851 -17.1888469
-2.461383717 -26.60397256 -16.44215928
-6.471256619 -26.29197916 -18.5178938
-6.638811786 -29.0880182 -15.21364562
6.647574446 -23.55378959 -14.55704253
2.321189734 -25.08867981 -15.50565686
5.606753117 -22.77959982 -16.04406452
5.767150175 -25.2688244 -13.21612689
-3.799517961 -23.16488194 -20.78081043
-1.245032489 -25.02367942 -17.58366019
-5.11203505 -24.72027874 -19.71163578
-1.232801316 -22.53315214 -20.2300194
-3.769590145 -25.71037833 -18.08025633
-4.105145963 -31.26090795 -11.1100117
-1.293464146 -27.71012194 -14.5388689
-5.379505737 -30.23225494 -13.16878181
-1.341644438 -30.58731151 -10.85413151
-3.875222563 -28.45511091 -14.91387851
3.476997581 -21.19854131 -19.01684065
1.207497452 -24.2692696 -17.05355086
4.547826659 -21.99193503 -17.53608921
1.196162328 -21.86346443 -19.62878105
3.449568066 -23.52767718 -16.54531991
0 -23.43504765 -18.63017527
3.789218509 -28.85510334 -10.2549976
1.254675721 -26.87915034 -14.10287706
4.81351825 -27.05146496 -11.78327056
1.305374715 -29.76042081 -10.56070329
3.551276034 -26.07642575 -13.66716324
0 -28.74262467 -12.58047727
-16.02352769 27.21281664 -2.081122158
-14.05646139 26.44355138 -5.986271235
-14.16338458 28.39662555 -2.093092725
-9.743749693 23.54446358 -12.58627444
-11.87359199 25.04951717 -9.445502786
-10.2671066 30.66730163 -2.140506326
-12.20892715 27.54266643 -6.034929322
-12.23840043 29.55770266 -2.115657436
-13.23807344 28.10827252 -4.129376773
-1.212859109 17.07224171 -24.44816097
-3.484900541 18.87898191 -21.42324634
-7.676043089 22.03520217 -15.55756435
-5.61348265 20.50046466 -18.47416023
-1.41406053 34.17591654 -2.287998
-3.981600721 31.5457088 -6.442365296
-3.73295447 33.53513327 -2.255950558
-7.885495438 24.47631258 -12.75899964
-6.0966912 27.99665883 -9.864653581
-8.934272463 25.25637719 -11.20651663
-8.125170177 31.75626136 -2.186861436
-6.118172275 30.66386066 -6.327366241
-5.98521303 32.70890373 -2.219657843
-9.276455013 30.32609014 -4.241646569
-4.994770744 32.28007235 -4.391883397
-11.07981269 26.81097403 -7.897111224
-7.159215835 28.82870131 -8.135398552
-10.00665852 26.04368331 -9.583471835
-10.25059253 28.60813979 -6.151063021
-8.075787114 27.03093897 -9.72605094
-8.213511056 29.65817513 -6.252185857
18.453791 31.34014186 -2.396762691
16.7625464 31.53434173 -7.138720517
16.12544523 32.33042408 -2.383049892
12.11552982 29.27555197 -15.64996927
14.67674309 30.96327788 -11.67542374
11.32558066 33.82890737 -2.361179053
14.36546091 32.40768767 -7.100913961
13.72969744 33.15942446 -2.373458578
15.28351427 32.45133715 -4.767414923
1.246478413 17.54546805 -25.12584081
3.793722838 20.55198534 -23.32171549
0 18.54713373 -23.61444027
9.27950771 26.63818142 -18.80741635
6.465364211 23.61154007 -21.2777311
-2.338533571 20.33469824 -20.57697365
2.479335528 21.55904043 -21.81590312
-1.19766441 19.47529237 -22.08335908
1.232965606 20.04932721 -22.73426677
1.433738276 34.65150083 -2.319837261
4.231020597 33.52183029 -6.845935132
3.872110409 34.78524575 -2.340047196
0 33.78326932 -4.551614882
9.497357382 29.47947784 -15.36704705
6.915770436 31.75795839 -11.18995162
10.84544692 30.65909388 -13.60375809
8.790754942 34.35762026 -2.366001272
6.707583777 33.61795077 -6.936931038
6.345635069 34.67859298 -2.353322861
10.33554506 33.78841062 -4.725914065
5.307365022 34.30029839 -4.666746387
-2.607681979 30.73680447 -8.495443815
2.735961123 32.24883355 -8.913358373
-1.365657519 32.40598858 -6.63339961
1.394555203 33.09170811 -6.77376415
13.27686681 32.12741416 -9.463056534
8.137279065 32.76716236 -9.246823932
12.12507322 31.55714433 -11.6122977
11.84195606 33.04943919 -7.105990979
9.502458557 31.80623432 -11.44425858
9.264981615 33.45493121 -7.052573086
-6.647574446 23.55378959 -14.55704253
-2.321189734 25.08867981 -15.50565686
-5.606753117 22.77959982 -16.04406452
-5.767150175 25.2688244 -13.21612689
7.849406166 27.81213851 -17.1888469
2.461383717 26.60397256 -16.44215928
6.471256619 26.29197916 -18.5178938
6.638811786 29.0880182 -15.21364562
-3.476997581 21.19854131 -19.01684065
-1.207497452 24.2692696 -17.05355086
-4.547826659 21.99193503 -17.53608921
-1.196162328 21.86346443 -19.62878105
-3.449568066 23.52767718 -16.54531991
-3.789218509 28.85510334 -10.2549976
-1.254675721 26.87915034 -14.10287706
-4.81351825 27.05146496 -11.78327056
-1.305374715 29.76042081 -10.56070329
-3.551276034 26.07642575 -13.66716324
3.799517961 23.16488194 -20.78081043
1.245032489 25.02367942 -17.58366019
5.11203505 24.72027874 -19.71163578
1.232801316 22.53315214 -20.2300194
3.769590145 25.71037833 -18.08025633
0 23.43504765 -18.63017527
4.105145963 31.26090795 -11.1100117
1.293464146 27.71012194 -14.5388689
5.379505737 30.23225494 -13.16878181
1.341644438 30.58731151 -10.85413151
3.875222563 28.45511091 -14.91387851
0 28.74262467 -12.58047727
0 -14.42882913 -27.42145258
0 -10.90850495 -30.26071977
0 -2.386530942 -34.43397444
0 -6.907743962 -32.79646514
0 14.42882913 -27.42145258
0 10.90850495 -30.26071977
0 2.386530942 -34.43397444
0 6.907743962 -32.79646514
20.97212577 30.03295734 -1.489917622
24.04028153 27.28011901 -4.437632839
20.21388325 30.29596156 -3.900737874
27.13825353 19.16048342 -9.453709655
26.07573939 23.49836434 -7.140116731
18.44206725 30.37136491 -8.676924818
23.19951493 27.41133099 -6.852300599
19.37082592 30.41476705 -6.316122815
21.82858896 28.99383692 -5.409067427
27.96019032 2.138278164 -16.46359837
28.07158483 6.35482422 -14.92186668
27.65729568 14.78489041 -11.44582315
27.93636241 10.5340549 -13.24197056
13.54392783 27.81452422 -17.19032135
18.62170228 25.84945451 -15.97584148
14.92317447 28.83450247 -15.33745385
26.03522155 18.91522438 -11.69025157
22.71599813 22.62477363 -13.98287909
25.66127355 21.15435414 -10.65895839
17.37293016 30.10276244 -11.08280351
19.90708477 26.53857484 -13.91230245
16.21287782 29.60661916 -13.27664687
19.91858265 28.87113119 -10.24302436
17.54936597 27.8837529 -14.73583571
24.31848576 25.46377328 -8.279549147
22.0890301 24.86632541 -12.89954406
25.10796605 23.37710979 -9.519358168
22.25374861 27.29912072 -9.295239084
23.97301065 23.07555503 -11.81825037
21.14869098 27.00559237 -11.67202546
18.14750577 -25.98798388 -1.289248832
20.62480698 -23.40435108 -3.807165096
17.28729192 -25.9096743 -3.335984159
24.58513935 -17.35790235 -8.564323012
22.72253511 -20.47659706 -6.221934904
15.13621319 -24.92711083 -7.121532642
19.49930494 -23.03935678 -5.759391921
16.24694774 -25.5098638 -5.297539597
18.44378271 -24.4979659 -4.570321263
28.15669453 -2.153305983 -16.57930453
28.37883497 -6.424379276 -15.08519005
26.26530353 -14.04076663 -10.86975468
27.64224497 -10.42315108 -13.10255747
10.72434867 -22.0240878 -13.61163483
14.7344952 -20.45348259 -12.64094743
11.77864731 -22.75865873 -12.10563207
23.18334654 -16.84326753 -10.40971181
18.84206615 -18.76639886 -11.59827234
22.33234917 -18.41009264 -9.276218501
13.97284913 -24.21130771 -8.913772166
15.85984357 -21.14310813 -11.08383991
12.86651126 -23.49576078 -10.53632355
16.12212583 -23.36832987 -8.290716793
13.81979478 -21.95792962 -11.60419276
20.51367552 -21.47977418 -6.984151329
18.00421603 -20.26791998 -10.51409577
21.44066039 -19.96261548 -8.128947011
18.30807459 -22.4588831 -7.647157946
20.12890317 -19.37535588 -9.923176562
17.07722459 -21.80657737 -9.42497105
1.976061379 -15.21461587 -25.8390387
5.761824612 -13.5294346 -25.45208848
3.128229639 -16.21069417 -24.2961019
2.011454709 -13.61096251 -27.28905676
13.01289326 -10.07401954 -24.34251634
9.410508778 -11.82960232 -24.9567129
5.315682366 -17.99705817 -21.26438073
6.827118993 -14.51046197 -23.89659085
4.246229955 -17.13589442 -22.76076246
5.006251383 -15.35360013 -24.1071895
2.105142447 -10.09748098 -30.16063892
5.889670096 -11.91506135 -26.8797214
2.057454399 -11.90171451 -28.74455208
3.981836344 -12.76508413 -27.10397894
26.49936382 -1.314618094 -18.50460428
23.58214298 -3.836086347 -20.78148398
26.79407149 -3.449854174 -17.87737391
16.61875301 -8.199629537 -23.5382335
20.19630752 -6.136767272 -22.41150252
26.64582644 -7.612559835 -16.17984982
23.54228584 -5.885114423 -19.92495776
26.84287069 -5.574360235 -17.09592497
25.23126667 -4.707125278 -18.99586283
9.494169846 -21.14435381 -15.36188951
11.02329597 -17.90798368 -17.83606754
8.471954304 -20.39609585 -16.81390575
11.48996837 -20.38573696 -14.88784962
14.06790421 -11.08383465 -22.76234716
12.54002851 -14.61686245 -20.29019235
12.28068102 -11.94896802 -23.08775177
6.415067484 -18.8421766 -19.72955545
10.00729722 -17.13638006 -19.29096936
7.441503564 -19.62748072 -18.27443014
7.162418641 -17.14755935 -21.03525572
9.249303486 -18.76196932 -18.05959468
15.50340225 -18.79240422 -13.93243596
13.02211078 -17.12367937 -17.37452337
13.49916369 -19.59936044 -14.41064918
12.25864008 -18.74804184 -16.14528752
8.703824235 -13.6437437 -23.64105374
10.78357737 -15.43019854 -20.57033882
10.48490108 -12.80371631 -23.38108984
7.926964987 -15.41477416 -22.34305396
11.53104407 -13.73267973 -21.81951468
8.990654199 -16.29028038 -20.80169747
2.298301033 -1.420428155 -34.32981335
6.555228619 -4.05135409 -32.09835574
2.268785058 -3.754191905 -33.72592055
13.36000193 -8.256935283 -25.62924937
10.20011344 -6.304016795 -28.94872016
11.53862948 -9.19904579 -26.00486735
2.173333512 -8.074907879 -31.55981715
6.403790046 -6.192069373 -31.03422786
2.223128495 -5.994571495 -32.76004729
4.195712091 -9.175996593 -29.99767685
4.424523144 -5.03189105 -32.51997248
7.841646362 -11.00199433 -26.62266884
8.284483791 -7.290412039 -29.35700165
9.690072893 -10.11796686 -26.33337835
6.087768048 -10.14511304 -28.31375954
9.962761142 -8.272333606 -27.68881122
6.266686338 -8.232560372 -29.72696033
24.15123935 -14.92628679 -11.76013799
21.52612044 -13.30387408 -15.50721335
24.91511459 -13.25267951 -12.8947119
21.92097526 -16.00904514 -12.35527138
16.21240926 -10.01981996 -22.315023
18.89937328 -11.68045505 -18.97557673
18.03087391 -9.085143102 -21.87233817
15.42100889 -11.90144373 -21.11578495
26.19820497 -9.645279513 -15.11952885
22.18980356 -11.63254848 -16.64498953
25.61586399 -11.48705222 -14.02750077
24.73869931 -8.776902372 -17.06756219
23.54725235 -12.44410834 -14.82007642
17.64389385 -17.90235844 -13.4177203
19.37174142 -14.36194877 -15.98134522
19.73807844 -16.99787925 -12.9059878
16.36038304 -17.07799488 -15.19926269
20.64011559 -15.17587605 -14.21598933
21.69061206 -7.052705293 -20.71503051
20.78618256 -10.78294735 -18.46459437
19.87331567 -8.092583365 -21.34474875
23.22806127 -7.909059971 -18.9350947
19.42221905 -9.947177747 -20.17758894
22.75440112 -9.834627791 -17.81948684
13.83322106 -15.39300027 -18.65858078
18.03518173 -13.51727063 -17.77479951
14.61877312 -13.69412362 -19.88242167
15.08575286 -16.23820183 -16.95045446
16.74713125 -12.71560225 -19.44690778
17.21024915 -15.31696781 -16.48708003
2.059387847 15.85618512 -26.92861814
6.398309093 15.02397422 -28.26367343
3.351741985 17.36895002 -26.03206101
2.089934006 14.1420104 -28.35377175
14.39278025 11.14226841 -26.92379639
10.63898579 13.3738753 -28.21463963
6.025189736 20.39920422 -24.1026306
7.769348794 16.51309144 -27.19462624
4.680794786 18.88960468 -25.09012922
5.557722894 17.04490014 -26.76275495
2.16914531 10.40447574 -31.07761594
6.463756671 13.07646372 -29.49978108
2.129749907 12.31992086 -29.75458759
4.273741307 13.70088136 -29.09094809
26.43514827 1.311432398 -18.45976232
23.70439333 3.855972704 -20.88921565
26.65194672 3.431554987 -17.78254631
25.24628211 0 -19.82880666
17.71942135 8.742695113 -25.0971825
20.79487895 6.318646735 -23.07572716
26.751974 7.642885585 -16.24430463
23.85303709 5.962796203 -20.18796134
26.74099986 5.553205093 -17.03104457
25.2707334 4.71448816 -19.02557615
22.41764444 -2.547722274 -22.15369679
22.52560126 2.559991359 -22.26038251
23.89461426 -1.295895655 -21.0726365
23.90882968 1.296666612 -21.08517307
11.82535594 26.33611091 -19.13382785
13.62822558 22.13984292 -22.05093219
10.36169081 24.94560657 -20.56438059
14.54625186 25.80825766 -18.84795529
15.74025339 12.40144682 -25.46826497
14.86393465 17.32564548 -24.05035147
13.97440868 13.59694647 -26.27196963
7.479881318 21.96972131 -23.00439295
12.17102562 20.84152354 -23.4619675
8.897802917 23.46857106 -21.85072901
8.384206298 20.07264337 -24.62351509
11.33601995 22.99481888 -22.13398294
19.27928103 23.36932478 -17.32570335
16.01713889 21.06205019 -21.3705872
17.05765641 24.76591616 -18.20941711
15.3706153 23.50741494 -20.24392607
10.02678309 15.71755759 -27.23443299
12.89552945 18.45218639 -24.59901765
12.06298938 14.73081079 -26.90019069
9.241947854 17.97188952 -26.04948299
13.47904908 16.0526196 -25.50560968
10.71984082 19.42341556 -24.80252057
2.308186898 1.426537955 -34.4774789
6.752942903 4.173548238 -33.06648421
2.294792439 3.7972267 -34.1125252
4.576413615 0 -33.96733197
14.41513915 8.909045948 -27.65337893
10.79556608 6.672026768 -30.63866136
12.63806031 10.07555496 -28.48267921
2.227122232 8.274757078 -32.34090398
6.709501586 6.487673547 -32.51577575
2.264015075 6.10482042 -33.36255241
4.420742015 9.668135654 -31.60655153
4.551661048 5.176481565 -33.45442824
8.731555858 -2.680156724 -31.59106587
8.922714637 2.738833035 -32.28268483
6.741661717 -1.387946084 -32.93487886
6.809160811 1.401842525 -33.26463057
8.693729784 12.19748524 -29.51552243
8.834420606 7.774360838 -31.30576471
10.7233984 11.19692192 -29.14150495
6.591222414 10.98410713 -30.65528861
10.78050611 8.951328021 -29.9615131
6.678582508 8.773669326 -31.68085118
26.33031395 16.27302895 -12.82121057
23.71277287 14.6552996 -17.08245706
26.49801525 14.09464534 -13.71393542
24.8266716 18.13109597 -13.99300266
17.71435377 10.94807272 -24.38232377
20.8023733 12.85657375 -20.88624977
19.29706207 9.723132184 -23.40828678
17.37121065 13.40654736 -23.78617061
26.69936485 9.829789374 -15.40875864
23.82059281 12.48745623 -17.86827526
26.61908701 11.93693262 -14.57687563
25.34258511 8.991151577 -17.48419114
25.20014421 13.31761856 -15.86036696
21.36483973 21.67781229 -16.24740242
22.05533585 16.35152962 -18.19526332
23.16471144 19.94879943 -15.14653436
19.82177033 20.69120823 -18.41499025
23.4777461 17.26227565 -16.17042243
22.33601232 7.26255727 -21.33140252
22.32875217 11.58316388 -19.83487591
20.84274706 8.487344082 -22.38595747
23.87460235 8.129204568 -19.46214327
20.83930223 10.67294334 -21.64978539
23.8576618 10.31146557 -18.68347526
16.55955502 18.42674485 -22.33592551
20.49788181 15.36305095 -20.20194445
16.99024245 15.91559555 -23.10776438
18.20279762 19.59336762 -20.45278715
18.96506231 14.39961181 -22.02238773
20.21036726 17.98704609 -19.36113414
15.51130155 -7.083343447 -25.09781312
16.53130914 -2.474729411 -26.74822006
17.2966919 -6.044495837 -24.55809867
13.98908385 -6.10444709 -26.74669411
16.40367165 7.490850444 -26.54169827
16.77610507 2.511375249 -27.14430819
17.99386558 6.288129904 -25.54795616
14.70687704 6.417672072 -28.11909241
20.74677151 -3.793294359 -23.12693791
18.1618285 -1.2859704 -25.84648299
19.06035245 -4.94313059 -23.90350708
21.10418392 -1.286072208 -23.50683791
17.83298834 -3.718036728 -25.35875977
10.66121285 -3.939314923 -29.99809563
14.83001396 -1.319366139 -28.26502515
12.36965576 -5.053059201 -28.39765984
10.92210853 -1.350046861 -30.77887308
14.49973446 -3.767611363 -27.66493987
21.02248094 3.843704469 -23.43427802
18.27328556 1.293862254 -26.0050999
19.54020147 5.067575109 -24.50528371
21.1768892 1.290502809 -23.58782049
18.1963277 3.793790106 -25.87543345
19.71339969 0 -24.79764438
11.02110055 4.07229332 -31.01073329
14.96209781 1.331117104 -28.51676824
12.90641894 5.272329341 -29.6299349
11.04098982 1.364741395 -31.11388457
14.90337073 3.872492221 -28.43506247
13.01675106 0 -29.73937968
20.97212577 30.03295734 1.489917622
24.04028153 27.28011901 4.437632839
20.21388325 30.29596156 3.900737874
22.69537052 28.89602671 0
27.13825353 19.16048342 9.453709655
26.07573939 23.49836434 7.140116731
18.44206725 30.37136491 8.676924818
23.19951493 27.41133099 6.852300599
19.37082592 30.41476705 6.316122815
21.82858896 28.99383692 5.409067427
25.56778161 25.87240598 -2.940349294
25.56778161 25.87240598 2.940349294
24.25813916 27.50670889 -1.491793262
24.25813916 27.50670889 1.491793262
27.96019032 2.138278164 16.46359837
28.07158483 6.35482422 14.92186668
27.65729568 14.78489041 11.44582315
27.93636241 10.5340549 13.24197056
13.54392783 27.81452422 17.19032135
18.62170228 25.84945451 15.97584148
14.92317447 28.83450247 15.33745385
26.03522155 18.91522438 11.69025157
22.71599813 22.62477363 13.98287909
25.66127355 21.15435414 10.65895839
17.37293016 30.10276244 11.08280351
19.90708477 26.53857484 13.91230245
16.21287782 29.60661916 13.27664687
19.91858265 28.87113119 10.24302436
17.54936597 27.8837529 14.73583571
24.31848576 25.46377328 8.279549147
22.0890301 24.86632541 12.89954406
25.10796605 23.37710979 9.519358168
22.25374861 27.29912072 9.295239084
23.97301065 23.07555503 11.81825037
21.14869098 27.00559237 11.67202546
28.35848 17.52650451 -8.003599858
29.45816746 18.20614874 -2.725452132
27.96944664 19.69936304 -6.884132442
28.35848 17.52650451 8.003599858
29.45816746 18.20614874 2.725452132
27.96944664 19.69936304 6.884132442
26.65219351 23.90921665 -4.371508917
28.84135999 20.2662712 -1.43497803
27.4160251 21.86118963 -5.669502464
26.92194937 24.17023392 -1.472914859
28.54741364 20.07533882 -4.185549032
26.65219351 23.90921665 4.371508917
28.84135999 20.2662712 1.43497803
27.4160251 21.86118963 5.669502464
26.92194937 24.17023392 1.472914859
28.54741364 20.07533882 4.185549032
28.01573476 22.27168712 0
18.14750577 -25.98798388 1.289248832
20.62480698 -23.40435108 3.807165096
17.28729192 -25.9096743 3.335984159
19.67675967 -25.052694 0
24.58513935 -17.35790235 8.564323012
22.72253511 -20.47659706 6.221934904
15.13621319 -24.92711083 7.121532642
19.49930494 -23.03935678 5.759391921
16.24694774 -25.5098638 5.297539597
18.44378271 -24.4979659 4.570321263
22.39122892 -22.65800662 -2.575038975
22.39122892 -22.65800662 2.575038975
21.10106527 -23.92685011 -1.297643928
21.10106527 -23.92685011 1.297643928
28.15669453 -2.153305983 16.57930453
28.37883497 -6.424379276 15.08519005
26.26530353 -14.04076663 10.86975468
27.64224497 -10.42315108 13.10255747
10.72434867 -22.0240878 13.61163483
14.7344952 -20.45348259 12.64094743
11.77864731 -22.75865873 12.10563207
23.18334654 -16.84326753 10.40971181
18.84206615 -18.76639886 11.59827234
22.33234917 -18.41009264 9.276218501
13.97284913 -24.21130771 8.913772166
15.85984357 -21.14310813 11.08383991
12.86651126 -23.49576078 10.53632355
16.12212583 -23.36832987 8.290716793
13.81979478 -21.95792962 11.60419276
20.51367552 -21.47977418 6.984151329
18.00421603 -20.26791998 10.51409577
21.44066039 -19.96261548 8.128947011
18.30807459 -22.4588831 7.647157946
20.12890317 -19.37535588 9.923176562
17.07722459 -21.80657737 9.42497105
26.69433774 -16.49800803 -7.533929804
28.57925242 -17.66294937 -2.644135435
25.74613947 -18.1334495 -6.336908852
26.69433774 -16.49800803 7.533929804
28.57925242 -17.66294937 2.644135435
25.74613947 -18.1334495 6.336908852
23.63372924 -21.20140515 -3.87641858
27.27368462 -19.16469575 -1.356979638
24.72182153 -19.71286597 -5.112354091
24.14774661 -21.67958479 -1.32113668
26.70852864 -18.78218352 -3.9159364
23.63372924 -21.20140515 3.87641858
27.27368462 -19.16469575 1.356979638
24.72182153 -19.71286597 5.112354091
