8.702234 -22.453569 -3.198224
1.385516 -10.519433 -13.393473
4.590558 -14.689321 -11.749584
0.000000 -12.887696 -13.041245
2.156629 -25.899971 -3.489499
5.406425 -20.182763 -8.747779
5.541665 -24.329895 -3.343183
0.000000 -24.782015 -6.849580
7.153842 -21.757585 -6.271039
-3.504462 -18.821755 -11.632485
3.281791 -17.625835 -10.893365
-1.633194 -15.703672 -12.483958
-1.997359 -22.151055 -9.695386
1.588876 -15.277537 -12.145193
1.914222 -21.229049 -9.291829
-11.422564 20.394016 -3.093551
-8.285437 18.643884 -8.474882
-8.702234 22.453569 -3.198224
-1.385516 10.519433 -13.393473
-4.590558 14.689321 -11.749584
-2.156629 25.899971 -3.489499
-5.406425 20.182763 -8.747779
-5.541665 24.329895 -3.343183
-7.153842 21.757585 -6.271039
16.236984 28.989753 -4.397430
10.096822 22.719860 -10.327683
11.192560 28.879127 -4.113462
1.409673 10.702846 -13.626996
4.980573 15.937331 -12.747834
0.000000 12.887696 -13.041245
2.281425 27.398699 -3.691423
6.130592 22.886154 -9.919505
6.448813 28.312598 -3.890448
0.000000 24.782015 -6.849580
8.618149 26.211107 -7.554647
-3.281791 17.625835 -10.893365
3.504462 18.821755 -11.632485
-1.588876 15.277537 -12.145193
-1.914222 21.229049 -9.291829
1.633194 15.703672 -12.483958
1.997359 22.151055 -9.695386
0.000000 -6.233646 -14.141517
0.000000 -2.008569 -14.420678
0.000000 6.233646 -14.141517
0.000000 2.008569 -14.420678
23.069713 29.372644 -3.038515
24.339737 19.468688 -7.606408
19.037843 26.416258 -7.099316
18.835011 2.857067 -10.549375
21.521959 9.783158 -9.564469
11.532651 19.253717 -11.899451
20.135115 17.127952 -10.585656
15.045691 22.838750 -10.090861
20.288223 22.008583 -9.276022
14.170324 -18.041832 -1.866375
16.514391 -13.209408 -5.160910
12.993532 -18.029380 -4.845359
17.721119 -2.688101 -9.925490
17.546961 -7.976258 -7.797959
9.421438 -15.729055 -9.721091
14.882675 -12.659959 -7.824285
11.327722 -17.195023 -7.597289
14.149210 -15.349007 -6.469191
2.093076 -7.728430 -13.798455
6.170137 -6.032212 -13.573678
3.575397 -9.587945 -13.303904
2.007414 -5.462091 -14.093328
15.164650 -1.568739 -11.910542
10.463152 -4.087949 -13.081024
15.432005 -4.147320 -11.121639
7.117487 -13.538265 -11.516336
7.990479 -7.744172 -12.928867
5.292478 -11.575540 -12.557100
9.958213 -12.542009 -10.945136
5.810177 -8.663100 -13.150234
1.939989 -1.198979 -14.399101
6.029028 -3.726144 -13.910094
1.963573 -3.254822 -14.289834
4.040385 -4.609169 -14.018256
15.353745 -9.489136 -9.196634
10.649886 -6.581991 -12.519692
15.491068 -6.844429 -10.205192
12.805905 -11.175432 -10.167744
12.988581 -5.474335 -11.973293
10.354248 -9.420606 -11.864912
2.134667 7.882000 -14.072641
6.471765 6.327097 -14.237229
3.729477 10.001133 -13.877229
2.034530 5.535871 -14.283696
15.638983 1.617808 -12.283091
11.077952 4.328151 -13.849646
16.828682 4.522674 -12.128205
13.145874 0.000000 -12.991093
8.063443 15.337580 -13.046925
8.674068 8.406690 -14.034937
5.715972 12.501792 -13.561895
11.861695 14.939375 -13.037264
6.196567 9.239216 -14.024755
1.945521 1.202398 -14.440164
6.203363 3.833889 -14.312319
1.979021 3.280428 -14.402254
3.969053 0.000000 -14.360168
4.135327 4.717475 -14.347658
19.116180 11.814449 -11.450268
11.726660 7.247475 -13.785516
18.017032 7.960478 -11.869244
15.855854 13.837055 -12.589369
14.335653 6.042090 -13.215068
11.868153 10.798002 -13.599693
8.475114 -2.553256 -13.713023
8.714837 2.625476 -14.100902
10.688084 -1.398251 -13.444627
6.185118 -1.274204 -14.131144
10.896683 1.425541 -13.707025
6.246470 1.286844 -14.271314
23.069713 29.372644 3.038515
24.339737 19.468688 7.606408
19.037843 26.416258 7.099316
28.317394 28.654779 0.000000
18.835011 2.857067 10.549375
21.521959 9.783158 9.564469
11.532651 19.253717 11.899451
20.135115 17.127952 10.585656
15.045691 22.838750 10.090861
20.288223 22.008583 9.276022
26.648957 16.469961 -4.961824
26.648957 16.469961 4.961824
28.751867 22.856891 -2.990216
28.751867 22.856891 2.990216
14.170324 -18.041832 1.866375
16.514391 -13.209408 5.160910
12.993532 -18.029380 4.845359
15.913180 -16.102776 0.000000
17.721119 -2.688101 9.925490
17.546961 -7.976258 7.797959
9.421438 -15.729055 9.721091
14.882675 -12.659959 7.824285
11.327722 -17.195023 7.597289
14.149210 -15.349007 6.469191
18.308154 -11.315061 -3.408833
18.308154 -11.315061 3.408833
17.317003 -13.766510 -1.800982
17.317003 -13.766510 1.800982
2.093076 -7.728430 13.798455
6.170137 -6.032212 13.573678
3.575397 -9.587945 13.303904
2.007414 -5.462091 14.093328
15.164650 -1.568739 11.910542
10.463152 -4.087949 13.081024
15.432005 -4.147320 11.121639
7.117487 -13.538265 11.516336
7.990479 -7.744172 12.928867
5.292478 -11.575540 12.557100
9.958213 -12.542009 10.945136
5.810177 -8.663100 13.150234
1.939989 -1.198979 14.399101
6.029028 -3.726144 13.910094
1.963573 -3.254822 14.289834
4.040385 -4.609169 14.018256
15.353745 -9.489136 9.196634
10.649886 -6.581991 12.519692
15.491068 -6.844429 10.205192
12.805905 -11.175432 10.167744
12.988581 -5.474335 11.973293
10.354248 -9.420606 11.864912
2.134667 7.882000 14.072641
6.471765 6.327097 14.237229
3.729477 10.001133 13.877229
2.034530 5.535871 14.283696
15.638983 1.617808 12.283091
11.077952 4.328151 13.849646
16.828682 4.522674 12.128205
13.145874 0.000000 12.991093
8.063443 15.337580 13.046925
8.674068 8.406690 14.034937
5.715972 12.501792 13.561895
11.861695 14.939375 13.037264
6.196567 9.239216 14.024755
1.945521 1.202398 14.440164
6.203363 3.833889 14.312319
1.979021 3.280428 14.402254
3.969053 0.000000 14.360168
4.135327 4.717475 14.347658
19.116180 11.814449 11.450268
11.726660 7.247475 13.785516
18.017032 7.960478 11.869244
15.855854 13.837055 12.589369
14.335653 6.042090 13.215068
11.868153 10.798002 13.599693
8.475114 -2.553256 13.713023
8.714837 2.625476 14.100902
10.688084 -1.398251 13.444627
6.185118 -1.274204 14.131144
10.896683 1.425541 13.707025
6.246470 1.286844 14.271314
19.837963 0.000000 -8.744665
22.884522 0.000000 -3.187447
21.184322 3.017436 -8.210317
19.754245 -2.813740 -7.656069
19.837963 0.000000 8.744665
22.884522 0.000000 3.187447
21.184322 3.017436 8.210317
19.754245 -2.813740 7.656069
24.336649 10.548191 -6.519140
24.232101 3.264787 -2.017749
22.694234 6.541003 -7.461810
26.715424 11.693184 -2.408928
23.091491 3.173013 -5.259592
19.098644 -8.277892 -5.116018
22.153935 -2.984796 -1.844706
19.517739 -5.625464 -6.417386
19.912429 -8.715553 -1.795503
21.300694 -2.926939 -4.851699
24.336649 10.548191 6.519140
24.232101 3.264787 2.017749
22.694234 6.541003 7.461810
26.715424 11.693184 2.408928
23.091491 3.173013 5.259592
25.655804 7.091090 0.000000
19.098644 -8.277892 5.116018
22.153935 -2.984796 1.844706
19.517739 -5.625464 6.417386
19.912429 -8.715553 1.795503
21.300694 -2.926939 4.851699
21.225290 -5.866526 0.000000
-14.170324 18.041832 -1.866375
-16.514391 13.209408 -5.160910
-12.993532 18.029380 -4.845359
-17.721119 2.688101 -9.925490
-17.546961 7.976258 -7.797959
-9.421438 15.729055 -9.721091
-14.882675 12.659959 -7.824285
-11.327722 17.195023 -7.597289
-14.149210 15.349007 -6.469191
-23.069713 -29.372644 -3.038515
-24.339737 -19.468688 -7.606408
-19.037843 -26.416258 -7.099316
-18.835011 -2.857067 -10.549375
-21.521959 -9.783158 -9.564469
-11.532651 -19.253717 -11.899451
-20.135115 -17.127952 -10.585656
-15.045691 -22.838750 -10.090861
-20.288223 -22.008583 -9.276022
-2.134667 -7.882000 -14.072641
-6.471765 -6.327097 -14.237229
-3.729477 -10.001133 -13.877229
-2.034530 -5.535871 -14.283696
-15.638983 -1.617808 -12.283091
-11.077952 -4.328151 -13.849646
-16.828682 -4.522674 -12.128205
-8.063443 -15.337580 -13.046925
-8.674068 -8.406690 -14.034937
-5.715972 -12.501792 -13.561895
-11.861695 -14.939375 -13.037264
-6.196567 -9.239216 -14.024755
-1.945521 -1.202398 -14.440164
-6.203363 -3.833889 -14.312319
-1.979021 -3.280428 -14.402254
-4.135327 -4.717475 -14.347658
-19.116180 -11.814449 -11.450268
-11.726660 -7.247475 -13.785516
-18.017032 -7.960478 -11.869244
-15.855854 -13.837055 -12.589369
-14.335653 -6.042090 -13.215068
-11.868153 -10.798002 -13.599693
-2.093076 7.728430 -13.798455
-6.170137 6.032212 -13.573678
-3.575397 9.587945 -13.303904
-2.007414 5.462091 -14.093328
-15.164650 1.568739 -11.910542
-10.463152 4.087949 -13.081024
-15.432005 4.147320 -11.121639
-13.145874 0.000000 -12.991093
-7.117487 13.538265 -11.516336
-7.990479 7.744172 -12.928867
-5.292478 11.575540 -12.557100
-9.958213 12.542009 -10.945136
-5.810177 8.663100 -13.150234
-1.939989 1.198979 -14.399101
-6.029028 3.726144 -13.910094
-1.963573 3.254822 -14.289834
-3.969053 0.000000 -14.360168
-4.040385 4.609169 -14.018256
-15.353745 9.489136 -9.196634
-10.649886 6.581991 -12.519692
-15.491068 6.844429 -10.205192
-12.805905 11.175432 -10.167744
-12.988581 5.474335 -11.973293
-10.354248 9.420606 -11.864912
-8.714837 -2.625476 -14.100902
-8.475114 2.553256 -13.713023
-10.896683 -1.425541 -13.707025
-6.246470 -1.286844 -14.271314
-10.688084 1.398251 -13.444627
-6.185118 1.274204 -14.131144
-14.170324 18.041832 1.866375
-16.514391 13.209408 5.160910
-12.993532 18.029380 4.845359
-15.913180 16.102776 0.000000
-17.721119 2.688101 9.925490
-17.546961 7.976258 7.797959
-9.421438 15.729055 9.721091
-14.882675 12.659959 7.824285
-11.327722 17.195023 7.597289
-14.149210 15.349007 6.469191
-18.308154 11.315061 -3.408833
-18.308154 11.315061 3.408833
-17.317003 13.766510 -1.800982
-17.317003 13.766510 1.800982
-23.069713 -29.372644 3.038515
-24.339737 -19.468688 7.606408
-19.037843 -26.416258 7.099316
-28.317394 -28.654779 0.000000
-18.835011 -2.857067 10.549375
-21.521959 -9.783158 9.564469
-11.532651 -19.253717 11.899451
-20.135115 -17.127952 10.585656
-15.045691 -22.838750 10.090861
-20.288223 -22.008583 9.276022
-26.648957 -16.469961 -4.961824
-26.648957 -16.469961 4.961824
-28.751867 -22.856891 -2.990216
-28.751867 -22.856891 2.990216
-2.134667 -7.882000 14.072641
-6.471765 -6.327097 14.237229
-3.729477 -10.001133 13.877229
-2.034530 -5.535871 14.283696
-15.638983 -1.617808 12.283091
-11.077952 -4.328151 13.849646
-16.828682 -4.522674 12.128205
-8.063443 -15.337580 13.046925
-8.674068 -8.406690 14.034937
-5.715972 -12.501792 13.561895
-11.861695 -14.939375 13.037264
-6.196567 -9.239216 14.024755
-1.945521 -1.202398 14.440164
-6.203363 -3.833889 14.312319
-1.979021 -3.280428 14.402254
-4.135327 -4.717475 14.347658
-19.116180 -11.814449 11.450268
-11.726660 -7.247475 13.785516
-18.017032 -7.960478 11.869244
-15.855854 -13.837055 12.589369
-14.335653 -6.042090 13.215068
-11.868153 -10.798002 13.599693
-2.093076 7.728430 13.798455
-6.170137 6.032212 13.573678
-3.575397 9.587945 13.303904
-2.007414 5.462091 14.093328
-15.164650 1.568739 11.910542
-10.463152 4.087949 13.081024
-15.432005 4.147320 11.121639
-13.145874 0.000000 12.991093
-7.117487 13.538265 11.516336
-7.990479 7.744172 12.928867
-5.292478 11.575540 12.557100
-9.958213 12.542009 10.945136
-5.810177 8.663100 13.150234
-1.939989 1.198979 14.399101
-6.029028 3.726144 13.910094
-1.963573 3.254822 14.289834
-3.969053 0.000000 14.360168
-4.040385 4.609169 14.018256
-15.353745 9.489136 9.196634
-10.649886 6.581991 12.519692
-15.491068 6.844429 10.205192
-12.805905 11.175432 10.167744
-12.988581 5.474335 11.973293
-10.354248 9.420606 11.864912
-8.714837 -2.625476 14.100902
-8.475114 2.553256 13.713023
-10.896683 -1.425541 13.707025
-6.246470 -1.286844 14.271314
-10.688084 1.398251 13.444627
-6.185118 1.274204 14.131144
-19.837963 0.000000 -8.744665
-22.884522 0.000000 -3.187447
-19.754245 2.813740 -7.656069
-21.184322 -3.017436 -8.210317
-19.837963 0.000000 8.744665
-22.884522 0.000000 3.187447
-19.754245 2.813740 7.656069
-21.184322 -3.017436 8.210317
-19.098644 8.277892 -5.116018
-22.153935 2.984796 -1.844706
-19.517739 5.625464 -6.417386
-19.912429 8.715553 -1.795503
-21.300694 2.926939 -4.851699
-24.336649 -10.548191 -6.519140
-24.232101 -3.264787 -2.017749
-22.694234 -6.541003 -7.461810
-26.715424 -11.693184 -2.408928
-23.091491 -3.173013 -5.259592
-19.098644 8.277892 5.116018
-22.153935 2.984796 1.844706
-19.517739 5.625464 6.417386
-19.912429 8.715553 1.795503
-21.300694 2.926939 4.851699
-21.225290 5.866526 0.000000
-24.336649 -10.548191 6.519140
-24.232101 -3.264787 2.017749
-22.694234 -6.541003 7.461810
-26.715424 -11.693184 2.408928
-23.091491 -3.173013 5.259592
-25.655804 -7.091090 0.000000
-11.138498 21.168301 0.000000
-8.368089 23.213483 0.000000
-1.845837 26.632595 0.000000
-5.273190 25.035958 0.000000
15.905643 30.228082 0.000000
10.729780 29.764928 0.000000
1.938913 27.975539 0.000000
6.113109 29.023712 0.000000
-15.905643 -30.228082 0.000000
-10.729780 -29.764928 0.000000
-1.938913 -27.975539 0.000000
-6.113109 -29.023712 0.000000
11.138498 -21.168301 0.000000
8.368089 -23.213483 0.000000
1.845837 -26.632595 0.000000
5.273190 -25.035958 0.000000
-17.638848 -29.956122 2.290919
-14.713063 -27.678775 6.265900
-14.896685 -29.866842 2.201461
-8.662264 -20.931200 11.189290
-11.604595 -24.482019 9.231515
-9.852010 -29.427429 2.053966
-12.309653 -27.769899 6.084719
-12.291224 -29.685281 2.124789
-13.653186 -28.989678 4.258864
-0.682253 -9.603408 13.752480
-2.191818 -11.873880 13.474088
-6.098081 -17.505432 12.359400
-3.964947 -14.480006 13.048775
-1.140357 -27.560875 1.845136
-3.385682 -26.824322 5.478149
-3.132742 -28.143101 1.893222
-6.791908 -21.081853 10.989538
-5.336131 -24.504086 8.634042
-8.083390 -22.851010 10.139230
-7.438192 -29.071289 2.001964
-5.430354 -27.216564 5.616030
-5.242615 -28.650641 1.944260
-8.761431 -28.642401 4.006152
-4.316503 -27.896584 3.795485
-10.845313 -26.243532 7.729972
-6.475218 -26.074382 7.358136
-9.454007 -24.605333 9.054192
-9.919261 -27.683436 5.952242
-7.351090 -24.605262 8.853264
-7.614279 -27.494408 5.796046
11.966133 -20.322128 1.554151
10.771604 -20.263952 4.587338
10.678087 -21.408840 1.578029
7.352713 -17.766845 9.497706
9.184031 -19.375396 7.305943
7.840628 -23.419538 1.634629
9.431846 -21.277725 4.662205
9.294240 -22.447083 1.606699
10.102952 -21.451500 3.151433
0.677059 -9.530296 13.647781
2.128763 -11.532289 13.086462
0.000000 -10.618407 13.519487
5.487374 -15.752308 11.121638
3.730307 -13.623099 12.276566
-1.497095 -13.017978 13.173079
1.464924 -12.738237 12.890005
-0.724707 -11.784511 13.362653
0.717678 -11.670209 13.233044
1.107720 -26.772074 1.792328
3.124772 -24.757162 5.055987
2.898131 -26.035470 1.751439
0.000000 -26.697594 3.596963
5.954563 -18.482764 9.634686
4.755583 -21.838145 7.694694
6.874541 -19.433703 8.622936
6.236101 -24.373061 1.678425
4.789160 -24.002941 4.952912
4.616701 -25.230054 1.712136
7.164360 -23.421343 3.275894
3.890581 -25.143944 3.420974
-2.151354 -25.358060 7.008795
2.046542 -24.122631 6.667331
-1.105142 -26.224161 5.368000
1.075831 -25.528630 5.225627
8.623532 -20.867256 6.146403
5.611466 -22.596231 6.376608
7.779474 -20.247134 7.450476
7.967679 -22.236809 4.781157
6.295139 -21.070826 7.581532
6.410976 -23.149400 4.880083
-5.369466 -19.025176 11.758206
-1.718748 -18.577159 11.481315
-4.279268 -17.386179 12.245386
-4.754146 -20.830337 10.894705
4.863136 -17.231140 10.649430
1.663447 -17.979441 11.111905
3.969380 -16.127138 11.358621
4.329232 -18.968573 9.920963
-2.363157 -14.407683 12.924881
-0.846112 -17.005854 11.949688
-3.274855 -15.836221 12.627601
-0.779534 -14.248325 12.791992
-2.524201 -17.216238 12.106940
-3.160405 -24.066658 8.553202
-0.942963 -20.201267 10.599144
-4.012583 -22.550294 9.822618
-1.035732 -23.612998 8.379245
-2.796343 -20.533082 10.761789
2.277617 -13.886161 12.457032
0.833260 -16.747534 11.768171
3.101522 -14.998034 11.959241
0.770005 -14.074154 12.635623
2.413129 -16.458671 11.574198
0.000000 -15.504005 12.325229
2.947827 -22.447865 7.977888
0.925008 -19.816619 10.397328
3.689964 -20.737208 9.032861
1.011821 -23.067862 8.185800
2.644001 -19.414459 10.175497
0.000000 -21.720170 9.506790
-11.966133 20.322128 1.554151
-10.771604 20.263952 4.587338
-10.678087 21.408840 1.578029
-7.352713 17.766845 9.497706
-9.184031 19.375396 7.305943
-7.840628 23.419538 1.634629
-9.431846 21.277725 4.662205
-9.294240 22.447083 1.606699
-10.102952 21.451500 3.151433
-0.677059 9.530296 13.647781
-2.128763 11.532289 13.086462
-5.487374 15.752308 11.121638
-3.730307 13.623099 12.276566
-1.107720 26.772074 1.792328
-3.124772 24.757162 5.055987
-2.898131 26.035470 1.751439
-5.954563 18.482764 9.634686
-4.755583 21.838145 7.694694
-6.874541 19.433703 8.622936
-6.236101 24.373061 1.678425
-4.789160 24.002941 4.952912
-4.616701 25.230054 1.712136
-7.164360 23.421343 3.275894
-3.890581 25.143944 3.420974
-8.623532 20.867256 6.146403
-5.611466 22.596231 6.376608
-7.779474 20.247134 7.450476
-7.967679 22.236809 4.781157
-6.295139 21.070826 7.581532
-6.410976 23.149400 4.880083
17.638848 29.956122 2.290919
14.713063 27.678775 6.265900
14.896685 29.866842 2.201461
8.662264 20.931200 11.189290
11.604595 24.482019 9.231515
9.852010 29.427429 2.053966
12.309653 27.769899 6.084719
12.291224 29.685281 2.124789
13.653186 28.989678 4.258864
0.682253 9.603408 13.752480
2.191818 11.873880 13.474088
0.000000 10.618407 13.519487
6.098081 17.505432 12.359400
3.964947 14.480006 13.048775
-1.464924 12.738237 12.890005
1.497095 13.017978 13.173079
-0.717678 11.670209 13.233044
0.724707 11.784511 13.362653
1.140357 27.560875 1.845136
3.385682 26.824322 5.478149
3.132742 28.143101 1.893222
0.000000 26.697594 3.596963
6.791908 21.081853 10.989538
5.336131 24.504086 8.634042
8.083390 22.851010 10.139230
7.438192 29.071289 2.001964
5.430354 27.216564 5.616030
5.242615 28.650641 1.944260
8.761431 28.642401 4.006152
4.316503 27.896584 3.795485
-2.046542 24.122631 6.667331
2.151354 25.358060 7.008795
-1.075831 25.528630 5.225627
1.105142 26.224161 5.368000
10.845313 26.243532 7.729972
6.475218 26.074382 7.358136
9.454007 24.605333 9.054192
9.919261 27.683436 5.952242
7.351090 24.605262 8.853264
7.614279 27.494408 5.796046
-4.863136 17.231140 10.649430
-1.663447 17.979441 11.111905
-3.969380 16.127138 11.358621
-4.329232 18.968573 9.920963
5.369466 19.025176 11.758206
1.718748 18.577159 11.481315
4.279268 17.386179 12.245386
4.754146 20.830337 10.894705
-2.277617 13.886161 12.457032
-0.833260 16.747534 11.768171
-3.101522 14.998034 11.959241
-0.770005 14.074154 12.635623
-2.413129 16.458671 11.574198
-2.947827 22.447865 7.977888
-0.925008 19.816619 10.397328
-3.689964 20.737208 9.032861
-1.011821 23.067862 8.185800
-2.644001 19.414459 10.175497
2.363157 14.407683 12.924881
0.846112 17.005854 11.949688
3.274855 15.836221 12.627601
0.779534 14.248325 12.791992
2.524201 17.216238 12.106940
0.000000 15.504005 12.325229
3.160405 24.066658 8.553202
0.942963 20.201267 10.599144
4.012583 22.550294 9.822618
1.035732 23.612998 8.379245
2.796343 20.533082 10.761789
0.000000 21.720170 9.506790
0.000000 -7.374186 14.014365
0.000000 -5.134250 14.242658
0.000000 -1.001118 14.444601
0.000000 -3.028781 14.379995
0.000000 7.374186 14.014365
0.000000 5.134250 14.242658
0.000000 1.001118 14.444601
0.000000 3.028781 14.379995
-17.638848 -29.956122 -2.290919
-14.713063 -27.678775 -6.265900
-14.896685 -29.866842 -2.201461
-8.662264 -20.931200 -11.189290
-11.604595 -24.482019 -9.231515
-9.852010 -29.427429 -2.053966
-12.309653 -27.769899 -6.084719
-12.291224 -29.685281 -2.124789
-13.653186 -28.989678 -4.258864
-0.682253 -9.603408 -13.752480
-2.191818 -11.873880 -13.474088
-6.098081 -17.505432 -12.359400
-3.964947 -14.480006 -13.048775
-1.140357 -27.560875 -1.845136
-3.385682 -26.824322 -5.478149
-3.132742 -28.143101 -1.893222
-6.791908 -21.081853 -10.989538
-5.336131 -24.504086 -8.634042
-8.083390 -22.851010 -10.139230
-7.438192 -29.071289 -2.001964
-5.430354 -27.216564 -5.616030
-5.242615 -28.650641 -1.944260
-8.761431 -28.642401 -4.006152
-4.316503 -27.896584 -3.795485
-10.845313 -26.243532 -7.729972
-6.475218 -26.074382 -7.358136
-9.454007 -24.605333 -9.054192
-9.919261 -27.683436 -5.952242
-7.351090 -24.605262 -8.853264
-7.614279 -27.494408 -5.796046
11.966133 -20.322128 -1.554151
10.771604 -20.263952 -4.587338
10.678087 -21.408840 -1.578029
7.352713 -17.766845 -9.497706
9.184031 -19.375396 -7.305943
7.840628 -23.419538 -1.634629
9.431846 -21.277725 -4.662205
9.294240 -22.447083 -1.606699
10.102952 -21.451500 -3.151433
0.677059 -9.530296 -13.647781
2.128763 -11.532289 -13.086462
0.000000 -10.618407 -13.519487
5.487374 -15.752308 -11.121638
3.730307 -13.623099 -12.276566
-1.497095 -13.017978 -13.173079
1.464924 -12.738237 -12.890005
-0.724707 -11.784511 -13.362653
0.717678 -11.670209 -13.233044
1.107720 -26.772074 -1.792328
3.124772 -24.757162 -5.055987
2.898131 -26.035470 -1.751439
0.000000 -26.697594 -3.596963
5.954563 -18.482764 -9.634686
4.755583 -21.838145 -7.694694
6.874541 -19.433703 -8.622936
6.236101 -24.373061 -1.678425
4.789160 -24.002941 -4.952912
4.616701 -25.230054 -1.712136
7.164360 -23.421343 -3.275894
3.890581 -25.143944 -3.420974
-2.151354 -25.358060 -7.008795
2.046542 -24.122631 -6.667331
-1.105142 -26.224161 -5.368000
1.075831 -25.528630 -5.225627
8.623532 -20.867256 -6.146403
5.611466 -22.596231 -6.376608
7.779474 -20.247134 -7.450476
7.967679 -22.236809 -4.781157
6.295139 -21.070826 -7.581532
6.410976 -23.149400 -4.880083
-5.369466 -19.025176 -11.758206
-1.718748 -18.577159 -11.481315
-4.279268 -17.386179 -12.245386
-4.754146 -20.830337 -10.894705
4.863136 -17.231140 -10.649430
1.663447 -17.979441 -11.111905
3.969380 -16.127138 -11.358621
4.329232 -18.968573 -9.920963
-2.363157 -14.407683 -12.924881
-0.846112 -17.005854 -11.949688
-3.274855 -15.836221 -12.627601
-0.779534 -14.248325 -12.791992
-2.524201 -17.216238 -12.106940
-3.160405 -24.066658 -8.553202
-0.942963 -20.201267 -10.599144
-4.012583 -22.550294 -9.822618
-1.035732 -23.612998 -8.379245
-2.796343 -20.533082 -10.761789
2.277617 -13.886161 -12.457032
0.833260 -16.747534 -11.768171
3.101522 -14.998034 -11.959241
0.770005 -14.074154 -12.635623
2.413129 -16.458671 -11.574198
0.000000 -15.504005 -12.325229
2.947827 -22.447865 -7.977888
0.925008 -19.816619 -10.397328
3.689964 -20.737208 -9.032861
1.011821 -23.067862 -8.185800
2.644001 -19.414459 -10.175497
0.000000 -21.720170 -9.506790
-11.966133 20.322128 -1.554151
-10.771604 20.263952 -4.587338
-10.678087 21.408840 -1.578029
-7.352713 17.766845 -9.497706
-9.184031 19.375396 -7.305943
-7.840628 23.419538 -1.634629
-9.431846 21.277725 -4.662205
-9.294240 22.447083 -1.606699
-10.102952 21.451500 -3.151433
-0.677059 9.530296 -13.647781
-2.128763 11.532289 -13.086462
-5.487374 15.752308 -11.121638
-3.730307 13.623099 -12.276566
-1.107720 26.772074 -1.792328
-3.124772 24.757162 -5.055987
-2.898131 26.035470 -1.751439
-5.954563 18.482764 -9.634686
-4.755583 21.838145 -7.694694
-6.874541 19.433703 -8.622936
-6.236101 24.373061 -1.678425
-4.789160 24.002941 -4.952912
-4.616701 25.230054 -1.712136
-7.164360 23.421343 -3.275894
-3.890581 25.143944 -3.420974
-8.623532 20.867256 -6.146403
-5.611466 22.596231 -6.376608
-7.779474 20.247134 -7.450476
-7.967679 22.236809 -4.781157
-6.295139 21.070826 -7.581532
-6.410976 23.149400 -4.880083
17.638848 29.956122 -2.290919
14.713063 27.678775 -6.265900
14.896685 29.866842 -2.201461
8.662264 20.931200 -11.189290
11.604595 24.482019 -9.231515
9.852010 29.427429 -2.053966
12.309653 27.769899 -6.084719
12.291224 29.685281 -2.124789
13.653186 28.989678 -4.258864
0.682253 9.603408 -13.752480
2.191818 11.873880 -13.474088
0.000000 10.618407 -13.519487
6.098081 17.505432 -12.359400
3.964947 14.480006 -13.048775
-1.464924 12.738237 -12.890005
1.497095 13.017978 -13.173079
-0.717678 11.670209 -13.233044
0.724707 11.784511 -13.362653
1.140357 27.560875 -1.845136
3.385682 26.824322 -5.478149
3.132742 28.143101 -1.893222
0.000000 26.697594 -3.596963
6.791908 21.081853 -10.989538
5.336131 24.504086 -8.634042
8.083390 22.851010 -10.139230
7.438192 29.071289 -2.001964
5.430354 27.216564 -5.616030
5.242615 28.650641 -1.944260
8.761431 28.642401 -4.006152
4.316503 27.896584 -3.795485
-2.046542 24.122631 -6.667331
2.151354 25.358060 -7.008795
-1.075831 25.528630 -5.225627
1.105142 26.224161 -5.368000
10.845313 26.243532 -7.729972
6.475218 26.074382 -7.358136
9.454007 24.605333 -9.054192
9.919261 27.683436 -5.952242
7.351090 24.605262 -8.853264
7.614279 27.494408 -5.796046
-4.863136 17.231140 -10.649430
-1.663447 17.979441 -11.111905
-3.969380 16.127138 -11.358621
-4.329232 18.968573 -9.920963
5.369466 19.025176 -11.758206
1.718748 18.577159 -11.481315
4.279268 17.386179 -12.245386
4.754146 20.830337 -10.894705
-2.277617 13.886161 -12.457032
-0.833260 16.747534 -11.768171
-3.101522 14.998034 -11.959241
-0.770005 14.074154 -12.635623
-2.413129 16.458671 -11.574198
-2.947827 22.447865 -7.977888
-0.925008 19.816619 -10.397328
-3.689964 20.737208 -9.032861
-1.011821 23.067862 -8.185800
-2.644001 19.414459 -10.175497
2.363157 14.407683 -12.924881
0.846112 17.005854 -11.949688
3.274855 15.836221 -12.627601
0.779534 14.248325 -12.791992
2.524201 17.216238 -12.106940
0.000000 15.504005 -12.325229
3.160405 24.066658 -8.553202
0.942963 20.201267 -10.599144
4.012583 22.550294 -9.822618
1.035732 23.612998 -8.379245
2.796343 20.533082 -10.761789
0.000000 21.720170 -9.506790
0.000000 -7.374186 -14.014365
0.000000 -5.134250 -14.242658
0.000000 -1.001118 -14.444601
0.000000 -3.028781 -14.379995
0.000000 7.374186 -14.014365
0.000000 5.134250 -14.242658
0.000000 1.001118 -14.444601
0.000000 3.028781 -14.379995
21.076178 30.181964 -1.497310
24.414331 27.704578 -4.506679
19.537833 29.282718 -3.770278
23.678774 16.717979 -8.248587
24.832938 22.378404 -6.799810
16.021965 26.385813 -7.538276
22.103400 26.116219 -6.528548
17.790826 27.933958 -5.800942
21.083287 28.003889 -5.224384
18.189866 1.391085 -10.710608
19.486954 4.411442 -10.358579
22.235051 11.886295 -9.201856
20.826988 7.853300 -9.872093
9.380103 19.263474 -11.905482
13.762410 19.104097 -11.806981
10.890218 21.042038 -11.192539
21.743994 15.797543 -9.763418
18.184401 18.111375 -11.193445
22.231416 18.326887 -9.234294
14.212488 24.626539 -9.066646
15.642677 20.853599 -10.932070
12.518810 22.860817 -10.251592
17.010827 24.656464 -8.747727
13.240102 21.036870 -11.117437
22.561008 23.623527 -7.681193
18.108984 20.385860 -10.575278
22.550618 20.996057 -8.549773
19.869678 24.374534 -8.299429
20.328948 19.567912 -10.021795
17.707133 22.610932 -9.772619
13.334858 -19.096072 -0.947345
14.903555 -16.912063 -2.751070
12.855814 -19.267908 -2.480828
16.875512 -11.914657 -5.878646
16.070432 -14.482000 -4.400441
11.556527 -19.031895 -5.437303
14.321824 -16.921917 -4.230151
12.259409 -19.248900 -3.997348
13.644859 -18.123793 -3.381161
17.656616 -1.350304 -10.396618
17.743086 -4.016666 -9.431600
17.383771 -9.292924 -7.194180
17.658337 -6.658487 -8.370137
7.932978 -16.291582 -10.068751
10.871893 -15.091666 -9.327163
8.893296 -17.183593 -9.140181
16.066646 -11.672811 -7.214194
13.615226 -13.560549 -8.380880
15.766637 -12.997524 -6.549010
10.723825 -18.581596 -6.841106
11.840925 -15.785399 -8.275171
9.838316 -17.965920 -8.056549
12.216849 -17.707798 -6.282449
10.399477 -16.523471 -8.732223
14.911930 -15.614212 -5.076963
13.261751 -14.929176 -7.744593
15.383145 -14.322684 -5.832319
13.622756 -16.711308 -5.690132
14.554874 -14.009997 -7.175283
12.784523 -16.325059 -7.055816
1.057769 -8.144257 -13.831422
3.114379 -7.312925 -13.757354
1.753192 -9.085156 -13.616560
1.031244 -6.978144 -13.990706
7.208842 -5.580774 -13.485192
5.145816 -6.468615 -13.646729
3.259536 -11.035659 -13.039156
3.863657 -8.211874 -13.523746
2.491222 -10.053462 -13.353517
2.819059 -8.645733 -13.574947
0.992847 -4.762267 -14.224639
3.050691 -6.171682 -13.922974
1.010741 -5.846813 -14.120993
2.050911 -6.574868 -13.960353
16.364481 -0.811832 -11.427378
13.962937 -2.271339 -12.304672
16.504158 -2.124983 -11.011802
9.351316 -4.613904 -13.244884
11.604290 -3.526032 -12.877085
16.642072 -4.754545 -10.105381
14.128296 -3.531800 -11.957450
16.595361 -3.446298 -10.569400
15.316977 -2.857523 -11.531692
6.795930 -15.135135 -10.996045
7.389255 -12.004274 -11.956066
5.866410 -14.123290 -11.642800
8.264237 -14.662578 -10.708186
8.138877 -6.412467 -13.168980
7.819196 -9.114183 -12.651725
7.065811 -6.874957 -13.283766
4.111358 -12.075777 -12.644490
6.460305 -11.062552 -12.453468
4.963959 -13.092786 -12.190214
4.414805 -10.569493 -12.965810
6.188535 -12.553280 -12.083335
11.137306 -13.500054 -10.008758
8.776939 -11.541407 -11.710477
9.722928 -14.116665 -10.379436
8.543827 -13.066704 -11.252679
4.954063 -7.765778 -13.456071
6.699296 -9.586009 -12.779321
5.999558 -7.326405 -13.378876
4.695193 -9.130271 -13.233936
6.896205 -8.212906 -13.049283
5.566463 -10.085945 -12.879139
0.966677 -0.597439 -14.439294
2.926539 -1.808701 -14.330103
0.969590 -1.604395 -14.413140
7.129083 -4.406016 -13.676124
4.965109 -3.068606 -14.091369
6.103636 -4.866057 -13.755900
0.985367 -3.661081 -14.308900
2.943233 -2.845925 -14.263581
0.975151 -2.629452 -14.369832
1.986559 -4.344592 -14.203108
1.952849 -2.220923 -14.353322
4.087390 -5.734694 -13.876835
3.988829 -3.510201 -14.134864
5.086230 -5.310827 -13.822147
3.023097 -5.037915 -14.060201
5.026561 -4.173681 -13.969972
2.987884 -3.925190 -14.173474
16.331418 -10.093371 -7.952376
14.259703 -8.812981 -10.272555
16.485836 -8.769035 -8.532174
15.158275 -11.070197 -8.543626
9.443510 -5.836410 -12.998201
11.872194 -7.337419 -11.920063
10.566637 -5.324168 -12.817851
9.309198 -7.184543 -12.746963
16.634301 -6.124178 -9.600001
14.303813 -7.498480 -10.729560
16.586471 -7.437956 -9.082916
15.481426 -5.492567 -10.680845
15.444149 -8.161829 -9.720177
12.577795 -12.762046 -9.565084
12.971960 -9.617237 -10.701638
13.895399 -11.966328 -9.085679
11.397294 -11.897211 -10.588411
14.106965 -10.372304 -9.716247
12.894677 -4.192706 -12.314712
13.053290 -6.771467 -11.595381
11.724473 -4.774305 -12.592561
14.215227 -4.840227 -11.587995
11.813664 -6.050422 -12.273121
14.273700 -6.169203 -11.178058
8.985496 -9.998665 -12.119852
11.723990 -8.787067 -11.554726
9.157295 -8.578089 -12.454479
10.179770 -10.957435 -11.438059
10.517388 -7.985542 -12.212878
11.590528 -10.315467 -11.103498
1.068762 8.228899 -13.975170
3.203054 7.521144 -14.149063
1.787118 9.260963 -13.880053
1.040240 7.039018 -14.112754
7.595398 5.880029 -14.208302
5.367265 6.746990 -14.234011
3.405142 11.528629 -13.621624
4.018947 8.541930 -14.067299
2.567756 10.362322 -13.763760
2.904325 8.907233 -13.985538
0.998572 4.789729 -14.306667
3.122432 6.316816 -14.250389
1.018008 5.888851 -14.222520
2.084951 6.683997 -14.192065
16.640778 0.825539 -11.620317
14.559643 2.368404 -12.830513
17.267198 2.223228 -11.520913
15.414250 0.000000 -12.106582
9.901884 4.885552 -14.024690
12.257414 3.724487 -13.601845
18.524097 5.292228 -11.248182
15.110921 3.777437 -12.789092
17.896650 3.716531 -11.398177
16.230358 3.027923 -12.219349
12.970581 -1.474082 -12.817864
13.297997 1.511292 -13.141425
14.178439 -0.768951 -12.503951
14.378463 0.779799 -12.680352
7.743674 17.245846 -12.529528
8.301802 13.486760 -13.432598
6.507098 15.665736 -12.914345
9.704940 17.218703 -12.574942
8.720047 6.870360 -14.109333
8.595020 10.018496 -13.907034
7.527329 7.324008 -14.151422
4.369056 12.832684 -13.437044
7.084013 12.130581 -13.655782
5.379225 14.188078 -13.210001
4.678263 11.200237 -13.739556
6.832331 13.859204 -13.340369
13.849979 16.788211 -12.446554
10.071739 13.244030 -13.438041
11.763577 17.079471 -12.557873
9.930072 15.186790 -13.078438
5.200653 8.152321 -14.125849
7.282218 10.420111 -13.891281
6.347494 7.751291 -14.154767
4.954651 9.634813 -13.965249
7.424412 8.841963 -14.048776
5.978043 10.831692 -13.831411
0.967359 0.597861 -14.449475
2.945668 1.820523 -14.423767
0.971433 1.607445 -14.440540
1.944278 0.000000 -14.430935
7.423642 4.588063 -14.241193
5.060789 3.127740 -14.362916
6.339434 5.054044 -14.287324
0.989710 3.677215 -14.371958
2.973794 2.875476 -14.411687
0.978207 2.637694 -14.414869
2.007683 4.390791 -14.354138
1.963259 2.232761 -14.429829
3.954140 -1.213726 -14.306215
3.977648 1.220942 -14.391265
2.944304 -0.606161 -14.383737
2.950758 0.607490 -14.415267
4.208818 5.905059 -14.289085
4.058927 3.571888 -14.383265
5.262702 5.495092 -14.301721
3.080519 5.133608 -14.327266
5.161015 4.285322 -14.343651
3.031475 3.982455 -14.380252
21.055286 13.012882 -10.252603
17.161945 10.606666 -12.363303
20.437842 10.871159 -10.577518
19.677554 14.370658 -11.090817
10.168367 6.284396 -13.995905
13.421951 8.295222 -13.476069
11.403531 5.745851 -13.833045
10.190708 7.864864 -13.954003
19.172595 7.058691 -11.064903
16.696025 8.752548 -12.524003
19.804195 8.880896 -10.844973
17.420633 6.180567 -12.018729
18.572211 9.814929 -11.688904
16.019409 16.254077 -12.182342
15.583299 11.553248 -12.855947
17.960783 15.467322 -11.743881
13.878454 14.487202 -12.893480
17.596574 12.938078 -12.119734
13.878927 4.512735 -13.254692
14.792752 7.673822 -13.140564
12.653285 5.152525 -13.590142
15.628657 5.321494 -12.740198
13.043643 6.680361 -13.550937
16.159676 6.984337 -12.655009
10.155533 11.300631 -13.698027
13.581801 10.179486 -13.385714
10.189770 9.545259 -13.858708
11.905733 12.815250 -13.377362
11.818546 8.973473 -13.723793
13.774838 12.259482 -13.196024
8.379174 -3.826408 -13.557788
8.556497 -1.280904 -13.844703
9.460859 -3.306189 -13.432668
7.230600 -3.155233 -13.824682
8.736430 3.989551 -14.135840
8.676799 1.298913 -14.039356
9.856777 3.444546 -13.994797
7.444874 3.248736 -14.234368
11.733228 -2.145278 -13.079318
9.649097 -0.683216 -13.731835
10.585364 -2.745219 -13.275060
11.893547 -0.724783 -13.247595
9.560508 -1.993290 -13.595176
5.042139 -1.863069 -14.187370
7.374663 -0.656094 -14.055619
6.112176 -2.496851 -14.032039
5.062784 -0.625795 -14.267098
7.312380 -1.900049 -13.951742
12.127656 2.217394 -13.518997
9.730498 0.688980 -13.847678
10.997706 2.852156 -13.792176
12.026238 0.732869 -13.395392
9.799060 2.043026 -13.934401
10.802227 0.000000 -13.588208
5.101545 1.885019 -14.354525
7.419621 0.660094 -14.141307
6.230994 2.545389 -14.304815
5.082693 0.628255 -14.323201
7.442446 1.933845 -14.199904
6.221130 0.000000 -14.213421
21.076178 30.181964 1.497310
24.414331 27.704578 4.506679
19.537833 29.282718 3.770278
23.742487 30.229228 0.000000
23.678774 16.717979 8.248587
24.832938 22.378404 6.799810
16.021965 26.385813 7.538276
22.103400 26.116219 6.528548
17.790826 27.933958 5.800942
21.083287 28.003889 5.224384
27.203113 27.527221 -3.128416
27.203113 27.527221 3.128416
25.997149 29.478601 -1.598737
25.997149 29.478601 1.598737
18.189866 1.391085 10.710608
19.486954 4.411442 10.358579
22.235051 11.886295 9.201856
20.826988 7.853300 9.872093
9.380103 19.263474 11.905482
13.762410 19.104097 11.806981
10.890218 21.042038 11.192539
21.743994 15.797543 9.763418
18.184401 18.111375 11.193445
22.231416 18.326887 9.234294
14.212488 24.626539 9.066646
15.642677 20.853599 10.932070
12.518810 22.860817 10.251592
17.010827 24.656464 8.747727
13.240102 21.036870 11.117437
22.561008 23.623527 7.681193
18.108984 20.385860 10.575278
22.550618 20.996057 8.549773
19.869678 24.374534 8.299429
20.328948 19.567912 10.021795
17.707133 22.610932 9.772619
24.839449 15.351624 -7.010426
28.139459 17.391142 -2.603446
25.743513 18.131599 -6.336262
24.839449 15.351624 7.010426
28.139459 17.391142 2.603446
25.743513 18.131599 6.336262
27.260594 24.455002 -4.471299
29.173330 20.499540 -1.451495
26.619736 21.226239 -5.504834
29.240718 26.251999 -1.599776
27.746359 19.512015 -4.068100
27.260594 24.455002 4.471299
29.173330 20.499540 1.451495
26.619736 21.226239 5.504834
29.240718 26.251999 1.599776
27.746359 19.512015 4.068100
29.796832 23.687607 0.000000
13.334858 -19.096072 0.947345
14.903555 -16.912063 2.751070
12.855814 -19.267908 2.480828
14.259468 -18.155332 0.000000
16.875512 -11.914657 5.878646
16.070432 -14.482000 4.400441
11.556527 -19.031895 5.437303
14.321824 -16.921917 4.230151
12.259409 -19.248900 3.997348
13.644859 -18.123793 3.381161
15.818908 -16.007381 -1.819208
15.818908 -16.007381 1.819208
15.093155 -17.114381 -0.928178
15.093155 -17.114381 0.928178
17.656616 -1.350304 10.396618
17.743086 -4.016666 9.431600
17.383771 -9.292924 7.194180
17.658337 -6.658487 8.370137
7.932978 -16.291582 10.068751
10.871893 -15.091666 9.327163
8.893296 -17.183593 9.140181
16.066646 -11.672811 7.214194
13.615226 -13.560549 8.380880
15.766637 -12.997524 6.549010
10.723825 -18.581596 6.841106
11.840925 -15.785399 8.275171
9.838316 -17.965920 8.056549
12.216849 -17.707798 6.282449
10.399477 -16.523471 8.732223
14.911930 -15.614212 5.076963
13.261751 -14.929176 7.744593
15.383145 -14.322684 5.832319
13.622756 -16.711308 5.690132
14.554874 -14.009997 7.175283
12.784523 -16.325059 7.055816
17.825869 -11.016993 -5.030986
18.600881 -11.495977 -1.720943
17.459279 -12.296871 -4.297260
17.825869 -11.016993 5.030986
18.600881 -11.495977 1.720943
17.459279 -12.296871 4.297260
16.477711 -14.781867 -2.702684
18.056156 -12.687715 -0.898369
17.009380 -13.563063 -3.517458
16.667985 -14.964336 -0.911915
17.856358 -12.557090 -2.618054
16.477711 -14.781867 2.702684
18.056156 -12.687715 0.898369
17.009380 -13.563063 3.517458
16.667985 -14.964336 0.911915
17.856358 -12.557090 2.618054
17.417606 -13.846486 0.000000
1.057769 -8.144257 13.831422
3.114379 -7.312925 13.757354
1.753192 -9.085156 13.616560
1.031244 -6.978144 13.990706
7.208842 -5.580774 13.485192
5.145816 -6.468615 13.646729
3.259536 -11.035659 13.039156
3.863657 -8.211874 13.523746
2.491222 -10.053462 13.353517
2.819059 -8.645733 13.574947
0.992847 -4.762267 14.224639
3.050691 -6.171682 13.922974
1.010741 -5.846813 14.120993
2.050911 -6.574868 13.960353
16.364481 -0.811832 11.427378
13.962937 -2.271339 12.304672
16.504158 -2.124983 11.011802
9.351316 -4.613904 13.244884
11.604290 -3.526032 12.877085
16.642072 -4.754545 10.105381
14.128296 -3.531800 11.957450
16.595361 -3.446298 10.569400
15.316977 -2.857523 11.531692
6.795930 -15.135135 10.996045
7.389255 -12.004274 11.956066
5.866410 -14.123290 11.642800
8.264237 -14.662578 10.708186
8.138877 -6.412467 13.168980
7.819196 -9.114183 12.651725
7.065811 -6.874957 13.283766
4.111358 -12.075777 12.644490
6.460305 -11.062552 12.453468
4.963959 -13.092786 12.190214
4.414805 -10.569493 12.965810
6.188535 -12.553280 12.083335
11.137306 -13.500054 10.008758
8.776939 -11.541407 11.710477
9.722928 -14.116665 10.379436
8.543827 -13.066704 11.252679
4.954063 -7.765778 13.456071
6.699296 -9.586009 12.779321
5.999558 -7.326405 13.378876
4.695193 -9.130271 13.233936
6.896205 -8.212906 13.049283
5.566463 -10.085945 12.879139
0.966677 -0.597439 14.439294
2.926539 -1.808701 14.330103
0.969590 -1.604395 14.413140
7.129083 -4.406016 13.676124
4.965109 -3.068606 14.091369
6.103636 -4.866057 13.755900
0.985367 -3.661081 14.308900
2.943233 -2.845925 14.263581
0.975151 -2.629452 14.369832
1.986559 -4.344592 14.203108
1.952849 -2.220923 14.353322
4.087390 -5.734694 13.876835
3.988829 -3.510201 14.134864
5.086230 -5.310827 13.822147
3.023097 -5.037915 14.060201
5.026561 -4.173681 13.969972
2.987884 -3.925190 14.173474
16.331418 -10.093371 7.952376
14.259703 -8.812981 10.272555
16.485836 -8.769035 8.532174
15.158275 -11.070197 8.543626
9.443510 -5.836410 12.998201
11.872194 -7.337419 11.920063
10.566637 -5.324168 12.817851
9.309198 -7.184543 12.746963
16.634301 -6.124178 9.600001
14.303813 -7.498480 10.729560
16.586471 -7.437956 9.082916
15.481426 -5.492567 10.680845
15.444149 -8.161829 9.720177
12.577795 -12.762046 9.565084
12.971960 -9.617237 10.701638
13.895399 -11.966328 9.085679
11.397294 -11.897211 10.588411
14.106965 -10.372304 9.716247
12.894677 -4.192706 12.314712
13.053290 -6.771467 11.595381
11.724473 -4.774305 12.592561
14.215227 -4.840227 11.587995
11.813664 -6.050422 12.273121
14.273700 -6.169203 11.178058
8.985496 -9.998665 12.119852
11.723990 -8.787067 11.554726
9.157295 -8.578089 12.454479
10.179770 -10.957435 11.438059
10.517388 -7.985542 12.212878
11.590528 -10.315467 11.103498
1.068762 8.228899 13.975170
3.203054 7.521144 14.149063
1.787118 9.260963 13.880053
1.040240 7.039018 14.112754
7.595398 5.880029 14.208302
5.367265 6.746990 14.234011
3.405142 11.528629 13.621624
4.018947 8.541930 14.067299
2.567756 10.362322 13.763760
2.904325 8.907233 13.985538
0.998572 4.789729 14.306667
3.122432 6.316816 14.250389
1.018008 5.888851 14.222520
2.084951 6.683997 14.192065
16.640778 0.825539 11.620317
14.559643 2.368404 12.830513
17.267198 2.223228 11.520913
15.414250 0.000000 12.106582
9.901884 4.885552 14.024690
12.257414 3.724487 13.601845
18.524097 5.292228 11.248182
15.110921 3.777437 12.789092
17.896650 3.716531 11.398177
16.230358 3.027923 12.219349
12.970581 -1.474082 12.817864
13.297997 1.511292 13.141425
14.178439 -0.768951 12.503951
14.378463 0.779799 12.680352
7.743674 17.245846 12.529528
8.301802 13.486760 13.432598
6.507098 15.665736 12.914345
9.704940 17.218703 12.574942
8.720047 6.870360 14.109333
8.595020 10.018496 13.907034
7.527329 7.324008 14.151422
4.369056 12.832684 13.437044
7.084013 12.130581 13.655782
5.379225 14.188078 13.210001
4.678263 11.200237 13.739556
6.832331 13.859204 13.340369
13.849979 16.788211 12.446554
10.071739 13.244030 13.438041
11.763577 17.079471 12.557873
9.930072 15.186790 13.078438
5.200653 8.152321 14.125849
7.282218 10.420111 13.891281
6.347494 7.751291 14.154767
4.954651 9.634813 13.965249
7.424412 8.841963 14.048776
5.978043 10.831692 13.831411
0.967359 0.597861 14.449475
2.945668 1.820523 14.423767
0.971433 1.607445 14.440540
1.944278 0.000000 14.430935
7.423642 4.588063 14.241193
5.060789 3.127740 14.362916
6.339434 5.054044 14.287324
0.989710 3.677215 14.371958
2.973794 2.875476 14.411687
0.978207 2.637694 14.414869
2.007683 4.390791 14.354138
1.963259 2.232761 14.429829
3.954140 -1.213726 14.306215
3.977648 1.220942 14.391265
2.944304 -0.606161 14.383737
2.950758 0.607490 14.415267
4.208818 5.905059 14.289085
4.058927 3.571888 14.383265
5.262702 5.495092 14.301721
3.080519 5.133608 14.327266
5.161015 4.285322 14.343651
3.031475 3.982455 14.380252
21.055286 13.012882 10.252603
17.161945 10.606666 12.363303
20.437842 10.871159 10.577518
19.677554 14.370658 11.090817
10.168367 6.284396 13.995905
13.421951 8.295222 13.476069
11.403531 5.745851 13.833045
10.190708 7.864864 13.954003
19.172595 7.058691 11.064903
16.696025 8.752548 12.524003
19.804195 8.880896 10.844973
17.420633 6.180567 12.018729
18.572211 9.814929 11.688904
16.019409 16.254077 12.182342
15.583299 11.553248 12.855947
17.960783 15.467322 11.743881
13.878454 14.487202 12.893480
17.596574 12.938078 12.119734
13.878927 4.512735 13.254692
14.792752 7.673822 13.140564
12.653285 5.152525 13.590142
15.628657 5.321494 12.740198
13.043643 6.680361 13.550937
16.159676 6.984337 12.655009
10.155533 11.300631 13.698027
13.581801 10.179486 13.385714
10.189770 9.545259 13.858708
11.905733 12.815250 13.377362
11.818546 8.973473 13.723793
13.774838 12.259482 13.196024
8.379174 -3.826408 13.557788
8.556497 -1.280904 13.844703
9.460859 -3.306189 13.432668
7.230600 -3.155233 13.824682
8.736430 3.989551 14.135840
8.676799 1.298913 14.039356
9.856777 3.444546 13.994797
7.444874 3.248736 14.234368
11.733228 -2.145278 13.079318
9.649097 -0.683216 13.731835
10.585364 -2.745219 13.275060
11.893547 -0.724783 13.247595
9.560508 -1.993290 13.595176
5.042139 -1.863069 14.187370
7.374663 -0.656094 14.055619
6.112176 -2.496851 14.032039
5.062784 -0.625795 14.267098
7.312380 -1.900049 13.951742
12.127656 2.217394 13.518997
9.730498 0.688980 13.847678
10.997706 2.852156 13.792176
12.026238 0.732869 13.395392
9.799060 2.043026 13.934401
10.802227 0.000000 13.588208
5.101545 1.885019 14.354525
7.419621 0.660094 14.141307
6.230994 2.545389 14.304815
5.082693 0.628255 14.323201
7.442446 1.933845 14.199904
6.221130 0.000000 14.213421
18.748915 0.000000 -9.865447
20.806433 0.000000 -7.500386
19.401679 1.430082 -9.676975
18.792095 -1.385150 -9.372933
23.224784 0.000000 -1.609651
22.348463 0.000000 -4.707137
20.747536 4.546035 -9.196828
21.480102 1.499261 -7.191324
20.070782 2.948592 -9.452679
20.507007 1.467834 -8.490950
18.760772 -4.110711 -8.316148
20.712625 -1.445693 -6.934380
18.797041 -2.761467 -8.852789
19.819035 -1.418591 -8.206094
18.748915 0.000000 9.865447
20.806433 0.000000 7.500386
19.401679 1.430082 9.676975
18.792095 -1.385150 9.372933
23.224784 0.000000 1.609651
22.348463 0.000000 4.707137
20.747536 4.546035 9.196828
21.480102 1.499261 7.191324
20.070782 2.948592 9.452679
20.507007 1.467834 8.490950
18.760772 -4.110711 8.316148
20.712625 -1.445693 6.934380
18.797041 -2.761467 8.852789
19.819035 -1.418591 8.206094
23.806909 12.410053 -7.669835
24.602766 8.668812 -5.357620
22.991845 10.201720 -8.133210
25.441669 13.306528 -5.806599
23.832834 1.595553 -0.986106
24.514432 5.006416 -3.094135
23.555432 1.584604 -2.622067
21.484903 6.328329 -8.878779
23.763602 6.706038 -5.901367
22.215035 8.174618 -8.535592
21.924629 4.714035 -7.855821
23.489384 8.451757 -7.017709
27.794053 14.582906 -1.297382
25.655131 9.117739 -3.369002
26.884439 14.090659 -3.661317
25.691142 11.190731 -4.571463
22.360727 1.539848 -5.721225
23.850756 4.921509 -4.758795
23.048159 1.564070 -4.217449
22.212571 3.106826 -6.794609
23.772151 3.234333 -3.678320
22.974743 4.843264 -6.362607
18.171242 -9.472296 -5.854201
19.952993 -7.030459 -4.345063
18.394455 -8.161811 -6.506914
18.753052 -9.808241 -4.280043
22.778152 -1.524944 -0.942467
21.475297 -4.385754 -2.710545
22.542913 -1.516490 -2.509358
18.686569 -5.504086 -7.722348
20.206819 -5.702322 -5.018089
18.564666 -6.831367 -7.133026
19.662093 -4.227565 -7.045132
19.336635 -6.957549 -5.777030
19.356970 -10.156160 -0.903552
20.372461 -7.240298 -2.675288
19.154034 -10.039003 -2.608535
19.604959 -8.539668 -3.488492
21.500649 -1.480619 -5.501165
21.048457 -4.343266 -4.199670
22.106384 -1.500161 -4.045119
20.601135 -2.881438 -6.301686
21.814258 -2.967951 -3.375371
20.432389 -4.307315 -5.658529
23.806909 12.410053 7.669835
24.602766 8.668812 5.357620
22.991845 10.201720 8.133210
25.441669 13.306528 5.806599
23.832834 1.595553 0.986106
24.514432 5.006416 3.094135
23.555432 1.584604 2.622067
24.437412 3.292449 0.000000
21.484903 6.328329 8.878779
23.763602 6.706038 5.901367
22.215035 8.174618 8.535592
21.924629 4.714035 7.855821
23.489384 8.451757 7.017709
27.794053 14.582906 1.297382
25.655131 9.117739 3.369002
26.884439 14.090659 3.661317
27.123372 11.871740 0.000000
25.691142 11.190731 4.571463
22.360727 1.539848 5.721225
23.850756 4.921509 4.758795
23.048159 1.564070 4.217449
22.212571 3.106826 6.794609
23.772151 3.234333 3.678320
22.974743 4.843264 6.362607
25.386779 7.016733 -2.153791
25.386779 7.016733 2.153791
24.970229 5.111324 -1.052299
26.275942 9.324210 -1.152536
24.970229 5.111324 1.052299
26.275942 9.324210 1.152536
18.171242 -9.472296 5.854201
19.952993 -7.030459 4.345063
18.394455 -8.161811 6.506914
18.753052 -9.808241 4.280043
22.778152 -1.524944 0.942467
21.475297 -4.385754 2.710545
22.542913 -1.516490 2.509358
22.294347 -3.003714 0.000000
18.686569 -5.504086 7.722348
20.206819 -5.702322 5.018089
18.564666 -6.831367 7.133026
19.662093 -4.227565 7.045132
19.336635 -6.957549 5.777030
19.356970 -10.156160 0.903552
20.372461 -7.240298 2.675288
19.154034 -10.039003 2.608535
20.027057 -8.765725 0.000000
19.604959 -8.539668 3.488492
21.500649 -1.480619 5.501165
21.048457 -4.343266 4.199670
22.106384 -1.500161 4.045119
20.601135 -2.881438 6.301686
21.814258 -2.967951 3.375371
20.432389 -4.307315 5.658529
21.102846 -5.832683 -1.790346
21.102846 -5.832683 1.790346
21.730169 -4.448094 -0.915756
20.610858 -7.313914 -0.904049
21.730169 -4.448094 0.915756
20.610858 -7.313914 0.904049
-13.334858 19.096072 -0.947345
-14.903555 16.912063 -2.751070
-12.855814 19.267908 -2.480828
-16.875512 11.914657 -5.878646
-16.070432 14.482000 -4.400441
-11.556527 19.031895 -5.437303
-14.321824 16.921917 -4.230151
-12.259409 19.248900 -3.997348
-13.644859 18.123793 -3.381161
-17.656616 1.350304 -10.396618
-17.743086 4.016666 -9.431600
-17.383771 9.292924 -7.194180
-17.658337 6.658487 -8.370137
-7.932978 16.291582 -10.068751
-10.871893 15.091666 -9.327163
-8.893296 17.183593 -9.140181
-16.066646 11.672811 -7.214194
-13.615226 13.560549 -8.380880
-15.766637 12.997524 -6.549010
-10.723825 18.581596 -6.841106
-11.840925 15.785399 -8.275171
-9.838316 17.965920 -8.056549
-12.216849 17.707798 -6.282449
-10.399477 16.523471 -8.732223
-14.911930 15.614212 -5.076963
-13.261751 14.929176 -7.744593
-15.383145 14.322684 -5.832319
-13.622756 16.711308 -5.690132
