6.444929 -25.952412 -7.323716
8.837172 -22.999937 -8.463444
8.755539 -24.435631 -5.253928
7.284931 -24.383819 -8.773586
7.183396 -25.938532 -5.468055
-7.955678 -28.188682 -17.421563
-2.497601 -26.995427 -16.684092
-6.701651 -27.228044 -19.177180
-6.758417 -29.612067 -15.487734
6.186013 -21.918377 -13.546302
2.249154 -24.310079 -15.024455
5.247651 -21.320609 -15.016472
5.414293 -23.722775 -12.407510
-3.671858 -22.386563 -20.082594
-1.230788 -24.737380 -17.382483
-5.101640 -24.670013 -19.671555
-1.175585 -21.487347 -19.291107
-3.805403 -25.954635 -18.252025
-4.184230 -31.863139 -11.324042
-1.314227 -28.154921 -14.772245
-5.489026 -30.847748 -13.436883
-1.381589 -31.497990 -11.177292
-4.069544 -29.881980 -15.661728
3.240160 -19.754589 -17.721496
1.170708 -23.529841 -16.533968
4.258516 -20.592917 -16.420530
1.127382 -20.606301 -18.500113
3.285525 -22.408828 -15.758514
0.000000 -22.605108 -17.970398
3.608013 -27.475213 -9.764589
1.237449 -26.510108 -13.909249
4.552947 -25.587081 -11.145404
1.288077 -29.366069 -10.420765
3.414522 -25.072262 -13.140861
0.000000 -28.920491 -12.658328
-12.576099 21.358036 -1.633373
-11.555126 21.737943 -4.921019
-11.291668 22.639029 -1.668705
-8.779493 21.214467 -11.340717
-10.285269 21.698659 -8.181984
-8.507774 25.412267 -1.773717
-10.213575 23.041263 -5.048618
-9.933896 23.991954 -1.717277
-10.782986 22.895409 -3.363557
-1.054722 14.846296 -21.260514
-3.147637 17.051901 -19.349935
-7.061878 20.272152 -14.312794
-5.168707 18.876141 -17.010388
-1.345840 32.527118 -2.177615
-3.692370 29.254175 -5.974381
-3.394460 30.494254 -2.051387
-7.238604 22.468383 -11.712307
-5.629220 25.849982 -9.108270
-8.063606 22.795081 -10.114414
-6.908766 27.002089 -1.859470
-5.497192 27.551551 -5.685153
-5.243858 28.657432 -1.944721
-7.877236 25.751838 -3.601856
-4.495660 29.054432 -3.953017
-9.540024 23.084987 -6.799630
-6.444929 25.952412 -7.323716
-8.837172 22.999937 -8.463444
-8.755539 24.435631 -5.253928
-7.284931 24.383819 -8.773586
-7.183396 25.938532 -5.468055
19.888353 33.776465 -2.583082
17.227595 32.409209 -7.336772
16.874012 33.831249 -2.493675
11.876127 28.697066 -15.340726
14.504675 30.600268 -11.538543
11.345781 33.889245 -2.365391
14.494048 32.697773 -7.164475
14.022131 33.865699 -2.424012
15.709883 33.356642 -4.900413
1.084488 15.265294 -21.860536
3.487875 18.895098 -21.441535
0.000000 16.513844 -21.025631
9.327035 26.774616 -18.903744
6.349478 23.188324 -20.896347
-2.156112 18.748452 -18.971828
2.324685 20.214278 -20.455119
-1.087653 17.686384 -20.054886
1.125735 18.305642 -20.757073
1.404032 33.933530 -2.271771
4.195439 33.239925 -6.788363
3.776523 33.926529 -2.282280
0.000000 33.411580 -4.501537
9.431638 29.275488 -15.260711
6.905330 31.710017 -11.173059
10.673429 30.172815 -13.387991
8.674970 33.905088 -2.334838
6.615871 33.158292 -6.842082
6.206349 33.917404 -2.301668
10.262346 33.549112 -4.692444
5.206568 33.648867 -4.578116
-2.502453 29.496466 -8.152623
2.774644 32.704796 -9.039383
-1.325226 31.446577 -6.437011
1.403343 33.300230 -6.816448
13.180577 31.894412 -9.394426
8.046753 32.402632 -9.143954
11.932314 31.055462 -11.427690
11.784083 32.887924 -7.071263
9.386470 31.418003 -11.304568
9.149307 33.037242 -6.964521
-6.186013 21.918377 -13.546302
-2.249154 24.310079 -15.024455
-5.247651 21.320609 -15.016472
-5.414293 23.722775 -12.407510
7.955678 28.188682 -17.421563
2.497601 26.995427 -16.684092
6.701651 27.228044 -19.177180
6.758417 29.612067 -15.487734
-3.240160 19.754589 -17.721496
-1.170708 23.529841 -16.533968
-4.258516 20.592917 -16.420530
-1.127382 20.606301 -18.500113
-3.285525 22.408828 -15.758514
-3.608013 27.475213 -9.764589
-1.237449 26.510108 -13.909249
-4.552947 25.587081 -11.145404
-1.288077 29.366069 -10.420765
-3.414522 25.072262 -13.140861
3.671858 22.386563 -20.082594
1.230788 24.737380 -17.382483
5.101640 24.670013 -19.671555
1.175585 21.487347 -19.291107
3.805403 25.954635 -18.252025
0.000000 22.605108 -17.970398
4.184230 31.863139 -11.324042
1.314227 28.154921 -14.772245
5.489026 30.847748 -13.436883
1.381589 31.497990 -11.177292
4.069544 29.881980 -15.661728
0.000000 28.920491 -12.658328
0.000000 -11.860742 -22.540898
0.000000 -8.401214 -23.305374
0.000000 -1.664887 -24.021756
0.000000 -5.010382 -23.788205
0.000000 11.860742 -22.540898
0.000000 8.401214 -23.305374
0.000000 1.664887 -24.021756
0.000000 5.010382 -23.788205
23.655953 33.876310 -1.680584
28.010641 31.785552 -5.170528
22.177449 33.238896 -4.279654
29.839335 21.067534 -10.394641
29.565732 26.643400 -8.095754
19.028941 31.337860 -8.953047
25.796459 30.479744 -7.619344
20.592496 32.332952 -6.714465
24.221985 32.172866 -6.002145
27.352104 2.091774 -16.105543
29.510954 6.680667 -15.686984
29.805059 15.933030 -12.334663
29.677284 11.190510 -14.067176
13.247354 27.205464 -16.813901
18.576090 25.786139 -15.936710
14.601094 28.212180 -15.006432
28.133878 20.439950 -12.632584
23.731018 23.635717 -14.607676
27.907984 23.006472 -11.592177
17.464821 30.261985 -11.141424
20.149134 26.861255 -14.081461
16.010980 29.237929 -13.111313
20.586362 29.839049 -10.586427
17.378427 27.612152 -14.592302
26.878124 28.143959 -9.151012
22.972839 25.861257 -13.415670
27.522150 25.624868 -10.434664
23.789720 29.183328 -9.936804
25.566229 24.609130 -12.603678
21.907448 27.974478 -12.090785
13.973313 -20.010366 -0.992703
15.814921 -17.946251 -2.919301
13.531301 -20.280307 -2.611178
19.154097 -13.523411 -6.672400
17.530533 -15.797782 -4.800249
12.462479 -20.523865 -5.863550
15.312898 -18.092917 -4.522878
13.025825 -20.452274 -4.247248
14.445958 -19.187853 -3.579671
24.991585 -1.911252 -14.715616
23.645415 -5.352831 -12.569070
20.709214 -11.070622 -8.570397
22.207781 -8.373960 -10.526595
9.602325 -19.719841 -12.187532
12.697632 -17.626039 -10.893491
10.392945 -20.081210 -10.681461
18.489189 -13.432847 -8.301956
15.619632 -15.556906 -9.614697
17.746276 -14.629477 -7.371295
11.818942 -20.479148 -7.539719
13.423441 -17.895086 -9.381131
11.136369 -20.336318 -9.119519
13.311473 -19.294410 -6.845354
11.941697 -18.973867 -10.027193
16.173730 -16.935437 -5.506560
14.914392 -16.789607 -8.709701
16.971374 -15.801426 -6.434475
14.764108 -18.111428 -6.166867
16.330894 -15.719529 -8.050828
14.130733 -18.044086 -7.798793
1.664319 -12.814366 -21.762686
4.798799 -11.268139 -21.198052
2.698551 -13.984071 -20.958906
1.643220 -11.119223 -22.293288
10.677942 -8.266401 -19.974649
7.770272 -9.767721 -20.606797
4.751608 -16.087299 -19.007910
5.809960 -12.348576 -20.336284
3.737409 -15.082520 -20.033367
4.288051 -13.150962 -20.648755
1.613927 -7.741329 -23.122938
4.772246 -9.654464 -21.779938
1.628154 -9.418349 -22.746825
3.237732 -10.379614 -22.038934
23.600928 -1.170828 -16.480616
19.955863 -3.246203 -17.585868
23.118965 -2.976668 -15.425292
13.613327 -6.716764 -19.281451
16.670404 -5.065401 -18.498867
21.998942 -6.284972 -13.358173
19.653409 -4.912971 -16.633616
22.576427 -4.688364 -14.378674
21.334939 -3.980229 -16.062434
8.597678 -19.147787 -13.911335
9.768121 -15.868878 -15.805151
7.704593 -18.548685 -15.290957
10.230073 -18.150406 -13.255371
11.712787 -9.228283 -18.951688
10.795788 -12.583747 -17.467952
10.273184 -9.995696 -19.313646
5.797529 -17.028358 -17.830314
8.844449 -15.145133 -17.049359
6.762981 -17.837830 -16.608152
6.341123 -15.181293 -18.623197
8.299119 -16.834544 -16.204325
13.331834 -16.160144 -11.980913
11.388642 -14.975717 -15.195096
11.812380 -17.150329 -12.609972
10.828000 -16.560059 -14.261058
7.361515 -11.539597 -19.995116
9.366345 -13.402284 -17.866881
8.817628 -10.767713 -19.663109
6.863220 -13.346216 -19.344767
9.834468 -11.712175 -18.609184
7.883682 -14.284543 -18.240493
1.605428 -0.992209 -23.980342
4.782861 -2.955971 -23.419776
1.605165 -2.656091 -23.861088
10.767482 -6.654670 -20.655871
7.859624 -4.857515 -22.306229
9.295508 -7.410742 -20.949494
1.614212 -5.997520 -23.440594
4.770181 -4.612471 -23.117387
1.607012 -4.333240 -23.680949
3.208305 -7.016544 -22.938110
3.205162 -3.645145 -23.557744
6.334912 -8.888015 -21.507253
6.354587 -5.592088 -22.518196
7.813560 -8.158591 -21.233838
4.792308 -7.986261 -22.288669
7.844783 -6.513723 -21.802461
4.793006 -6.296584 -22.736340
19.342089 -11.954068 -9.418383
17.788527 -10.993914 -12.814687
20.033582 -10.656127 -10.368295
17.853702 -13.038687 -10.062843
13.437259 -8.304683 -18.495261
15.799870 -9.764857 -15.863576
14.908962 -7.512118 -18.085305
12.958681 -10.001098 -17.744152
21.349791 -7.860260 -12.321409
18.315435 -9.601490 -13.738752
20.708203 -9.286285 -11.340017
20.372338 -7.227786 -14.055150
19.229823 -10.162460 -12.102790
14.893429 -15.111602 -11.326064
16.226672 -12.030236 -13.386718
16.366182 -14.094097 -10.701232
13.998566 -14.612582 -13.005067
17.092224 -12.567249 -11.772360
17.975849 -5.844850 -17.167347
17.256618 -8.951966 -15.329244
16.426519 -6.689019 -17.642750
19.237476 -6.550282 -15.682042
16.132243 -8.262202 -16.759659
18.786708 -8.119760 -14.712296
11.949069 -13.296399 -16.117191
15.205759 -11.396634 -14.986227
12.460834 -11.672676 -16.947493
13.008497 -14.002258 -14.616436
14.132933 -10.730719 -16.411279
14.626541 -13.017491 -14.011938
1.729301 13.314690 -22.612387
5.322042 12.496774 -23.509408
2.893948 14.996633 -22.476503
1.697723 11.488024 -23.032709
12.810239 9.917134 -23.963423
9.047605 11.373409 -23.994291
5.539763 18.755719 -22.160774
6.700134 14.240567 -23.452113
4.165308 16.809329 -22.327002
4.779223 14.657332 -23.013956
1.649959 7.914160 -23.639174
5.204795 10.529529 -23.754037
1.673113 9.678424 -23.374947
3.444003 11.040884 -23.443002
24.816197 1.231117 -17.329243
22.653552 3.685033 -19.963174
26.483499 3.409867 -17.670156
22.757422 0.000000 -17.874019
16.462134 8.122354 -23.316404
19.811637 6.019883 -21.984641
28.312244 8.088646 -17.191730
24.079874 6.019501 -20.379944
28.258295 5.868296 -17.997393
25.384619 4.735735 -19.111317
19.033317 -2.163100 -18.809216
20.552301 2.335729 -20.310316
20.827504 -1.129555 -18.367755
21.730047 1.178503 -19.163707
11.680999 26.014614 -18.900253
13.614578 22.117671 -22.028849
10.389759 25.013180 -20.620086
14.280538 25.336823 -18.503663
14.800623 11.661130 -23.947911
14.825299 17.280612 -23.987838
12.792165 12.446636 -24.049344
7.143551 20.981860 -21.970008
12.071041 20.670310 -23.269227
8.858248 23.364241 -21.753591
7.763466 18.586528 -22.800468
11.384820 23.093809 -22.229267
19.432241 23.554735 -17.463164
16.089371 21.157034 -21.466962
16.889040 24.521103 -18.029416
15.232726 23.296531 -20.062319
8.759501 13.731020 -23.792282
12.450204 17.814972 -23.749533
10.758704 13.138073 -23.991664
8.302829 16.145678 -23.402468
12.677879 15.098481 -23.989602
10.088898 18.280202 -23.342706
1.609868 0.994953 -24.046655
4.904232 3.030982 -24.014082
1.617129 2.675887 -24.038930
3.225726 0.000000 -23.942180
12.414635 7.672667 -23.815699
8.436135 5.213818 -23.942410
10.649966 8.490568 -24.002066
1.641927 6.100494 -23.843055
4.962685 4.798610 -24.050306
1.626715 4.386368 -23.971292
3.340962 7.306662 -23.886550
3.271931 3.721079 -24.048488
6.440631 -1.976956 -23.302420
6.587266 2.021966 -23.832954
4.849757 -0.998448 -23.692402
4.890873 1.006913 -23.893265
7.059219 9.904233 -23.966302
6.785080 5.970924 -24.043694
8.849474 9.240249 -24.048998
5.144795 8.573672 -23.928060
8.645632 7.178688 -24.028206
5.064526 6.653280 -24.024333
28.278998 17.477382 -13.770097
25.138049 15.536169 -18.109212
28.335473 15.072013 -14.664904
26.450616 19.317075 -14.908303
17.146344 10.597023 -23.600506
22.025874 13.612739 -22.114684
19.046045 9.596653 -23.103791
17.443578 13.462398 -23.885263
28.340057 10.433836 -16.355636
25.317762 13.272316 -18.991330
28.353194 12.714567 -15.526490
26.945924 9.559991 -18.590357
26.826722 14.177222 -16.884096
22.013094 22.335562 -16.740383
23.166182 17.175096 -19.111692
24.327461 20.950126 -15.906812
20.255041 21.143483 -18.817511
24.784751 18.223266 -17.070629
22.527612 7.324856 -21.514385
23.751533 12.321239 -21.098747
20.860274 8.494481 -22.404782
25.490556 8.679430 -20.779440
21.970710 11.252399 -22.825196
25.413157 10.983762 -19.901619
16.906537 18.812852 -22.803944
21.488764 16.105712 -21.178521
17.617640 16.503310 -23.961064
18.549419 19.966469 -20.842253
19.896163 15.106569 -23.103589
20.935773 18.632651 -20.056059
12.539009 -5.726025 -20.288542
13.281864 -1.988289 -21.490507
14.059155 -4.913107 -19.961395
11.108836 -4.847587 -21.239749
14.461970 6.604159 -23.399959
13.933207 2.085795 -22.544402
16.114588 5.631398 -22.879730
12.314277 5.373608 -23.544516
17.257693 -3.155359 -19.237576
14.919595 -1.056400 -21.232392
15.636640 -4.055222 -19.609844
17.909085 -1.091365 -19.947985
14.496855 -3.022479 -20.614731
8.082228 -2.986381 -22.741451
11.700010 -1.040902 -22.299445
9.610691 -3.926010 -22.063761
8.214296 -1.015343 -23.148165
11.421730 -2.967823 -21.792225
19.154918 3.502243 -21.352460
15.343532 1.086418 -21.835705
17.696486 4.589424 -22.193087
18.546747 1.130224 -20.658244
15.737949 3.281238 -22.379585
16.666737 0.000000 -20.965223
8.442175 3.119381 -23.754254
11.954411 1.063535 -22.784316
10.306480 4.210243 -23.661120
8.335362 1.030307 -23.489333
12.156320 3.158698 -23.193794
10.056181 0.000000 -22.975362
23.655953 33.876310 1.680584
28.010641 31.785552 5.170528
22.177449 33.238896 4.279654
26.714054 34.012664 0.000000
29.839335 21.067534 10.394641
29.565732 26.643400 8.095754
19.028941 31.337860 8.953047
25.796459 30.479744 7.619344
20.592496 32.332952 6.714465
24.221985 32.172866 6.002145
31.276189 31.648825 -3.596828
31.276189 31.648825 3.596828
29.658816 33.630626 -1.823916
29.658816 33.630626 1.823916
27.352104 2.091774 16.105543
29.510954 6.680667 15.686984
29.805059 15.933030 12.334663
29.677284 11.190510 14.067176
13.247354 27.205464 16.813901
18.576090 25.786139 15.936710
14.601094 28.212180 15.006432
28.133878 20.439950 12.632584
23.731018 23.635717 14.607676
27.907984 23.006472 11.592177
17.464821 30.261985 11.141424
20.149134 26.861255 14.081461
16.010980 29.237929 13.111313
20.586362 29.839049 10.586427
17.378427 27.612152 14.592302
26.878124 28.143959 9.151012
22.972839 25.861257 13.415670
27.522150 25.624868 10.434664
23.789720 29.183328 9.936804
25.566229 24.609130 12.603678
21.907448 27.974478 12.090785
31.341035 19.369825 -8.845365
33.646115 20.794443 -3.112919
31.478163 22.170612 -7.747734
31.341035 19.369825 8.845365
33.646115 20.794443 3.112919
31.478163 22.170612 7.747734
31.627196 28.372204 -5.187512
33.873570 23.802309 -1.685351
31.593125 25.191956 -6.533307
33.576463 30.144584 -1.836987
32.937905 23.162855 -4.829272
31.627196 28.372204 5.187512
33.873570 23.802309 1.685351
31.593125 25.191956 6.533307
33.576463 30.144584 1.836987
32.937905 23.162855 4.829272
34.012664 27.039070 0.000000
13.973313 -20.010366 0.992703
15.814921 -17.946251 2.919301
13.531301 -20.280307 2.611178
14.962379 -19.050286 0.000000
19.154097 -13.523411 6.672400
17.530533 -15.797782 4.800249
12.462479 -20.523865 5.863550
15.312898 -18.092917 4.522878
13.025825 -20.452274 4.247248
14.445958 -19.187853 3.579671
16.850655 -17.051420 -1.937861
16.850655 -17.051420 1.937861
15.925857 -18.058595 -0.979386
15.925857 -18.058595 0.979386
24.991585 -1.911252 14.715616
23.645415 -5.352831 12.569070
20.709214 -11.070622 8.570397
22.207781 -8.373960 10.526595
9.602325 -19.719841 12.187532
12.697632 -17.626039 10.893491
10.392945 -20.081210 10.681461
18.489189 -13.432847 8.301956
15.619632 -15.556906 9.614697
17.746276 -14.629477 7.371295
11.818942 -20.479148 7.539719
13.423441 -17.895086 9.381131
11.136369 -20.336318 9.119519
13.311473 -19.294410 6.845354
11.941697 -18.973867 10.027193
16.173730 -16.935437 5.506560
14.914392 -16.789607 8.709701
16.971374 -15.801426 6.434475
14.764108 -18.111428 6.166867
16.330894 -15.719529 8.050828
14.130733 -18.044086 7.798793
20.409203 -12.613581 -5.760079
20.952588 -12.949412 -1.938521
19.553135 -13.771610 -4.812622
20.409203 -12.613581 5.760079
20.952588 -12.949412 1.938521
19.553135 -13.771610 4.812622
17.796394 -15.964834 -2.918975
19.958913 -14.024746 -0.993039
18.677765 -14.893412 -3.862472
17.907380 -16.077052 -0.979723
19.823180 -13.940214 -2.906424
17.796394 -15.964834 2.918975
19.958913 -14.024746 0.993039
18.677765 -14.893412 3.862472
17.907380 -16.077052 0.979723
19.823180 -13.940214 2.906424
18.948869 -15.063795 0.000000
1.664319 -12.814366 21.762686
4.798799 -11.268139 21.198052
2.698551 -13.984071 20.958906
1.643220 -11.119223 22.293288
10.677942 -8.266401 19.974649
7.770272 -9.767721 20.606797
4.751608 -16.087299 19.007910
5.809960 -12.348576 20.336284
3.737409 -15.082520 20.033367
4.288051 -13.150962 20.648755
1.613927 -7.741329 23.122938
4.772246 -9.654464 21.779938
1.628154 -9.418349 22.746825
3.237732 -10.379614 22.038934
23.600928 -1.170828 16.480616
19.955863 -3.246203 17.585868
23.118965 -2.976668 15.425292
13.613327 -6.716764 19.281451
16.670404 -5.065401 18.498867
21.998942 -6.284972 13.358173
19.653409 -4.912971 16.633616
22.576427 -4.688364 14.378674
21.334939 -3.980229 16.062434
8.597678 -19.147787 13.911335
9.768121 -15.868878 15.805151
7.704593 -18.548685 15.290957
10.230073 -18.150406 13.255371
11.712787 -9.228283 18.951688
10.795788 -12.583747 17.467952
10.273184 -9.995696 19.313646
5.797529 -17.028358 17.830314
8.844449 -15.145133 17.049359
6.762981 -17.837830 16.608152
6.341123 -15.181293 18.623197
8.299119 -16.834544 16.204325
13.331834 -16.160144 11.980913
11.388642 -14.975717 15.195096
11.812380 -17.150329 12.609972
10.828000 -16.560059 14.261058
7.361515 -11.539597 19.995116
9.366345 -13.402284 17.866881
8.817628 -10.767713 19.663109
6.863220 -13.346216 19.344767
9.834468 -11.712175 18.609184
7.883682 -14.284543 18.240493
1.605428 -0.992209 23.980342
4.782861 -2.955971 23.419776
1.605165 -2.656091 23.861088
10.767482 -6.654670 20.655871
7.859624 -4.857515 22.306229
9.295508 -7.410742 20.949494
1.614212 -5.997520 23.440594
4.770181 -4.612471 23.117387
1.607012 -4.333240 23.680949
3.208305 -7.016544 22.938110
3.205162 -3.645145 23.557744
6.334912 -8.888015 21.507253
6.354587 -5.592088 22.518196
7.813560 -8.158591 21.233838
4.792308 -7.986261 22.288669
7.844783 -6.513723 21.802461
4.793006 -6.296584 22.736340
19.342089 -11.954068 9.418383
17.788527 -10.993914 12.814687
20.033582 -10.656127 10.368295
17.853702 -13.038687 10.062843
13.437259 -8.304683 18.495261
15.799870 -9.764857 15.863576
14.908962 -7.512118 18.085305
12.958681 -10.001098 17.744152
21.349791 -7.860260 12.321409
18.315435 -9.601490 13.738752
20.708203 -9.286285 11.340017
20.372338 -7.227786 14.055150
19.229823 -10.162460 12.102790
14.893429 -15.111602 11.326064
16.226672 -12.030236 13.386718
16.366182 -14.094097 10.701232
13.998566 -14.612582 13.005067
17.092224 -12.567249 11.772360
17.975849 -5.844850 17.167347
17.256618 -8.951966 15.329244
16.426519 -6.689019 17.642750
19.237476 -6.550282 15.682042
16.132243 -8.262202 16.759659
18.786708 -8.119760 14.712296
11.949069 -13.296399 16.117191
15.205759 -11.396634 14.986227
12.460834 -11.672676 16.947493
13.008497 -14.002258 14.616436
14.132933 -10.730719 16.411279
14.626541 -13.017491 14.011938
1.729301 13.314690 22.612387
5.322042 12.496774 23.509408
2.893948 14.996633 22.476503
1.697723 11.488024 23.032709
12.810239 9.917134 23.963423
9.047605 11.373409 23.994291
5.539763 18.755719 22.160774
6.700134 14.240567 23.452113
4.165308 16.809329 22.327002
4.779223 14.657332 23.013956
1.649959 7.914160 23.639174
5.204795 10.529529 23.754037
1.673113 9.678424 23.374947
3.444003 11.040884 23.443002
24.816197 1.231117 17.329243
22.653552 3.685033 19.963174
26.483499 3.409867 17.670156
22.757422 0.000000 17.874019
16.462134 8.122354 23.316404
19.811637 6.019883 21.984641
28.312244 8.088646 17.191730
24.079874 6.019501 20.379944
28.258295 5.868296 17.997393
25.384619 4.735735 19.111317
19.033317 -2.163100 18.809216
20.552301 2.335729 20.310316
20.827504 -1.129555 18.367755
21.730047 1.178503 19.163707
11.680999 26.014614 18.900253
13.614578 22.117671 22.028849
10.389759 25.013180 20.620086
14.280538 25.336823 18.503663
14.800623 11.661130 23.947911
14.825299 17.280612 23.987838
12.792165 12.446636 24.049344
7.143551 20.981860 21.970008
12.071041 20.670310 23.269227
8.858248 23.364241 21.753591
7.763466 18.586528 22.800468
11.384820 23.093809 22.229267
19.432241 23.554735 17.463164
16.089371 21.157034 21.466962
16.889040 24.521103 18.029416
15.232726 23.296531 20.062319
8.759501 13.731020 23.792282
12.450204 17.814972 23.749533
10.758704 13.138073 23.991664
8.302829 16.145678 23.402468
12.677879 15.098481 23.989602
10.088898 18.280202 23.342706
1.609868 0.994953 24.046655
4.904232 3.030982 24.014082
1.617129 2.675887 24.038930
3.225726 0.000000 23.942180
12.414635 7.672667 23.815699
8.436135 5.213818 23.942410
10.649966 8.490568 24.002066
1.641927 6.100494 23.843055
4.962685 4.798610 24.050306
1.626715 4.386368 23.971292
3.340962 7.306662 23.886550
3.271931 3.721079 24.048488
6.440631 -1.976956 23.302420
6.587266 2.021966 23.832954
4.849757 -0.998448 23.692402
4.890873 1.006913 23.893265
7.059219 9.904233 23.966302
6.785080 5.970924 24.043694
8.849474 9.240249 24.048998
5.144795 8.573672 23.928060
8.645632 7.178688 24.028206
5.064526 6.653280 24.024333
28.278998 17.477382 13.770097
25.138049 15.536169 18.109212
28.335473 15.072013 14.664904
26.450616 19.317075 14.908303
17.146344 10.597023 23.600506
22.025874 13.612739 22.114684
19.046045 9.596653 23.103791
17.443578 13.462398 23.885263
28.340057 10.433836 16.355636
25.317762 13.272316 18.991330
28.353194 12.714567 15.526490
26.945924 9.559991 18.590357
26.826722 14.177222 16.884096
22.013094 22.335562 16.740383
23.166182 17.175096 19.111692
24.327461 20.950126 15.906812
20.255041 21.143483 18.817511
24.784751 18.223266 17.070629
22.527612 7.324856 21.514385
23.751533 12.321239 21.098747
20.860274 8.494481 22.404782
25.490556 8.679430 20.779440
21.970710 11.252399 22.825196
25.413157 10.983762 19.901619
16.906537 18.812852 22.803944
21.488764 16.105712 21.178521
17.617640 16.503310 23.961064
18.549419 19.966469 20.842253
19.896163 15.106569 23.103589
20.935773 18.632651 20.056059
12.539009 -5.726025 20.288542
13.281864 -1.988289 21.490507
14.059155 -4.913107 19.961395
11.108836 -4.847587 21.239749
14.461970 6.604159 23.399959
13.933207 2.085795 22.544402
16.114588 5.631398 22.879730
12.314277 5.373608 23.544516
17.257693 -3.155359 19.237576
14.919595 -1.056400 21.232392
15.636640 -4.055222 19.609844
17.909085 -1.091365 19.947985
14.496855 -3.022479 20.614731
8.082228 -2.986381 22.741451
11.700010 -1.040902 22.299445
9.610691 -3.926010 22.063761
8.214296 -1.015343 23.148165
11.421730 -2.967823 21.792225
19.154918 3.502243 21.352460
15.343532 1.086418 21.835705
17.696486 4.589424 22.193087
18.546747 1.130224 20.658244
15.737949 3.281238 22.379585
16.666737 0.000000 20.965223
8.442175 3.119381 23.754254
11.954411 1.063535 22.784316
10.306480 4.210243 23.661120
8.335362 1.030307 23.489333
12.156320 3.158698 23.193794
10.056181 0.000000 22.975362
27.286669 0.000000 -14.357908
30.302123 0.000000 -10.923430
29.213370 2.153294 -14.570752
26.475659 -1.951500 -13.205264
33.850451 0.000000 -2.346089
32.597287 0.000000 -6.865792
30.635206 6.712542 -13.579767
32.185151 2.246449 -10.775267
30.515383 4.483005 -14.371744
30.986673 2.217939 -12.830067
24.811456 -5.436488 -10.998255
29.073459 -2.029260 -9.733504
25.645137 -3.767518 -12.078018
27.853473 -1.993673 -11.532762
27.286669 0.000000 14.357908
30.302123 0.000000 10.923430
29.213370 2.153294 14.570752
26.475659 -1.951500 13.205264
33.850451 0.000000 2.346089
32.597287 0.000000 6.865792
30.635206 6.712542 13.579767
32.185151 2.246449 10.775267
30.515383 4.483005 14.371744
30.986673 2.217939 12.830067
24.811456 -5.436488 10.998255
29.073459 -2.029260 9.733504
25.645137 -3.767518 12.078018
27.853473 -1.993673 11.532762
31.173443 16.250076 -10.043099
32.870531 11.581968 -7.158050
31.035446 13.770749 -10.978579
32.409294 16.950743 -7.396833
33.981520 2.274984 -1.406017
33.679683 6.878172 -4.250944
33.789797 2.273082 -3.761302
30.771781 9.063758 -12.716642
32.683884 9.223323 -8.116598
30.899944 11.370463 -11.872560
31.649327 6.804952 -11.340281
31.983982 11.508214 -9.555563
33.935256 17.805055 -1.584043
33.572544 11.931558 -4.408707
33.386718 17.498630 -4.546844
33.125611 14.429091 -5.894348
32.896882 2.265409 -8.417010
33.204663 6.851651 -6.625123
33.423505 2.268151 -6.115974
32.352064 4.525015 -9.896181
33.554945 4.565337 -5.192035
32.519398 6.855355 -9.005896
21.417993 -11.164760 -6.900201
24.522930 -8.640681 -5.340235
22.260626 -9.877271 -7.874546
21.847146 -11.426517 -4.986214
31.830641 -2.130987 -1.317023
27.939226 -5.705838 -3.526402
31.527691 -2.120907 -3.509497
23.946549 -7.053401 -9.896070
25.584474 -7.219885 -6.353556
23.107305 -8.502953 -8.878426
25.836777 -5.555190 -9.257585
23.886309 -8.594576 -7.136295
22.287229 -11.693600 -1.040332
24.861966 -8.835851 -3.264844
22.140198 -11.604110 -3.015212
23.336695 -10.165164 -4.152515
30.141049 -2.075632 -7.711901
27.453769 -5.664977 -5.477682
30.955243 -2.100653 -5.664321
27.897640 -3.901984 -8.533616
29.398855 -3.999878 -4.548953
26.727434 -5.634362 -7.401874
31.173443 16.250076 10.043099
32.870531 11.581968 7.158050
31.035446 13.770749 10.978579
32.409294 16.950743 7.396833
33.981520 2.274984 1.406017
33.679683 6.878172 4.250944
33.789797 2.273082 3.761302
34.012664 4.582521 0.000000
30.771781 9.063758 12.716642
32.683884 9.223323 8.116598
30.899944 11.370463 11.872560
31.649327 6.804952 11.340281
31.983982 11.508214 9.555563
33.935256 17.805055 1.584043
33.572544 11.931558 4.408707
33.386718 17.498630 4.546844
34.012664 14.887142 0.000000
33.125611 14.429091 5.894348
32.896882 2.265409 8.417010
33.204663 6.851651 6.625123
33.423505 2.268151 6.115974
32.352064 4.525015 9.896181
33.554945 4.565337 5.192035
32.519398 6.855355 9.005896
33.845476 9.354660 -2.871419
33.845476 9.354660 2.871419
33.974783 6.954527 -1.431770
33.962140 12.051714 -1.489674
33.974783 6.954527 1.431770
33.962140 12.051714 1.489674
21.417993 -11.164760 6.900201
24.522930 -8.640681 5.340235
22.260626 -9.877271 7.874546
21.847146 -11.426517 4.986214
31.830641 -2.130987 1.317023
27.939226 -5.705838 3.526402
31.527691 -2.120907 3.509497
29.974239 -4.038425 0.000000
23.946549 -7.053401 9.896070
25.584474 -7.219885 6.353556
23.107305 -8.502953 8.878426
25.836777 -5.555190 9.257585
23.886309 -8.594576 7.136295
22.287229 -11.693600 1.040332
24.861966 -8.835851 3.264844
22.140198 -11.604110 3.015212
23.657789 -10.354875 0.000000
23.336695 -10.165164 4.152515
30.141049 -2.075632 7.711901
27.453769 -5.664977 5.477682
30.955243 -2.100653 5.664321
27.897640 -3.901984 8.533616
29.398855 -3.999878 4.548953
26.727434 -5.634362 7.401874
26.530528 -7.332858 -2.250825
26.530528 -7.332858 2.250825
28.198897 -5.772222 -1.188362
25.077970 -8.899101 -1.099989
28.198897 -5.772222 1.188362
25.077970 -8.899101 1.099989
-13.973313 20.010366 -0.992703
-15.814921 17.946251 -2.919301
-13.531301 20.280307 -2.611178
-19.154097 13.523411 -6.672400
-17.530533 15.797782 -4.800249
-12.462479 20.523865 -5.863550
-15.312898 18.092917 -4.522878
-13.025825 20.452274 -4.247248
-14.445958 19.187853 -3.579671
-24.991585 1.911252 -14.715616
-23.645415 5.352831 -12.569070
-20.709214 11.070622 -8.570397
-22.207781 8.373960 -10.526595
-9.602325 19.719841 -12.187532
-12.697632 17.626039 -10.893491
-10.392945 20.081210 -10.681461
-18.489189 13.432847 -8.301956
-15.619632 15.556906 -9.614697
-17.746276 14.629477 -7.371295
-11.818942 20.479148 -7.539719
-13.423441 17.895086 -9.381131
-11.136369 20.336318 -9.119519
-13.311473 19.294410 -6.845354
-11.941697 18.973867 -10.027193
-16.173730 16.935437 -5.506560
-14.914392 16.789607 -8.709701
-16.971374 15.801426 -6.434475
-14.764108 18.111428 -6.166867
-16.330894 15.719529 -8.050828
-14.130733 18.044086 -7.798793
-23.655953 -33.876310 -1.680584
-28.010641 -31.785552 -5.170528
-22.177449 -33.238896 -4.279654
-29.839335 -21.067534 -10.394641
-29.565732 -26.643400 -8.095754
-19.028941 -31.337860 -8.953047
-25.796459 -30.479744 -7.619344
-20.592496 -32.332952 -6.714465
-24.221985 -32.172866 -6.002145
-27.352104 -2.091774 -16.105543
-29.510954 -6.680667 -15.686984
-29.805059 -15.933030 -12.334663
-29.677284 -11.190510 -14.067176
-13.247354 -27.205464 -16.813901
-18.576090 -25.786139 -15.936710
-14.601094 -28.212180 -15.006432
-28.133878 -20.439950 -12.632584
-23.731018 -23.635717 -14.607676
-27.907984 -23.006472 -11.592177
-17.464821 -30.261985 -11.141424
-20.149134 -26.861255 -14.081461
-16.010980 -29.237929 -13.111313
-20.586362 -29.839049 -10.586427
-17.378427 -27.612152 -14.592302
-26.878124 -28.143959 -9.151012
-22.972839 -25.861257 -13.415670
-27.522150 -25.624868 -10.434664
-23.789720 -29.183328 -9.936804
-25.566229 -24.609130 -12.603678
-21.907448 -27.974478 -12.090785
-1.729301 -13.314690 -22.612387
-5.322042 -12.496774 -23.509408
-2.893948 -14.996633 -22.476503
-1.697723 -11.488024 -23.032709
-12.810239 -9.917134 -23.963423
-9.047605 -11.373409 -23.994291
-5.539763 -18.755719 -22.160774
-6.700134 -14.240567 -23.452113
-4.165308 -16.809329 -22.327002
-4.779223 -14.657332 -23.013956
-1.649959 -7.914160 -23.639174
-5.204795 -10.529529 -23.754037
-1.673113 -9.678424 -23.374947
-3.444003 -11.040884 -23.443002
-24.816197 -1.231117 -17.329243
-22.653552 -3.685033 -19.963174
-26.483499 -3.409867 -17.670156
-16.462134 -8.122354 -23.316404
-19.811637 -6.019883 -21.984641
-28.312244 -8.088646 -17.191730
-24.079874 -6.019501 -20.379944
-28.258295 -5.868296 -17.997393
-25.384619 -4.735735 -19.111317
-11.680999 -26.014614 -18.900253
-13.614578 -22.117671 -22.028849
-10.389759 -25.013180 -20.620086
-14.280538 -25.336823 -18.503663
-14.800623 -11.661130 -23.947911
-14.825299 -17.280612 -23.987838
-12.792165 -12.446636 -24.049344
-7.143551 -20.981860 -21.970008
-12.071041 -20.670310 -23.269227
-8.858248 -23.364241 -21.753591
-7.763466 -18.586528 -22.800468
-11.384820 -23.093809 -22.229267
-19.432241 -23.554735 -17.463164
-16.089371 -21.157034 -21.466962
-16.889040 -24.521103 -18.029416
-15.232726 -23.296531 -20.062319
-8.759501 -13.731020 -23.792282
-12.450204 -17.814972 -23.749533
-10.758704 -13.138073 -23.991664
-8.302829 -16.145678 -23.402468
-12.677879 -15.098481 -23.989602
-10.088898 -18.280202 -23.342706
-1.609868 -0.994953 -24.046655
-4.904232 -3.030982 -24.014082
-1.617129 -2.675887 -24.038930
-12.414635 -7.672667 -23.815699
-8.436135 -5.213818 -23.942410
-10.649966 -8.490568 -24.002066
-1.641927 -6.100494 -23.843055
-4.962685 -4.798610 -24.050306
-1.626715 -4.386368 -23.971292
-3.340962 -7.306662 -23.886550
-3.271931 -3.721079 -24.048488
-7.059219 -9.904233 -23.966302
-6.785080 -5.970924 -24.043694
-8.849474 -9.240249 -24.048998
-5.144795 -8.573672 -23.928060
-8.645632 -7.178688 -24.028206
-5.064526 -6.653280 -24.024333
-28.278998 -17.477382 -13.770097
-25.138049 -15.536169 -18.109212
-28.335473 -15.072013 -14.664904
-26.450616 -19.317075 -14.908303
-17.146344 -10.597023 -23.600506
-22.025874 -13.612739 -22.114684
-19.046045 -9.596653 -23.103791
-17.443578 -13.462398 -23.885263
-28.340057 -10.433836 -16.355636
-25.317762 -13.272316 -18.991330
-28.353194 -12.714567 -15.526490
-26.945924 -9.559991 -18.590357
-26.826722 -14.177222 -16.884096
-22.013094 -22.335562 -16.740383
-23.166182 -17.175096 -19.111692
-24.327461 -20.950126 -15.906812
-20.255041 -21.143483 -18.817511
-24.784751 -18.223266 -17.070629
-22.527612 -7.324856 -21.514385
-23.751533 -12.321239 -21.098747
-20.860274 -8.494481 -22.404782
-25.490556 -8.679430 -20.779440
-21.970710 -11.252399 -22.825196
-25.413157 -10.983762 -19.901619
-16.906537 -18.812852 -22.803944
-21.488764 -16.105712 -21.178521
-17.617640 -16.503310 -23.961064
-18.549419 -19.966469 -20.842253
-19.896163 -15.106569 -23.103589
-20.935773 -18.632651 -20.056059
-1.664319 12.814366 -21.762686
-4.798799 11.268139 -21.198052
-2.698551 13.984071 -20.958906
-1.643220 11.119223 -22.293288
-10.677942 8.266401 -19.974649
-7.770272 9.767721 -20.606797
-4.751608 16.087299 -19.007910
-5.809960 12.348576 -20.336284
-3.737409 15.082520 -20.033367
-4.288051 13.150962 -20.648755
-1.613927 7.741329 -23.122938
-4.772246 9.654464 -21.779938
-1.628154 9.418349 -22.746825
-3.237732 10.379614 -22.038934
-23.600928 1.170828 -16.480616
-19.955863 3.246203 -17.585868
-23.118965 2.976668 -15.425292
-22.757422 0.000000 -17.874019
-13.613327 6.716764 -19.281451
-16.670404 5.065401 -18.498867
-21.998942 6.284972 -13.358173
-19.653409 4.912971 -16.633616
-22.576427 4.688364 -14.378674
-21.334939 3.980229 -16.062434
-20.552301 -2.335729 -20.310316
-19.033317 2.163100 -18.809216
-21.730047 -1.178503 -19.163707
-20.827504 1.129555 -18.367755
-8.597678 19.147787 -13.911335
-9.768121 15.868878 -15.805151
-7.704593 18.548685 -15.290957
-10.230073 18.150406 -13.255371
-11.712787 9.228283 -18.951688
-10.795788 12.583747 -17.467952
-10.273184 9.995696 -19.313646
-5.797529 17.028358 -17.830314
-8.844449 15.145133 -17.049359
-6.762981 17.837830 -16.608152
-6.341123 15.181293 -18.623197
-8.299119 16.834544 -16.204325
-13.331834 16.160144 -11.980913
-11.388642 14.975717 -15.195096
-11.812380 17.150329 -12.609972
-10.828000 16.560059 -14.261058
-7.361515 11.539597 -19.995116
-9.366345 13.402284 -17.866881
-8.817628 10.767713 -19.663109
-6.863220 13.346216 -19.344767
-9.834468 11.712175 -18.609184
-7.883682 14.284543 -18.240493
-1.605428 0.992209 -23.980342
-4.782861 2.955971 -23.419776
-1.605165 2.656091 -23.861088
-3.225726 0.000000 -23.942180
-10.767482 6.654670 -20.655871
-7.859624 4.857515 -22.306229
-9.295508 7.410742 -20.949494
-1.614212 5.997520 -23.440594
-4.770181 4.612471 -23.117387
-1.607012 4.333240 -23.680949
-3.208305 7.016544 -22.938110
-3.205162 3.645145 -23.557744
-6.587266 -2.021966 -23.832954
-6.440631 1.976956 -23.302420
-4.890873 -1.006913 -23.893265
-4.849757 0.998448 -23.692402
-6.334912 8.888015 -21.507253
-6.354587 5.592088 -22.518196
-7.813560 8.158591 -21.233838
-4.792308 7.986261 -22.288669
-7.844783 6.513723 -21.802461
-4.793006 6.296584 -22.736340
-19.342089 11.954068 -9.418383
-17.788527 10.993914 -12.814687
-20.033582 10.656127 -10.368295
-17.853702 13.038687 -10.062843
-13.437259 8.304683 -18.495261
-15.799870 9.764857 -15.863576
-14.908962 7.512118 -18.085305
-12.958681 10.001098 -17.744152
-21.349791 7.860260 -12.321409
-18.315435 9.601490 -13.738752
-20.708203 9.286285 -11.340017
-20.372338 7.227786 -14.055150
-19.229823 10.162460 -12.102790
-14.893429 15.111602 -11.326064
-16.226672 12.030236 -13.386718
-16.366182 14.094097 -10.701232
-13.998566 14.612582 -13.005067
-17.092224 12.567249 -11.772360
-17.975849 5.844850 -17.167347
-17.256618 8.951966 -15.329244
-16.426519 6.689019 -17.642750
-19.237476 6.550282 -15.682042
-16.132243 8.262202 -16.759659
-18.786708 8.119760 -14.712296
-11.949069 13.296399 -16.117191
-15.205759 11.396634 -14.986227
-12.460834 11.672676 -16.947493
-13.008497 14.002258 -14.616436
-14.132933 10.730719 -16.411279
-14.626541 13.017491 -14.011938
-14.461970 -6.604159 -23.399959
-13.933207 -2.085795 -22.544402
-16.114588 -5.631398 -22.879730
-12.314277 -5.373608 -23.544516
-12.539009 5.726025 -20.288542
-13.281864 1.988289 -21.490507
-14.059155 4.913107 -19.961395
-11.108836 4.847587 -21.239749
-19.154918 -3.502243 -21.352460
-15.343532 -1.086418 -21.835705
-17.696486 -4.589424 -22.193087
-18.546747 -1.130224 -20.658244
-15.737949 -3.281238 -22.379585
-8.442175 -3.119381 -23.754254
-11.954411 -1.063535 -22.784316
-10.306480 -4.210243 -23.661120
-8.335362 -1.030307 -23.489333
-12.156320 -3.158698 -23.193794
-17.257693 3.155359 -19.237576
-14.919595 1.056400 -21.232392
-15.636640 4.055222 -19.609844
-17.909085 1.091365 -19.947985
-14.496855 3.022479 -20.614731
-16.666737 0.000000 -20.965223
-8.082228 2.986381 -22.741451
-11.700010 1.040902 -22.299445
-9.610691 3.926010 -22.063761
-8.214296 1.015343 -23.148165
-11.421730 2.967823 -21.792225
-10.056181 0.000000 -22.975362
-13.973313 20.010366 0.992703
-15.814921 17.946251 2.919301
-13.531301 20.280307 2.611178
-14.962379 19.050286 0.000000
-19.154097 13.523411 6.672400
-17.530533 15.797782 4.800249
-12.462479 20.523865 5.863550
-15.312898 18.092917 4.522878
-13.025825 20.452274 4.247248
-14.445958 19.187853 3.579671
-16.850655 17.051420 -1.937861
-16.850655 17.051420 1.937861
-15.925857 18.058595 -0.979386
-15.925857 18.058595 0.979386
-24.991585 1.911252 14.715616
-23.645415 5.352831 12.569070
-20.709214 11.070622 8.570397
-22.207781 8.373960 10.526595
-9.602325 19.719841 12.187532
-12.697632 17.626039 10.893491
-10.392945 20.081210 10.681461
-18.489189 13.432847 8.301956
-15.619632 15.556906 9.614697
-17.746276 14.629477 7.371295
-11.818942 20.479148 7.539719
-13.423441 17.895086 9.381131
-11.136369 20.336318 9.119519
-13.311473 19.294410 6.845354
-11.941697 18.973867 10.027193
-16.173730 16.935437 5.506560
-14.914392 16.789607 8.709701
-16.971374 15.801426 6.434475
-14.764108 18.111428 6.166867
-16.330894 15.719529 8.050828
-14.130733 18.044086 7.798793
-20.409203 12.613581 -5.760079
-20.952588 12.949412 -1.938521
-19.553135 13.771610 -4.812622
-20.409203 12.613581 5.760079
-20.952588 12.949412 1.938521
-19.553135 13.771610 4.812622
-17.796394 15.964834 -2.918975
-19.958913 14.024746 -0.993039
-18.677765 14.893412 -3.862472
-17.907380 16.077052 -0.979723
-19.823180 13.940214 -2.906424
-17.796394 15.964834 2.918975
-19.958913 14.024746 0.993039
-18.677765 14.893412 3.862472
-17.907380 16.077052 0.979723
-19.823180 13.940214 2.906424
-18.948869 15.063795 0.000000
-23.655953 -33.876310 1.680584
-28.010641 -31.785552 5.170528
-22.177449 -33.238896 4.279654
-26.714054 -34.012664 0.000000
-29.839335 -21.067534 10.394641
-29.565732 -26.643400 8.095754
-19.028941 -31.337860 8.953047
-25.796459 -30.479744 7.619344
-20.592496 -32.332952 6.714465
-24.221985 -32.172866 6.002145
-31.276189 -31.648825 -3.596828
-31.276189 -31.648825 3.596828
-29.658816 -33.630626 -1.823916
-29.658816 -33.630626 1.823916
-27.352104 -2.091774 16.105543
-29.510954 -6.680667 15.686984
-29.805059 -15.933030 12.334663
-29.677284 -11.190510 14.067176
-13.247354 -27.205464 16.813901
-18.576090 -25.786139 15.936710
-14.601094 -28.212180 15.006432
-28.133878 -20.439950 12.632584
-23.731018 -23.635717 14.607676
-27.907984 -23.006472 11.592177
-17.464821 -30.261985 11.141424
-20.149134 -26.861255 14.081461
-16.010980 -29.237929 13.111313
-20.586362 -29.839049 10.586427
-17.378427 -27.612152 14.592302
-26.878124 -28.143959 9.151012
-22.972839 -25.861257 13.415670
-27.522150 -25.624868 10.434664
-23.789720 -29.183328 9.936804
-25.566229 -24.609130 12.603678
-21.907448 -27.974478 12.090785
-31.341035 -19.369825 -8.845365
-33.646115 -20.794443 -3.112919
-31.478163 -22.170612 -7.747734
-31.341035 -19.369825 8.845365
-33.646115 -20.794443 3.112919
-31.478163 -22.170612 7.747734
-31.627196 -28.372204 -5.187512
-33.873570 -23.802309 -1.685351
-31.593125 -25.191956 -6.533307
-33.576463 -30.144584 -1.836987
-32.937905 -23.162855 -4.829272
-31.627196 -28.372204 5.187512
-33.873570 -23.802309 1.685351
-31.593125 -25.191956 6.533307
-33.576463 -30.144584 1.836987
-32.937905 -23.162855 4.829272
-34.012664 -27.039070 0.000000
-1.729301 -13.314690 22.612387
-5.322042 -12.496774 23.509408
-2.893948 -14.996633 22.476503
-1.697723 -11.488024 23.032709
-12.810239 -9.917134 23.963423
-9.047605 -11.373409 23.994291
-5.539763 -18.755719 22.160774
-6.700134 -14.240567 23.452113
-4.165308 -16.809329 22.327002
-4.779223 -14.657332 23.013956
-1.649959 -7.914160 23.639174
-5.204795 -10.529529 23.754037
-1.673113 -9.678424 23.374947
-3.444003 -11.040884 23.443002
-24.816197 -1.231117 17.329243
-22.653552 -3.685033 19.963174
-26.483499 -3.409867 17.670156
-16.462134 -8.122354 23.316404
-19.811637 -6.019883 21.984641
-28.312244 -8.088646 17.191730
-24.079874 -6.019501 20.379944
-28.258295 -5.868296 17.997393
-25.384619 -4.735735 19.111317
-11.680999 -26.014614 18.900253
-13.614578 -22.117671 22.028849
-10.389759 -25.013180 20.620086
-14.280538 -25.336823 18.503663
-14.800623 -11.661130 23.947911
-14.825299 -17.280612 23.987838
-12.792165 -12.446636 24.049344
-7.143551 -20.981860 21.970008
-12.071041 -20.670310 23.269227
-8.858248 -23.364241 21.753591
-7.763466 -18.586528 22.800468
-11.384820 -23.093809 22.229267
-19.432241 -23.554735 17.463164
-16.089371 -21.157034 21.466962
-16.889040 -24.521103 18.029416
-15.232726 -23.296531 20.062319
-8.759501 -13.731020 23.792282
-12.450204 -17.814972 23.749533
-10.758704 -13.138073 23.991664
-8.302829 -16.145678 23.402468
-12.677879 -15.098481 23.989602
-10.088898 -18.280202 23.342706
-1.609868 -0.994953 24.046655
-4.904232 -3.030982 24.014082
-1.617129 -2.675887 24.038930
-12.414635 -7.672667 23.815699
-8.436135 -5.213818 23.942410
-10.649966 -8.490568 24.002066
-1.641927 -6.100494 23.843055
-4.962685 -4.798610 24.050306
-1.626715 -4.386368 23.971292
-3.340962 -7.306662 23.886550
-3.271931 -3.721079 24.048488
-7.059219 -9.904233 23.966302
-6.785080 -5.970924 24.043694
-8.849474 -9.240249 24.048998
-5.144795 -8.573672 23.928060
-8.645632 -7.178688 24.028206
-5.064526 -6.653280 24.024333
-28.278998 -17.477382 13.770097
-25.138049 -15.536169 18.109212
-28.335473 -15.072013 14.664904
-26.450616 -19.317075 14.908303
-17.146344 -10.597023 23.600506
-22.025874 -13.612739 22.114684
-19.046045 -9.596653 23.103791
-17.443578 -13.462398 23.885263
-28.340057 -10.433836 16.355636
-25.317762 -13.272316 18.991330
-28.353194 -12.714567 15.526490
-26.945924 -9.559991 18.590357
-26.826722 -14.177222 16.884096
-22.013094 -22.335562 16.740383
-23.166182 -17.175096 19.111692
-24.327461 -20.950126 15.906812
-20.255041 -21.143483 18.817511
-24.784751 -18.223266 17.070629
-22.527612 -7.324856 21.514385
-23.751533 -12.321239 21.098747
-20.860274 -8.494481 22.404782
-25.490556 -8.679430 20.779440
-21.970710 -11.252399 22.825196
-25.413157 -10.983762 19.901619
-16.906537 -18.812852 22.803944
-21.488764 -16.105712 21.178521
-17.617640 -16.503310 23.961064
-18.549419 -19.966469 20.842253
-19.896163 -15.106569 23.103589
-20.935773 -18.632651 20.056059
-1.664319 12.814366 21.762686
-4.798799 11.268139 21.198052
-2.698551 13.984071 20.958906
-1.643220 11.119223 22.293288
-10.677942 8.266401 19.974649
-7.770272 9.767721 20.606797
-4.751608 16.087299 19.007910
-5.809960 12.348576 20.336284
-3.737409 15.082520 20.033367
-4.288051 13.150962 20.648755
-1.613927 7.741329 23.122938
-4.772246 9.654464 21.779938
-1.628154 9.418349 22.746825
-3.237732 10.379614 22.038934
-23.600928 1.170828 16.480616
-19.955863 3.246203 17.585868
-23.118965 2.976668 15.425292
-22.757422 0.000000 17.874019
-13.613327 6.716764 19.281451
-16.670404 5.065401 18.498867
-21.998942 6.284972 13.358173
-19.653409 4.912971 16.633616
-22.576427 4.688364 14.378674
-21.334939 3.980229 16.062434
-20.552301 -2.335729 20.310316
-19.033317 2.163100 18.809216
-21.730047 -1.178503 19.163707
-20.827504 1.129555 18.367755
-8.597678 19.147787 13.911335
-9.768121 15.868878 15.805151
-7.704593 18.548685 15.290957
-10.230073 18.150406 13.255371
-11.712787 9.228283 18.951688
-10.795788 12.583747 17.467952
-10.273184 9.995696 19.313646
-5.797529 17.028358 17.830314
-8.844449 15.145133 17.049359
-6.762981 17.837830 16.608152
-6.341123 15.181293 18.623197
-8.299119 16.834544 16.204325
-13.331834 16.160144 11.980913
-11.388642 14.975717 15.195096
-11.812380 17.150329 12.609972
-10.828000 16.560059 14.261058
-7.361515 11.539597 19.995116
-9.366345 13.402284 17.866881
-8.817628 10.767713 19.663109
-6.863220 13.346216 19.344767
-9.834468 11.712175 18.609184
-7.883682 14.284543 18.240493
-1.605428 0.992209 23.980342
-4.782861 2.955971 23.419776
-1.605165 2.656091 23.861088
-3.225726 0.000000 23.942180
-10.767482 6.654670 20.655871
-7.859624 4.857515 22.306229
-9.295508 7.410742 20.949494
-1.614212 5.997520 23.440594
-4.770181 4.612471 23.117387
-1.607012 4.333240 23.680949
-3.208305 7.016544 22.938110
-3.205162 3.645145 23.557744
-6.587266 -2.021966 23.832954
-6.440631 1.976956 23.302420
-4.890873 -1.006913 23.893265
-4.849757 0.998448 23.692402
-6.334912 8.888015 21.507253
-6.354587 5.592088 22.518196
-7.813560 8.158591 21.233838
-4.792308 7.986261 22.288669
-7.844783 6.513723 21.802461
-4.793006 6.296584 22.736340
-19.342089 11.954068 9.418383
-17.788527 10.993914 12.814687
-20.033582 10.656127 10.368295
-17.853702 13.038687 10.062843
-13.437259 8.304683 18.495261
-15.799870 9.764857 15.863576
-14.908962 7.512118 18.085305
-12.958681 10.001098 17.744152
-21.349791 7.860260 12.321409
-18.315435 9.601490 13.738752
-20.708203 9.286285 11.340017
-20.372338 7.227786 14.055150
-19.229823 10.162460 12.102790
-14.893429 15.111602 11.326064
-16.226672 12.030236 13.386718
-16.366182 14.094097 10.701232
-13.998566 14.612582 13.005067
-17.092224 12.567249 11.772360
-17.975849 5.844850 17.167347
-17.256618 8.951966 15.329244
-16.426519 6.689019 17.642750
-19.237476 6.550282 15.682042
-16.132243 8.262202 16.759659
-18.786708 8.119760 14.712296
-11.949069 13.296399 16.117191
-15.205759 11.396634 14.986227
-12.460834 11.672676 16.947493
-13.008497 14.002258 14.616436
-14.132933 10.730719 16.411279
-14.626541 13.017491 14.011938
-14.461970 -6.604159 23.399959
-13.933207 -2.085795 22.544402
-16.114588 -5.631398 22.879730
-12.314277 -5.373608 23.544516
-12.539009 5.726025 20.288542
-13.281864 1.988289 21.490507
-14.059155 4.913107 19.961395
-11.108836 4.847587 21.239749
-19.154918 -3.502243 21.352460
-15.343532 -1.086418 21.835705
-17.696486 -4.589424 22.193087
-18.546747 -1.130224 20.658244
-15.737949 -3.281238 22.379585
-8.442175 -3.119381 23.754254
-11.954411 -1.063535 22.784316
-10.306480 -4.210243 23.661120
-8.335362 -1.030307 23.489333
-12.156320 -3.158698 23.193794
-17.257693 3.155359 19.237576
-14.919595 1.056400 21.232392
-15.636640 4.055222 19.609844
-17.909085 1.091365 19.947985
-14.496855 3.022479 20.614731
-16.666737 0.000000 20.965223
-8.082228 2.986381 22.741451
-11.700010 1.040902 22.299445
-9.610691 3.926010 22.063761
-8.214296 1.015343 23.148165
-11.421730 2.967823 21.792225
-10.056181 0.000000 22.975362
-27.286669 0.000000 -14.357908
-30.302123 0.000000 -10.923430
-26.475659 1.951500 -13.205264
-29.213370 -2.153294 -14.570752
-33.850451 0.000000 -2.346089
-32.597287 0.000000 -6.865792
-24.811456 5.436488 -10.998255
-29.073459 2.029260 -9.733504
-25.645137 3.767518 -12.078018
-27.853473 1.993673 -11.532762
-30.635206 -6.712542 -13.579767
-32.185151 -2.246449 -10.775267
-30.515383 -4.483005 -14.371744
-30.986673 -2.217939 -12.830067
-27.286669 0.000000 14.357908
-30.302123 0.000000 10.923430
-26.475659 1.951500 13.205264
-29.213370 -2.153294 14.570752
-33.850451 0.000000 2.346089
-32.597287 0.000000 6.865792
-24.811456 5.436488 10.998255
-29.073459 2.029260 9.733504
-25.645137 3.767518 12.078018
-27.853473 1.993673 11.532762
-30.635206 -6.712542 13.579767
-32.185151 -2.246449 10.775267
-30.515383 -4.483005 14.371744
-30.986673 -2.217939 12.830067
-21.417993 11.164760 -6.900201
-24.522930 8.640681 -5.340235
-22.260626 9.877271 -7.874546
-21.847146 11.426517 -4.986214
-31.830641 2.130987 -1.317023
-27.939226 5.705838 -3.526402
-31.527691 2.120907 -3.509497
-23.946549 7.053401 -9.896070
-25.584474 7.219885 -6.353556
-23.107305 8.502953 -8.878426
-25.836777 5.555190 -9.257585
-23.886309 8.594576 -7.136295
-22.287229 11.693600 -1.040332
-24.861966 8.835851 -3.264844
-22.140198 11.604110 -3.015212
-23.336695 10.165164 -4.152515
-30.141049 2.075632 -7.711901
-27.453769 5.664977 -5.477682
-30.955243 2.100653 -5.664321
-27.897640 3.901984 -8.533616
-29.398855 3.999878 -4.548953
-26.727434 5.634362 -7.401874
-31.173443 -16.250076 -10.043099
-32.870531 -11.581968 -7.158050
-31.035446 -13.770749 -10.978579
-32.409294 -16.950743 -7.396833
-33.981520 -2.274984 -1.406017
-33.679683 -6.878172 -4.250944
-33.789797 -2.273082 -3.761302
-30.771781 -9.063758 -12.716642
-32.683884 -9.223323 -8.116598
-30.899944 -11.370463 -11.872560
-31.649327 -6.804952 -11.340281
-31.983982 -11.508214 -9.555563
-33.935256 -17.805055 -1.584043
-33.572544 -11.931558 -4.408707
-33.386718 -17.498630 -4.546844
-33.125611 -14.429091 -5.894348
-32.896882 -2.265409 -8.417010
-33.204663 -6.851651 -6.625123
-33.423505 -2.268151 -6.115974
-32.352064 -4.525015 -9.896181
-33.554945 -4.565337 -5.192035
-32.519398 -6.855355 -9.005896
-21.417993 11.164760 6.900201
-24.522930 8.640681 5.340235
