5.173794 31.543558 28.297174
1.784315 35.862627 25.199981
7.116188 34.411765 27.439504
1.688655 30.865246 27.710483
5.379203 36.688697 25.800517
0.000000 32.966261 26.207210
6.150451 46.836015 16.645347
1.912756 40.977319 21.499864
8.027280 45.112466 19.650411
2.002000 45.642333 16.196516
5.721906 42.014998 22.020880
0.000000 42.806293 18.736062
0.000000 -16.565422 31.481968
0.000000 -11.619299 32.232496
0.000000 -2.280448 32.903368
0.000000 -6.884900 32.688005
0.000000 16.565422 31.481968
0.000000 11.619299 32.232496
0.000000 2.280448 32.903368
0.000000 6.884900 32.688005
-33.774741 -57.359768 -4.386635
-28.324841 -53.285771 -12.062793
-28.270951 -56.681339 -4.177937
-17.965323 -43.410793 -23.206311
-22.988997 -48.499501 -18.287864
-18.348275 -54.805323 -3.825284
-23.548930 -53.125086 -11.640345
-23.095986 -55.780517 -3.992613
-25.948160 -55.095476 -8.094058
-1.524160 -21.454124 -30.723199
-4.883638 -26.456455 -30.021913
-13.168914 -37.803289 -26.690343
-8.756453 -31.978607 -28.817782
-2.082634 -50.334430 -3.369773
-6.327672 -50.133330 -10.238388
-5.737413 -51.542260 -3.467313
-14.023473 -43.528389 -22.690456
-10.426798 -47.880971 -16.870913
-16.314894 -46.120725 -20.464244
-13.749457 -53.738118 -3.700619
-10.196260 -51.102956 -10.544893
-9.638916 -52.676218 -3.574659
-16.384245 -53.562496 -7.491674
-7.982058 -51.586236 -7.018594
-21.021294 -50.867409 -14.982879
-12.417816 -50.004012 -14.111026
-18.662827 -48.572534 -17.873567
-18.852587 -52.615246 -11.312854
-14.444749 -48.348863 -17.396492
-14.380030 -51.924865 -10.946186
21.502371 -36.517557 -2.792710
19.487741 -36.661082 -8.299308
19.178142 -38.450874 -2.834183
14.067340 -33.991839 -18.171177
16.960189 -35.780624 -13.491916
14.130139 -42.205975 -2.945879
17.091038 -38.556439 -8.448179
16.712255 -40.362781 -2.889055
18.199536 -38.642899 -5.677015
1.498072 -21.086911 -30.197335
4.587411 -24.851686 -28.200874
0.000000 -23.470763 -29.883266
10.958090 -31.456798 -22.209515
7.764014 -28.354215 -25.551631
-3.294136 -28.644128 -28.985406
3.147939 -27.372873 -27.699004
-1.599132 -26.003576 -29.485889
1.565833 -25.462103 -28.871903
2.017530 -48.760953 -3.264432
5.756436 -45.607501 -9.314110
5.266389 -47.310797 -3.182657
0.000000 -49.005705 -6.602531
11.487146 -35.655716 -18.586593
8.945055 -41.076650 -14.473403
12.991444 -36.725633 -16.295545
11.271178 -44.052058 -3.033599
8.783445 -44.022024 -9.083770
8.367669 -45.728913 -3.103208
12.971948 -42.407198 -5.931406
7.093860 -45.846013 -6.237605
-4.080891 -48.101547 -13.294941
3.834008 -45.191536 -12.490633
-2.056262 -48.793495 -9.987868
1.992265 -47.274888 -9.677015
15.785589 -38.198029 -11.251142
10.378122 -41.790578 -11.793213
14.440404 -37.583106 -13.829712
14.486567 -40.430224 -8.692940
11.759947 -39.362405 -14.163058
11.705944 -42.269005 -8.910652
-11.356225 -40.237555 -24.868176
-3.582862 -38.725520 -23.933687
-9.193610 -37.352591 -26.308074
-9.787194 -42.882687 -22.428548
9.632289 -34.129278 -21.093054
3.386740 -36.605725 -22.623583
8.038827 -32.660839 -23.003592
8.461624 -37.074688 -19.390842
-5.173794 -31.543558 -28.297174
-1.784315 -35.862627 -25.199981
-7.116188 -34.411765 -27.439504
-1.688655 -30.865246 -27.710483
-5.379203 -36.688697 -25.800517
-6.150451 -46.836015 -16.645347
-1.912756 -40.977319 -21.499864
-8.027280 -45.112466 -19.650411
-2.002000 -45.642333 -16.196516
-5.721906 -42.014998 -22.020880
4.805789 -29.299911 -26.284438
1.734963 -34.870700 -24.502973
6.417305 -31.032173 -24.744660
1.647242 -30.108310 -27.030914
4.956962 -33.808810 -23.775300
0.000000 -32.966261 -26.207210
5.600923 -42.651333 -15.158127
1.854967 -39.739310 -20.850310
7.111060 -39.963408 -17.407547
1.939927 -44.227188 -15.694342
5.236739 -38.452500 -20.153705
0.000000 -42.806293 -18.736062
-21.502371 36.517557 -2.792710
-19.487741 36.661082 -8.299308
-19.178142 38.450874 -2.834183
-14.067340 33.991839 -18.171177
-16.960189 35.780624 -13.491916
-14.130139 42.205975 -2.945879
-17.091038 38.556439 -8.448179
-16.712255 40.362781 -2.889055
-18.199536 38.642899 -5.677015
-1.498072 21.086911 -30.197335
-4.587411 24.851686 -28.200874
-10.958090 31.456798 -22.209515
-7.764014 28.354215 -25.551631
-2.017530 48.760953 -3.264432
-5.756436 45.607501 -9.314110
-5.266389 47.310797 -3.182657
-11.487146 35.655716 -18.586593
-8.945055 41.076650 -14.473403
-12.991444 36.725633 -16.295545
-11.271178 44.052058 -3.033599
-8.783445 44.022024 -9.083770
-8.367669 45.728913 -3.103208
-12.971948 42.407198 -5.931406
-7.093860 45.846013 -6.237605
-15.785589 38.198029 -11.251142
-10.378122 41.790578 -11.793213
-14.440404 37.583106 -13.829712
-14.486567 40.430224 -8.692940
-11.759947 39.362405 -14.163058
-11.705944 42.269005 -8.910652
33.774741 57.359768 -4.386635
28.324841 53.285771 -12.062793
28.270951 56.681339 -4.177937
17.965323 43.410793 -23.206311
22.988997 48.499501 -18.287864
18.348275 54.805323 -3.825284
23.548930 53.125086 -11.640345
23.095986 55.780517 -3.992613
25.948160 55.095476 -8.094058
1.524160 21.454124 -30.723199
4.883638 26.456455 -30.021913
0.000000 23.470763 -29.883266
13.168914 37.803289 -26.690343
8.756453 31.978607 -28.817782
-3.147939 27.372873 -27.699004
3.294136 28.644128 -28.985406
-1.565833 25.462103 -28.871903
1.599132 26.003576 -29.485889
2.082634 50.334430 -3.369773
6.327672 50.133330 -10.238388
5.737413 51.542260 -3.467313
0.000000 49.005705 -6.602531
14.023473 43.528389 -22.690456
10.426798 47.880971 -16.870913
16.314894 46.120725 -20.464244
13.749457 53.738118 -3.700619
10.196260 51.102956 -10.544893
9.638916 52.676218 -3.574659
16.384245 53.562496 -7.491674
7.982058 51.586236 -7.018594
-3.834008 45.191536 -12.490633
4.080891 48.101547 -13.294941
-1.992265 47.274888 -9.677015
2.056262 48.793495 -9.987868
21.021294 50.867409 -14.982879
12.417816 50.004012 -14.111026
18.662827 48.572534 -17.873567
18.852587 52.615246 -11.312854
14.444749 48.348863 -17.396492
14.380030 51.924865 -10.946186
-9.632289 34.129278 -21.093054
-3.386740 36.605725 -22.623583
-8.038827 32.660839 -23.003592
-8.461624 37.074688 -19.390842
11.356225 40.237555 -24.868176
3.582862 38.725520 -23.933687
9.193610 37.352591 -26.308074
9.787194 42.882687 -22.428548
-4.805789 29.299911 -26.284438
-1.734963 34.870700 -24.502973
-6.417305 31.032173 -24.744660
-1.647242 30.108310 -27.030914
-4.956962 33.808810 -23.775300
-5.600923 42.651333 -15.158127
-1.854967 39.739310 -20.850310
-7.111060 39.963408 -17.407547
-1.939927 44.227188 -15.694342
-5.236739 38.452500 -20.153705
5.173794 31.543558 -28.297174
1.784315 35.862627 -25.199981
7.116188 34.411765 -27.439504
1.688655 30.865246 -27.710483
5.379203 36.688697 -25.800517
0.000000 32.966261 -26.207210
6.150451 46.836015 -16.645347
1.912756 40.977319 -21.499864
8.027280 45.112466 -19.650411
2.002000 45.642333 -16.196516
5.721906 42.014998 -22.020880
0.000000 42.806293 -18.736062
0.000000 -16.565422 -31.481968
0.000000 -11.619299 -32.232496
0.000000 -2.280448 -32.903368
0.000000 -6.884900 -32.688005
0.000000 16.565422 -31.481968
0.000000 11.619299 -32.232496
0.000000 2.280448 -32.903368
0.000000 6.884900 -32.688005
40.536309 58.049683 -2.879811
46.875715 53.193016 -8.652861
37.593325 56.343747 -7.254505
51.117989 36.090951 -17.807138
49.718229 44.803986 -13.613956
31.184618 51.356467 -14.672248
42.962580 50.762333 -12.689598
34.338875 53.916591 -11.196660
40.689235 54.045502 -10.082686
40.385088 3.088482 -23.779662
44.907487 10.166123 -23.871240
51.197562 27.368921 -21.187836
49.008900 18.479945 -23.230455
19.880139 40.826902 -25.232413
28.959726 40.200036 -24.844989
22.530177 43.532725 -23.155633
47.254425 34.331494 -21.218030
38.264711 38.111045 -23.553921
46.707622 38.504308 -19.401009
28.098680 48.687693 -17.925137
32.099959 42.793165 -22.433437
25.272468 46.150494 -20.695501
33.544422 48.621200 -17.250039
27.276439 43.338859 -22.903456
44.636551 46.738725 -15.197102
37.142690 41.812710 -21.690575
45.832999 42.673431 -17.376984
39.153346 48.030196 -16.354086
41.983642 40.411939 -20.697158
35.524225 45.362275 -19.605926
24.027786 -34.408790 -1.707000
27.172519 -30.834479 -5.015817
23.171764 -34.729144 -4.471530
32.190298 -22.727390 -11.213608
29.877350 -26.924217 -8.181082
21.000059 -34.584000 -9.880451
26.128116 -30.871612 -7.717304
22.153300 -34.783621 -7.223387
24.718822 -32.832791 -6.125260
37.974892 -2.904161 -22.360483
37.082130 -8.394625 -19.711555
34.153192 -18.257432 -14.134115
35.787722 -13.494593 -16.963553
15.309632 -31.440667 -19.431401
20.596194 -28.590318 -17.669788
16.829939 -32.518747 -17.297152
30.678220 -22.288476 -13.775036
25.664702 -25.561636 -15.797960
29.709266 -24.491393 -12.340378
19.680185 -34.100634 -12.554683
22.099572 -29.461429 -15.444548
18.300702 -33.419231 -14.986356
22.348222 -32.392789 -11.492453
19.512299 -31.002608 -16.384069
27.460684 -28.753954 -9.349352
24.717485 -27.825261 -14.434508
28.633744 -26.659833 -10.856111
24.946784 -30.602721 -10.420101
27.212909 -26.194164 -13.415460
23.588326 -30.120858 -13.018467
2.351048 -18.101813 -30.742376
6.840755 -16.062890 -30.218121
3.854835 -19.976013 -29.939449
2.305287 -15.599246 -31.275431
15.454671 -11.964338 -28.910218
11.164524 -14.034510 -29.608369
6.970147 -23.598503 -27.882755
8.381973 -17.815172 -29.338962
5.407056 -21.820472 -28.983055
6.157288 -18.883697 -29.649910
2.238927 -10.739188 -32.077383
6.747939 -13.651378 -30.796756
2.270325 -13.133103 -31.718554
4.560892 -14.621436 -31.045553
35.130317 -1.742795 -24.531631
29.502280 -4.799110 -25.998534
34.974682 -4.503144 -23.335590
19.842744 -9.790334 -28.104583
24.470674 -7.435559 -27.154695
34.294381 -9.797708 -20.824197
29.468445 -7.366539 -24.940548
34.686627 -7.203244 -22.091526
32.131432 -5.994415 -24.190790
13.446243 -29.945970 -21.756478
14.967801 -24.316060 -24.218410
11.853480 -28.537066 -23.525068
16.152778 -28.658590 -20.929573
17.187920 -13.542036 -27.810639
16.184526 -18.864948 -26.187112
15.014986 -14.609417 -28.228261
8.637880 -25.370966 -26.565820
13.337412 -22.838830 -25.710399
10.235928 -26.997968 -25.136822
9.360372 -22.409683 -27.490408
12.644017 -25.648057 -24.687894
21.383061 -25.919416 -19.216307
17.586699 -23.125974 -23.464745
18.808344 -27.307730 -20.078314
16.911725 -25.864347 -22.273650
10.670201 -16.726152 -28.982064
13.973083 -19.994055 -26.654517
12.834548 -15.673005 -28.620748
10.037250 -19.518434 -28.291132
14.520647 -17.293091 -27.476564
11.702909 -21.204650 -27.077048
2.200209 -1.359804 -32.864607
6.604449 -4.081774 -32.339366
2.203700 -3.646494 -32.758414
15.429491 -9.535950 -29.599268
11.016666 -6.808674 -31.266160
13.278803 -10.586380 -29.926735
2.229431 -8.283334 -32.374426
6.616499 -6.397745 -32.065062
2.211950 -5.964430 -32.595323
4.462943 -9.760429 -31.908272
4.418893 -5.025488 -32.478591
8.990099 -12.613297 -30.521706
8.886625 -7.820301 -31.490757
11.125760 -11.617051 -30.234947
6.727513 -11.211231 -31.289165
11.077886 -9.198251 -30.788002
6.685208 -8.782373 -31.712279
31.710530 -19.598186 -15.441038
28.139465 -17.391146 -20.271404
32.480416 -17.276764 -16.810102
29.140835 -21.281760 -16.424585
19.812592 -12.244855 -27.270373
24.095069 -14.891572 -24.192222
22.071468 -11.121061 -26.773778
19.320623 -14.911042 -26.455476
33.759702 -12.429163 -19.483426
28.616287 -15.001500 -21.465616
33.169533 -14.874382 -18.163964
31.583389 -11.205291 -21.789806
30.610724 -16.176969 -19.265656
24.049120 -24.401414 -18.288727
25.543016 -18.937249 -21.072538
26.577500 -22.887797 -17.378028
22.184969 -23.158064 -20.610469
27.403136 -20.148463 -18.874056
26.834713 -8.725311 -25.627765
26.451190 -13.721702 -23.496883
24.418804 -9.943545 -26.226787
29.249159 -9.959219 -23.843385
24.290474 -12.440477 -25.235180
28.960959 -12.517150 -22.679983
18.229825 -20.285347 -24.588825
23.479683 -17.597894 -23.140696
18.792787 -17.604128 -25.559335
20.223143 -21.768054 -22.722861
21.436672 -16.276232 -24.892441
22.884573 -20.367065 -21.922971
2.407831 18.539014 -31.484877
7.296429 17.132864 -32.230996
4.025775 20.861835 -31.267092
2.352739 15.920340 -31.919203
17.318328 13.407101 -32.396460
12.275623 15.431232 -32.555010
7.653333 25.911534 -30.615711
9.156864 19.462137 -32.051270
5.780641 23.328094 -30.985556
6.585917 20.198255 -31.713940
2.270041 10.888431 -32.523164
7.123703 14.411564 -32.511693
2.309306 13.358594 -32.263150
4.740240 15.196395 -32.266357
36.334520 1.802534 -25.372530
32.051047 5.213716 -28.244605
38.306840 4.932174 -25.558852
33.269199 0.000000 -26.130125
22.367810 11.036192 -31.681001
27.327607 8.303655 -30.324985
42.350023 12.099159 -25.715735
33.619877 8.404317 -28.454103
40.341784 8.377630 -25.693232
36.028130 6.721380 -27.124497
27.693862 -3.147354 -27.367791
29.112032 3.308527 -28.769264
30.380708 -1.647661 -26.792716
31.239567 1.694240 -27.550143
16.814819 37.448086 -27.206949
18.653300 30.303368 -30.181674
14.341581 34.527130 -28.463090
21.065072 37.374083 -27.294560
19.880113 15.663163 -32.166698
19.600556 22.846729 -31.714366
17.203913 16.739219 -32.343457
9.786095 28.743474 -30.097158
16.036807 27.461244 -30.913998
11.975566 31.586384 -29.408928
10.585710 25.343268 -31.089096
15.298316 31.032232 -29.870507
29.896428 36.238869 -26.867010
22.629671 29.757328 -30.193242
25.467904 36.976708 -27.187538
21.988082 33.627995 -28.959485
11.884685 18.629926 -32.280809
16.598069 23.750142 -31.661840
14.519586 17.730702 -32.378344
11.284374 21.943591 -31.806293
16.970437 20.210622 -32.112157
13.590381 24.624583 -31.444095
2.204006 1.362150 -32.921319
6.708793 4.146262 -32.850299
2.213942 3.663442 -32.910669
4.421715 0.000000 -32.819120
16.872953 10.428059 -32.368343
11.516907 7.117840 -32.685883
14.460196 11.528233 -32.589267
2.253274 8.371924 -32.720668
6.782300 6.558066 -32.868576
2.228852 6.010006 -32.844395
4.577435 10.010822 -32.726845
4.476198 5.090660 -32.899782
8.902021 -2.732481 -32.207813
9.028466 2.771293 -32.665296
6.669173 -1.373022 -32.580750
6.704483 1.380292 -32.753248
9.619301 13.496081 -32.657869
9.259025 8.148017 -32.810400
12.026760 12.557837 -32.683472
7.032803 11.719991 -32.709049
11.773728 9.776025 -32.721906
6.919670 9.090386 -32.824483
47.370899 29.276826 -23.066655
38.777277 23.965675 -27.934783
46.890987 24.941937 -24.268231
43.297379 31.620386 -24.403607
23.071497 14.258970 -31.755983
30.391694 18.783100 -30.514235
25.743686 12.971366 -31.228359
23.200043 17.905055 -31.767515
44.276441 16.301065 -25.552855
37.889514 19.862799 -28.421638
45.826717 20.550308 -25.095164
39.581797 14.043001 -27.308016
42.368343 22.390564 -26.665620
34.563116 35.069430 -26.284347
34.993882 25.943994 -28.869336
38.967433 33.557660 -25.479340
30.626054 31.969398 -28.452479
39.155337 28.789400 -26.968446
31.006711 10.081836 -29.612118
33.451595 17.353200 -29.715419
28.410305 11.568918 -30.513822
35.116883 11.957155 -28.626647
29.451223 15.083578 -30.596641
36.577645 15.809141 -28.644782
23.035057 25.632399 -31.070238
30.710770 23.017555 -30.267385
23.203137 21.735520 -31.557680
26.723048 28.764508 -30.026199
26.837178 20.376677 -31.163554
30.888174 27.490199 -29.590263
18.032937 -8.234866 -29.177905
18.745574 -2.806204 -30.330975
20.279158 -7.086747 -28.792648
15.777344 -6.884794 -30.165792
19.732392 9.010934 -31.927680
19.324264 2.892834 -31.267316
22.113465 7.727764 -31.397024
16.836021 7.346771 -32.189950
25.036779 -4.577670 -27.909115
21.088955 -1.493229 -30.012138
22.620992 -5.866550 -28.368891
25.676181 -1.564686 -28.599345
20.696804 -4.315120 -29.431146
11.253640 -4.158216 -31.665043
16.343521 -1.454017 -31.149670
13.501994 -5.515624 -30.997228
11.365948 -1.404908 -32.029628
16.083339 -4.179095 -30.686398
26.776571 4.895770 -29.848504
21.469586 1.520180 -30.553822
24.482161 6.349228 -30.702974
26.263460 1.600474 -29.253483
21.808968 4.546997 -31.012659
23.582807 0.000000 -29.665003
11.565746 4.273540 -32.543235
16.567359 1.473931 -31.576290
14.109033 5.763602 -32.390838
11.470865 1.417877 -32.325288
16.729307 4.346944 -31.918879
13.927347 0.000000 -31.819820
40.536309 58.049683 2.879811
46.875715 53.193016 8.652861
37.593325 56.343747 7.254505
45.458658 57.878526 0.000000
51.117989 36.090951 17.807138
49.718229 44.803986 13.613956
31.184618 51.356467 14.672248
42.962580 50.762333 12.689598
34.338875 53.916591 11.196660
40.689235 54.045502 10.082686
51.695053 52.310968 -5.945041
51.695053 52.310968 5.945041
49.303742 55.906336 -3.032013
49.303742 55.906336 3.032013
40.385088 3.088482 23.779662
44.907487 10.166123 23.871240
51.197562 27.368921 21.187836
49.008900 18.479945 23.230455
19.880139 40.826902 25.232413
28.959726 40.200036 24.844989
22.530177 43.532725 23.155633
47.254425 34.331494 21.218030
38.264711 38.111045 23.553921
46.707622 38.504308 19.401009
28.098680 48.687693 17.925137
32.099959 42.793165 22.433437
25.272468 46.150494 20.695501
33.544422 48.621200 17.250039
27.276439 43.338859 22.903456
44.636551 46.738725 15.197102
37.142690 41.812710 21.690575
45.832999 42.673431 17.376984
39.153346 48.030196 16.354086
41.983642 40.411939 20.697158
35.524225 45.362275 19.605926
55.059809 34.028833 -15.539503
60.468900 37.371836 -5.594547
54.662033 38.499411 -13.453991
55.059809 34.028833 15.539503
60.468900 37.371836 5.594547
54.662033 38.499411 13.453991
53.163274 47.691843 -8.719872
59.496188 41.806832 -2.960184
54.035099 43.086900 -11.174199
55.492578 49.820634 -3.036030
57.669876 40.555068 -8.455410
53.163274 47.691843 8.719872
59.496188 41.806832 2.960184
54.035099 43.086900 11.174199
55.492578 49.820634 3.036030
57.669876 40.555068 8.455410
57.992029 46.101961 0.000000
24.027786 -34.408790 1.707000
27.172519 -30.834479 5.015817
23.171764 -34.729144 4.471530
25.798988 -32.847591 0.000000
32.190298 -22.727390 11.213608
29.877350 -26.924217 8.181082
21.000059 -34.584000 9.880451
26.128116 -30.871612 7.717304
22.153300 -34.783621 7.223387
24.718822 -32.832791 6.125260
29.044755 -29.390806 -3.340209
29.044755 -29.390806 3.340209
27.481102 -31.161281 -1.689995
27.481102 -31.161281 1.689995
37.974892 -2.904161 22.360483
37.082130 -8.394625 19.711555
34.153192 -18.257432 14.134115
35.787722 -13.494593 16.963553
15.309632 -31.440667 19.431401
20.596194 -28.590318 17.669788
16.829939 -32.518747 17.297152
30.678220 -22.288476 13.775036
25.664702 -25.561636 15.797960
29.709266 -24.491393 12.340378
19.680185 -34.100634 12.554683
22.099572 -29.461429 15.444548
18.300702 -33.419231 14.986356
22.348222 -32.392789 11.492453
19.512299 -31.002608 16.384069
27.460684 -28.753954 9.349352
24.717485 -27.825261 14.434508
28.633744 -26.659833 10.856111
24.946784 -30.602721 10.420101
27.212909 -26.194164 13.415460
23.588326 -30.120858 13.018467
34.460347 -21.297666 -9.725727
35.983122 -22.238792 -3.329137
33.255526 -23.422439 -8.185197
34.460347 -21.297666 9.725727
35.983122 -22.238792 3.329137
33.255526 -23.422439 8.185197
30.584526 -27.436844 -5.016493
34.388203 -24.163931 -1.710957
31.956537 -25.481736 -6.608459
30.912511 -27.752917 -1.691241
34.003537 -23.912237 -4.985512
30.584526 -27.436844 5.016493
34.388203 -24.163931 1.710957
31.956537 -25.481736 6.608459
30.912511 -27.752917 1.691241
34.003537 -23.912237 4.985512
32.705905 -26.000235 0.000000
2.351048 -18.101813 30.742376
6.840755 -16.062890 30.218121
3.854835 -19.976013 29.939449
2.305287 -15.599246 31.275431
15.454671 -11.964338 28.910218
11.164524 -14.034510 29.608369
6.970147 -23.598503 27.882755
8.381973 -17.815172 29.338962
5.407056 -21.820472 28.983055
6.157288 -18.883697 29.649910
2.238927 -10.739188 32.077383
6.747939 -13.651378 30.796756
2.270325 -13.133103 31.718554
4.560892 -14.621436 31.045553
35.130317 -1.742795 24.531631
29.502280 -4.799110 25.998534
34.974682 -4.503144 23.335590
19.842744 -9.790334 28.104583
24.470674 -7.435559 27.154695
34.294381 -9.797708 20.824197
29.468445 -7.366539 24.940548
34.686627 -7.203244 22.091526
32.131432 -5.994415 24.190790
13.446243 -29.945970 21.756478
14.967801 -24.316060 24.218410
11.853480 -28.537066 23.525068
16.152778 -28.658590 20.929573
17.187920 -13.542036 27.810639
16.184526 -18.864948 26.187112
15.014986 -14.609417 28.228261
8.637880 -25.370966 26.565820
13.337412 -22.838830 25.710399
10.235928 -26.997968 25.136822
9.360372 -22.409683 27.490408
12.644017 -25.648057 24.687894
21.383061 -25.919416 19.216307
17.586699 -23.125974 23.464745
18.808344 -27.307730 20.078314
16.911725 -25.864347 22.273650
10.670201 -16.726152 28.982064
13.973083 -19.994055 26.654517
12.834548 -15.673005 28.620748
10.037250 -19.518434 28.291132
14.520647 -17.293091 27.476564
11.702909 -21.204650 27.077048
2.200209 -1.359804 32.864607
6.604449 -4.081774 32.339366
2.203700 -3.646494 32.758414
15.429491 -9.535950 29.599268
11.016666 -6.808674 31.266160
13.278803 -10.586380 29.926735
2.229431 -8.283334 32.374426
6.616499 -6.397745 32.065062
2.211950 -5.964430 32.595323
4.462943 -9.760429 31.908272
4.418893 -5.025488 32.478591
8.990099 -12.613297 30.521706
8.886625 -7.820301 31.490757
11.125760 -11.617051 30.234947
6.727513 -11.211231 31.289165
11.077886 -9.198251 30.788002
6.685208 -8.782373 31.712279
31.710530 -19.598186 15.441038
28.139465 -17.391146 20.271404
32.480416 -17.276764 16.810102
29.140835 -21.281760 16.424585
19.812592 -12.244855 27.270373
24.095069 -14.891572 24.192222
22.071468 -11.121061 26.773778
19.320623 -14.911042 26.455476
33.759702 -12.429163 19.483426
28.616287 -15.001500 21.465616
33.169533 -14.874382 18.163964
31.583389 -11.205291 21.789806
30.610724 -16.176969 19.265656
24.049120 -24.401414 18.288727
25.543016 -18.937249 21.072538
26.577500 -22.887797 17.378028
22.184969 -23.158064 20.610469
27.403136 -20.148463 18.874056
26.834713 -8.725311 25.627765
26.451190 -13.721702 23.496883
24.418804 -9.943545 26.226787
29.249159 -9.959219 23.843385
24.290474 -12.440477 25.235180
28.960959 -12.517150 22.679983
18.229825 -20.285347 24.588825
23.479683 -17.597894 23.140696
18.792787 -17.604128 25.559335
20.223143 -21.768054 22.722861
21.436672 -16.276232 24.892441
22.884573 -20.367065 21.922971
2.407831 18.539014 31.484877
7.296429 17.132864 32.230996
4.025775 20.861835 31.267092
2.352739 15.920340 31.919203
17.318328 13.407101 32.396460
12.275623 15.431232 32.555010
7.653333 25.911534 30.615711
9.156864 19.462137 32.051270
5.780641 23.328094 30.985556
6.585917 20.198255 31.713940
2.270041 10.888431 32.523164
7.123703 14.411564 32.511693
2.309306 13.358594 32.263150
4.740240 15.196395 32.266357
36.334520 1.802534 25.372530
32.051047 5.213716 28.244605
38.306840 4.932174 25.558852
33.269199 0.000000 26.130125
22.367810 11.036192 31.681001
27.327607 8.303655 30.324985
42.350023 12.099159 25.715735
33.619877 8.404317 28.454103
40.341784 8.377630 25.693232
36.028130 6.721380 27.124497
27.693862 -3.147354 27.367791
29.112032 3.308527 28.769264
30.380708 -1.647661 26.792716
31.239567 1.694240 27.550143
16.814819 37.448086 27.206949
18.653300 30.303368 30.181674
14.341581 34.527130 28.463090
21.065072 37.374083 27.294560
19.880113 15.663163 32.166698
19.600556 22.846729 31.714366
17.203913 16.739219 32.343457
9.786095 28.743474 30.097158
16.036807 27.461244 30.913998
11.975566 31.586384 29.408928
10.585710 25.343268 31.089096
15.298316 31.032232 29.870507
29.896428 36.238869 26.867010
22.629671 29.757328 30.193242
25.467904 36.976708 27.187538
21.988082 33.627995 28.959485
11.884685 18.629926 32.280809
16.598069 23.750142 31.661840
14.519586 17.730702 32.378344
11.284374 21.943591 31.806293
16.970437 20.210622 32.112157
13.590381 24.624583 31.444095
2.204006 1.362150 32.921319
6.708793 4.146262 32.850299
2.213942 3.663442 32.910669
4.421715 0.000000 32.819120
16.872953 10.428059 32.368343
11.516907 7.117840 32.685883
14.460196 11.528233 32.589267
2.253274 8.371924 32.720668
6.782300 6.558066 32.868576
2.228852 6.010006 32.844395
4.577435 10.010822 32.726845
4.476198 5.090660 32.899782
8.902021 -2.732481 32.207813
9.028466 2.771293 32.665296
6.669173 -1.373022 32.580750
6.704483 1.380292 32.753248
9.619301 13.496081 32.657869
9.259025 8.148017 32.810400
12.026760 12.557837 32.683472
7.032803 11.719991 32.709049
11.773728 9.776025 32.721906
6.919670 9.090386 32.824483
47.370899 29.276826 23.066655
38.777277 23.965675 27.934783
46.890987 24.941937 24.268231
43.297379 31.620386 24.403607
23.071497 14.258970 31.755983
30.391694 18.783100 30.514235
25.743686 12.971366 31.228359
23.200043 17.905055 31.767515
44.276441 16.301065 25.552855
37.889514 19.862799 28.421638
45.826717 20.550308 25.095164
39.581797 14.043001 27.308016
42.368343 22.390564 26.665620
34.563116 35.069430 26.284347
34.993882 25.943994 28.869336
38.967433 33.557660 25.479340
30.626054 31.969398 28.452479
39.155337 28.789400 26.968446
31.006711 10.081836 29.612118
33.451595 17.353200 29.715419
28.410305 11.568918 30.513822
35.116883 11.957155 28.626647
29.451223 15.083578 30.596641
36.577645 15.809141 28.644782
23.035057 25.632399 31.070238
30.710770 23.017555 30.267385
23.203137 21.735520 31.557680
26.723048 28.764508 30.026199
26.837178 20.376677 31.163554
30.888174 27.490199 29.590263
18.032937 -8.234866 29.177905
18.745574 -2.806204 30.330975
20.279158 -7.086747 28.792648
15.777344 -6.884794 30.165792
19.732392 9.010934 31.927680
19.324264 2.892834 31.267316
22.113465 7.727764 31.397024
16.836021 7.346771 32.189950
25.036779 -4.577670 27.909115
21.088955 -1.493229 30.012138
22.620992 -5.866550 28.368891
25.676181 -1.564686 28.599345
20.696804 -4.315120 29.431146
11.253640 -4.158216 31.665043
16.343521 -1.454017 31.149670
13.501994 -5.515624 30.997228
11.365948 -1.404908 32.029628
16.083339 -4.179095 30.686398
26.776571 4.895770 29.848504
21.469586 1.520180 30.553822
24.482161 6.349228 30.702974
26.263460 1.600474 29.253483
21.808968 4.546997 31.012659
23.582807 0.000000 29.665003
11.565746 4.273540 32.543235
16.567359 1.473931 31.576290
14.109033 5.763602 32.390838
11.470865 1.417877 32.325288
16.729307 4.346944 31.918879
13.927347 0.000000 31.819820
41.333893 0.000000 -21.749383
47.362656 0.000000 -17.073479
43.738255 3.223912 -21.815329
40.851147 -3.011106 -20.375326
55.537337 0.000000 -3.849151
52.480147 0.000000 -11.053612
48.812519 10.695410 -21.637284
50.288844 3.510044 -16.836203
46.278650 6.798781 -21.795725
47.093919 3.370851 -19.499291
39.523147 -8.659997 -17.519554
46.311531 -3.232437 -15.504639
40.239887 -5.911628 -18.951666
43.671829 -3.125907 -18.082371
41.333893 0.000000 21.749383
47.362656 0.000000 17.073479
43.738255 3.223912 21.815329
40.851147 -3.011106 20.375326
55.537337 0.000000 3.849151
52.480147 0.000000 11.053612
48.812519 10.695410 21.637284
50.288844 3.510044 16.836203
46.278650 6.798781 21.795725
47.093919 3.370851 19.499291
39.523147 -8.659997 17.519554
46.311531 -3.232437 15.504639
40.239887 -5.911628 18.951666
43.671829 -3.125907 18.082371
55.093858 28.719298 -17.749502
60.578353 21.344850 -13.191843
54.527722 24.194516 -19.288812
58.558720 30.627443 -13.364964
58.675422 3.928183 -2.427751
61.971313 12.655979 -7.821825
57.665045 3.879200 -6.418969
51.308082 15.112678 -21.203405
58.951459 16.635977 -14.639793
53.240900 19.591417 -20.456534
52.773316 11.346840 -18.909225
57.198893 20.580837 -17.088792
62.732189 32.914148 -2.928238
63.354555 22.515976 -8.319646
61.241013 32.097609 -8.340243
61.405226 26.747328 -10.926402
53.353984 3.674166 -13.651172
59.622449 12.302856 -11.896102
55.820860 3.788058 -10.214336
53.449048 7.475806 -16.349542
59.128957 8.044823 -9.149161
56.483508 11.907185 -15.642497
35.793571 -18.658454 -11.531559
41.161134 -14.503171 -8.963453
36.832761 -16.343078 -13.029340
36.974112 -19.338238 -8.438669
52.957869 -3.545406 -2.191181
46.897961 -9.577651 -5.919314
52.173423 -3.509772 -5.807671
38.696637 -11.398006 -15.991642
42.521060 -11.999353 -10.559527
37.805231 -13.911449 -14.525750
41.817307 -8.991178 -14.983574
39.627181 -14.258327 -11.839051
38.244401 -20.065965 -1.785187
42.154494 -14.981552 -5.535679
37.812451 -19.818243 -5.149573
39.552895 -17.228733 -7.038014
48.767762 -3.358341 -12.477740
45.658646 -9.421481 -9.109990
50.731218 -3.442670 -9.283012
45.183714 -6.319751 -13.821257
48.840515 -6.645024 -7.557207
43.902648 -9.255037 -12.158364
55.093858 28.719298 17.749502
60.578353 21.344850 13.191843
54.527722 24.194516 19.288812
58.558720 30.627443 13.364964
58.675422 3.928183 2.427751
61.971313 12.655979 7.821825
57.665045 3.879200 6.418969
61.559378 8.293886 0.000000
51.308082 15.112678 21.203405
58.951459 16.635977 14.639793
53.240900 19.591417 20.456534
52.773316 11.346840 18.909225
57.198893 20.580837 17.088792
62.732189 32.914148 2.928238
63.354555 22.515976 8.319646
61.241013 32.097609 8.340243
64.287665 28.138332 0.000000
61.405226 26.747328 10.926402
53.353984 3.674166 13.651172
59.622449 12.302856 11.896102
55.820860 3.788058 10.214336
53.449048 7.475806 16.349542
59.128957 8.044823 9.149161
56.483508 11.907185 15.642497
64.173340 17.737075 -5.444407
64.173340 17.737075 5.444407
63.540071 13.006444 -2.677714
64.895948 23.028802 -2.846516
63.540071 13.006444 2.677714
64.895948 23.028802 2.846516
35.793571 -18.658454 11.531559
41.161134 -14.503171 8.963453
36.832761 -16.343078 13.029340
36.974112 -19.338238 8.438669
52.957869 -3.545406 2.191181
46.897961 -9.577651 5.919314
52.173423 -3.509772 5.807671
50.340848 -6.782415 0.000000
38.696637 -11.398006 15.991642
42.521060 -11.999353 10.559527
37.805231 -13.911449 14.525750
41.817307 -8.991178 14.983574
39.627181 -14.258327 11.839051
38.244401 -20.065965 1.785187
42.154494 -14.981552 5.535679
37.812451 -19.818243 5.149573
40.503127 -17.727980 0.000000
39.552895 -17.228733 7.038014
48.767762 -3.358341 12.477740
45.658646 -9.421481 9.109990
50.731218 -3.442670 9.283012
45.183714 -6.319751 13.821257
48.840515 -6.645024 7.557207
43.902648 -9.255037 12.158364
44.936592 -12.420169 -3.812379
44.936592 -12.420169 3.812379
47.624731 -9.748626 -2.007008
42.751540 -15.170697 -1.875201
47.624731 -9.748626 2.007008
42.751540 -15.170697 1.875201
-24.027786 34.408790 -1.707000
-27.172519 30.834479 -5.015817
-23.171764 34.729144 -4.471530
-32.190298 22.727390 -11.213608
-29.877350 26.924217 -8.181082
-21.000059 34.584000 -9.880451
-26.128116 30.871612 -7.717304
-22.153300 34.783621 -7.223387
-24.718822 32.832791 -6.125260
-37.974892 2.904161 -22.360483
-37.082130 8.394625 -19.711555
-34.153192 18.257432 -14.134115
-35.787722 13.494593 -16.963553
-15.309632 31.440667 -19.431401
-20.596194 28.590318 -17.669788
-16.829939 32.518747 -17.297152
-30.678220 22.288476 -13.775036
-25.664702 25.561636 -15.797960
-29.709266 24.491393 -12.340378
-19.680185 34.100634 -12.554683
-22.099572 29.461429 -15.444548
-18.300702 33.419231 -14.986356
-22.348222 32.392789 -11.492453
-19.512299 31.002608 -16.384069
-27.460684 28.753954 -9.349352
-24.717485 27.825261 -14.434508
-28.633744 26.659833 -10.856111
-24.946784 30.602721 -10.420101
-27.212909 26.194164 -13.415460
-23.588326 30.120858 -13.018467
-40.536309 -58.049683 -2.879811
-46.875715 -53.193016 -8.652861
-37.593325 -56.343747 -7.254505
-51.117989 -36.090951 -17.807138
-49.718229 -44.803986 -13.613956
-31.184618 -51.356467 -14.672248
-42.962580 -50.762333 -12.689598
-34.338875 -53.916591 -11.196660
-40.689235 -54.045502 -10.082686
-40.385088 -3.088482 -23.779662
-44.907487 -10.166123 -23.871240
-51.197562 -27.368921 -21.187836
-49.008900 -18.479945 -23.230455
-19.880139 -40.826902 -25.232413
-28.959726 -40.200036 -24.844989
-22.530177 -43.532725 -23.155633
-47.254425 -34.331494 -21.218030
-38.264711 -38.111045 -23.553921
-46.707622 -38.504308 -19.401009
-28.098680 -48.687693 -17.925137
-32.099959 -42.793165 -22.433437
-25.272468 -46.150494 -20.695501
-33.544422 -48.621200 -17.250039
-27.276439 -43.338859 -22.903456
-44.636551 -46.738725 -15.197102
-37.142690 -41.812710 -21.690575
-45.832999 -42.673431 -17.376984
-39.153346 -48.030196 -16.354086
-41.983642 -40.411939 -20.697158
-35.524225 -45.362275 -19.605926
-2.407831 -18.539014 -31.484877
-7.296429 -17.132864 -32.230996
-4.025775 -20.861835 -31.267092
-2.352739 -15.920340 -31.919203
-17.318328 -13.407101 -32.396460
-12.275623 -15.431232 -32.555010
-7.653333 -25.911534 -30.615711
-9.156864 -19.462137 -32.051270
-5.780641 -23.328094 -30.985556
-6.585917 -20.198255 -31.713940
-2.270041 -10.888431 -32.523164
-7.123703 -14.411564 -32.511693
-2.309306 -13.358594 -32.263150
-4.740240 -15.196395 -32.266357
-36.334520 -1.802534 -25.372530
-32.051047 -5.213716 -28.244605
-38.306840 -4.932174 -25.558852
-22.367810 -11.036192 -31.681001
-27.327607 -8.303655 -30.324985
-42.350023 -12.099159 -25.715735
-33.619877 -8.404317 -28.454103
-40.341784 -8.377630 -25.693232
-36.028130 -6.721380 -27.124497
-16.814819 -37.448086 -27.206949
-18.653300 -30.303368 -30.181674
-14.341581 -34.527130 -28.463090
-21.065072 -37.374083 -27.294560
-19.880113 -15.663163 -32.166698
-19.600556 -22.846729 -31.714366
-17.203913 -16.739219 -32.343457
-9.786095 -28.743474 -30.097158
-16.036807 -27.461244 -30.913998
-11.975566 -31.586384 -29.408928
-10.585710 -25.343268 -31.089096
-15.298316 -31.032232 -29.870507
-29.896428 -36.238869 -26.867010
-22.629671 -29.757328 -30.193242
-25.467904 -36.976708 -27.187538
-21.988082 -33.627995 -28.959485
-11.884685 -18.629926 -32.280809
-16.598069 -23.750142 -31.661840
-14.519586 -17.730702 -32.378344
-11.284374 -21.943591 -31.806293
-16.970437 -20.210622 -32.112157
-13.590381 -24.624583 -31.444095
-2.204006 -1.362150 -32.921319
-6.708793 -4.146262 -32.850299
-2.213942 -3.663442 -32.910669
-16.872953 -10.428059 -32.368343
-11.516907 -7.117840 -32.685883
-14.460196 -11.528233 -32.589267
-2.253274 -8.371924 -32.720668
-6.782300 -6.558066 -32.868576
-2.228852 -6.010006 -32.844395
-4.577435 -10.010822 -32.726845
-4.476198 -5.090660 -32.899782
-9.619301 -13.496081 -32.657869
-9.259025 -8.148017 -32.810400
-12.026760 -12.557837 -32.683472
-7.032803 -11.719991 -32.709049
-11.773728 -9.776025 -32.721906
-6.919670 -9.090386 -32.824483
-47.370899 -29.276826 -23.066655
-38.777277 -23.965675 -27.934783
-46.890987 -24.941937 -24.268231
-43.297379 -31.620386 -24.403607
-23.071497 -14.258970 -31.755983
-30.391694 -18.783100 -30.514235
-25.743686 -12.971366 -31.228359
-23.200043 -17.905055 -31.767515
-44.276441 -16.301065 -25.552855
-37.889514 -19.862799 -28.421638
-45.826717 -20.550308 -25.095164
-39.581797 -14.043001 -27.308016
-42.368343 -22.390564 -26.665620
-34.563116 -35.069430 -26.284347
-34.993882 -25.943994 -28.869336
-38.967433 -33.557660 -25.479340
-30.626054 -31.969398 -28.452479
-39.155337 -28.789400 -26.968446
-31.006711 -10.081836 -29.612118
-33.451595 -17.353200 -29.715419
-28.410305 -11.568918 -30.513822
-35.116883 -11.957155 -28.626647
-29.451223 -15.083578 -30.596641
-36.577645 -15.809141 -28.644782
-23.035057 -25.632399 -31.070238
-30.710770 -23.017555 -30.267385
-23.203137 -21.735520 -31.557680
-26.723048 -28.764508 -30.026199
-26.837178 -20.376677 -31.163554
-30.888174 -27.490199 -29.590263
-2.351048 18.101813 -30.742376
-6.840755 16.062890 -30.218121
-3.854835 19.976013 -29.939449
-2.305287 15.599246 -31.275431
-15.454671 11.964338 -28.910218
-11.164524 14.034510 -29.608369
-6.970147 23.598503 -27.882755
-8.381973 17.815172 -29.338962
-5.407056 21.820472 -28.983055
-6.157288 18.883697 -29.649910
-2.238927 10.739188 -32.077383
-6.747939 13.651378 -30.796756
-2.270325 13.133103 -31.718554
-4.560892 14.621436 -31.045553
-35.130317 1.742795 -24.531631
-29.502280 4.799110 -25.998534
-34.974682 4.503144 -23.335590
-33.269199 0.000000 -26.130125
-19.842744 9.790334 -28.104583
-24.470674 7.435559 -27.154695
-34.294381 9.797708 -20.824197
-29.468445 7.366539 -24.940548
-34.686627 7.203244 -22.091526
-32.131432 5.994415 -24.190790
-29.112032 -3.308527 -28.769264
-27.693862 3.147354 -27.367791
-31.239567 -1.694240 -27.550143
-30.380708 1.647661 -26.792716
-13.446243 29.945970 -21.756478
-14.967801 24.316060 -24.218410
-11.853480 28.537066 -23.525068
-16.152778 28.658590 -20.929573
-17.187920 13.542036 -27.810639
-16.184526 18.864948 -26.187112
-15.014986 14.609417 -28.228261
-8.637880 25.370966 -26.565820
-13.337412 22.838830 -25.710399
-10.235928 26.997968 -25.136822
-9.360372 22.409683 -27.490408
-12.644017 25.648057 -24.687894
-21.383061 25.919416 -19.216307
-17.586699 23.125974 -23.464745
-18.808344 27.307730 -20.078314
-16.911725 25.864347 -22.273650
-10.670201 16.726152 -28.982064
-13.973083 19.994055 -26.654517
-12.834548 15.673005 -28.620748
-10.037250 19.518434 -28.291132
-14.520647 17.293091 -27.476564
-11.702909 21.204650 -27.077048
-2.200209 1.359804 -32.864607
-6.604449 4.081774 -32.339366
-2.203700 3.646494 -32.758414
-4.421715 0.000000 -32.819120
-15.429491 9.535950 -29.599268
-11.016666 6.808674 -31.266160
-13.278803 10.586380 -29.926735
-2.229431 8.283334 -32.374426
-6.616499 6.397745 -32.065062
-2.211950 5.964430 -32.595323
-4.462943 9.760429 -31.908272
-4.418893 5.025488 -32.478591
-9.028466 -2.771293 -32.665296
-8.902021 2.732481 -32.207813
-6.704483 -1.380292 -32.753248
-6.669173 1.373022 -32.580750
-8.990099 12.613297 -30.521706
-8.886625 7.820301 -31.490757
-11.125760 11.617051 -30.234947
-6.727513 11.211231 -31.289165
-11.077886 9.198251 -30.788002
-6.685208 8.782373 -31.712279
-31.710530 19.598186 -15.441038
-28.139465 17.391146 -20.271404
-32.480416 17.276764 -16.810102
-29.140835 21.281760 -16.424585
-19.812592 12.244855 -27.270373
-24.095069 14.891572 -24.192222
-22.071468 11.121061 -26.773778
-19.320623 14.911042 -26.455476
-33.759702 12.429163 -19.483426
-28.616287 15.001500 -21.465616
-33.169533 14.874382 -18.163964
-31.583389 11.205291 -21.789806
-30.610724 16.176969 -19.265656
-24.049120 24.401414 -18.288727
-25.543016 18.937249 -21.072538
-26.577500 22.887797 -17.378028
-22.184969 23.158064 -20.610469
-27.403136 20.148463 -18.874056
-26.834713 8.725311 -25.627765
-26.451190 13.721702 -23.496883
-24.418804 9.943545 -26.226787
-29.249159 9.959219 -23.843385
-24.290474 12.440477 -25.235180
-28.960959 12.517150 -22.679983
-18.229825 20.285347 -24.588825
-23.479683 17.597894 -23.140696
-18.792787 17.604128 -25.559335
-20.223143 21.768054 -22.722861
-21.436672 16.276232 -24.892441
-22.884573 20.367065 -21.922971
-19.732392 -9.010934 -31.927680
-19.324264 -2.892834 -31.267316
-22.113465 -7.727764 -31.397024
-16.836021 -7.346771 -32.189950
-18.032937 8.234866 -29.177905
-18.745574 2.806204 -30.330975
-20.279158 7.086747 -28.792648
-15.777344 6.884794 -30.165792
-26.776571 -4.895770 -29.848504
-21.469586 -1.520180 -30.553822
-24.482161 -6.349228 -30.702974
-26.263460 -1.600474 -29.253483
-21.808968 -4.546997 -31.012659
-11.565746 -4.273540 -32.543235
-16.567359 -1.473931 -31.576290
-14.109033 -5.763602 -32.390838
-11.470865 -1.417877 -32.325288
-16.729307 -4.346944 -31.918879
-25.036779 4.577670 -27.909115
-21.088955 1.493229 -30.012138
-22.620992 5.866550 -28.368891
-25.676181 1.564686 -28.599345
-20.696804 4.315120 -29.431146
-23.582807 0.000000 -29.665003
-11.253640 4.158216 -31.665043
-16.343521 1.454017 -31.149670
-13.501994 5.515624 -30.997228
-11.365948 1.404908 -32.029628
-16.083339 4.179095 -30.686398
-13.927347 0.000000 -31.819820
-24.027786 34.408790 1.707000
-27.172519 30.834479 5.015817
-23.171764 34.729144 4.471530
-25.798988 32.847591 0.000000
-32.190298 22.727390 11.213608
-29.877350 26.924217 8.181082
-21.000059 34.584000 9.880451
-26.128116 30.871612 7.717304
-22.153300 34.783621 7.223387
-24.718822 32.832791 6.125260
-29.044755 29.390806 -3.340209
-29.044755 29.390806 3.340209
-27.481102 31.161281 -1.689995
-27.481102 31.161281 1.689995
-37.974892 2.904161 22.360483
-37.082130 8.394625 19.711555
-34.153192 18.257432 14.134115
-35.787722 13.494593 16.963553
-15.309632 31.440667 19.431401
-20.596194 28.590318 17.669788
-16.829939 32.518747 17.297152
-30.678220 22.288476 13.775036
-25.664702 25.561636 15.797960
-29.709266 24.491393 12.340378
-19.680185 34.100634 12.554683
-22.099572 29.461429 15.444548
-18.300702 33.419231 14.986356
-22.348222 32.392789 11.492453
-19.512299 31.002608 16.384069
-27.460684 28.753954 9.349352
-24.717485 27.825261 14.434508
-28.633744 26.659833 10.856111
-24.946784 30.602721 10.420101
-27.212909 26.194164 13.415460
-23.588326 30.120858 13.018467
-34.460347 21.297666 -9.725727
-35.983122 22.238792 -3.329137
-33.255526 23.422439 -8.185197
-34.460347 21.297666 9.725727
-35.983122 22.238792 3.329137
-33.255526 23.422439 8.185197
-30.584526 27.436844 -5.016493
-34.388203 24.163931 -1.710957
-31.956537 25.481736 -6.608459
-30.912511 27.752917 -1.691241
-34.003537 23.912237 -4.985512
-30.584526 27.436844 5.016493
-34.388203 24.163931 1.710957
-31.956537 25.481736 6.608459
-30.912511 27.752917 1.691241
-34.003537 23.912237 4.985512
-32.705905 26.000235 0.000000
-40.536309 -58.049683 2.879811
-46.875715 -53.193016 8.652861
-37.593325 -56.343747 7.254505
-45.458658 -57.878526 0.000000
-51.117989 -36.090951 17.807138
-49.718229 -44.803986 13.613956
-31.184618 -51.356467 14.672248
-42.962580 -50.762333 12.689598
-34.338875 -53.916591 11.196660
-40.689235 -54.045502 10.082686
-51.695053 -52.310968 -5.945041
-51.695053 -52.310968 5.945041
-49.303742 -55.906336 -3.032013
-49.303742 -55.906336 3.032013
-40.385088 -3.088482 23.779662
-44.907487 -10.166123 23.871240
-51.197562 -27.368921 21.187836
-49.008900 -18.479945 23.230455
-19.880139 -40.826902 25.232413
-28.959726 -40.200036 24.844989
-22.530177 -43.532725 23.155633
-47.254425 -34.331494 21.218030
-38.264711 -38.111045 23.553921
-46.707622 -38.504308 19.401009
-28.098680 -48.687693 17.925137
-32.099959 -42.793165 22.433437
-25.272468 -46.150494 20.695501
-33.544422 -48.621200 17.250039
-27.276439 -43.338859 22.903456
-44.636551 -46.738725 15.197102
-37.142690 -41.812710 21.690575
-45.832999 -42.673431 17.376984
-39.153346 -48.030196 16.354086
-41.983642 -40.411939 20.697158
-35.524225 -45.362275 19.605926
-55.059809 -34.028833 -15.539503
-60.468900 -37.371836 -5.594547
-54.662033 -38.499411 -13.453991
-55.059809 -34.028833 15.539503
-60.468900 -37.371836 5.594547
-54.662033 -38.499411 13.453991
-53.163274 -47.691843 -8.719872
-59.496188 -41.806832 -2.960184
-54.035099 -43.086900 -11.174199
-55.492578 -49.820634 -3.036030
-57.669876 -40.555068 -8.455410
-53.163274 -47.691843 8.719872
-59.496188 -41.806832 2.960184
-54.035099 -43.086900 11.174199
-55.492578 -49.820634 3.036030
-57.669876 -40.555068 8.455410
-57.992029 -46.101961 0.000000
-2.407831 -18.539014 31.484877
-7.296429 -17.132864 32.230996
-4.025775 -20.861835 31.267092
-2.352739 -15.920340 31.919203
-17.318328 -13.407101 32.396460
-12.275623 -15.431232 32.555010
-7.653333 -25.911534 30.615711
-9.156864 -19.462137 32.051270
-5.780641 -23.328094 30.985556
-6.585917 -20.198255 31.713940
-2.270041 -10.888431 32.523164
-7.123703 -14.411564 32.511693
-2.309306 -13.358594 32.263150
-4.740240 -15.196395 32.266357
-36.334520 -1.802534 25.372530
-32.051047 -5.213716 28.244605
-38.306840 -4.932174 25.558852
-22.367810 -11.036192 31.681001
-27.327607 -8.303655 30.324985
-42.350023 -12.099159 25.715735
-33.619877 -8.404317 28.454103
-40.341784 -8.377630 25.693232
-36.028130 -6.721380 27.124497
-16.814819 -37.448086 27.206949
-18.653300 -30.303368 30.181674
-14.341581 -34.527130 28.463090
-21.065072 -37.374083 27.294560
-19.880113 -15.663163 32.166698
-19.600556 -22.846729 31.714366
-17.203913 -16.739219 32.343457
-9.786095 -28.743474 30.097158
-16.036807 -27.461244 30.913998
-11.975566 -31.586384 29.408928
-10.585710 -25.343268 31.089096
-15.298316 -31.032232 29.870507
-29.896428 -36.238869 26.867010
-22.629671 -29.757328 30.193242
-25.467904 -36.976708 27.187538
-21.988082 -33.627995 28.959485
-11.884685 -18.629926 32.280809
-16.598069 -23.750142 31.661840
-14.519586 -17.730702 32.378344
-11.284374 -21.943591 31.806293
-16.970437 -20.210622 32.112157
-13.590381 -24.624583 31.444095
-2.204006 -1.362150 32.921319
-6.708793 -4.146262 32.850299
-2.213942 -3.663442 32.910669
-16.872953 -10.428059 32.368343
-11.516907 -7.117840 32.685883
-14.460196 -11.528233 32.589267
-2.253274 -8.371924 32.720668
-6.782300 -6.558066 32.868576
-2.228852 -6.010006 32.844395
-4.577435 -10.010822 32.726845
-4.476198 -5.090660 32.899782
-9.619301 -13.496081 32.657869
-9.259025 -8.148017 32.810400
-12.026760 -12.557837 32.683472
-7.032803 -11.719991 32.709049
-11.773728 -9.776025 32.721906
-6.919670 -9.090386 32.824483
-47.370899 -29.276826 23.066655
-38.777277 -23.965675 27.934783
-46.890987 -24.941937 24.268231
-43.297379 -31.620386 24.403607
-23.071497 -14.258970 31.755983
-30.391694 -18.783100 30.514235
-25.743686 -12.971366 31.228359
-23.200043 -17.905055 31.767515
-44.276441 -16.301065 25.552855
-37.889514 -19.862799 28.421638
-45.826717 -20.550308 25.095164
-39.581797 -14.043001 27.308016
-42.368343 -22.390564 26.665620
-34.563116 -35.069430 26.284347
-34.993882 -25.943994 28.869336
-38.967433 -33.557660 25.479340
-30.626054 -31.969398 28.452479
-39.155337 -28.789400 26.968446
-31.006711 -10.081836 29.612118
-33.451595 -17.353200 29.715419
-28.410305 -11.568918 30.513822
-35.116883 -11.957155 28.626647
-29.451223 -15.083578 30.596641
-36.577645 -15.809141 28.644782
-23.035057 -25.632399 31.070238
-30.710770 -23.017555 30.267385
-23.203137 -21.735520 31.557680
-26.723048 -28.764508 30.026199
-26.837178 -20.376677 31.163554
-30.888174 -27.490199 29.590263
-2.351048 18.101813 30.742376
-6.840755 16.062890 30.218121
-3.854835 19.976013 29.939449
-2.305287 15.599246 31.275431
-15.454671 11.964338 28.910218
-11.164524 14.034510 29.608369
-6.970147 23.598503 27.882755
-8.381973 17.815172 29.338962
-5.407056 21.820472 28.983055
-6.157288 18.883697 29.649910
-2.238927 10.739188 32.077383
-6.747939 13.651378 30.796756
-2.270325 13.133103 31.718554
-4.560892 14.621436 31.045553
-35.130317 1.742795 24.531631
-29.502280 4.799110 25.998534
-34.974682 4.503144 23.335590
-33.269199 0.000000 26.130125
-19.842744 9.790334 28.104583
-24.470674 7.435559 27.154695
-34.294381 9.797708 20.824197
-29.468445 7.366539 24.940548
-34.686627 7.203244 22.091526
-32.131432 5.994415 24.190790
-29.112032 -3.308527 28.769264
-27.693862 3.147354 27.367791
-31.239567 -1.694240 27.550143
-30.380708 1.647661 26.792716
-13.446243 29.945970 21.756478
-14.967801 24.316060 24.218410
-11.853480 28.537066 23.525068
-16.152778 28.658590 20.929573
-17.187920 13.542036 27.810639
-16.184526 18.864948 26.187112
-15.014986 14.609417 28.228261
-8.637880 25.370966 26.565820
-13.337412 22.838830 25.710399
-10.235928 26.997968 25.136822
-9.360372 22.409683 27.490408
-12.644017 25.648057 24.687894
-21.383061 25.919416 19.216307
-17.586699 23.125974 23.464745
-18.808344 27.307730 20.078314
-16.911725 25.864347 22.273650
-10.670201 16.726152 28.982064
-13.973083 19.994055 26.654517
-12.834548 15.673005 28.620748
-10.037250 19.518434 28.291132
-14.520647 17.293091 27.476564
-11.702909 21.204650 27.077048
-2.200209 1.359804 32.864607
-6.604449 4.081774 32.339366
-2.203700 3.646494 32.758414
-4.421715 0.000000 32.819120
-15.429491 9.535950 29.599268
-11.016666 6.808674 31.266160
-13.278803 10.586380 29.926735
-2.229431 8.283334 32.374426
-6.616499 6.397745 32.065062
-2.211950 5.964430 32.595323
-4.462943 9.760429 31.908272
-4.418893 5.025488 32.478591
-9.028466 -2.771293 32.665296
-8.902021 2.732481 32.207813
-6.704483 -1.380292 32.753248
-6.669173 1.373022 32.580750
-8.990099 12.613297 30.521706
-8.886625 7.820301 31.490757
-11.125760 11.617051 30.234947
-6.727513 11.211231 31.289165
-11.077886 9.198251 30.788002
-6.685208 8.782373 31.712279
-31.710530 19.598186 15.441038
-28.139465 17.391146 20.271404
-32.480416 17.276764 16.810102
-29.140835 21.281760 16.424585
-19.812592 12.244855 27.270373
-24.095069 14.891572 24.192222
-22.071468 11.121061 26.773778
-19.320623 14.911042 26.455476
-33.759702 12.429163 19.483426
-28.616287 15.001500 21.465616
-33.169533 14.874382 18.163964
-31.583389 11.205291 21.789806
-30.610724 16.176969 19.265656
-24.049120 24.401414 18.288727
-25.543016 18.937249 21.072538
-26.577500 22.887797 17.378028
-22.184969 23.158064 20.610469
-27.403136 20.148463 18.874056
-26.834713 8.725311 25.627765
-26.451190 13.721702 23.496883
-24.418804 9.943545 26.226787
-29.249159 9.959219 23.843385
-24.290474 12.440477 25.235180
-28.960959 12.517150 22.679983
-18.229825 20.285347 24.588825
-23.479683 17.597894 23.140696
-18.792787 17.604128 25.559335
-20.223143 21.768054 22.722861
-21.436672 16.276232 24.892441
-22.884573 20.367065 21.922971
-19.732392 -9.010934 31.927680
