-18.069133 -43.639859 3.123619
-20.162753 -42.811378 6.289405
-1.156404 -16.277582 23.310175
-3.682405 -19.948938 22.637397
-9.881610 -28.366605 20.027739
-6.569566 -23.992085 21.620663
-1.659576 -40.109684 2.685250
-4.986566 -39.507918 8.068433
-4.566778 -41.025814 2.759858
-10.620370 -32.965272 17.184120
-8.051989 -36.975598 13.028393
-12.439418 -35.165107 15.603123
-10.879909 -42.522831 2.928290
-8.013559 -40.163409 8.287560
-7.654670 -41.832407 2.838788
-12.878622 -42.102101 5.888732
-6.322049 -40.857973 5.558954
-16.234304 -39.283832 11.570963
-9.660979 -38.902791 10.978285
-14.328768 -37.292559 13.722797
-14.690845 -41.000338 8.815521
-11.120445 -37.221892 13.392876
-11.257671 -40.650334 8.569423
17.109308 -29.056802 2.222142
15.433386 -29.033875 6.572667
15.254702 -30.584644 2.254370
10.898100 -26.333795 14.077381
13.305585 -28.070569 10.584660
11.239455 -33.571656 2.343224
13.527648 -30.517629 6.686779
13.291558 -32.101246 2.297717
14.449803 -30.681126 4.507354
1.137003 -16.004484 22.919087
3.473375 -18.816542 21.352391
0.000000 -17.763088 22.616183
8.387242 -24.076802 16.999000
5.894228 -21.525748 19.398102
-2.479111 -21.557090 21.813929
2.378547 -20.682638 20.929059
-1.206736 -19.622811 22.250633
1.183302 -19.241742 21.818533
1.608047 -38.864303 2.601875
4.551421 -36.060323 7.364354
4.195811 -37.693223 2.535671
0.000000 -38.929751 5.244999
8.877484 -27.555412 14.364071
6.987806 -32.088753 11.306507
10.109830 -28.579570 12.681052
8.969006 -35.054292 2.413977
6.945679 -34.811267 7.183167
6.662486 -36.410171 2.470829
10.297206 -33.663073 4.708383
5.634361 -36.413600 4.954273
-3.193485 -37.641679 10.403904
3.009975 -35.478647 9.806057
-1.623368 -38.521254 7.885174
1.574396 -37.359191 7.647304
12.436418 -30.093692 8.864028
8.162480 -32.868643 9.275462
11.312067 -29.441185 10.833674
11.460040 -31.983560 6.876815
9.199030 -30.790611 11.078825
9.257442 -33.427706 7.046834
-8.547433 -30.285399 18.717406
-2.706414 -29.252395 18.078974
-6.900339 -28.035293 19.745739
-7.417776 -32.501056 16.998736
7.385399 -26.168061 16.172751
2.576002 -27.842827 17.207814
6.128384 -24.898927 17.536743
6.514422 -28.543001 14.928590
-3.884967 -23.685845 21.248158
-1.345031 -27.033534 18.995946
-5.337781 -25.811917 20.582094
-1.270419 -23.220731 20.847320
-4.044062 -27.582403 19.396717
-4.759427 -36.243292 12.880733
-1.456447 -31.201741 16.370842
-6.143677 -34.526817 15.039438
-1.553055 -35.407130 12.564479
-4.344958 -31.904302 16.721667
3.636368 -22.170188 19.888488
1.312402 -26.377733 18.535128
4.870204 -23.550854 18.779152
1.242536 -22.711080 20.389761
3.763877 -25.671415 18.052857
0.000000 -24.843394 19.749770
4.364632 -33.236908 11.812275
1.417393 -30.365078 15.931864
5.504990 -30.937461 13.475961
1.508410 -34.389287 12.203290
4.016163 -29.490012 15.456290
0.000000 -32.927421 14.412138
-17.109308 29.056802 2.222142
-15.433386 29.033875 6.572667
-15.254702 30.584644 2.254370
-10.898100 26.333795 14.077381
-13.305585 28.070569 10.584660
-11.239455 33.571656 2.343224
-13.527648 30.517629 6.686779
-13.291558 32.101246 2.297717
-14.449803 30.681126 4.507354
-1.137003 16.004484 22.919087
-3.473375 18.816542 21.352391
-8.387242 24.076802 16.999000
-5.894228 21.525748 19.398102
-1.608047 38.864303 2.601875
-4.551421 36.060323 7.364354
-4.195811 37.693223 2.535671
-8.877484 27.555412 14.364071
-6.987806 32.088753 11.306507
-10.109830 28.579570 12.681052
-8.969006 35.054292 2.413977
-6.945679 34.811267 7.183167
-6.662486 36.410171 2.470829
-10.297206 33.663073 4.708383
-5.634361 36.413600 4.954273
-12.436418 30.093692 8.864028
-8.162480 32.868643 9.275462
-11.312067 29.441185 10.833674
-11.460040 31.983560 6.876815
-9.199030 30.790611 11.078825
-9.257442 33.427706 7.046834
26.082445 44.295914 3.387566
21.877137 41.156105 9.316888
21.965577 44.039492 3.246116
13.597702 32.857023 17.564533
17.619077 37.170671 14.016066
14.444015 43.143504 3.011316
18.262719 41.199688 9.027347
18.069133 43.639859 3.123619
20.162753 42.811378 6.289405
1.156404 16.277582 23.310175
3.682405 19.948938 22.637397
0.000000 17.763088 22.616183
9.881610 28.366605 20.027739
6.569566 23.992085 21.620663
-2.378547 20.682638 20.929059
2.479111 21.557090 21.813929
-1.183302 19.241742 21.818533
1.206736 19.622811 22.250633
1.659576 40.109684 2.685250
4.986566 39.507918 8.068433
4.566778 41.025814 2.759858
0.000000 38.929751 5.244999
10.620370 32.965272 17.184120
8.051989 36.975598 13.028393
12.439418 35.165107 15.603123
10.879909 42.522831 2.928290
8.013559 40.163409 8.287560
7.654670 41.832407 2.838788
12.878622 42.102101 5.888732
6.322049 40.857973 5.558954
-3.009975 35.478647 9.806057
3.193485 37.641679 10.403904
-1.574396 37.359191 7.647304
1.623368 38.521254 7.885174
16.234304 39.283832 11.570963
9.660979 38.902791 10.978285
14.328768 37.292559 13.722797
14.690845 41.000338 8.815521
11.120445 37.221892 13.392876
11.257671 40.650334 8.569423
-7.385399 26.168061 16.172751
-2.576002 27.842827 17.207814
-6.128384 24.898927 17.536743
-6.514422 28.543001 14.928590
8.547433 30.285399 18.717406
2.706414 29.252395 18.078974
6.900339 28.035293 19.745739
7.417776 32.501056 16.998736
-3.636368 22.170188 19.888488
-1.312402 26.377733 18.535128
-4.870204 23.550854 18.779152
-1.242536 22.711080 20.389761
-3.763877 25.671415 18.052857
-4.364632 33.236908 11.812275
-1.417393 30.365078 15.931864
-5.504990 30.937461 13.475961
-1.508410 34.389287 12.203290
-4.016163 29.490012 15.456290
3.884967 23.685845 21.248158
1.345031 27.033534 18.995946
5.337781 25.811917 20.582094
1.270419 23.220731 20.847320
4.044062 27.582403 19.396717
0.000000 24.843394 19.749770
4.759427 36.243292 12.880733
1.456447 31.201741 16.370842
6.143677 34.526817 15.039438
1.553055 35.407130 12.564479
4.344958 31.904302 16.721667
0.000000 32.927421 14.412138
0.000000 -12.650022 24.040895
0.000000 -8.931032 24.775115
0.000000 -1.765931 25.479669
0.000000 -5.317818 25.247840
0.000000 12.650022 24.040895
0.000000 8.931032 24.775115
0.000000 1.765931 25.479669
0.000000 5.317818 25.247840
-26.082445 -44.295914 -3.387566
-21.877137 -41.156105 -9.316888
-21.965577 -44.039492 -3.246116
-13.597702 -32.857023 -17.564533
-17.619077 -37.170671 -14.016066
-14.444015 -43.143504 -3.011316
-18.262719 -41.199688 -9.027347
-18.069133 -43.639859 -3.123619
-20.162753 -42.811378 -6.289405
-1.156404 -16.277582 -23.310175
-3.682405 -19.948938 -22.637397
-9.881610 -28.366605 -20.027739
-6.569566 -23.992085 -21.620663
-1.659576 -40.109684 -2.685250
-4.986566 -39.507918 -8.068433
-4.566778 -41.025814 -2.759858
-10.620370 -32.965272 -17.184120
-8.051989 -36.975598 -13.028393
-12.439418 -35.165107 -15.603123
-10.879909 -42.522831 -2.928290
-8.013559 -40.163409 -8.287560
-7.654670 -41.832407 -2.838788
-12.878622 -42.102101 -5.888732
-6.322049 -40.857973 -5.558954
-16.234304 -39.283832 -11.570963
-9.660979 -38.902791 -10.978285
-14.328768 -37.292559 -13.722797
-14.690845 -41.000338 -8.815521
-11.120445 -37.221892 -13.392876
-11.257671 -40.650334 -8.569423
17.109308 -29.056802 -2.222142
15.433386 -29.033875 -6.572667
15.254702 -30.584644 -2.254370
10.898100 -26.333795 -14.077381
13.305585 -28.070569 -10.584660
11.239455 -33.571656 -2.343224
13.527648 -30.517629 -6.686779
13.291558 -32.101246 -2.297717
14.449803 -30.681126 -4.507354
1.137003 -16.004484 -22.919087
3.473375 -18.816542 -21.352391
0.000000 -17.763088 -22.616183
8.387242 -24.076802 -16.999000
5.894228 -21.525748 -19.398102
-2.479111 -21.557090 -21.813929
2.378547 -20.682638 -20.929059
-1.206736 -19.622811 -22.250633
1.183302 -19.241742 -21.818533
1.608047 -38.864303 -2.601875
4.551421 -36.060323 -7.364354
4.195811 -37.693223 -2.535671
0.000000 -38.929751 -5.244999
8.877484 -27.555412 -14.364071
6.987806 -32.088753 -11.306507
10.109830 -28.579570 -12.681052
8.969006 -35.054292 -2.413977
6.945679 -34.811267 -7.183167
6.662486 -36.410171 -2.470829
10.297206 -33.663073 -4.708383
5.634361 -36.413600 -4.954273
-3.193485 -37.641679 -10.403904
3.009975 -35.478647 -9.806057
-1.623368 -38.521254 -7.885174
1.574396 -37.359191 -7.647304
12.436418 -30.093692 -8.864028
8.162480 -32.868643 -9.275462
11.312067 -29.441185 -10.833674
11.460040 -31.983560 -6.876815
9.199030 -30.790611 -11.078825
9.257442 -33.427706 -7.046834
-8.547433 -30.285399 -18.717406
-2.706414 -29.252395 -18.078974
-6.900339 -28.035293 -19.745739
-7.417776 -32.501056 -16.998736
7.385399 -26.168061 -16.172751
2.576002 -27.842827 -17.207814
6.128384 -24.898927 -17.536743
6.514422 -28.543001 -14.928590
-3.884967 -23.685845 -21.248158
-1.345031 -27.033534 -18.995946
-5.337781 -25.811917 -20.582094
-1.270419 -23.220731 -20.847320
-4.044062 -27.582403 -19.396717
-4.759427 -36.243292 -12.880733
-1.456447 -31.201741 -16.370842
-6.143677 -34.526817 -15.039438
-1.553055 -35.407130 -12.564479
-4.344958 -31.904302 -16.721667
3.636368 -22.170188 -19.888488
1.312402 -26.377733 -18.535128
4.870204 -23.550854 -18.779152
1.242536 -22.711080 -20.389761
3.763877 -25.671415 -18.052857
0.000000 -24.843394 -19.749770
4.364632 -33.236908 -11.812275
1.417393 -30.365078 -15.931864
5.504990 -30.937461 -13.475961
1.508410 -34.389287 -12.203290
4.016163 -29.490012 -15.456290
0.000000 -32.927421 -14.412138
-17.109308 29.056802 -2.222142
-15.433386 29.033875 -6.572667
-15.254702 30.584644 -2.254370
-10.898100 26.333795 -14.077381
-13.305585 28.070569 -10.584660
-11.239455 33.571656 -2.343224
-13.527648 30.517629 -6.686779
-13.291558 32.101246 -2.297717
-14.449803 30.681126 -4.507354
-1.137003 16.004484 -22.919087
-3.473375 18.816542 -21.352391
-8.387242 24.076802 -16.999000
-5.894228 21.525748 -19.398102
-1.608047 38.864303 -2.601875
-4.551421 36.060323 -7.364354
-4.195811 37.693223 -2.535671
-8.877484 27.555412 -14.364071
-6.987806 32.088753 -11.306507
-10.109830 28.579570 -12.681052
-8.969006 35.054292 -2.413977
-6.945679 34.811267 -7.183167
-6.662486 36.410171 -2.470829
-10.297206 33.663073 -4.708383
-5.634361 36.413600 -4.954273
-12.436418 30.093692 -8.864028
-8.162480 32.868643 -9.275462
-11.312067 29.441185 -10.833674
-11.460040 31.983560 -6.876815
-9.199030 30.790611 -11.078825
-9.257442 33.427706 -7.046834
26.082445 44.295914 -3.387566
21.877137 41.156105 -9.316888
21.965577 44.039492 -3.246116
13.597702 32.857023 -17.564533
17.619077 37.170671 -14.016066
14.444015 43.143504 -3.011316
18.262719 41.199688 -9.027347
18.069133 43.639859 -3.123619
20.162753 42.811378 -6.289405
1.156404 16.277582 -23.310175
3.682405 19.948938 -22.637397
0.000000 17.763088 -22.616183
9.881610 28.366605 -20.027739
6.569566 23.992085 -21.620663
-2.378547 20.682638 -20.929059
2.479111 21.557090 -21.813929
-1.183302 19.241742 -21.818533
1.206736 19.622811 -22.250633
1.659576 40.109684 -2.685250
4.986566 39.507918 -8.068433
4.566778 41.025814 -2.759858
0.000000 38.929751 -5.244999
10.620370 32.965272 -17.184120
8.051989 36.975598 -13.028393
12.439418 35.165107 -15.603123
10.879909 42.522831 -2.928290
8.013559 40.163409 -8.287560
7.654670 41.832407 -2.838788
12.878622 42.102101 -5.888732
6.322049 40.857973 -5.558954
-3.009975 35.478647 -9.806057
3.193485 37.641679 -10.403904
-1.574396 37.359191 -7.647304
1.623368 38.521254 -7.885174
16.234304 39.283832 -11.570963
9.660979 38.902791 -10.978285
14.328768 37.292559 -13.722797
14.690845 41.000338 -8.815521
11.120445 37.221892 -13.392876
11.257671 40.650334 -8.569423
-7.385399 26.168061 -16.172751
-2.576002 27.842827 -17.207814
-6.128384 24.898927 -17.536743
-6.514422 28.543001 -14.928590
8.547433 30.285399 -18.717406
2.706414 29.252395 -18.078974
6.900339 28.035293 -19.745739
7.417776 32.501056 -16.998736
-3.636368 22.170188 -19.888488
-1.312402 26.377733 -18.535128
-4.870204 23.550854 -18.779152
-1.242536 22.711080 -20.389761
-3.763877 25.671415 -18.052857
-4.364632 33.236908 -11.812275
-1.417393 30.365078 -15.931864
-5.504990 30.937461 -13.475961
-1.508410 34.389287 -12.203290
-4.016163 29.490012 -15.456290
3.884967 23.685845 -21.248158
1.345031 27.033534 -18.995946
5.337781 25.811917 -20.582094
1.270419 23.220731 -20.847320
4.044062 27.582403 -19.396717
0.000000 24.843394 -19.749770
4.759427 36.243292 -12.880733
1.456447 31.201741 -16.370842
6.143677 34.526817 -15.039438
1.553055 35.407130 -12.564479
4.344958 31.904302 -16.721667
0.000000 32.927421 -14.412138
0.000000 -12.650022 -24.040895
0.000000 -8.931032 -24.775115
0.000000 -1.765931 -25.479669
0.000000 -5.317818 -25.247840
0.000000 12.650022 -24.040895
0.000000 8.931032 -24.775115
0.000000 1.765931 -25.479669
0.000000 5.317818 -25.247840
31.217537 44.704812 -2.217780
36.679726 41.622944 -6.770767
28.982734 43.438452 -5.592891
40.640082 28.693210 -14.157121
39.530663 35.623378 -10.824374
24.013062 39.545972 -11.298058
33.447865 39.520244 -9.879294
26.482457 41.580972 -8.634968
31.473996 41.805355 -7.799174
31.149393 2.382175 -18.341474
34.608726 7.834697 -18.396781
40.186960 21.482932 -16.631157
37.938990 14.305778 -17.983264
14.997261 30.799167 -19.034932
22.060806 30.623398 -18.926301
17.090958 33.023085 -17.565416
37.204798 27.030194 -16.705579
29.628293 29.509309 -18.237756
36.825412 30.357722 -15.296222
21.556712 37.352166 -13.751785
24.600588 32.795587 -17.192413
19.287718 35.221639 -15.794619
25.820714 37.426018 -13.278164
20.776807 33.011754 -17.445851
34.983470 36.631028 -11.910584
28.705828 32.315066 -16.763619
36.078689 33.591549 -13.678765
30.344585 37.224313 -12.674726
32.765085 31.538488 -16.152580
27.388810 34.973845 -15.115966
19.135466 -27.402784 -1.359436
21.626923 -24.541519 -3.992147
18.429173 -27.621092 -3.556337
25.466118 -17.979902 -8.871215
23.727988 -21.382669 -6.497250
16.601435 -27.340115 -7.810914
20.741269 -24.506797 -6.126224
17.575917 -27.596522 -5.730868
19.644326 -26.092589 -4.867813
29.364288 -2.245658 -17.290363
28.820314 -6.524321 -15.319865
26.875328 -14.366871 -11.122210
27.987336 -10.553276 -13.266132
11.830854 -24.296465 -15.016041
16.030295 -22.252229 -13.752634
13.085674 -25.284091 -13.448943
24.155460 -17.549532 -10.846207
20.100987 -20.020264 -12.373203
23.451057 -19.332321 -9.740898
15.482035 -26.826333 -9.876535
17.298261 -23.060694 -12.089095
14.316792 -26.144144 -11.723951
17.629479 -25.553174 -9.065865
15.223874 -24.188837 -12.783169
21.764877 -22.789902 -7.410139
19.407632 -21.847790 -11.333662
22.652468 -21.090886 -8.588388
19.728698 -24.201591 -8.240543
21.426232 -20.624118 -10.562736
18.564941 -23.706300 -10.246046
1.790863 -13.788691 -23.417385
5.221692 -12.261141 -23.066126
2.929864 -15.182750 -22.755449
1.761661 -11.920677 -23.900150
11.844598 -9.169576 -22.157050
8.539581 -10.734791 -22.647008
5.288710 -17.905740 -21.156484
6.388437 -13.578081 -22.361097
4.103960 -16.561756 -21.998163
4.686425 -14.372729 -22.567092
1.721373 -8.256699 -24.662322
5.164315 -10.447636 -23.569291
1.740447 -10.067930 -24.315667
3.487944 -11.181750 -23.742101
27.106990 -1.344762 -18.928912
22.734763 -3.698244 -20.034741
27.023493 -3.479393 -18.030447
15.237044 -7.517900 -21.581229
18.825587 -5.720266 -20.890437
26.609950 -7.602310 -16.158065
22.722552 -5.680197 -19.231178
26.851940 -5.576244 -17.101701
24.802655 -4.627164 -18.673174
10.321299 -22.986444 -16.700213
11.454570 -18.608614 -18.533884
9.055940 -21.802032 -17.972916
12.445507 -22.081074 -16.125966
13.169469 -10.375975 -21.308649
12.381814 -14.432444 -20.034195
11.489927 -11.179573 -21.601129
6.560652 -19.269784 -20.177301
10.179037 -17.430465 -19.622030
7.792086 -20.552167 -19.135371
7.117518 -17.040062 -20.903386
9.651221 -19.577249 -18.844354
16.591180 -20.110950 -14.909988
13.500765 -17.753096 -18.013160
14.544099 -21.116496 -15.526140
13.001682 -19.884431 -17.123914
8.143786 -12.765852 -22.119897
10.669162 -15.266482 -20.352085
9.808591 -11.977836 -21.872935
7.645192 -14.866839 -21.548845
11.097423 -13.216267 -20.998999
8.917589 -16.157892 -20.632645
1.703809 -1.053012 -25.449858
5.102490 -3.153512 -24.984871
1.704922 -2.821159 -25.343988
11.843983 -7.319984 -22.720984
8.481272 -5.241714 -24.070514
10.185659 -8.120405 -22.955647
1.718612 -6.385415 -24.956636
5.102295 -4.933604 -24.726886
1.708668 -4.607350 -25.178949
3.432517 -7.506895 -24.541138
3.413762 -3.882380 -25.090941
6.885731 -9.660825 -23.377302
6.839150 -6.018507 -24.235298
8.527796 -8.904367 -23.174819
5.162580 -8.603310 -24.010777
8.509951 -7.066029 -23.651118
5.143409 -6.756908 -24.398525
24.886978 -15.380998 -12.118396
21.846012 -13.501578 -15.737660
25.417763 -13.520045 -13.154855
22.814920 -16.661899 -12.859123
15.203170 -9.396076 -20.925889
18.557104 -11.468921 -18.631927
16.957470 -8.544291 -20.570246
14.817235 -11.435471 -20.289046
26.266813 -9.670539 -15.159124
22.167663 -11.620942 -16.628382
25.880923 -11.605914 -14.172650
24.463705 -8.679339 -16.877840
23.825543 -12.591178 -14.995226
18.722013 -18.996271 -14.237602
19.781657 -14.665855 -16.319519
20.751340 -17.870472 -13.568521
17.169427 -17.922526 -15.950888
21.332144 -15.684697 -14.692627
20.667056 -6.719896 -19.737511
20.409894 -10.587746 -18.130333
18.783991 -7.649001 -20.174769
22.577645 -7.687596 -18.404887
18.692065 -9.573226 -19.419037
22.390080 -9.677165 -17.534179
13.982222 -15.558802 -18.859557
18.101965 -13.567324 -17.840619
14.409888 -13.498451 -19.598325
15.571423 -16.760973 -17.496156
16.474066 -12.508272 -19.129822
17.672749 -15.728589 -16.930146
1.834789 14.126891 -23.991752
5.581932 13.107025 -24.657435
3.058488 15.849287 -23.754435
1.799624 12.177561 -24.415183
13.359708 10.342508 -24.991283
9.433975 11.859101 -25.018946
5.776967 19.558809 -23.109663
6.985582 14.847262 -24.451250
4.377579 17.665962 -23.464825
5.012856 15.373856 -24.138994
1.747759 8.383264 -25.040364
5.470707 11.067480 -24.967625
1.772620 10.254037 -24.765147
3.632873 11.646367 -24.728619
28.016421 1.389878 -19.563971
24.719330 4.021071 -21.783616
29.529312 3.802028 -19.702364
25.647913 0.000000 -20.144254
17.285659 8.528679 -24.482817
21.108336 6.413893 -23.423565
32.659068 9.330508 -19.831204
25.937983 6.483992 -21.952550
31.095401 6.457467 -19.804314
27.778222 5.182283 -20.913389
21.331660 -2.424302 -21.080499
22.453328 2.551778 -22.188960
23.412583 -1.269753 -20.647534
24.081544 1.306034 -21.237490
12.629361 28.126700 -20.434735
14.079265 22.872583 -22.780729
10.758806 25.901655 -21.352517
15.872249 28.160870 -20.566085
15.315341 12.066667 -24.780743
14.962112 17.440082 -24.209205
13.225934 12.868689 -24.864832
7.363968 21.629264 -22.647902
12.125360 20.763326 -23.373938
8.991416 23.715481 -22.080618
8.005008 19.164803 -23.509849
11.509592 23.346904 -22.472888
22.795348 27.631315 -20.485486
17.156352 22.560081 -22.890563
19.288475 28.004829 -20.590864
16.599795 25.387290 -21.862822
9.090370 14.249677 -24.690978
12.626570 18.067333 -24.085961
11.134711 13.597237 -24.830152
8.582803 16.690116 -24.191608
12.983926 15.462962 -24.568718
10.304566 18.670974 -23.841698
1.707225 1.055123 -25.500889
5.194896 3.210622 -25.437345
1.714080 2.836314 -25.480133
3.424321 0.000000 -25.416202
13.041056 8.059816 -25.017398
8.911643 5.507698 -25.291939
11.165185 8.901321 -25.163228
1.739314 6.462331 -25.257252
5.247298 5.073813 -25.429602
1.723600 4.647615 -25.398994
3.530330 7.720809 -25.240457
3.464523 3.940109 -25.464033
6.879324 -2.111613 -24.889629
6.991027 2.145900 -25.293773
5.160546 -1.062432 -25.210693
5.192053 1.068919 -25.364611
7.402919 10.386451 -25.133174
7.159601 6.300507 -25.370854
9.272506 9.681961 -25.198615
5.418577 9.029924 -25.201403
9.098143 7.554419 -25.285838
5.344722 7.021374 -25.353485
37.111381 22.936095 -18.070914
30.001797 18.542130 -21.613011
36.531326 19.431496 -18.906633
33.780730 24.670309 -19.039759
17.805441 11.004368 -24.507698
23.435201 14.483751 -23.529693
19.882821 10.018276 -24.118841
17.855051 13.779960 -24.448687
34.203633 12.592603 -19.739628
29.283294 15.351165 -21.965951
35.521246 15.928973 -19.451786
30.550717 10.838915 -21.077352
32.837062 17.353530 -20.666860
26.570738 26.959971 -20.206352
26.980394 20.002902 -22.258350
30.195598 26.003601 -19.743767
23.412732 24.439680 -21.751096
30.328328 22.299243 -20.888797
23.939650 7.783980 -22.862914
25.825268 13.397001 -22.940869
21.944506 8.935990 -23.569291
27.103674 9.228690 -22.094424
22.736276 11.644487 -23.620536
28.246220 12.208234 -22.120255
17.561759 19.541954 -23.687723
23.626751 17.708121 -23.285640
17.782189 16.657451 -24.184860
20.374264 21.930719 -22.892661
20.640809 15.671957 -23.968279
23.690373 21.084220 -22.694912
13.854207 -6.326620 -22.416577
14.447740 -2.162820 -23.376935
15.590743 -5.448336 -22.135968
12.133578 -5.294756 -23.199025
15.258204 6.967765 -24.688293
14.933966 2.235608 -24.163665
17.096043 5.974377 -24.273214
13.024923 5.683714 -24.903249
19.273538 -3.523932 -21.484688
16.258207 -1.151182 -23.137399
17.402882 -4.513281 -21.824880
19.783033 -1.205562 -22.035278
15.933515 -3.322012 -22.657682
8.681970 -3.207985 -24.428981
12.613888 -1.122206 -24.041235
10.399160 -4.248103 -23.873892
8.784462 -1.085819 -24.754911
12.391992 -3.219935 -23.643447
20.670210 3.779296 -23.041593
16.573997 1.173542 -23.586807
18.915370 4.905531 -23.721685
20.255374 1.234346 -22.561393
16.852936 3.513704 -23.965111
18.185229 0.000000 -22.875347
8.953855 3.308447 -25.194002
12.805184 1.139225 -24.405833
10.919570 4.460693 -25.068622
8.876477 1.097193 -25.014214
12.941334 3.362677 -24.691571
10.764763 0.000000 -24.594261
31.217537 44.704812 2.217780
36.679726 41.622944 6.770767
28.982734 43.438452 5.592891
35.158625 44.764396 0.000000
40.640082 28.693210 14.157121
39.530663 35.623378 10.824374
24.013062 39.545972 11.298058
33.447865 39.520244 9.879294
26.482457 41.580972 8.634968
31.473996 41.805355 7.799174
41.121106 41.611039 -4.729015
41.121106 41.611039 4.729015
38.622426 43.794613 -2.375148
38.622426 43.794613 2.375148
31.149393 2.382175 18.341474
34.608726 7.834697 18.396781
40.186960 21.482932 16.631157
37.938990 14.305778 17.983264
14.997261 30.799167 19.034932
22.060806 30.623398 18.926301
17.090958 33.023085 17.565416
37.204798 27.030194 16.705579
29.628293 29.509309 18.237756
36.825412 30.357722 15.296222
21.556712 37.352166 13.751785
24.600588 32.795587 17.192413
19.287718 35.221639 15.794619
25.820714 37.426018 13.278164
20.776807 33.011754 17.445851
34.983470 36.631028 11.910584
28.705828 32.315066 16.763619
36.078689 33.591549 13.678765
30.344585 37.224313 12.674726
32.765085 31.538488 16.152580
27.388810 34.973845 15.115966
44.014914 27.202713 -12.422307
49.390124 30.524775 -4.569545
43.969238 30.968291 -10.822168
44.014914 27.202713 12.422307
49.390124 30.524775 4.569545
43.969238 30.968291 10.822168
42.737865 38.339391 -7.009891
48.951033 34.396953 -2.435518
43.566778 34.739595 -9.009401
45.038227 40.434832 -2.464066
46.984151 33.040568 -6.888697
42.737865 38.339391 7.009891
48.951033 34.396953 2.435518
43.566778 34.739595 9.009401
45.038227 40.434832 2.464066
46.984151 33.040568 6.888697
47.675233 37.900411 0.000000
19.135466 -27.402784 1.359436
21.626923 -24.541519 3.992147
18.429173 -27.621092 3.556337
20.559487 -26.176593 0.000000
25.466118 -17.979902 8.871215
23.727988 -21.382669 6.497250
16.601435 -27.340115 7.810914
20.741269 -24.506797 6.126224
17.575917 -27.596522 5.730868
19.644326 -26.092589 4.867813
23.150103 -23.425922 -2.662311
23.150103 -23.425922 2.662311
21.906296 -24.839914 -1.347163
21.906296 -24.839914 1.347163
29.364288 -2.245658 17.290363
28.820314 -6.524321 15.319865
26.875328 -14.366871 11.122210
27.987336 -10.553276 13.266132
11.830854 -24.296465 15.016041
16.030295 -22.252229 13.752634
13.085674 -25.284091 13.448943
24.155460 -17.549532 10.846207
20.100987 -20.020264 12.373203
23.451057 -19.332321 9.740898
15.482035 -26.826333 9.876535
17.298261 -23.060694 12.089095
14.316792 -26.144144 11.723951
17.629479 -25.553174 9.065865
15.223874 -24.188837 12.783169
21.764877 -22.789902 7.410139
19.407632 -21.847790 11.333662
22.652468 -21.090886 8.588388
19.728698 -24.201591 8.240543
21.426232 -20.624118 10.562736
18.564941 -23.706300 10.246046
27.325293 -16.887960 -7.712004
28.707045 -17.741929 -2.655959
26.423085 -18.610234 -6.503526
27.325293 -16.887960 7.712004
28.707045 -17.741929 2.655959
26.423085 -18.610234 6.503526
24.363455 -21.856029 -3.996109
27.450462 -19.288914 -1.365775
25.430032 -20.277584 -5.258809
24.663392 -22.142526 -1.349348
27.100652 -19.057936 -3.973429
24.363455 -21.856029 3.996109
27.450462 -19.288914 1.365775
25.430032 -20.277584 5.258809
24.663392 -22.142526 1.349348
27.100652 -19.057936 3.973429
26.108059 -20.755141 0.000000
1.790863 -13.788691 23.417385
5.221692 -12.261141 23.066126
2.929864 -15.182750 22.755449
1.761661 -11.920677 23.900150
11.844598 -9.169576 22.157050
8.539581 -10.734791 22.647008
5.288710 -17.905740 21.156484
6.388437 -13.578081 22.361097
4.103960 -16.561756 21.998163
4.686425 -14.372729 22.567092
1.721373 -8.256699 24.662322
5.164315 -10.447636 23.569291
1.740447 -10.067930 24.315667
3.487944 -11.181750 23.742101
27.106990 -1.344762 18.928912
22.734763 -3.698244 20.034741
27.023493 -3.479393 18.030447
15.237044 -7.517900 21.581229
18.825587 -5.720266 20.890437
26.609950 -7.602310 16.158065
22.722552 -5.680197 19.231178
26.851940 -5.576244 17.101701
24.802655 -4.627164 18.673174
10.321299 -22.986444 16.700213
11.454570 -18.608614 18.533884
9.055940 -21.802032 17.972916
12.445507 -22.081074 16.125966
13.169469 -10.375975 21.308649
12.381814 -14.432444 20.034195
11.489927 -11.179573 21.601129
6.560652 -19.269784 20.177301
10.179037 -17.430465 19.622030
7.792086 -20.552167 19.135371
7.117518 -17.040062 20.903386
9.651221 -19.577249 18.844354
16.591180 -20.110950 14.909988
13.500765 -17.753096 18.013160
14.544099 -21.116496 15.526140
13.001682 -19.884431 17.123914
8.143786 -12.765852 22.119897
10.669162 -15.266482 20.352085
9.808591 -11.977836 21.872935
7.645192 -14.866839 21.548845
11.097423 -13.216267 20.998999
8.917589 -16.157892 20.632645
1.703809 -1.053012 25.449858
5.102490 -3.153512 24.984871
1.704922 -2.821159 25.343988
11.843983 -7.319984 22.720984
8.481272 -5.241714 24.070514
10.185659 -8.120405 22.955647
1.718612 -6.385415 24.956636
5.102295 -4.933604 24.726886
1.708668 -4.607350 25.178949
3.432517 -7.506895 24.541138
3.413762 -3.882380 25.090941
6.885731 -9.660825 23.377302
6.839150 -6.018507 24.235298
8.527796 -8.904367 23.174819
5.162580 -8.603310 24.010777
8.509951 -7.066029 23.651118
5.143409 -6.756908 24.398525
24.886978 -15.380998 12.118396
21.846012 -13.501578 15.737660
25.417763 -13.520045 13.154855
22.814920 -16.661899 12.859123
15.203170 -9.396076 20.925889
18.557104 -11.468921 18.631927
16.957470 -8.544291 20.570246
14.817235 -11.435471 20.289046
26.266813 -9.670539 15.159124
22.167663 -11.620942 16.628382
25.880923 -11.605914 14.172650
24.463705 -8.679339 16.877840
23.825543 -12.591178 14.995226
18.722013 -18.996271 14.237602
19.781657 -14.665855 16.319519
20.751340 -17.870472 13.568521
17.169427 -17.922526 15.950888
21.332144 -15.684697 14.692627
20.667056 -6.719896 19.737511
20.409894 -10.587746 18.130333
18.783991 -7.649001 20.174769
22.577645 -7.687596 18.404887
18.692065 -9.573226 19.419037
22.390080 -9.677165 17.534179
13.982222 -15.558802 18.859557
18.101965 -13.567324 17.840619
14.409888 -13.498451 19.598325
15.571423 -16.760973 17.496156
16.474066 -12.508272 19.129822
17.672749 -15.728589 16.930146
1.834789 14.126891 23.991752
5.581932 13.107025 24.657435
3.058488 15.849287 23.754435
1.799624 12.177561 24.415183
13.359708 10.342508 24.991283
9.433975 11.859101 25.018946
5.776967 19.558809 23.109663
6.985582 14.847262 24.451250
4.377579 17.665962 23.464825
5.012856 15.373856 24.138994
1.747759 8.383264 25.040364
5.470707 11.067480 24.967625
1.772620 10.254037 24.765147
3.632873 11.646367 24.728619
28.016421 1.389878 19.563971
24.719330 4.021071 21.783616
29.529312 3.802028 19.702364
25.647913 0.000000 20.144254
17.285659 8.528679 24.482817
21.108336 6.413893 23.423565
32.659068 9.330508 19.831204
25.937983 6.483992 21.952550
31.095401 6.457467 19.804314
27.778222 5.182283 20.913389
21.331660 -2.424302 21.080499
22.453328 2.551778 22.188960
23.412583 -1.269753 20.647534
24.081544 1.306034 21.237490
12.629361 28.126700 20.434735
14.079265 22.872583 22.780729
10.758806 25.901655 21.352517
15.872249 28.160870 20.566085
15.315341 12.066667 24.780743
14.962112 17.440082 24.209205
13.225934 12.868689 24.864832
7.363968 21.629264 22.647902
12.125360 20.763326 23.373938
8.991416 23.715481 22.080618
8.005008 19.164803 23.509849
11.509592 23.346904 22.472888
22.795348 27.631315 20.485486
17.156352 22.560081 22.890563
19.288475 28.004829 20.590864
16.599795 25.387290 21.862822
9.090370 14.249677 24.690978
12.626570 18.067333 24.085961
11.134711 13.597237 24.830152
8.582803 16.690116 24.191608
12.983926 15.462962 24.568718
10.304566 18.670974 23.841698
1.707225 1.055123 25.500889
5.194896 3.210622 25.437345
1.714080 2.836314 25.480133
3.424321 0.000000 25.416202
13.041056 8.059816 25.017398
8.911643 5.507698 25.291939
11.165185 8.901321 25.163228
1.739314 6.462331 25.257252
5.247298 5.073813 25.429602
1.723600 4.647615 25.398994
3.530330 7.720809 25.240457
3.464523 3.940109 25.464033
6.879324 -2.111613 24.889629
6.991027 2.145900 25.293773
5.160546 -1.062432 25.210693
5.192053 1.068919 25.364611
7.402919 10.386451 25.133174
7.159601 6.300507 25.370854
9.272506 9.681961 25.198615
5.418577 9.029924 25.201403
9.098143 7.554419 25.285838
5.344722 7.021374 25.353485
37.111381 22.936095 18.070914
30.001797 18.542130 21.613011
36.531326 19.431496 18.906633
33.780730 24.670309 19.039759
17.805441 11.004368 24.507698
23.435201 14.483751 23.529693
19.882821 10.018276 24.118841
17.855051 13.779960 24.448687
34.203633 12.592603 19.739628
29.283294 15.351165 21.965951
35.521246 15.928973 19.451786
30.550717 10.838915 21.077352
32.837062 17.353530 20.666860
26.570738 26.959971 20.206352
26.980394 20.002902 22.258350
30.195598 26.003601 19.743767
23.412732 24.439680 21.751096
30.328328 22.299243 20.888797
23.939650 7.783980 22.862914
25.825268 13.397001 22.940869
21.944506 8.935990 23.569291
27.103674 9.228690 22.094424
22.736276 11.644487 23.620536
28.246220 12.208234 22.120255
17.561759 19.541954 23.687723
23.626751 17.708121 23.285640
17.782189 16.657451 24.184860
20.374264 21.930719 22.892661
20.640809 15.671957 23.968279
23.690373 21.084220 22.694912
13.854207 -6.326620 22.416577
14.447740 -2.162820 23.376935
15.590743 -5.448336 22.135968
12.133578 -5.294756 23.199025
15.258204 6.967765 24.688293
14.933966 2.235608 24.163665
17.096043 5.974377 24.273214
13.024923 5.683714 24.903249
19.273538 -3.523932 21.484688
16.258207 -1.151182 23.137399
17.402882 -4.513281 21.824880
19.783033 -1.205562 22.035278
15.933515 -3.322012 22.657682
8.681970 -3.207985 24.428981
12.613888 -1.122206 24.041235
10.399160 -4.248103 23.873892
8.784462 -1.085819 24.754911
12.391992 -3.219935 23.643447
20.670210 3.779296 23.041593
16.573997 1.173542 23.586807
18.915370 4.905531 23.721685
20.255374 1.234346 22.561393
16.852936 3.513704 23.965111
18.185229 0.000000 22.875347
8.953855 3.308447 25.194002
12.805184 1.139225 24.405833
10.919570 4.460693 25.068622
8.876477 1.097193 25.014214
12.941334 3.362677 24.691571
10.764763 0.000000 24.594261
31.947937 0.000000 -16.810609
36.740626 0.000000 -13.244407
33.760083 2.488429 -16.838516
31.656840 -2.333401 -15.789482
43.345713 0.000000 -3.004181
40.865097 0.000000 -8.607197
37.613508 8.241572 -16.673062
38.895826 2.714838 -13.021935
35.676297 5.241193 -16.802364
36.385400 2.604365 -15.065416
30.829585 -6.755133 -13.665930
36.081292 -2.518390 -12.079657
31.281457 -4.595548 -14.732539
33.930297 -2.428635 -14.048878
31.947937 0.000000 16.810609
36.740626 0.000000 13.244407
33.760083 2.488429 16.838516
31.656840 -2.333401 15.789482
43.345713 0.000000 3.004181
40.865097 0.000000 8.607197
37.613508 8.241572 16.673062
38.895826 2.714838 13.021935
35.676297 5.241193 16.802364
36.385400 2.604365 15.065416
30.829585 -6.755133 13.665930
36.081292 -2.518390 12.079657
31.281457 -4.595548 14.732539
33.930297 -2.428635 14.048878
43.558283 22.706039 -14.033104
47.241894 16.645734 -10.287629
42.667156 18.931860 -15.093217
46.744518 24.448366 -10.668587
45.501632 3.046228 -1.882673
47.740387 9.749694 -6.025642
44.707104 3.007503 -4.976559
39.603467 11.665111 -16.366395
45.571454 12.860168 -11.317051
41.302061 15.198201 -15.869323
40.664191 8.743246 -14.570400
44.488559 16.007509 -13.291441
50.827965 26.668274 -2.372568
49.610701 17.631461 -6.514819
49.329871 25.854747 -6.718098
48.636193 21.185301 -8.654289
41.309622 2.844743 -10.569497
45.936267 9.478767 -9.165382
43.254737 2.935308 -7.914934
41.225767 5.766161 -12.610560
45.612935 6.205894 -7.057796
43.521816 9.174755 -12.052897
28.297680 -14.751000 -9.116619
32.608996 -11.489816 -7.101097
29.033411 -12.882426 -10.270373
29.361223 -15.356538 -6.701166
41.595570 -2.784727 -1.721056
37.101501 -7.576987 -4.682835
40.938751 -2.754001 -4.557086
30.296978 -8.923906 -12.520427
33.571113 -9.473697 -8.336929
29.701869 -10.929600 -11.412228
32.751557 -7.041943 -11.735222
31.272763 -11.252309 -9.343078
30.519640 -16.012959 -1.424608
33.510183 -11.909396 -4.400518
30.124233 -15.788698 -4.102536
31.437392 -13.693724 -5.593947
38.105012 -2.624061 -9.749564
36.026680 -7.433963 -7.188183
39.734706 -2.696436 -7.270824
35.368256 -4.946884 -10.818804
38.462797 -5.233077 -5.951438
34.522134 -7.277548 -9.560532
43.558283 22.706039 14.033104
47.241894 16.645734 10.287629
42.667156 18.931860 15.093217
46.744518 24.448366 10.668587
45.501632 3.046228 1.882673
47.740387 9.749694 6.025642
44.707104 3.007503 4.976559
47.479340 6.396884 0.000000
39.603467 11.665111 16.366395
45.571454 12.860168 11.317051
41.302061 15.198201 15.869323
40.664191 8.743246 14.570400
44.488559 16.007509 13.291441
50.827965 26.668274 2.372568
49.610701 17.631461 6.514819
49.329871 25.854747 6.718098
51.327423 22.465710 0.000000
48.636193 21.185301 8.654289
41.309622 2.844743 10.569497
45.936267 9.478767 9.165382
43.254737 2.935308 7.914934
41.225767 5.766161 12.610560
45.612935 6.205894 7.057796
43.521816 9.174755 12.052897
49.696380 13.735742 -4.216195
49.696380 13.735742 4.216195
48.945700 10.019024 -2.062676
50.933645 18.074177 -2.234091
48.945700 10.019024 2.062676
50.933645 18.074177 2.234091
28.297680 -14.751000 9.116619
32.608996 -11.489816 7.101097
29.033411 -12.882426 10.270373
29.361223 -15.356538 6.701166
41.595570 -2.784727 1.721056
37.101501 -7.576987 4.682835
40.938751 -2.754001 4.557086
39.748806 -5.355351 0.000000
30.296978 -8.923906 12.520427
33.571113 -9.473697 8.336929
29.701869 -10.929600 11.412228
32.751557 -7.041943 11.735222
31.272763 -11.252309 9.343078
30.519640 -16.012959 1.424608
33.510183 -11.909396 4.400518
30.124233 -15.788698 4.102536
32.306354 -14.140301 0.000000
31.437392 -13.693724 5.593947
38.105012 -2.624061 9.749564
36.026680 -7.433963 7.188183
39.734706 -2.696436 7.270824
35.368256 -4.946884 10.818804
38.462797 -5.233077 5.951438
34.522134 -7.277548 9.560532
35.689752 -9.864405 -3.027886
35.689752 -9.864405 3.027886
37.743715 -7.726015 -1.590601
34.047257 -12.081918 -1.493407
37.743715 -7.726015 1.590601
34.047257 -12.081918 1.493407
-19.135466 27.402784 -1.359436
-21.626923 24.541519 -3.992147
-18.429173 27.621092 -3.556337
-25.466118 17.979902 -8.871215
-23.727988 21.382669 -6.497250
-16.601435 27.340115 -7.810914
-20.741269 24.506797 -6.126224
-17.575917 27.596522 -5.730868
-19.644326 26.092589 -4.867813
-29.364288 2.245658 -17.290363
-28.820314 6.524321 -15.319865
-26.875328 14.366871 -11.122210
-27.987336 10.553276 -13.266132
-11.830854 24.296465 -15.016041
-16.030295 22.252229 -13.752634
-13.085674 25.284091 -13.448943
-24.155460 17.549532 -10.846207
-20.100987 20.020264 -12.373203
-23.451057 19.332321 -9.740898
-15.482035 26.826333 -9.876535
-17.298261 23.060694 -12.089095
-14.316792 26.144144 -11.723951
-17.629479 25.553174 -9.065865
-15.223874 24.188837 -12.783169
-21.764877 22.789902 -7.410139
-19.407632 21.847790 -11.333662
-22.652468 21.090886 -8.588388
-19.728698 24.201591 -8.240543
-21.426232 20.624118 -10.562736
-18.564941 23.706300 -10.246046
-31.217537 -44.704812 -2.217780
-36.679726 -41.622944 -6.770767
-28.982734 -43.438452 -5.592891
-40.640082 -28.693210 -14.157121
-39.530663 -35.623378 -10.824374
-24.013062 -39.545972 -11.298058
-33.447865 -39.520244 -9.879294
-26.482457 -41.580972 -8.634968
-31.473996 -41.805355 -7.799174
-31.149393 -2.382175 -18.341474
-34.608726 -7.834697 -18.396781
-40.186960 -21.482932 -16.631157
-37.938990 -14.305778 -17.983264
-14.997261 -30.799167 -19.034932
-22.060806 -30.623398 -18.926301
-17.090958 -33.023085 -17.565416
-37.204798 -27.030194 -16.705579
-29.628293 -29.509309 -18.237756
-36.825412 -30.357722 -15.296222
-21.556712 -37.352166 -13.751785
-24.600588 -32.795587 -17.192413
-19.287718 -35.221639 -15.794619
-25.820714 -37.426018 -13.278164
-20.776807 -33.011754 -17.445851
-34.983470 -36.631028 -11.910584
-28.705828 -32.315066 -16.763619
-36.078689 -33.591549 -13.678765
-30.344585 -37.224313 -12.674726
-32.765085 -31.538488 -16.152580
-27.388810 -34.973845 -15.115966
-1.834789 -14.126891 -23.991752
-5.581932 -13.107025 -24.657435
-3.058488 -15.849287 -23.754435
-1.799624 -12.177561 -24.415183
-13.359708 -10.342508 -24.991283
-9.433975 -11.859101 -25.018946
-5.776967 -19.558809 -23.109663
-6.985582 -14.847262 -24.451250
-4.377579 -17.665962 -23.464825
-5.012856 -15.373856 -24.138994
-1.747759 -8.383264 -25.040364
-5.470707 -11.067480 -24.967625
-1.772620 -10.254037 -24.765147
-3.632873 -11.646367 -24.728619
-28.016421 -1.389878 -19.563971
-24.719330 -4.021071 -21.783616
-29.529312 -3.802028 -19.702364
-17.285659 -8.528679 -24.482817
-21.108336 -6.413893 -23.423565
-32.659068 -9.330508 -19.831204
-25.937983 -6.483992 -21.952550
-31.095401 -6.457467 -19.804314
-27.778222 -5.182283 -20.913389
-12.629361 -28.126700 -20.434735
-14.079265 -22.872583 -22.780729
-10.758806 -25.901655 -21.352517
-15.872249 -28.160870 -20.566085
-15.315341 -12.066667 -24.780743
-14.962112 -17.440082 -24.209205
-13.225934 -12.868689 -24.864832
-7.363968 -21.629264 -22.647902
-12.125360 -20.763326 -23.373938
-8.991416 -23.715481 -22.080618
-8.005008 -19.164803 -23.509849
-11.509592 -23.346904 -22.472888
-22.795348 -27.631315 -20.485486
-17.156352 -22.560081 -22.890563
-19.288475 -28.004829 -20.590864
-16.599795 -25.387290 -21.862822
-9.090370 -14.249677 -24.690978
-12.626570 -18.067333 -24.085961
-11.134711 -13.597237 -24.830152
-8.582803 -16.690116 -24.191608
-12.983926 -15.462962 -24.568718
-10.304566 -18.670974 -23.841698
-1.707225 -1.055123 -25.500889
-5.194896 -3.210622 -25.437345
-1.714080 -2.836314 -25.480133
-13.041056 -8.059816 -25.017398
-8.911643 -5.507698 -25.291939
-11.165185 -8.901321 -25.163228
-1.739314 -6.462331 -25.257252
-5.247298 -5.073813 -25.429602
-1.723600 -4.647615 -25.398994
-3.530330 -7.720809 -25.240457
-3.464523 -3.940109 -25.464033
-7.402919 -10.386451 -25.133174
-7.159601 -6.300507 -25.370854
-9.272506 -9.681961 -25.198615
-5.418577 -9.029924 -25.201403
-9.098143 -7.554419 -25.285838
-5.344722 -7.021374 -25.353485
-37.111381 -22.936095 -18.070914
-30.001797 -18.542130 -21.613011
-36.531326 -19.431496 -18.906633
-33.780730 -24.670309 -19.039759
-17.805441 -11.004368 -24.507698
-23.435201 -14.483751 -23.529693
-19.882821 -10.018276 -24.118841
-17.855051 -13.779960 -24.448687
-34.203633 -12.592603 -19.739628
-29.283294 -15.351165 -21.965951
-35.521246 -15.928973 -19.451786
-30.550717 -10.838915 -21.077352
-32.837062 -17.353530 -20.666860
-26.570738 -26.959971 -20.206352
-26.980394 -20.002902 -22.258350
-30.195598 -26.003601 -19.743767
-23.412732 -24.439680 -21.751096
-30.328328 -22.299243 -20.888797
-23.939650 -7.783980 -22.862914
-25.825268 -13.397001 -22.940869
-21.944506 -8.935990 -23.569291
-27.103674 -9.228690 -22.094424
-22.736276 -11.644487 -23.620536
-28.246220 -12.208234 -22.120255
-17.561759 -19.541954 -23.687723
-23.626751 -17.708121 -23.285640
-17.782189 -16.657451 -24.184860
-20.374264 -21.930719 -22.892661
-20.640809 -15.671957 -23.968279
-23.690373 -21.084220 -22.694912
-1.790863 13.788691 -23.417385
-5.221692 12.261141 -23.066126
-2.929864 15.182750 -22.755449
-1.761661 11.920677 -23.900150
-11.844598 9.169576 -22.157050
-8.539581 10.734791 -22.647008
-5.288710 17.905740 -21.156484
-6.388437 13.578081 -22.361097
-4.103960 16.561756 -21.998163
-4.686425 14.372729 -22.567092
-1.721373 8.256699 -24.662322
-5.164315 10.447636 -23.569291
-1.740447 10.067930 -24.315667
-3.487944 11.181750 -23.742101
-27.106990 1.344762 -18.928912
-22.734763 3.698244 -20.034741
-27.023493 3.479393 -18.030447
-25.647913 0.000000 -20.144254
-15.237044 7.517900 -21.581229
-18.825587 5.720266 -20.890437
-26.609950 7.602310 -16.158065
-22.722552 5.680197 -19.231178
-26.851940 5.576244 -17.101701
-24.802655 4.627164 -18.673174
-22.453328 -2.551778 -22.188960
-21.331660 2.424302 -21.080499
-24.081544 -1.306034 -21.237490
-23.412583 1.269753 -20.647534
-10.321299 22.986444 -16.700213
-11.454570 18.608614 -18.533884
-9.055940 21.802032 -17.972916
-12.445507 22.081074 -16.125966
-13.169469 10.375975 -21.308649
-12.381814 14.432444 -20.034195
-11.489927 11.179573 -21.601129
-6.560652 19.269784 -20.177301
-10.179037 17.430465 -19.622030
-7.792086 20.552167 -19.135371
-7.117518 17.040062 -20.903386
-9.651221 19.577249 -18.844354
-16.591180 20.110950 -14.909988
-13.500765 17.753096 -18.013160
-14.544099 21.116496 -15.526140
-13.001682 19.884431 -17.123914
-8.143786 12.765852 -22.119897
-10.669162 15.266482 -20.352085
-9.808591 11.977836 -21.872935
-7.645192 14.866839 -21.548845
-11.097423 13.216267 -20.998999
-8.917589 16.157892 -20.632645
-1.703809 1.053012 -25.449858
-5.102490 3.153512 -24.984871
-1.704922 2.821159 -25.343988
-3.424321 0.000000 -25.416202
-11.843983 7.319984 -22.720984
-8.481272 5.241714 -24.070514
-10.185659 8.120405 -22.955647
-1.718612 6.385415 -24.956636
-5.102295 4.933604 -24.726886
-1.708668 4.607350 -25.178949
-3.432517 7.506895 -24.541138
-3.413762 3.882380 -25.090941
-6.991027 -2.145900 -25.293773
-6.879324 2.111613 -24.889629
-5.192053 -1.068919 -25.364611
-5.160546 1.062432 -25.210693
-6.885731 9.660825 -23.377302
-6.839150 6.018507 -24.235298
-8.527796 8.904367 -23.174819
-5.162580 8.603310 -24.010777
-8.509951 7.066029 -23.651118
-5.143409 6.756908 -24.398525
-24.886978 15.380998 -12.118396
-21.846012 13.501578 -15.737660
-25.417763 13.520045 -13.154855
-22.814920 16.661899 -12.859123
-15.203170 9.396076 -20.925889
-18.557104 11.468921 -18.631927
-16.957470 8.544291 -20.570246
-14.817235 11.435471 -20.289046
-26.266813 9.670539 -15.159124
-22.167663 11.620942 -16.628382
-25.880923 11.605914 -14.172650
-24.463705 8.679339 -16.877840
-23.825543 12.591178 -14.995226
-18.722013 18.996271 -14.237602
-19.781657 14.665855 -16.319519
-20.751340 17.870472 -13.568521
-17.169427 17.922526 -15.950888
-21.332144 15.684697 -14.692627
-20.667056 6.719896 -19.737511
-20.409894 10.587746 -18.130333
-18.783991 7.649001 -20.174769
-22.577645 7.687596 -18.404887
-18.692065 9.573226 -19.419037
-22.390080 9.677165 -17.534179
-13.982222 15.558802 -18.859557
-18.101965 13.567324 -17.840619
-14.409888 13.498451 -19.598325
-15.571423 16.760973 -17.496156
-16.474066 12.508272 -19.129822
-17.672749 15.728589 -16.930146
-15.258204 -6.967765 -24.688293
-14.933966 -2.235608 -24.163665
-17.096043 -5.974377 -24.273214
-13.024923 -5.683714 -24.903249
-13.854207 6.326620 -22.416577
-14.447740 2.162820 -23.376935
-15.590743 5.448336 -22.135968
-12.133578 5.294756 -23.199025
-20.670210 -3.779296 -23.041593
-16.573997 -1.173542 -23.586807
-18.915370 -4.905531 -23.721685
-20.255374 -1.234346 -22.561393
-16.852936 -3.513704 -23.965111
-8.953855 -3.308447 -25.194002
-12.805184 -1.139225 -24.405833
-10.919570 -4.460693 -25.068622
-8.876477 -1.097193 -25.014214
-12.941334 -3.362677 -24.691571
-19.273538 3.523932 -21.484688
-16.258207 1.151182 -23.137399
-17.402882 4.513281 -21.824880
-19.783033 1.205562 -22.035278
-15.933515 3.322012 -22.657682
-18.185229 0.000000 -22.875347
-8.681970 3.207985 -24.428981
-12.613888 1.122206 -24.041235
-10.399160 4.248103 -23.873892
-8.784462 1.085819 -24.754911
-12.391992 3.219935 -23.643447
-10.764763 0.000000 -24.594261
-19.135466 27.402784 1.359436
-21.626923 24.541519 3.992147
-18.429173 27.621092 3.556337
-20.559487 26.176593 0.000000
-25.466118 17.979902 8.871215
-23.727988 21.382669 6.497250
-16.601435 27.340115 7.810914
-20.741269 24.506797 6.126224
-17.575917 27.596522 5.730868
-19.644326 26.092589 4.867813
-23.150103 23.425922 -2.662311
-23.150103 23.425922 2.662311
-21.906296 24.839914 -1.347163
-21.906296 24.839914 1.347163
-29.364288 2.245658 17.290363
-28.820314 6.524321 15.319865
-26.875328 14.366871 11.122210
-27.987336 10.553276 13.266132
-11.830854 24.296465 15.016041
-16.030295 22.252229 13.752634
-13.085674 25.284091 13.448943
-24.155460 17.549532 10.846207
-20.100987 20.020264 12.373203
-23.451057 19.332321 9.740898
-15.482035 26.826333 9.876535
-17.298261 23.060694 12.089095
-14.316792 26.144144 11.723951
-17.629479 25.553174 9.065865
-15.223874 24.188837 12.783169
-21.764877 22.789902 7.410139
-19.407632 21.847790 11.333662
-22.652468 21.090886 8.588388
-19.728698 24.201591 8.240543
-21.426232 20.624118 10.562736
-18.564941 23.706300 10.246046
-27.325293 16.887960 -7.712004
-28.707045 17.741929 -2.655959
-26.423085 18.610234 -6.503526
-27.325293 16.887960 7.712004
-28.707045 17.741929 2.655959
-26.423085 18.610234 6.503526
-24.363455 21.856029 -3.996109
-27.450462 19.288914 -1.365775
-25.430032 20.277584 -5.258809
-24.663392 22.142526 -1.349348
-27.100652 19.057936 -3.973429
-24.363455 21.856029 3.996109
-27.450462 19.288914 1.365775
-25.430032 20.277584 5.258809
-24.663392 22.142526 1.349348
-27.100652 19.057936 3.973429
-26.108059 20.755141 0.000000
-31.217537 -44.704812 2.217780
-36.679726 -41.622944 6.770767
-28.982734 -43.438452 5.592891
-35.158625 -44.764396 0.000000
-40.640082 -28.693210 14.157121
-39.530663 -35.623378 10.824374
-24.013062 -39.545972 11.298058
-33.447865 -39.520244 9.879294
-26.482457 -41.580972 8.634968
-31.473996 -41.805355 7.799174
-41.121106 -41.611039 -4.729015
-41.121106 -41.611039 4.729015
-38.622426 -43.794613 -2.375148
-38.622426 -43.794613 2.375148
-31.149393 -2.382175 18.341474
-34.608726 -7.834697 18.396781
-40.186960 -21.482932 16.631157
-37.938990 -14.305778 17.983264
-14.997261 -30.799167 19.034932
-22.060806 -30.623398 18.926301
-17.090958 -33.023085 17.565416
-37.204798 -27.030194 16.705579
-29.628293 -29.509309 18.237756
-36.825412 -30.357722 15.296222
-21.556712 -37.352166 13.751785
-24.600588 -32.795587 17.192413
-19.287718 -35.221639 15.794619
-25.820714 -37.426018 13.278164
-20.776807 -33.011754 17.445851
-34.983470 -36.631028 11.910584
-28.705828 -32.315066 16.763619
-36.078689 -33.591549 13.678765
-30.344585 -37.224313 12.674726
-32.765085 -31.538488 16.152580
-27.388810 -34.973845 15.115966
-44.014914 -27.202713 -12.422307
-49.390124 -30.524775 -4.569545
-43.969238 -30.968291 -10.822168
-44.014914 -27.202713 12.422307
-49.390124 -30.524775 4.569545
-43.969238 -30.968291 10.822168
-42.737865 -38.339391 -7.009891
-48.951033 -34.396953 -2.435518
-43.566778 -34.739595 -9.009401
-45.038227 -40.434832 -2.464066
-46.984151 -33.040568 -6.888697
-42.737865 -38.339391 7.009891
-48.951033 -34.396953 2.435518
-43.566778 -34.739595 9.009401
-45.038227 -40.434832 2.464066
-46.984151 -33.040568 6.888697
-47.675233 -37.900411 0.000000
-1.834789 -14.126891 23.991752
-5.581932 -13.107025 24.657435
-3.058488 -15.849287 23.754435
-1.799624 -12.177561 24.415183
-13.359708 -10.342508 24.991283
-9.433975 -11.859101 25.018946
-5.776967 -19.558809 23.109663
-6.985582 -14.847262 24.451250
-4.377579 -17.665962 23.464825
-5.012856 -15.373856 24.138994
-1.747759 -8.383264 25.040364
-5.470707 -11.067480 24.967625
-1.772620 -10.254037 24.765147
-3.632873 -11.646367 24.728619
-28.016421 -1.389878 19.563971
-24.719330 -4.021071 21.783616
-29.529312 -3.802028 19.702364
-17.285659 -8.528679 24.482817
-21.108336 -6.413893 23.423565
-32.659068 -9.330508 19.831204
-25.937983 -6.483992 21.952550
-31.095401 -6.457467 19.804314
-27.778222 -5.182283 20.913389
-12.629361 -28.126700 20.434735
-14.079265 -22.872583 22.780729
-10.758806 -25.901655 21.352517
-15.872249 -28.160870 20.566085
-15.315341 -12.066667 24.780743
