40.905994 5.620913 -9.317234
30.470137 -13.206618 -8.162139
37.146647 -5.004762 -3.093113
32.353875 -9.325135 -10.637876
31.271319 -13.687272 -2.819733
36.064910 -4.955697 -8.214571
43.151104 18.702907 11.559032
42.377616 5.709530 3.528684
40.954691 11.804089 13.465804
45.774719 20.035325 4.127504
40.905994 5.620913 9.317234
44.793725 12.380681 0.000000
30.470137 -13.206618 8.162139
37.146647 -5.004762 3.093113
32.353875 -9.325135 10.637876
31.271319 -13.687272 2.819733
36.064910 -4.955697 8.214571
34.446695 -9.520832 0.000000
-20.234959 25.763400 -2.665149
-24.913474 19.927604 -7.785706
-18.841752 26.144169 -7.026192
-31.235277 4.738052 -17.494688
-28.636363 13.017126 -12.726146
-15.085347 25.184929 -15.565142
-23.174496 19.713404 -12.183554
-17.088504 25.939656 -11.460936
-21.189244 22.986008 -9.687980
-34.181252 -43.519994 -4.502017
-40.339625 -32.266559 -12.606531
-30.317627 -42.067700 -11.305609
-34.586421 -5.246384 -19.371643
-39.130708 -17.787502 -17.389886
-20.787532 -34.704706 -21.448688
-35.308627 -30.035312 -18.562844
-25.539347 -38.767694 -17.128757
-33.793945 -36.659537 -15.451003
-4.591769 -16.954554 -30.270914
-13.959344 -13.647301 -30.709146
-7.815686 -20.958892 -29.081841
-4.490143 -12.217492 -31.523663
-29.595930 -3.061613 -23.245085
-22.731623 -8.881235 -28.419056
-31.847981 -8.559080 -22.952413
-15.544650 -29.567682 -25.151773
-18.104616 -17.546541 -29.293883
-11.546170 -25.253419 -27.394808
-22.614019 -28.481539 -24.855212
-13.056576 -19.467637 -29.551084
-4.387147 -2.711406 -32.562543
-13.545433 -8.371538 -31.251847
-4.437081 -7.354913 -32.290702
-9.139413 -10.426010 -31.709507
-35.110699 -21.699605 -21.030715
-23.787106 -14.701240 -27.963420
-33.808167 -14.937486 -22.272114
-29.580222 -25.814009 -23.486361
-28.114187 -11.849369 -25.916565
-23.577342 -21.451375 -27.017230
-4.384062 16.187622 -28.901622
-12.549199 12.268679 -27.606971
-7.122558 19.100169 -26.502740
-4.344133 11.820204 -30.498579
-28.054609 2.902168 -22.034509
-20.319257 7.938725 -25.403119
-27.516196 7.394921 -19.830553
-25.519008 0.000000 -25.218544
-12.395449 23.577545 -20.056258
-15.324143 14.851776 -24.794984
-9.888774 21.628414 -23.462418
-16.843786 21.214139 -18.513112
-11.378522 16.965623 -25.753128
-4.354992 2.691533 -32.323885
-12.679302 7.836240 -29.253522
-4.349533 7.209794 -31.653577
-8.819770 0.000000 -31.910227
-8.640853 9.857266 -29.979738
-25.147900 15.542257 -15.063167
-19.852156 12.269307 -23.337609
-26.486911 11.702731 -17.449024
-21.175244 18.479170 -16.812904
-23.633924 9.961059 -21.786514
-18.466254 16.801153 -21.160444
-18.448035 -5.557749 -29.849547
-17.371769 5.233508 -28.108112
-22.190513 -2.903038 -27.913625
-13.609665 -2.803745 -31.094011
-21.350212 2.793107 -26.856604
-13.297237 2.739381 -30.380205
-20.234959 25.763400 2.665149
-24.913474 19.927604 7.785706
-18.841752 26.144169 7.026192
-22.994264 23.268226 0.000000
-31.235277 4.738052 17.494688
-28.636363 13.017126 12.726146
-15.085347 25.184929 15.565142
-23.174496 19.713404 12.183554
-17.088504 25.939656 11.460936
-21.189244 22.986008 9.687980
-27.968770 17.285650 -5.207563
-27.968770 17.285650 5.207563
-25.632150 20.376807 -2.665763
-25.632150 20.376807 2.665763
-34.181252 -43.519994 4.502017
-40.339625 -32.266559 12.606531
-30.317627 -42.067700 11.305609
-39.825371 -40.299865 0.000000
-34.586421 -5.246384 19.371643
-39.130708 -17.787502 17.389886
-20.787532 -34.704706 21.448688
-35.308627 -30.035312 18.562844
-25.539347 -38.767694 17.128757
-33.793945 -36.659537 15.451003
-44.354211 -27.412410 -8.258403
-44.354211 -27.412410 8.258403
-43.373915 -34.480990 -4.510920
-43.373915 -34.480990 4.510920
-4.591769 -16.954554 30.270914
-13.959344 -13.647301 30.709146
-7.815686 -20.958892 29.081841
-4.490143 -12.217492 31.523663
-29.595930 -3.061613 23.245085
-22.731623 -8.881235 28.419056
-31.847981 -8.559080 22.952413
-15.544650 -29.567682 25.151773
-18.104616 -17.546541 29.293883
-11.546170 -25.253419 27.394808
-22.614019 -28.481539 24.855212
-13.056576 -19.467637 29.551084
-4.387147 -2.711406 32.562543
-13.545433 -8.371538 31.251847
-4.437081 -7.354913 32.290702
-9.139413 -10.426010 31.709507
-35.110699 -21.699605 21.030715
-23.787106 -14.701240 27.963420
-33.808167 -14.937486 22.272114
-29.580222 -25.814009 23.486361
-28.114187 -11.849369 25.916565
-23.577342 -21.451375 27.017230
-4.384062 16.187622 28.901622
-12.549199 12.268679 27.606971
-7.122558 19.100169 26.502740
-4.344133 11.820204 30.498579
-28.054609 2.902168 22.034509
-20.319257 7.938725 25.403119
-27.516196 7.394921 19.830553
-25.519008 0.000000 25.218544
-12.395449 23.577545 20.056258
-15.324143 14.851776 24.794984
-9.888774 21.628414 23.462418
-16.843786 21.214139 18.513112
-11.378522 16.965623 25.753128
-4.354992 2.691533 32.323885
-12.679302 7.836240 29.253522
-4.349533 7.209794 31.653577
-8.819770 0.000000 31.910227
-8.640853 9.857266 29.979738
-25.147900 15.542257 15.063167
-19.852156 12.269307 23.337609
-26.486911 11.702731 17.449024
-21.175244 18.479170 16.812904
-23.633924 9.961059 21.786514
-18.466254 16.801153 21.160444
-18.448035 -5.557749 29.849547
-17.371769 5.233508 28.108112
-22.190513 -2.903038 27.913625
-13.609665 -2.803745 31.094011
-21.350212 2.793107 26.856604
-13.297237 2.739381 30.380205
-35.255037 0.000000 -15.540583
-39.494205 0.000000 -5.500909
-34.006485 4.843789 -13.179749
-38.145432 -5.433329 -14.783862
-35.255037 0.000000 15.540583
-39.494205 0.000000 5.500909
-34.006485 4.843789 13.179749
-38.145432 -5.433329 14.783862
-30.470137 13.206618 -8.162139
-37.146647 5.004762 -3.093113
-32.353875 9.325135 -10.637876
-31.271319 13.687272 -2.819733
-36.064910 4.955697 -8.214571
-43.151104 -18.702907 -11.559032
-42.377616 -5.709530 -3.528684
-40.954691 -11.804089 -13.465804
-45.774719 -20.035325 -4.127504
-40.905994 -5.620913 -9.317234
-30.470137 13.206618 8.162139
-37.146647 5.004762 3.093113
-32.353875 9.325135 10.637876
-31.271319 13.687272 2.819733
-36.064910 4.955697 8.214571
-34.446695 9.520832 0.000000
-43.151104 -18.702907 11.559032
-42.377616 -5.709530 3.528684
-40.954691 -11.804089 13.465804
-45.774719 -20.035325 4.127504
-40.905994 -5.620913 9.317234
-44.793725 -12.380681 0.000000
-15.699925 29.837124 0.000000
-11.830197 32.817537 0.000000
-2.679276 38.657841 0.000000
-7.532718 35.763704 0.000000
24.331770 46.241623 0.000000
16.464699 45.673870 0.000000
2.870920 41.422965 0.000000
9.241800 43.878053 0.000000
-24.331770 -46.241623 0.000000
-16.464699 -45.673870 0.000000
-2.870920 -41.422965 0.000000
-9.241800 -43.878053 0.000000
15.699925 -29.837124 0.000000
11.830197 -32.817537 0.000000
2.679276 -38.657841 0.000000
7.532718 -35.763704 0.000000
-26.942926 -45.757271 3.499324
-23.406578 -44.033348 9.968236
-22.950101 -46.013396 3.391611
-15.224494 -36.787948 19.665906
-19.342705 -40.806979 15.387220
-15.142933 -45.231135 3.157028
-19.549938 -44.103582 9.663625
-18.965529 -45.804798 3.278579
-21.321211 -45.271120 6.650765
-1.421358 -20.007072 28.650960
-4.434773 -24.024789 27.262539
-11.317697 -32.489100 22.938354
-7.720261 -28.194430 25.407640
-1.685712 -40.741375 2.727540
-5.182013 -41.056422 8.384673
-4.680630 -42.048614 2.828663
-11.836236 -36.739277 19.151432
-8.656218 -39.750281 14.006055
-13.722311 -38.791727 17.212292
-11.343037 -44.332910 3.052939
-8.406899 -42.134804 8.694350
-7.917396 -43.268191 2.936221
-13.558468 -44.324617 6.199591
-6.545649 -42.303047 5.755565
-17.573497 -42.524417 12.525470
-10.301751 -41.483051 11.706429
-15.658305 -40.752859 14.996108
-15.668656 -43.729286 9.402275
-12.062443 -40.374906 14.527368
-11.920193 -43.042637 9.073740
16.918595 -28.732912 2.197373
15.487201 -29.135114 6.595585
15.081288 -30.236960 2.228742
11.684089 -28.233034 15.092665
13.734262 -28.974942 10.925675
11.123086 -33.224067 2.318963
13.574060 -30.622332 6.709721
13.142697 -31.741724 2.271984
14.366112 -30.503426 4.481248
1.396827 -19.661778 28.156485
4.166815 -22.573163 25.615282
0.000000 -21.627860 27.536859
9.372554 -26.905283 18.995999
6.847371 -25.006631 22.534928
-2.953193 -25.679459 25.985414
2.822838 -24.545964 24.838414
-1.454125 -23.645605 26.812146
1.423943 -23.154821 26.255638
1.617910 -39.102690 2.617834
4.607217 -36.502384 7.454633
4.194505 -37.681490 2.534881
0.000000 -39.530172 5.325894
9.532299 -29.587937 15.423584
7.241934 -33.255738 11.717696
10.640194 -30.078861 13.346303
8.893948 -34.760937 2.393775
7.002470 -35.095898 7.241899
6.628206 -36.222828 2.458116
10.252777 -33.517830 4.688069
5.644041 -36.476160 4.962784
-3.337948 -39.344461 10.874542
3.094366 -36.473357 10.080988
-1.669745 -39.621755 8.110443
1.604908 -38.083218 7.795510
12.646035 -30.600926 9.013433
8.321784 -33.510124 9.456486
11.687009 -30.417022 11.192759
11.508295 -32.118231 6.905771
9.515970 -31.851458 11.460531
9.310165 -33.618083 7.086967
-9.659290 -34.224946 21.152180
-3.037730 -32.833438 20.292181
-7.898925 -32.092434 22.603254
-8.230920 -36.063854 18.862154
8.129109 -28.803187 17.801348
2.864927 -30.965691 19.137850
6.885974 -27.976927 19.704632
7.032533 -30.813112 16.115906
-4.567447 -27.846790 24.980868
-1.531852 -30.788412 21.634427
-6.193148 -29.948218 23.880328
-1.492368 -27.277516 24.489458
-4.619944 -31.510189 22.158845
-5.073493 -38.634924 13.730710
-1.598700 -34.249239 17.969794
-6.681907 -37.551612 16.357000
-1.640917 -37.410244 13.275299
-4.795814 -35.214860 18.456795
4.243563 -25.872134 23.209439
1.488735 -29.921802 21.025477
5.581692 -26.991402 21.522600
1.455903 -26.610997 23.891064
4.250515 -28.990513 20.386939
0.000000 -28.705910 22.820356
4.548386 -34.636208 12.309581
1.546807 -33.137535 17.386509
5.832151 -32.776075 14.276837
1.581548 -36.056728 12.794994
4.359068 -32.007910 16.775970
0.000000 -35.311117 15.455468
-16.918595 28.732912 2.197373
-15.487201 29.135114 6.595585
-15.081288 30.236960 2.228742
-11.684089 28.233034 15.092665
-13.734262 28.974942 10.925675
-11.123086 33.224067 2.318963
-13.574060 30.622332 6.709721
-13.142697 31.741724 2.271984
-14.366112 30.503426 4.481248
-1.396827 19.661778 28.156485
-4.166815 22.573163 25.615282
-9.372554 26.905283 18.995999
-6.847371 25.006631 22.534928
-1.617910 39.102690 2.617834
-4.607217 36.502384 7.454633
-4.194505 37.681490 2.534881
-9.532299 29.587937 15.423584
-7.241934 33.255738 11.717696
-10.640194 30.078861 13.346303
-8.893948 34.760937 2.393775
-7.002470 35.095898 7.241899
-6.628206 36.222828 2.458116
-10.252777 33.517830 4.688069
-5.644041 36.476160 4.962784
-12.646035 30.600926 9.013433
-8.321784 33.510124 9.456486
-11.687009 30.417022 11.192759
-11.508295 32.118231 6.905771
-9.515970 31.851458 11.460531
-9.310165 33.618083 7.086967
26.942926 45.757271 3.499324
23.406578 44.033348 9.968236
22.950101 46.013396 3.391611
15.224494 36.787948 19.665906
19.342705 40.806979 15.387220
15.142933 45.231135 3.157028
19.549938 44.103582 9.663625
18.965529 45.804798 3.278579
21.321211 45.271120 6.650765
1.421358 20.007072 28.650960
4.434773 24.024789 27.262539
0.000000 21.627860 27.536859
11.317697 32.489100 22.938354
7.720261 28.194430 25.407640
-2.822838 24.545964 24.838414
2.953193 25.679459 25.985414
-1.423943 23.154821 26.255638
1.454125 23.645605 26.812146
1.685712 40.741375 2.727540
5.182013 41.056422 8.384673
4.680630 42.048614 2.828663
0.000000 39.530172 5.325894
11.836236 36.739277 19.151432
8.656218 39.750281 14.006055
13.722311 38.791727 17.212292
11.343037 44.332910 3.052939
8.406899 42.134804 8.694350
7.917396 43.268191 2.936221
13.558468 44.324617 6.199591
6.545649 42.303047 5.755565
-3.094366 36.473357 10.080988
3.337948 39.344461 10.874542
-1.604908 38.083218 7.795510
1.669745 39.621755 8.110443
17.573497 42.524417 12.525470
10.301751 41.483051 11.706429
15.658305 40.752859 14.996108
15.668656 43.729286 9.402275
12.062443 40.374906 14.527368
11.920193 43.042637 9.073740
-8.129109 28.803187 17.801348
-2.864927 30.965691 19.137850
-6.885974 27.976927 19.704632
-7.032533 30.813112 16.115906
9.659290 34.224946 21.152180
3.037730 32.833438 20.292181
7.898925 32.092434 22.603254
8.230920 36.063854 18.862154
-4.243563 25.872134 23.209439
-1.488735 29.921802 21.025477
-5.581692 26.991402 21.522600
-1.455903 26.610997 23.891064
-4.250515 28.990513 20.386939
-4.548386 34.636208 12.309581
-1.546807 33.137535 17.386509
-5.832151 32.776075 14.276837
-1.581548 36.056728 12.794994
-4.359068 32.007910 16.775970
4.567447 27.846790 24.980868
1.531852 30.788412 21.634427
6.193148 29.948218 23.880328
1.492368 27.277516 24.489458
4.619944 31.510189 22.158845
0.000000 28.705910 22.820356
5.073493 38.634924 13.730710
1.598700 34.249239 17.969794
6.681907 37.551612 16.357000
1.640917 37.410244 13.275299
4.795814 35.214860 18.456795
0.000000 35.311117 15.455468
0.000000 -15.815195 30.056190
0.000000 -11.312567 31.381609
0.000000 -2.263613 32.660458
0.000000 -6.790421 32.239442
0.000000 15.815195 30.056190
0.000000 11.312567 31.381609
0.000000 2.263613 32.660458
0.000000 6.790421 32.239442
-26.942926 -45.757271 -3.499324
-23.406578 -44.033348 -9.968236
-22.950101 -46.013396 -3.391611
-15.224494 -36.787948 -19.665906
-19.342705 -40.806979 -15.387220
-15.142933 -45.231135 -3.157028
-19.549938 -44.103582 -9.663625
-18.965529 -45.804798 -3.278579
-21.321211 -45.271120 -6.650765
-1.421358 -20.007072 -28.650960
-4.434773 -24.024789 -27.262539
-11.317697 -32.489100 -22.938354
-7.720261 -28.194430 -25.407640
-1.685712 -40.741375 -2.727540
-5.182013 -41.056422 -8.384673
-4.680630 -42.048614 -2.828663
-11.836236 -36.739277 -19.151432
-8.656218 -39.750281 -14.006055
-13.722311 -38.791727 -17.212292
-11.343037 -44.332910 -3.052939
-8.406899 -42.134804 -8.694350
-7.917396 -43.268191 -2.936221
-13.558468 -44.324617 -6.199591
-6.545649 -42.303047 -5.755565
-17.573497 -42.524417 -12.525470
-10.301751 -41.483051 -11.706429
-15.658305 -40.752859 -14.996108
-15.668656 -43.729286 -9.402275
-12.062443 -40.374906 -14.527368
-11.920193 -43.042637 -9.073740
16.918595 -28.732912 -2.197373
15.487201 -29.135114 -6.595585
15.081288 -30.236960 -2.228742
11.684089 -28.233034 -15.092665
13.734262 -28.974942 -10.925675
11.123086 -33.224067 -2.318963
13.574060 -30.622332 -6.709721
13.142697 -31.741724 -2.271984
14.366112 -30.503426 -4.481248
1.396827 -19.661778 -28.156485
4.166815 -22.573163 -25.615282
0.000000 -21.627860 -27.536859
9.372554 -26.905283 -18.995999
6.847371 -25.006631 -22.534928
-2.953193 -25.679459 -25.985414
2.822838 -24.545964 -24.838414
-1.454125 -23.645605 -26.812146
1.423943 -23.154821 -26.255638
1.617910 -39.102690 -2.617834
4.607217 -36.502384 -7.454633
4.194505 -37.681490 -2.534881
0.000000 -39.530172 -5.325894
9.532299 -29.587937 -15.423584
7.241934 -33.255738 -11.717696
10.640194 -30.078861 -13.346303
8.893948 -34.760937 -2.393775
7.002470 -35.095898 -7.241899
6.628206 -36.222828 -2.458116
10.252777 -33.517830 -4.688069
5.644041 -36.476160 -4.962784
-3.337948 -39.344461 -10.874542
3.094366 -36.473357 -10.080988
-1.669745 -39.621755 -8.110443
1.604908 -38.083218 -7.795510
12.646035 -30.600926 -9.013433
8.321784 -33.510124 -9.456486
11.687009 -30.417022 -11.192759
11.508295 -32.118231 -6.905771
9.515970 -31.851458 -11.460531
9.310165 -33.618083 -7.086967
-9.659290 -34.224946 -21.152180
-3.037730 -32.833438 -20.292181
-7.898925 -32.092434 -22.603254
-8.230920 -36.063854 -18.862154
8.129109 -28.803187 -17.801348
2.864927 -30.965691 -19.137850
6.885974 -27.976927 -19.704632
7.032533 -30.813112 -16.115906
-4.567447 -27.846790 -24.980868
-1.531852 -30.788412 -21.634427
-6.193148 -29.948218 -23.880328
-1.492368 -27.277516 -24.489458
-4.619944 -31.510189 -22.158845
-5.073493 -38.634924 -13.730710
-1.598700 -34.249239 -17.969794
-6.681907 -37.551612 -16.357000
-1.640917 -37.410244 -13.275299
-4.795814 -35.214860 -18.456795
4.243563 -25.872134 -23.209439
1.488735 -29.921802 -21.025477
5.581692 -26.991402 -21.522600
1.455903 -26.610997 -23.891064
4.250515 -28.990513 -20.386939
0.000000 -28.705910 -22.820356
4.548386 -34.636208 -12.309581
1.546807 -33.137535 -17.386509
5.832151 -32.776075 -14.276837
1.581548 -36.056728 -12.794994
4.359068 -32.007910 -16.775970
0.000000 -35.311117 -15.455468
-16.918595 28.732912 -2.197373
-15.487201 29.135114 -6.595585
-15.081288 30.236960 -2.228742
-11.684089 28.233034 -15.092665
-13.734262 28.974942 -10.925675
-11.123086 33.224067 -2.318963
-13.574060 30.622332 -6.709721
-13.142697 31.741724 -2.271984
-14.366112 30.503426 -4.481248
-1.396827 19.661778 -28.156485
-4.166815 22.573163 -25.615282
-9.372554 26.905283 -18.995999
-6.847371 25.006631 -22.534928
-1.617910 39.102690 -2.617834
-4.607217 36.502384 -7.454633
-4.194505 37.681490 -2.534881
-9.532299 29.587937 -15.423584
-7.241934 33.255738 -11.717696
-10.640194 30.078861 -13.346303
-8.893948 34.760937 -2.393775
-7.002470 35.095898 -7.241899
-6.628206 36.222828 -2.458116
-10.252777 33.517830 -4.688069
-5.644041 36.476160 -4.962784
-12.646035 30.600926 -9.013433
-8.321784 33.510124 -9.456486
-11.687009 30.417022 -11.192759
-11.508295 32.118231 -6.905771
-9.515970 31.851458 -11.460531
-9.310165 33.618083 -7.086967
26.942926 45.757271 -3.499324
23.406578 44.033348 -9.968236
22.950101 46.013396 -3.391611
15.224494 36.787948 -19.665906
19.342705 40.806979 -15.387220
15.142933 45.231135 -3.157028
19.549938 44.103582 -9.663625
18.965529 45.804798 -3.278579
21.321211 45.271120 -6.650765
1.421358 20.007072 -28.650960
4.434773 24.024789 -27.262539
0.000000 21.627860 -27.536859
11.317697 32.489100 -22.938354
7.720261 28.194430 -25.407640
-2.822838 24.545964 -24.838414
2.953193 25.679459 -25.985414
-1.423943 23.154821 -26.255638
1.454125 23.645605 -26.812146
1.685712 40.741375 -2.727540
5.182013 41.056422 -8.384673
4.680630 42.048614 -2.828663
0.000000 39.530172 -5.325894
11.836236 36.739277 -19.151432
8.656218 39.750281 -14.006055
13.722311 38.791727 -17.212292
11.343037 44.332910 -3.052939
8.406899 42.134804 -8.694350
7.917396 43.268191 -2.936221
13.558468 44.324617 -6.199591
6.545649 42.303047 -5.755565
-3.094366 36.473357 -10.080988
3.337948 39.344461 -10.874542
-1.604908 38.083218 -7.795510
1.669745 39.621755 -8.110443
17.573497 42.524417 -12.525470
10.301751 41.483051 -11.706429
15.658305 40.752859 -14.996108
15.668656 43.729286 -9.402275
12.062443 40.374906 -14.527368
11.920193 43.042637 -9.073740
-8.129109 28.803187 -17.801348
-2.864927 30.965691 -19.137850
-6.885974 27.976927 -19.704632
-7.032533 30.813112 -16.115906
9.659290 34.224946 -21.152180
3.037730 32.833438 -20.292181
7.898925 32.092434 -22.603254
8.230920 36.063854 -18.862154
-4.243563 25.872134 -23.209439
-1.488735 29.921802 -21.025477
-5.581692 26.991402 -21.522600
-1.455903 26.610997 -23.891064
-4.250515 28.990513 -20.386939
-4.548386 34.636208 -12.309581
-1.546807 33.137535 -17.386509
-5.832151 32.776075 -14.276837
-1.581548 36.056728 -12.794994
-4.359068 32.007910 -16.775970
4.567447 27.846790 -24.980868
1.531852 30.788412 -21.634427
6.193148 29.948218 -23.880328
1.492368 27.277516 -24.489458
4.619944 31.510189 -22.158845
0.000000 28.705910 -22.820356
5.073493 38.634924 -13.730710
1.598700 34.249239 -17.969794
6.681907 37.551612 -16.357000
1.640917 37.410244 -13.275299
4.795814 35.214860 -18.456795
0.000000 35.311117 -15.455468
0.000000 -15.815195 -30.056190
0.000000 -11.312567 -31.381609
0.000000 -2.263613 -32.660458
0.000000 -6.790421 -32.239442
0.000000 15.815195 -30.056190
0.000000 11.312567 -31.381609
0.000000 2.263613 -32.660458
0.000000 6.790421 -32.239442
31.417061 44.990539 -2.231955
36.512508 41.433191 -6.739901
29.834324 44.714789 -5.757225
40.586059 28.655069 -14.138302
39.604120 35.689574 -10.844488
25.876116 42.614147 -12.174617
34.541548 40.812483 -10.202328
27.950666 43.886254 -9.113697
32.410494 43.049259 -8.031236
33.278356 2.544989 -19.595056
35.853484 8.116485 -19.058451
39.903512 21.331408 -16.513854
38.163254 14.390342 -18.089566
16.960381 34.830733 -21.526577
24.645006 34.210620 -21.143326
19.131386 36.965594 -19.662489
38.135486 27.706362 -17.123473
32.032754 31.904114 -19.717827
37.959162 31.292350 -15.767149
23.608003 40.906519 -15.060376
27.155791 36.201985 -18.978147
21.371360 39.026614 -17.500903
27.995120 40.577726 -14.396341
23.157483 36.794351 -19.444854
36.225626 37.931685 -12.333492
31.161194 35.079149 -18.197503
37.337294 34.763390 -14.155949
32.286926 39.607021 -13.486029
34.759980 33.458702 -17.136026
29.775518 38.021526 -16.433197
18.906964 -27.075560 -1.343203
21.496803 -24.393863 -3.968128
18.285172 -27.405267 -3.528548
25.934500 -18.310594 -9.034378
23.834071 -21.478266 -6.526298
16.794493 -27.658053 -7.901747
20.804882 -24.581958 -6.145012
17.578123 -27.599986 -5.731588
19.585511 -26.014467 -4.853238
31.650288 -2.420481 -18.636412
30.714978 -6.953234 -16.327002
27.798299 -14.860267 -11.504177
29.406316 -11.088335 -13.938736
12.872272 -26.435177 -16.337838
17.210726 -23.890827 -14.765343
13.948732 -26.951689 -14.335960
25.056186 -18.203931 -11.250648
21.245231 -21.159913 -13.077545
24.104113 -19.870679 -10.012158
15.904753 -27.558794 -10.146202
18.205694 -24.270413 -12.723265
14.965884 -27.329462 -12.255489
18.013115 -26.109238 -9.263148
16.128156 -25.625627 -13.542475
21.997067 -23.033026 -7.489191
20.275732 -22.825038 -11.840615
23.079280 -21.488274 -8.750208
20.049252 -24.594821 -8.374436
22.211478 -21.379968 -10.949848
19.177831 -24.488924 -10.584302
2.224257 -17.125586 -29.084446
6.488144 -15.234918 -28.660509
3.604918 -18.680926 -27.998412
2.206683 -14.932018 -29.937684
14.511586 -11.234243 -27.146040
10.562765 -13.278061 -28.012501
6.346539 -21.487181 -25.388127
7.854261 -16.693566 -27.491841
4.991764 -20.144539 -26.756996
5.767543 -17.688394 -27.773126
2.183425 -10.472971 -31.282208
6.468856 -13.086779 -29.523052
2.195443 -12.699932 -30.672376
4.371834 -14.015350 -29.758657
30.000195 -1.488292 -20.949248
26.113123 -4.247799 -23.011880
29.754460 -3.831017 -19.852586
18.390752 -9.073927 -26.048032
22.246925 -6.759860 -24.687038
28.911306 -8.259794 -17.555492
25.932392 -6.482595 -21.947818
29.382943 -6.101848 -18.713669
27.836265 -5.193112 -20.957088
11.511112 -25.636263 -18.625371
13.215560 -21.469444 -21.383225
10.306349 -24.812372 -20.454546
13.790490 -24.467370 -17.868695
15.917148 -12.540819 -25.754487
14.677271 -17.108067 -23.748323
13.973048 -13.595622 -26.269411
7.746081 -22.751597 -23.823092
11.961673 -20.483031 -23.058401
9.040396 -23.844669 -22.200900
8.529463 -20.420402 -25.050118
11.171507 -22.661108 -21.812765
18.112602 -21.955139 -16.277245
15.461771 -20.331759 -20.629598
16.001209 -23.232066 -17.081637
14.658619 -22.418506 -19.306188
9.987772 -15.656405 -27.128472
12.709963 -18.186659 -24.245037
11.986844 -14.637826 -26.730389
9.279080 -18.044097 -26.154144
13.369688 -15.922379 -25.298673
10.660351 -19.315625 -24.664879
2.183525 -1.349493 -32.615402
6.502344 -4.018670 -31.839402
2.182939 -3.612141 -32.449801
14.609967 -9.029456 -28.027129
10.676515 -6.598449 -30.300784
12.636938 -10.074660 -28.480150
2.189538 -8.135116 -31.795135
6.488200 -6.273688 -31.443297
2.183461 -5.887611 -32.175512
4.354728 -9.523764 -31.134580
4.359421 -4.957852 -32.041473
8.608432 -12.077810 -29.225932
8.642549 -7.605512 -30.625847
10.627531 -11.096822 -28.880980
6.508760 -10.846685 -30.271761
10.667459 -8.857462 -29.647330
6.517147 -8.561591 -30.915056
26.103918 -16.133109 -12.710970
24.035954 -14.855037 -17.315274
26.910144 -14.313862 -13.927231
24.203234 -17.675795 -13.641616
18.207886 -11.253093 -25.061630
21.378511 -13.212647 -21.464711
20.120636 -10.138103 -24.407322
17.603746 -13.586011 -24.104578
28.306595 -10.421516 -16.336325
24.643840 -12.919027 -18.485809
27.651606 -12.399950 -15.142293
27.044677 -9.595027 -18.658487
25.851277 -13.661726 -16.270175
20.257349 -20.554098 -15.405185
22.015132 -16.321723 -18.162096
22.244135 -19.156024 -14.544604
19.039294 -19.874411 -17.688048
23.179931 -17.043304 -15.965301
23.947634 -7.786576 -22.870538
23.242014 -12.056923 -20.646136
22.043645 -8.976360 -23.675771
25.579633 -8.709760 -20.852053
21.749262 -11.138983 -22.595135
25.144127 -10.867486 -19.690935
16.248430 -18.080539 -21.916273
20.639210 -15.468976 -20.341232
16.947246 -15.875319 -23.049286
17.691157 -19.042641 -19.877904
19.191113 -14.571245 -22.284880
19.887060 -17.699306 -19.051412
2.278996 17.547047 -29.800215
6.928833 16.269706 -30.607191
3.766393 19.517702 -29.252546
2.253425 15.248307 -30.571821
16.256232 12.584872 -30.409656
11.627462 14.616452 -30.836082
6.965859 23.583984 -27.865599
8.586921 18.250771 -30.056328
5.337306 21.538990 -28.609177
6.173216 18.932546 -29.726610
2.215211 10.625432 -31.737600
6.839623 13.836858 -31.215189
2.234601 12.926449 -31.219451
4.548922 14.583063 -30.964076
30.871181 1.531501 -21.557461
28.129188 4.575750 -24.788514
32.122944 4.135970 -21.432871
28.874288 0.000000 -22.678297
20.664053 10.195565 -29.267858
24.678860 7.498817 -27.385715
34.495014 9.855028 -20.946025
29.166218 7.290988 -24.684759
33.342150 6.924042 -21.235243
30.742125 5.735227 -23.144822
24.888045 -2.828479 -24.595011
26.056996 2.961328 -25.750198
26.866736 -1.457085 -23.693748
27.546948 1.493976 -24.293626
14.476083 32.239513 -23.422794
16.436429 26.701933 -26.594702
12.485659 30.059027 -24.779725
18.114198 32.138581 -23.471036
18.363779 14.468473 -29.713218
17.706108 20.638529 -28.649085
15.993486 15.561487 -30.067847
8.768369 25.754235 -26.967140
14.351113 24.574680 -27.664501
10.570755 27.881097 -25.959071
9.639294 23.077451 -28.309572
13.502115 27.388686 -26.363361
25.499988 30.909737 -22.916063
19.824211 26.068234 -26.450107
21.839211 31.708229 -23.313830
19.075076 29.172919 -25.122900
11.130793 17.448156 -30.233109
15.062823 21.553362 -28.733264
13.560426 16.559416 -30.239439
10.430642 20.283423 -29.399952
15.597241 18.575241 -29.513740
12.363688 22.401923 -28.605893
2.187545 1.351977 -32.675440
6.610853 4.085732 -32.370726
2.193742 3.630017 -32.610387
4.380951 0.000000 -32.516555
15.982387 9.877658 -30.659919
11.178379 6.908618 -31.725113
13.776777 10.983385 -31.049031
2.214247 8.226920 -32.153938
6.659266 6.439099 -32.272321
2.201161 5.935337 -32.436333
4.471800 9.779798 -31.971592
4.419332 5.025987 -32.481817
8.735268 -2.681296 -31.604495
8.865587 2.721297 -32.075993
6.582408 -1.355160 -32.156881
6.619295 1.362754 -32.337084
9.226790 12.945381 -31.325283
9.019792 7.937489 -31.962648
11.506475 12.014578 -31.269566
6.815411 11.357712 -31.697973
11.356892 9.429916 -31.563422
6.756227 8.875672 -32.049172
37.864473 23.401531 -18.437622
32.260201 19.937901 -23.239943
37.315168 19.848432 -19.312307
35.418694 25.866526 -19.962961
21.099225 13.040038 -29.041316
26.556511 16.412827 -26.663589
23.297983 11.739060 -28.261601
21.010367 16.215133 -28.769220
35.594000 13.104489 -20.542037
31.727488 16.632483 -23.799386
36.536282 16.384151 -20.007630
32.876864 11.664196 -22.682192
34.546490 18.256918 -21.742733
29.202003 29.629782 -22.207360
29.623486 21.962454 -24.438854
32.478100 27.969229 -21.236209
26.188737 27.337448 -24.330084
32.529719 23.917840 -22.405017
27.332336 8.887113 -26.103006
28.809408 14.945040 -25.591714
25.395316 10.341189 -27.275602
30.095592 10.247426 -24.533381
26.029818 13.331290 -27.042171
30.961168 13.381656 -24.246392
20.407060 22.708079 -27.525532
26.596299 19.933782 -26.212316
20.785452 19.470755 -28.269481
23.224591 24.998792 -26.095309
23.774760 18.051473 -27.607448
26.541182 23.621415 -25.425930
16.942174 -7.736761 -27.413013
17.742419 -2.656032 -28.707837
18.896369 -6.603518 -26.829343
15.025202 -6.556580 -28.727720
18.522044 8.458220 -29.969297
18.287416 2.737618 -29.589661
20.562314 7.185699 -29.194677
16.041958 7.000264 -30.671725
22.828314 -4.173879 -25.447284
19.753509 -1.398671 -28.111637
20.868933 -5.412170 -26.171640
23.423511 -1.427410 -26.090214
19.354382 -4.035235 -27.522203
10.952249 -4.046853 -30.817001
15.659657 -1.393176 -29.846270
13.011666 -5.315323 -29.871557
11.090283 -1.370834 -31.252794
15.377883 -3.995789 -29.340414
24.317368 4.446135 -27.107170
20.102547 1.423385 -28.608361
22.513066 5.838561 -28.233540
23.927201 1.458105 -26.651248
20.370880 4.247167 -28.967678
21.813325 0.000000 -27.439158
11.267792 4.163446 -31.704864
15.876933 1.412506 -30.260384
13.611337 5.560291 -31.248252
11.196837 1.384005 -31.553067
16.002666 4.158133 -30.532475
13.483017 0.000000 -30.804658
31.417061 44.990539 2.231955
36.512508 41.433191 6.739901
29.834324 44.714789 5.757225
34.509622 43.938078 0.000000
40.586059 28.655069 14.138302
39.604120 35.689574 10.844488
25.876116 42.614147 12.174617
34.541548 40.812483 10.202328
27.950666 43.886254 9.113697
32.410494 43.049259 8.031236
39.440690 39.910602 -4.535763
39.440690 39.910602 4.535763
37.238942 42.225858 -2.290069
37.238942 42.225858 2.290069
33.278356 2.544989 19.595056
35.853484 8.116485 19.058451
39.903512 21.331408 16.513854
38.163254 14.390342 18.089566
16.960381 34.830733 21.526577
24.645006 34.210620 21.143326
19.131386 36.965594 19.662489
38.135486 27.706362 17.123473
32.032754 31.904114 19.717827
37.959162 31.292350 15.767149
23.608003 40.906519 15.060376
27.155791 36.201985 18.978147
21.371360 39.026614 17.500903
27.995120 40.577726 14.396341
23.157483 36.794351 19.444854
36.225626 37.931685 12.333492
31.161194 35.079149 18.197503
37.337294 34.763390 14.155949
32.286926 39.607021 13.486029
34.759980 33.458702 17.136026
29.775518 38.021526 16.433197
42.626577 26.344673 -12.030478
45.458537 28.094921 -4.205797
42.645805 30.036175 -10.496431
42.626577 26.344673 12.030478
45.458537 28.094921 4.205797
42.645805 30.036175 10.496431
41.148256 36.913381 -6.749162
44.940223 31.578634 -2.235964
42.171396 33.626935 -8.720842
41.936477 37.650114 -2.294368
44.148716 31.046611 -6.472972
41.148256 36.913381 6.749162
44.940223 31.578634 2.235964
42.171396 33.626935 8.720842
41.936477 37.650114 2.294368
44.148716 31.046611 6.472972
43.792269 34.813569 0.000000
18.906964 -27.075560 1.343203
21.496803 -24.393863 3.968128
18.285172 -27.405267 3.528548
20.302451 -25.849332 0.000000
25.934500 -18.310594 9.034378
23.834071 -21.478266 6.526298
16.794493 -27.658053 7.901747
20.804882 -24.581958 6.145012
17.578123 -27.599986 5.731588
19.585511 -26.014467 4.853238
22.919501 -23.192573 -2.635791
22.919501 -23.192573 2.635791
21.647576 -24.546548 -1.331252
21.647576 -24.546548 1.331252
31.650288 -2.420481 18.636412
30.714978 -6.953234 16.327002
27.798299 -14.860267 11.504177
29.406316 -11.088335 13.938736
12.872272 -26.435177 16.337838
17.210726 -23.890827 14.765343
13.948732 -26.951689 14.335960
25.056186 -18.203931 11.250648
21.245231 -21.159913 13.077545
24.104113 -19.870679 10.012158
15.904753 -27.558794 10.146202
18.205694 -24.270413 12.723265
14.965884 -27.329462 12.255489
18.013115 -26.109238 9.263148
16.128156 -25.625627 13.542475
21.997067 -23.033026 7.489191
20.275732 -22.825038 11.840615
23.079280 -21.488274 8.750208
20.049252 -24.594821 8.374436
22.211478 -21.379968 10.949848
19.177831 -24.488924 10.584302
27.519940 -17.008258 -7.766939
28.239537 -17.452994 -2.612705
26.468291 -18.642073 -6.514652
27.519940 -17.008258 7.766939
28.239537 -17.452994 2.612705
26.468291 -18.642073 6.514652
24.194303 -21.704286 -3.968364
27.010684 -18.979891 -1.343894
25.352546 -20.215798 -5.242785
24.345205 -21.856861 -1.331940
26.829310 -18.867120 -3.933645
24.194303 -21.704286 3.968364
27.010684 -18.979891 1.343894
25.352546 -20.215798 5.242785
24.345205 -21.856861 1.331940
26.829310 -18.867120 3.933645
25.717683 -20.444804 0.000000
2.224257 -17.125586 29.084446
6.488144 -15.234918 28.660509
3.604918 -18.680926 27.998412
2.206683 -14.932018 29.937684
14.511586 -11.234243 27.146040
10.562765 -13.278061 28.012501
6.346539 -21.487181 25.388127
7.854261 -16.693566 27.491841
4.991764 -20.144539 26.756996
5.767543 -17.688394 27.773126
2.183425 -10.472971 31.282208
6.468856 -13.086779 29.523052
2.195443 -12.699932 30.672376
4.371834 -14.015350 29.758657
30.000195 -1.488292 20.949248
26.113123 -4.247799 23.011880
29.754460 -3.831017 19.852586
18.390752 -9.073927 26.048032
22.246925 -6.759860 24.687038
28.911306 -8.259794 17.555492
25.932392 -6.482595 21.947818
29.382943 -6.101848 18.713669
27.836265 -5.193112 20.957088
11.511112 -25.636263 18.625371
13.215560 -21.469444 21.383225
10.306349 -24.812372 20.454546
13.790490 -24.467370 17.868695
15.917148 -12.540819 25.754487
14.677271 -17.108067 23.748323
13.973048 -13.595622 26.269411
7.746081 -22.751597 23.823092
11.961673 -20.483031 23.058401
9.040396 -23.844669 22.200900
8.529463 -20.420402 25.050118
11.171507 -22.661108 21.812765
18.112602 -21.955139 16.277245
15.461771 -20.331759 20.629598
16.001209 -23.232066 17.081637
14.658619 -22.418506 19.306188
9.987772 -15.656405 27.128472
12.709963 -18.186659 24.245037
11.986844 -14.637826 26.730389
9.279080 -18.044097 26.154144
13.369688 -15.922379 25.298673
10.660351 -19.315625 24.664879
2.183525 -1.349493 32.615402
6.502344 -4.018670 31.839402
2.182939 -3.612141 32.449801
14.609967 -9.029456 28.027129
10.676515 -6.598449 30.300784
12.636938 -10.074660 28.480150
2.189538 -8.135116 31.795135
6.488200 -6.273688 31.443297
2.183461 -5.887611 32.175512
4.354728 -9.523764 31.134580
4.359421 -4.957852 32.041473
8.608432 -12.077810 29.225932
8.642549 -7.605512 30.625847
10.627531 -11.096822 28.880980
6.508760 -10.846685 30.271761
10.667459 -8.857462 29.647330
6.517147 -8.561591 30.915056
26.103918 -16.133109 12.710970
24.035954 -14.855037 17.315274
26.910144 -14.313862 13.927231
24.203234 -17.675795 13.641616
18.207886 -11.253093 25.061630
21.378511 -13.212647 21.464711
20.120636 -10.138103 24.407322
17.603746 -13.586011 24.104578
28.306595 -10.421516 16.336325
24.643840 -12.919027 18.485809
27.651606 -12.399950 15.142293
27.044677 -9.595027 18.658487
25.851277 -13.661726 16.270175
20.257349 -20.554098 15.405185
22.015132 -16.321723 18.162096
22.244135 -19.156024 14.544604
19.039294 -19.874411 17.688048
23.179931 -17.043304 15.965301
23.947634 -7.786576 22.870538
23.242014 -12.056923 20.646136
22.043645 -8.976360 23.675771
25.579633 -8.709760 20.852053
21.749262 -11.138983 22.595135
25.144127 -10.867486 19.690935
16.248430 -18.080539 21.916273
20.639210 -15.468976 20.341232
16.947246 -15.875319 23.049286
17.691157 -19.042641 19.877904
19.191113 -14.571245 22.284880
19.887060 -17.699306 19.051412
2.278996 17.547047 29.800215
6.928833 16.269706 30.607191
3.766393 19.517702 29.252546
2.253425 15.248307 30.571821
16.256232 12.584872 30.409656
11.627462 14.616452 30.836082
6.965859 23.583984 27.865599
8.586921 18.250771 30.056328
5.337306 21.538990 28.609177
6.173216 18.932546 29.726610
2.215211 10.625432 31.737600
6.839623 13.836858 31.215189
2.234601 12.926449 31.219451
4.548922 14.583063 30.964076
30.871181 1.531501 21.557461
28.129188 4.575750 24.788514
32.122944 4.135970 21.432871
28.874288 0.000000 22.678297
20.664053 10.195565 29.267858
24.678860 7.498817 27.385715
34.495014 9.855028 20.946025
29.166218 7.290988 24.684759
33.342150 6.924042 21.235243
30.742125 5.735227 23.144822
24.888045 -2.828479 24.595011
26.056996 2.961328 25.750198
26.866736 -1.457085 23.693748
27.546948 1.493976 24.293626
14.476083 32.239513 23.422794
16.436429 26.701933 26.594702
12.485659 30.059027 24.779725
18.114198 32.138581 23.471036
18.363779 14.468473 29.713218
17.706108 20.638529 28.649085
15.993486 15.561487 30.067847
8.768369 25.754235 26.967140
14.351113 24.574680 27.664501
10.570755 27.881097 25.959071
9.639294 23.077451 28.309572
13.502115 27.388686 26.363361
25.499988 30.909737 22.916063
19.824211 26.068234 26.450107
21.839211 31.708229 23.313830
19.075076 29.172919 25.122900
11.130793 17.448156 30.233109
15.062823 21.553362 28.733264
13.560426 16.559416 30.239439
10.430642 20.283423 29.399952
15.597241 18.575241 29.513740
12.363688 22.401923 28.605893
2.187545 1.351977 32.675440
6.610853 4.085732 32.370726
2.193742 3.630017 32.610387
4.380951 0.000000 32.516555
15.982387 9.877658 30.659919
11.178379 6.908618 31.725113
13.776777 10.983385 31.049031
2.214247 8.226920 32.153938
6.659266 6.439099 32.272321
2.201161 5.935337 32.436333
4.471800 9.779798 31.971592
4.419332 5.025987 32.481817
8.735268 -2.681296 31.604495
8.865587 2.721297 32.075993
6.582408 -1.355160 32.156881
6.619295 1.362754 32.337084
9.226790 12.945381 31.325283
9.019792 7.937489 31.962648
11.506475 12.014578 31.269566
6.815411 11.357712 31.697973
11.356892 9.429916 31.563422
6.756227 8.875672 32.049172
37.864473 23.401531 18.437622
32.260201 19.937901 23.239943
37.315168 19.848432 19.312307
35.418694 25.866526 19.962961
21.099225 13.040038 29.041316
26.556511 16.412827 26.663589
23.297983 11.739060 28.261601
21.010367 16.215133 28.769220
35.594000 13.104489 20.542037
31.727488 16.632483 23.799386
36.536282 16.384151 20.007630
32.876864 11.664196 22.682192
34.546490 18.256918 21.742733
29.202003 29.629782 22.207360
29.623486 21.962454 24.438854
32.478100 27.969229 21.236209
26.188737 27.337448 24.330084
32.529719 23.917840 22.405017
27.332336 8.887113 26.103006
28.809408 14.945040 25.591714
25.395316 10.341189 27.275602
30.095592 10.247426 24.533381
26.029818 13.331290 27.042171
30.961168 13.381656 24.246392
20.407060 22.708079 27.525532
26.596299 19.933782 26.212316
20.785452 19.470755 28.269481
23.224591 24.998792 26.095309
23.774760 18.051473 27.607448
26.541182 23.621415 25.425930
16.942174 -7.736761 27.413013
17.742419 -2.656032 28.707837
18.896369 -6.603518 26.829343
15.025202 -6.556580 28.727720
18.522044 8.458220 29.969297
18.287416 2.737618 29.589661
20.562314 7.185699 29.194677
16.041958 7.000264 30.671725
22.828314 -4.173879 25.447284
19.753509 -1.398671 28.111637
20.868933 -5.412170 26.171640
23.423511 -1.427410 26.090214
19.354382 -4.035235 27.522203
10.952249 -4.046853 30.817001
15.659657 -1.393176 29.846270
13.011666 -5.315323 29.871557
11.090283 -1.370834 31.252794
15.377883 -3.995789 29.340414
24.317368 4.446135 27.107170
20.102547 1.423385 28.608361
22.513066 5.838561 28.233540
23.927201 1.458105 26.651248
20.370880 4.247167 28.967678
21.813325 0.000000 27.439158
11.267792 4.163446 31.704864
15.876933 1.412506 30.260384
13.611337 5.560291 31.248252
11.196837 1.384005 31.553067
16.002666 4.158133 30.532475
13.483017 0.000000 30.804658
33.677230 0.000000 -17.720542
36.651538 0.000000 -13.212292
35.073306 2.585225 -17.493512
33.245592 -2.450506 -16.581904
39.921162 0.000000 -2.766834
38.794732 0.000000 -8.171127
37.796325 8.281629 -16.754100
38.144764 2.662416 -12.770486
36.461855 5.356599 -17.172337
36.716420 2.628058 -15.202476
32.058358 -7.024372 -14.210613
35.938691 -2.508437 -12.031915
32.699556 -4.803881 -15.400417
34.690245 -2.483030 -14.363536
33.677230 0.000000 17.720542
36.651538 0.000000 13.212292
35.073306 2.585225 17.493512
33.245592 -2.450506 16.581904
39.921162 0.000000 2.766834
38.794732 0.000000 8.171127
37.796325 8.281629 16.754100
38.144764 2.662416 12.770486
36.461855 5.356599 17.172337
36.716420 2.628058 15.202476
32.058358 -7.024372 14.210613
35.938691 -2.508437 12.031915
32.699556 -4.803881 15.400417
34.690245 -2.483030 14.363536
42.088567 21.939907 -13.559608
43.638092 15.375930 -9.502847
41.304501 18.327236 -14.611187
44.012169 23.019290 -10.044978
41.321361 2.766369 -1.709710
43.168284 8.815965 -5.448566
40.979762 2.756760 -4.561651
39.129325 11.525453 -16.170453
42.469855 11.984903 -10.546811
40.289473 14.825592 -15.480260
39.596335 8.513645 -14.187776
42.149121 15.165751 -12.592508
46.143639 24.210515 -2.153911
44.884225 15.951688 -5.894144
45.410904 23.800740 -6.184385
44.747809 19.491571 -7.962393
39.399084 2.713176 -10.080666
42.327336 8.734078 -8.445314
40.328347 2.736721 -7.379451
39.669049 5.548426 -12.134375
41.807446 5.688136 -6.468963
41.134239 8.671434 -11.391683
28.700510 -14.960987 -9.246399
32.205343 -11.347588 -7.013195
29.630539 -13.147377 -10.481602
29.261427 -15.304342 -6.678389
38.659881 -2.588189 -1.599589
35.554126 -7.260977 -4.487531
38.368305 -2.581084 -4.270958
31.309381 -9.222107 -12.938809
33.222262 -9.375252 -8.250297
30.506281 -11.225604 -11.721304
33.228202 -7.144427 -11.906008
31.447132 -11.315049 -9.395173
29.835712 -15.654118 -1.392683
32.630479 -11.596752 -4.284997
29.643914 -15.536953 -4.037122
30.976901 -13.493140 -5.512008
37.011345 -2.548747 -9.469738
35.022906 -7.226838 -6.987906
37.812211 -2.565973 -6.919038
35.142006 -4.915239 -10.749597
36.719871 -4.995943 -5.681751
34.225967 -7.215114 -9.478512
42.088567 21.939907 13.559608
43.638092 15.375930 9.502847
41.304501 18.327236 14.611187
44.012169 23.019290 10.044978
41.321361 2.766369 1.709710
43.168284 8.815965 5.448566
40.979762 2.756760 4.561651
42.626335 5.743040 0.000000
39.129325 11.525453 16.170453
42.469855 11.984903 10.546811
40.289473 14.825592 15.480260
39.596335 8.513645 14.187776
42.149121 15.165751 12.592508
46.143639 24.210515 2.153911
44.884225 15.951688 5.894144
45.410904 23.800740 6.184385
46.143494 20.196735 0.000000
44.747809 19.491571 7.962393
39.399084 2.713176 10.080666
42.327336 8.734078 8.445314
40.328347 2.736721 7.379451
39.669049 5.548426 12.134375
41.807446 5.688136 6.468963
41.134239 8.671434 11.391683
44.494490 12.297975 -3.774871
44.494490 12.297975 3.774871
43.717635 8.948857 -1.842354
45.541263 16.160651 -1.997566
43.717635 8.948857 1.842354
45.541263 16.160651 1.997566
28.700510 -14.960987 9.246399
32.205343 -11.347588 7.013195
29.630539 -13.147377 10.481602
29.261427 -15.304342 6.678389
38.659881 -2.588189 1.599589
35.554126 -7.260977 4.487531
38.368305 -2.581084 4.270958
37.313823 -5.027286 0.000000
31.309381 -9.222107 12.938809
33.222262 -9.375252 8.250297
30.506281 -11.225604 11.721304
33.228202 -7.144427 11.906008
31.447132 -11.315049 9.395173
29.835712 -15.654118 1.392683
32.630479 -11.596752 4.284997
29.643914 -15.536953 4.037122
31.388142 -13.738405 0.000000
30.976901 -13.493140 5.512008
37.011345 -2.548747 9.469738
35.022906 -7.226838 6.987906
37.812211 -2.565973 6.919038
35.142006 -4.915239 10.749597
36.719871 -4.995943 5.681751
34.225967 -7.215114 9.478512
34.310054 -9.483066 -2.910833
34.310054 -9.483066 2.910833
35.845571 -7.337471 -1.510609
32.892278 -11.672066 -1.442747
35.845571 -7.337471 1.510609
32.892278 -11.672066 1.442747
-18.906964 27.075560 -1.343203
-21.496803 24.393863 -3.968128
-18.285172 27.405267 -3.528548
-25.934500 18.310594 -9.034378
-23.834071 21.478266 -6.526298
-16.794493 27.658053 -7.901747
-20.804882 24.581958 -6.145012
-17.578123 27.599986 -5.731588
-19.585511 26.014467 -4.853238
-31.650288 2.420481 -18.636412
-30.714978 6.953234 -16.327002
-27.798299 14.860267 -11.504177
-29.406316 11.088335 -13.938736
-12.872272 26.435177 -16.337838
-17.210726 23.890827 -14.765343
-13.948732 26.951689 -14.335960
-25.056186 18.203931 -11.250648
-21.245231 21.159913 -13.077545
-24.104113 19.870679 -10.012158
-15.904753 27.558794 -10.146202
-18.205694 24.270413 -12.723265
-14.965884 27.329462 -12.255489
-18.013115 26.109238 -9.263148
-16.128156 25.625627 -13.542475
-21.997067 23.033026 -7.489191
-20.275732 22.825038 -11.840615
-23.079280 21.488274 -8.750208
-20.049252 24.594821 -8.374436
-22.211478 21.379968 -10.949848
-19.177831 24.488924 -10.584302
-31.417061 -44.990539 -2.231955
-36.512508 -41.433191 -6.739901
-29.834324 -44.714789 -5.757225
-40.586059 -28.655069 -14.138302
-39.604120 -35.689574 -10.844488
-25.876116 -42.614147 -12.174617
-34.541548 -40.812483 -10.202328
-27.950666 -43.886254 -9.113697
-32.410494 -43.049259 -8.031236
-33.278356 -2.544989 -19.595056
-35.853484 -8.116485 -19.058451
-39.903512 -21.331408 -16.513854
-38.163254 -14.390342 -18.089566
-16.960381 -34.830733 -21.526577
-24.645006 -34.210620 -21.143326
-19.131386 -36.965594 -19.662489
-38.135486 -27.706362 -17.123473
-32.032754 -31.904114 -19.717827
-37.959162 -31.292350 -15.767149
-23.608003 -40.906519 -15.060376
-27.155791 -36.201985 -18.978147
-21.371360 -39.026614 -17.500903
-27.995120 -40.577726 -14.396341
-23.157483 -36.794351 -19.444854
-36.225626 -37.931685 -12.333492
-31.161194 -35.079149 -18.197503
-37.337294 -34.763390 -14.155949
-32.286926 -39.607021 -13.486029
-34.759980 -33.458702 -17.136026
-29.775518 -38.021526 -16.433197
-2.278996 -17.547047 -29.800215
-6.928833 -16.269706 -30.607191
-3.766393 -19.517702 -29.252546
-2.253425 -15.248307 -30.571821
-16.256232 -12.584872 -30.409656
-11.627462 -14.616452 -30.836082
-6.965859 -23.583984 -27.865599
-8.586921 -18.250771 -30.056328
-5.337306 -21.538990 -28.609177
-6.173216 -18.932546 -29.726610
-2.215211 -10.625432 -31.737600
-6.839623 -13.836858 -31.215189
-2.234601 -12.926449 -31.219451
-4.548922 -14.583063 -30.964076
-30.871181 -1.531501 -21.557461
-28.129188 -4.575750 -24.788514
-32.122944 -4.135970 -21.432871
-20.664053 -10.195565 -29.267858
-24.678860 -7.498817 -27.385715
-34.495014 -9.855028 -20.946025
-29.166218 -7.290988 -24.684759
-33.342150 -6.924042 -21.235243
-30.742125 -5.735227 -23.144822
-14.476083 -32.239513 -23.422794
-16.436429 -26.701933 -26.594702
-12.485659 -30.059027 -24.779725
-18.114198 -32.138581 -23.471036
-18.363779 -14.468473 -29.713218
-17.706108 -20.638529 -28.649085
-15.993486 -15.561487 -30.067847
-8.768369 -25.754235 -26.967140
-14.351113 -24.574680 -27.664501
-10.570755 -27.881097 -25.959071
-9.639294 -23.077451 -28.309572
-13.502115 -27.388686 -26.363361
-25.499988 -30.909737 -22.916063
-19.824211 -26.068234 -26.450107
-21.839211 -31.708229 -23.313830
-19.075076 -29.172919 -25.122900
-11.130793 -17.448156 -30.233109
-15.062823 -21.553362 -28.733264
-13.560426 -16.559416 -30.239439
-10.430642 -20.283423 -29.399952
-15.597241 -18.575241 -29.513740
-12.363688 -22.401923 -28.605893
-2.187545 -1.351977 -32.675440
-6.610853 -4.085732 -32.370726
-2.193742 -3.630017 -32.610387
-15.982387 -9.877658 -30.659919
-11.178379 -6.908618 -31.725113
-13.776777 -10.983385 -31.049031
-2.214247 -8.226920 -32.153938
-6.659266 -6.439099 -32.272321
-2.201161 -5.935337 -32.436333
-4.471800 -9.779798 -31.971592
-4.419332 -5.025987 -32.481817
-9.226790 -12.945381 -31.325283
-9.019792 -7.937489 -31.962648
-11.506475 -12.014578 -31.269566
-6.815411 -11.357712 -31.697973
-11.356892 -9.429916 -31.563422
-6.756227 -8.875672 -32.049172
-37.864473 -23.401531 -18.437622
-32.260201 -19.937901 -23.239943
-37.315168 -19.848432 -19.312307
-35.418694 -25.866526 -19.962961
-21.099225 -13.040038 -29.041316
-26.556511 -16.412827 -26.663589
-23.297983 -11.739060 -28.261601
-21.010367 -16.215133 -28.769220
-35.594000 -13.104489 -20.542037
-31.727488 -16.632483 -23.799386
-36.536282 -16.384151 -20.007630
-32.876864 -11.664196 -22.682192
-34.546490 -18.256918 -21.742733
-29.202003 -29.629782 -22.207360
-29.623486 -21.962454 -24.438854
-32.478100 -27.969229 -21.236209
-26.188737 -27.337448 -24.330084
-32.529719 -23.917840 -22.405017
-27.332336 -8.887113 -26.103006
-28.809408 -14.945040 -25.591714
-25.395316 -10.341189 -27.275602
-30.095592 -10.247426 -24.533381
-26.029818 -13.331290 -27.042171
-30.961168 -13.381656 -24.246392
-20.407060 -22.708079 -27.525532
-26.596299 -19.933782 -26.212316
-20.785452 -19.470755 -28.269481
-23.224591 -24.998792 -26.095309
-23.774760 -18.051473 -27.607448
-26.541182 -23.621415 -25.425930
-2.224257 17.125586 -29.084446
-6.488144 15.234918 -28.660509
-3.604918 18.680926 -27.998412
-2.206683 14.932018 -29.937684
-14.511586 11.234243 -27.146040
-10.562765 13.278061 -28.012501
-6.346539 21.487181 -25.388127
-7.854261 16.693566 -27.491841
-4.991764 20.144539 -26.756996
-5.767543 17.688394 -27.773126
-2.183425 10.472971 -31.282208
-6.468856 13.086779 -29.523052
-2.195443 12.699932 -30.672376
-4.371834 14.015350 -29.758657
-30.000195 1.488292 -20.949248
-26.113123 4.247799 -23.011880
-29.754460 3.831017 -19.852586
-28.874288 0.000000 -22.678297
-18.390752 9.073927 -26.048032
-22.246925 6.759860 -24.687038
-28.911306 8.259794 -17.555492
-25.932392 6.482595 -21.947818
-29.382943 6.101848 -18.713669
-27.836265 5.193112 -20.957088
-26.056996 -2.961328 -25.750198
-24.888045 2.828479 -24.595011
-27.546948 -1.493976 -24.293626
-26.866736 1.457085 -23.693748
-11.511112 25.636263 -18.625371
-13.215560 21.469444 -21.383225
-10.306349 24.812372 -20.454546
-13.790490 24.467370 -17.868695
-15.917148 12.540819 -25.754487
-14.677271 17.108067 -23.748323
-13.973048 13.595622 -26.269411
-7.746081 22.751597 -23.823092
-11.961673 20.483031 -23.058401
-9.040396 23.844669 -22.200900
-8.529463 20.420402 -25.050118
-11.171507 22.661108 -21.812765
-18.112602 21.955139 -16.277245
