21.5591832 42.86452635 -12.91358616
5.493272394 23.72728704 -24.00998306
7.872403961 46.08585551 -12.73781718
0 32.74201819 -20.2356801
0 -7.900416823 -27.81062875
0 7.900416823 -27.81062875
36.17995628 36.61101818 -8.37627811
39.27237833 11.8313973 -19.75247299
25.61878523 29.9949962 -18.53792715
38.8804264 -39.34366274 -9.001483087
42.84814049 -12.90864968 -21.55094175
25.62644599 -30.00396557 -18.54347052
8.022007368 -13.39271092 -26.62773468
26.42877298 -6.046670197 -26.11759788
14.88731559 -20.57376414 -24.08818262
7.730811747 -4.777904421 -27.97033966
27.7533063 -17.1524866 -23.70415348
8.060430529 13.45685824 -26.75527405
26.15949504 5.985061781 -25.85149045
15.07080883 20.82734557 -24.38508093
7.739083003 4.783016337 -28.00026534
27.13764801 16.77198885 -23.17831853
17.03551508 0 -27.56404241
36.17995628 36.61101818 8.37627811
39.27237833 11.8313973 19.75247299
25.61878523 29.9949962 18.53792715
47.02360403 29.06218557 0
38.8804264 -39.34366274 9.001483087
42.84814049 -12.90864968 21.55094175
25.62644599 -30.00396557 18.54347052
58.24721666 -35.99875965 0
8.022007368 -13.39271092 26.62773468
26.42877298 -6.046670197 26.11759788
14.88731559 -20.57376414 24.08818262
7.730811747 -4.777904421 27.97033966
27.7533063 -17.1524866 23.70415348
8.060430529 13.45685824 26.75527405
26.15949504 5.985061781 25.85149045
15.07080883 20.82734557 24.38508093
7.739083003 4.783016337 28.00026534
27.13764801 16.77198885 23.17831853
17.03551508 0 27.56404241
53.39629494 0 -15.16876841
53.39629494 0 15.16876841
52.23048738 14.43615166 -8.922032394
62.82092389 -17.36327632 -10.73109492
52.23048738 14.43615166 8.922032394
62.82092389 -17.36327632 10.73109492
-38.8804264 39.34366274 -9.001483087
-42.84814049 12.90864968 -21.55094175
-25.62644599 30.00396557 -18.54347052
-36.17995628 -36.61101818 -8.37627811
-39.27237833 -11.8313973 -19.75247299
-25.61878523 -29.9949962 -18.53792715
-8.060430529 -13.45685824 -26.75527405
-26.15949504 -5.985061781 -25.85149045
-15.07080883 -20.82734557 -24.38508093
-7.739083003 -4.783016337 -28.00026534
-27.13764801 -16.77198885 -23.17831853
-8.022007368 13.39271092 -26.62773468
-26.42877298 6.046670197 -26.11759788
-14.88731559 20.57376414 -24.08818262
-7.730811747 4.777904421 -27.97033966
-27.7533063 17.1524866 -23.70415348
-17.03551508 0 -27.56404241
-38.8804264 39.34366274 9.001483087
-42.84814049 12.90864968 21.55094175
-25.62644599 30.00396557 18.54347052
-58.24721666 35.99875965 0
-36.17995628 -36.61101818 8.37627811
-39.27237833 -11.8313973 19.75247299
-25.61878523 -29.9949962 18.53792715
-47.02360403 -29.06218557 0
-8.060430529 -13.45685824 26.75527405
-26.15949504 -5.985061781 25.85149045
-15.07080883 -20.82734557 24.38508093
-7.739083003 -4.783016337 28.00026534
-27.13764801 -16.77198885 23.17831853
-8.022007368 13.39271092 26.62773468
-26.42877298 6.046670197 26.11759788
-14.88731559 20.57376414 24.08818262
-7.730811747 4.777904421 27.97033966
-27.7533063 17.1524866 23.70415348
-17.03551508 0 27.56404241
-53.39629494 0 -15.16876841
-53.39629494 0 15.16876841
-62.82092389 17.36327632 -10.73109492
-52.23048738 -14.43615166 -8.922032394
-62.82092389 17.36327632 10.73109492
-52.23048738 -14.43615166 8.922032394
-21.65999799 49.13741378 0
-7.313948901 52.51106658 0
23.20560747 52.64375079 0
7.633379635 54.80444445 0
-23.20560747 -52.64375079 0
-7.633379635 -54.80444445 0
21.65999799 -49.13741378 0
7.313948901 -52.51106658 0
-26.44411246 -47.21371295 7.16180706
-16.78184608 -37.76249619 17.16555889
-19.61031702 -50.598686 7.20713582
-2.612273338 -19.83350291 25.25226144
-8.747202221 -27.99016381 22.38856368
-4.316177076 -51.83499497 6.98372121
-10.52816144 -39.3027534 17.03492306
-11.84733944 -52.0140639 7.147277818
-14.83692853 -45.12480889 13.006013
25.40902103 -45.36564527 6.88147528
16.11621504 -36.26469376 16.48470836
18.35665089 -47.36396734 6.746391508
2.602936629 -19.7626146 25.16200556
8.582409181 -27.46284273 21.96677402
0 -23.67938073 23.96150597
4.213158343 -50.59779468 6.817033398
10.14607617 -37.87638817 16.41669609
11.19036183 -49.12969688 6.750935544
0 -45.52955984 12.58406084
14.06999496 -42.79226878 12.33372102
-6.130272649 -32.92445504 20.34843228
6.016316795 -32.31242119 19.97017455
-2.925791544 -28.13240399 22.36443573
-3.526878493 -39.11368186 17.11982783
2.904388753 -27.92660944 22.2008351
3.475928579 -38.54863866 16.87251175
-25.40902103 45.36564527 6.88147528
-16.11621504 36.26469376 16.48470836
-18.35665089 47.36396734 6.746391508
-2.602936629 19.7626146 25.16200556
-8.582409181 27.46284273 21.96677402
-4.213158343 50.59779468 6.817033398
-10.14607617 37.87638817 16.41669609
-11.19036183 49.12969688 6.750935544
-14.06999496 42.79226878 12.33372102
26.44411246 47.21371295 7.16180706
16.78184608 37.76249619 17.16555889
19.61031702 50.598686 7.20713582
2.612273338 19.83350291 25.25226144
8.747202221 27.99016381 22.38856368
0 23.67938073 23.96150597
4.316177076 51.83499497 6.98372121
10.52816144 39.3027534 17.03492306
11.84733944 52.0140639 7.147277818
0 45.52955984 12.58406084
14.83692853 45.12480889 13.006013
-6.016316795 32.31242119 19.97017455
6.130272649 32.92445504 20.34843228
-2.904388753 27.92660944 22.2008351
-3.475928579 38.54863866 16.87251175
2.925791544 28.13240399 22.36443573
3.526878493 39.11368186 17.11982783
0 -11.9716627 27.15866104
0 -3.927212565 28.19572891
0 11.9716627 27.15866104
0 3.927212565 28.19572891
-26.44411246 -47.21371295 -7.16180706
-16.78184608 -37.76249619 -17.16555889
-19.61031702 -50.598686 -7.20713582
-2.612273338 -19.83350291 -25.25226144
-8.747202221 -27.99016381 -22.38856368
-4.316177076 -51.83499497 -6.98372121
-10.52816144 -39.3027534 -17.03492306
-11.84733944 -52.0140639 -7.147277818
-14.83692853 -45.12480889 -13.006013
25.40902103 -45.36564527 -6.88147528
16.11621504 -36.26469376 -16.48470836
18.35665089 -47.36396734 -6.746391508
2.602936629 -19.7626146 -25.16200556
8.582409181 -27.46284273 -21.96677402
0 -23.67938073 -23.96150597
4.213158343 -50.59779468 -6.817033398
10.14607617 -37.87638817 -16.41669609
11.19036183 -49.12969688 -6.750935544
0 -45.52955984 -12.58406084
14.06999496 -42.79226878 -12.33372102
-6.130272649 -32.92445504 -20.34843228
6.016316795 -32.31242119 -19.97017455
-2.925791544 -28.13240399 -22.36443573
-3.526878493 -39.11368186 -17.11982783
2.904388753 -27.92660944 -22.2008351
3.475928579 -38.54863866 -16.87251175
-25.40902103 45.36564527 -6.88147528
-16.11621504 36.26469376 -16.48470836
-18.35665089 47.36396734 -6.746391508
-2.602936629 19.7626146 -25.16200556
-8.582409181 27.46284273 -21.96677402
-4.213158343 50.59779468 -6.817033398
-10.14607617 37.87638817 -16.41669609
-11.19036183 49.12969688 -6.750935544
-14.06999496 42.79226878 -12.33372102
26.44411246 47.21371295 -7.16180706
16.78184608 37.76249619 -17.16555889
19.61031702 50.598686 -7.20713582
2.612273338 19.83350291 -25.25226144
8.747202221 27.99016381 -22.38856368
0 23.67938073 -23.96150597
4.316177076 51.83499497 -6.98372121
10.52816144 39.3027534 -17.03492306
11.84733944 52.0140639 -7.147277818
0 45.52955984 -12.58406084
14.83692853 45.12480889 -13.006013
-6.016316795 32.31242119 -19.97017455
6.130272649 32.92445504 -20.34843228
-2.904388753 27.92660944 -22.2008351
-3.475928579 38.54863866 -16.87251175
2.925791544 28.13240399 -22.36443573
3.526878493 39.11368186 -17.11982783
0 -11.9716627 -27.15866104
0 -3.927212565 -28.19572891
0 11.9716627 -27.15866104
0 3.927212565 -28.19572891
33.9089085 43.17324209 -4.466146903
37.56638344 30.04831889 -11.73986529
29.16272544 40.46519862 -10.8749397
38.94183435 5.907052989 -21.81108375
39.07050281 17.76013465 -17.3631309
19.04088053 31.78867793 -19.64648342
32.07461315 27.2842956 -16.86262204
23.8878921 36.26085192 -16.0211577
30.92923239 33.55190824 -14.14122125
34.72922833 -44.21768345 -4.574191339
41.72293921 -33.37303375 -13.03882996
29.11299826 -40.39619888 -10.85639616
40.67089296 -6.169332385 -22.77951892
43.84299243 -19.92954769 -19.48404965
18.54377622 -30.95876418 -19.13356851
33.77364234 -28.72957616 -17.75585455
23.39356303 -35.51048043 -15.68962054
31.89201997 -34.59633638 -14.58141945
4.01403769 -14.8213521 -26.46226318
12.14439513 -11.87292363 -26.71644295
6.82855071 -18.31174748 -25.40875338
3.894382477 -10.59645286 -27.34104658
32.06580216 -3.3171144 -25.18495946
21.23449559 -8.296308313 -26.54734884
33.87109977 -9.102789065 -24.41044693
13.66220982 -25.98706735 -22.10591985
15.83183847 -15.34382202 -25.61645275
10.09905325 -22.08833024 -23.96133277
19.8494388 -24.99964992 -21.8166444
11.29332167 -16.83858649 -25.56029174
3.804478647 -2.351297113 -28.23782989
11.91235113 -7.362237886 -27.48402194
3.839231341 -6.36391617 -27.93987157
7.914105794 -9.028210418 -27.45826192
34.92220802 -21.58311152 -20.91781206
21.70649679 -13.41535279 -25.51751739
34.87915435 -15.41068129 -22.97765859
27.0075698 -23.5689119 -21.44370444
27.33154132 -11.51950495 -25.19509731
20.93063311 -19.0433191 -23.98437132
4.02719738 14.86994267 -26.54901752
12.19448447 11.92189329 -26.82663443
6.880090698 18.44995942 -25.60053153
3.901623927 10.61615654 -27.39188617
31.67909162 3.277110315 -24.88123123
21.14429354 8.261066411 -26.43457831
32.69731833 8.787337692 -23.56451839
26.583069 0 -26.27007721
13.95467621 26.54337148 -22.57914041
15.91502277 15.42444216 -25.75104777
10.24074603 22.3982362 -24.29751752
20.09679886 25.31119096 -22.08851941
11.3885201 16.9805294 -25.77575532
3.805616996 2.352000652 -28.24627901
11.93371351 7.375440561 -27.53330894
3.842743491 6.369737916 -27.96543112
7.787005128 0 -28.17364922
7.933928607 9.050823777 -27.52703785
32.85459102 20.30525394 -19.67934444
21.60506278 13.35266313 -25.39827455
33.033581 14.59525032 -21.76183341
26.58483856 23.20000364 -21.10806062
26.82736967 11.30701024 -24.7303356
20.95709008 19.06739044 -24.01468831
16.90752638 -5.093647763 -27.35695235
16.90136106 5.091790368 -27.34697666
21.48123367 -2.810248045 -27.02141699
12.20621759 -2.514619115 -27.88755333
21.43856661 2.804666196 -26.96774576
12.21144985 2.515697019 -27.89950747
33.9089085 43.17324209 4.466146903
37.56638344 30.04831889 11.73986529
29.16272544 40.46519862 10.8749397
38.91595893 39.37961862 0
38.94183435 5.907052989 21.81108375
39.07050281 17.76013465 17.3631309
19.04088053 31.78867793 19.64648342
32.07461315 27.2842956 16.86262204
23.8878921 36.26085192 16.0211577
30.92923239 33.55190824 14.14122125
43.94020087 27.15653761 -8.18131724
43.94020087 27.15653761 8.18131724
42.19227865 33.54162356 -4.388029268
42.19227865 33.54162356 4.388029268
34.72922833 -44.21768345 4.574191339
41.72293921 -33.37303375 13.03882996
29.11299826 -40.39619888 10.85639616
42.5314805 -43.0382169 0
40.67089296 -6.169332385 22.77951892
43.84299243 -19.92954769 19.48404965
18.54377622 -30.95876418 19.13356851
33.77364234 -28.72957616 17.75585455
23.39356303 -35.51048043 15.68962054
31.89201997 -34.59633638 14.58141945
52.75397412 -32.60374905 -9.822371982
52.75397412 -32.60374905 9.822371982
48.98274022 -38.93984126 -5.094242468
48.98274022 -38.93984126 5.094242468
4.01403769 -14.8213521 26.46226318
12.14439513 -11.87292363 26.71644295
6.82855071 -18.31174748 25.40875338
3.894382477 -10.59645286 27.34104658
32.06580216 -3.3171144 25.18495946
21.23449559 -8.296308313 26.54734884
33.87109977 -9.102789065 24.41044693
13.66220982 -25.98706735 22.10591985
15.83183847 -15.34382202 25.61645275
10.09905325 -22.08833024 23.96133277
19.8494388 -24.99964992 21.8166444
11.29332167 -16.83858649 25.56029174
3.804478647 -2.351297113 28.23782989
11.91235113 -7.362237886 27.48402194
3.839231341 -6.36391617 27.93987157
7.914105794 -9.028210418 27.45826192
34.92220802 -21.58311152 20.91781206
21.70649679 -13.41535279 25.51751739
34.87915435 -15.41068129 22.97765859
27.0075698 -23.5689119 21.44370444
27.33154132 -11.51950495 25.19509731
20.93063311 -19.0433191 23.98437132
4.02719738 14.86994267 26.54901752
12.19448447 11.92189329 26.82663443
6.880090698 18.44995942 25.60053153
3.901623927 10.61615654 27.39188617
31.67909162 3.277110315 24.88123123
21.14429354 8.261066411 26.43457831
32.69731833 8.787337692 23.56451839
26.583069 0 26.27007721
13.95467621 26.54337148 22.57914041
15.91502277 15.42444216 25.75104777
10.24074603 22.3982362 24.29751752
20.09679886 25.31119096 22.08851941
11.3885201 16.9805294 25.77575532
3.805616996 2.352000652 28.24627901
11.93371351 7.375440561 27.53330894
3.842743491 6.369737916 27.96543112
7.787005128 0 28.17364922
7.933928607 9.050823777 27.52703785
32.85459102 20.30525394 19.67934444
21.60506278 13.35266313 25.39827455
33.033581 14.59525032 21.76183341
26.58483856 23.20000364 21.10806062
26.82736967 11.30701024 24.7303356
20.95709008 19.06739044 24.01468831
16.90752638 -5.093647763 27.35695235
16.90136106 5.091790368 27.34697666
21.48123367 -2.810248045 27.02141699
12.20621759 -2.514619115 27.88755333
21.43856661 2.804666196 26.96774576
12.21144985 2.515697019 27.89950747
45.53052672 0 -20.07006559
60.82759852 0 -8.472308339
45.96978602 6.547808207 -17.81631399
49.48688474 -7.048773946 -19.17942094
45.53052672 0 20.07006559
60.82759852 0 8.472308339
45.96978602 6.547808207 17.81631399
49.48688474 -7.048773946 19.17942094
45.13654234 19.5634519 -12.09087821
59.38312723 8.000679955 -4.944692145
45.75784112 13.18846752 -15.04506801
50.57676501 22.1371517 -4.560504056
53.22658168 7.313890476 -12.12351685
54.22952238 -23.5046062 -14.52664552
66.01138528 -8.893704181 -5.49661147
52.8677745 -15.23771467 -17.38279698
63.81015558 -27.9293287 -5.753758139
58.7914053 -8.078555596 -13.39102701
45.13654234 19.5634519 12.09087821
59.38312723 8.000679955 4.944692145
45.75784112 13.18846752 15.04506801
50.57676501 22.1371517 4.560504056
53.22658168 7.313890476 12.12351685
56.41432826 15.59253684 0
54.22952238 -23.5046062 14.52664552
66.01138528 -8.893704181 5.49661147
52.8677745 -15.23771467 17.38279698
63.81015558 -27.9293287 5.753758139
58.7914053 -8.078555596 13.39102701
68.45005846 -18.91913085 0
-34.72922833 44.21768345 -4.574191339
-41.72293921 33.37303375 -13.03882996
-29.11299826 40.39619888 -10.85639616
-40.67089296 6.169332385 -22.77951892
-43.84299243 19.92954769 -19.48404965
-18.54377622 30.95876418 -19.13356851
-33.77364234 28.72957616 -17.75585455
-23.39356303 35.51048043 -15.68962054
-31.89201997 34.59633638 -14.58141945
-33.9089085 -43.17324209 -4.466146903
-37.56638344 -30.04831889 -11.73986529
-29.16272544 -40.46519862 -10.8749397
-38.94183435 -5.907052989 -21.81108375
-39.07050281 -17.76013465 -17.3631309
-19.04088053 -31.78867793 -19.64648342
-32.07461315 -27.2842956 -16.86262204
-23.8878921 -36.26085192 -16.0211577
-30.92923239 -33.55190824 -14.14122125
-4.02719738 -14.86994267 -26.54901752
-12.19448447 -11.92189329 -26.82663443
-6.880090698 -18.44995942 -25.60053153
-3.901623927 -10.61615654 -27.39188617
-31.67909162 -3.277110315 -24.88123123
-21.14429354 -8.261066411 -26.43457831
-32.69731833 -8.787337692 -23.56451839
-13.95467621 -26.54337148 -22.57914041
-15.91502277 -15.42444216 -25.75104777
-10.24074603 -22.3982362 -24.29751752
-20.09679886 -25.31119096 -22.08851941
-11.3885201 -16.9805294 -25.77575532
-3.805616996 -2.352000652 -28.24627901
-11.93371351 -7.375440561 -27.53330894
-3.842743491 -6.369737916 -27.96543112
-7.933928607 -9.050823777 -27.52703785
-32.85459102 -20.30525394 -19.67934444
-21.60506278 -13.35266313 -25.39827455
-33.033581 -14.59525032 -21.76183341
-26.58483856 -23.20000364 -21.10806062
-26.82736967 -11.30701024 -24.7303356
-20.95709008 -19.06739044 -24.01468831
-4.01403769 14.8213521 -26.46226318
-12.14439513 11.87292363 -26.71644295
-6.82855071 18.31174748 -25.40875338
-3.894382477 10.59645286 -27.34104658
-32.06580216 3.3171144 -25.18495946
-21.23449559 8.296308313 -26.54734884
-33.87109977 9.102789065 -24.41044693
-26.583069 0 -26.27007721
-13.66220982 25.98706735 -22.10591985
-15.83183847 15.34382202 -25.61645275
-10.09905325 22.08833024 -23.96133277
-19.8494388 24.99964992 -21.8166444
-11.29332167 16.83858649 -25.56029174
-3.804478647 2.351297113 -28.23782989
-11.91235113 7.362237886 -27.48402194
-3.839231341 6.36391617 -27.93987157
-7.787005128 0 -28.17364922
-7.914105794 9.028210418 -27.45826192
-34.92220802 21.58311152 -20.91781206
-21.70649679 13.41535279 -25.51751739
-34.87915435 15.41068129 -22.97765859
-27.0075698 23.5689119 -21.44370444
-27.33154132 11.51950495 -25.19509731
-20.93063311 19.0433191 -23.98437132
-16.90136106 -5.091790368 -27.34697666
-16.90752638 5.093647763 -27.35695235
-21.43856661 -2.804666196 -26.96774576
-12.21144985 -2.515697019 -27.89950747
-21.48123367 2.810248045 -27.02141699
-12.20621759 2.514619115 -27.88755333
-34.72922833 44.21768345 4.574191339
-41.72293921 33.37303375 13.03882996
-29.11299826 40.39619888 10.85639616
-42.5314805 43.0382169 0
-40.67089296 6.169332385 22.77951892
-43.84299243 19.92954769 19.48404965
-18.54377622 30.95876418 19.13356851
-33.77364234 28.72957616 17.75585455
-23.39356303 35.51048043 15.68962054
-31.89201997 34.59633638 14.58141945
-52.75397412 32.60374905 -9.822371982
-52.75397412 32.60374905 9.822371982
-48.98274022 38.93984126 -5.094242468
-48.98274022 38.93984126 5.094242468
-33.9089085 -43.17324209 4.466146903
-37.56638344 -30.04831889 11.73986529
-29.16272544 -40.46519862 10.8749397
-38.91595893 -39.37961862 0
-38.94183435 -5.907052989 21.81108375
-39.07050281 -17.76013465 17.3631309
-19.04088053 -31.78867793 19.64648342
-32.07461315 -27.2842956 16.86262204
-23.8878921 -36.26085192 16.0211577
-30.92923239 -33.55190824 14.14122125
-43.94020087 -27.15653761 -8.18131724
-43.94020087 -27.15653761 8.18131724
-42.19227865 -33.54162356 -4.388029268
-42.19227865 -33.54162356 4.388029268
-4.02719738 -14.86994267 26.54901752
-12.19448447 -11.92189329 26.82663443
-6.880090698 -18.44995942 25.60053153
-3.901623927 -10.61615654 27.39188617
-31.67909162 -3.277110315 24.88123123
-21.14429354 -8.261066411 26.43457831
-32.69731833 -8.787337692 23.56451839
-13.95467621 -26.54337148 22.57914041
-15.91502277 -15.42444216 25.75104777
-10.24074603 -22.3982362 24.29751752
-20.09679886 -25.31119096 22.08851941
-11.3885201 -16.9805294 25.77575532
-3.805616996 -2.352000652 28.24627901
-11.93371351 -7.375440561 27.53330894
-3.842743491 -6.369737916 27.96543112
-7.933928607 -9.050823777 27.52703785
-32.85459102 -20.30525394 19.67934444
-21.60506278 -13.35266313 25.39827455
-33.033581 -14.59525032 21.76183341
-26.58483856 -23.20000364 21.10806062
-26.82736967 -11.30701024 24.7303356
-20.95709008 -19.06739044 24.01468831
-4.01403769 14.8213521 26.46226318
-12.14439513 11.87292363 26.71644295
-6.82855071 18.31174748 25.40875338
-3.894382477 10.59645286 27.34104658
-32.06580216 3.3171144 25.18495946
-21.23449559 8.296308313 26.54734884
-33.87109977 9.102789065 24.41044693
-26.583069 0 26.27007721
-13.66220982 25.98706735 22.10591985
-15.83183847 15.34382202 25.61645275
-10.09905325 22.08833024 23.96133277
-19.8494388 24.99964992 21.8166444
-11.29332167 16.83858649 25.56029174
-3.804478647 2.351297113 28.23782989
-11.91235113 7.362237886 27.48402194
-3.839231341 6.36391617 27.93987157
-7.787005128 0 28.17364922
-7.914105794 9.028210418 27.45826192
-34.92220802 21.58311152 20.91781206
-21.70649679 13.41535279 25.51751739
-34.87915435 15.41068129 22.97765859
-27.0075698 23.5689119 21.44370444
-27.33154132 11.51950495 25.19509731
-20.93063311 19.0433191 23.98437132
-16.90136106 -5.091790368 27.34697666
-16.90752638 5.093647763 27.35695235
-21.43856661 -2.804666196 26.96774576
-12.21144985 -2.515697019 27.89950747
-21.48123367 2.810248045 27.02141699
-12.20621759 2.514619115 27.88755333
-45.53052672 0 -20.07006559
-60.82759852 0 -8.472308339
-49.48688474 7.048773946 -19.17942094
-45.96978602 -6.547808207 -17.81631399
-45.53052672 0 20.07006559
-60.82759852 0 8.472308339
-49.48688474 7.048773946 19.17942094
-45.96978602 -6.547808207 17.81631399
-54.22952238 23.5046062 -14.52664552
-66.01138528 8.893704181 -5.49661147
-52.8677745 15.23771467 -17.38279698
-63.81015558 27.9293287 -5.753758139
-58.7914053 8.078555596 -13.39102701
-45.13654234 -19.5634519 -12.09087821
-59.38312723 -8.000679955 -4.944692145
-45.75784112 -13.18846752 -15.04506801
-50.57676501 -22.1371517 -4.560504056
-53.22658168 -7.313890476 -12.12351685
-54.22952238 23.5046062 14.52664552
-66.01138528 8.893704181 5.49661147
-52.8677745 15.23771467 17.38279698
-63.81015558 27.9293287 5.753758139
-58.7914053 8.078555596 13.39102701
-68.45005846 18.91913085 0
-45.13654234 -19.5634519 12.09087821
-59.38312723 -8.000679955 4.944692145
-45.75784112 -13.18846752 15.04506801
-50.57676501 -22.1371517 4.560504056
-53.22658168 -7.313890476 12.12351685
-56.41432826 -15.59253684 0
-25.34514174 48.1674983 0
-18.04273021 50.05140532 0
-3.689368189 53.23191403 0
-10.89705042 51.73682411 0
26.7232643 50.78656892 0
19.44732263 53.94781255 0
3.772065522 54.42510947 0
11.56962675 54.93007014 0
-26.7232643 -50.78656892 0
-19.44732263 -53.94781255 0
-3.772065522 -54.42510947 0
-11.56962675 -54.93007014 0
25.34514174 -48.1674983 0
18.04273021 -50.05140532 0
3.689368189 -53.23191403 0
10.89705042 -51.73682411 0
-28.54501971 -48.4781131 3.7074029
-24.03618991 -45.21779736 10.23637089
-25.25094238 -50.62642699 3.731633741
-14.5648515 -35.19400914 18.81382671
-19.12324738 -40.34399314 15.21264051
-17.88954534 -53.43512095 3.729647159
-20.77808939 -46.87422393 10.27070597
-21.6598259 -52.31195835 3.744343224
-23.136393 -49.12527813 7.216977932
-1.278239047 -17.99253171 25.76605457
-4.013134944 -21.74062104 24.6705401
-10.54994837 -30.28516677 21.38230579
-7.066432687 -25.80664492 23.25586767
-2.214194362 -53.51406115 3.582641735
-6.212996392 -49.22476879 10.05283933
-6.004477604 -53.94144458 3.628708764
-11.58030016 -35.94486216 18.73731926
-9.302229006 -42.71683168 15.0513227
-13.66922819 -38.6416672 17.1457087
-13.8232501 -54.02652912 3.720479929
-9.820464416 -49.21949546 10.15624801
-9.908503484 -54.14949893 3.674637371
-15.76811101 -51.54826442 7.209947535
-8.054903471 -52.05701725 7.082646758
-18.25243586 -44.1673156 13.00938203
-11.36131081 -45.74968031 12.91046305
-15.91551746 -41.42228855 15.24244213
-17.21692536 -48.05031573 10.33134354
-12.60979894 -42.2069949 15.18657502
-13.51990645 -48.81904348 10.2914536
27.55206034 -46.79176651 3.578438181
23.02824863 -43.32161978 9.80711564
23.8524887 -47.8226222 3.524967516
14.05150003 -33.9535642 18.15071624
18.31133245 -38.63110985 14.56675805
16.63849238 -49.69829226 3.468825209
19.65572474 -44.34223116 9.715915912
20.20254172 -48.792383 3.492421894
21.84870053 -46.39113324 6.815305634
1.276326648 -17.96561272 25.72750546
3.987806346 -21.60340675 24.51483384
0 -19.81051805 25.22299683
10.29407579 -29.5506472 20.86371125
6.9677979 -25.44643023 22.93125727
-2.728225977 -23.72326515 24.00591325
2.714296903 -23.60214501 23.88335004
-1.336776295 -21.73739903 24.64839958
1.333863871 -21.69003991 24.59469829
2.185520123 -52.82104387 3.536245842
6.016551168 -47.66835863 9.734984285
5.80368559 -52.13762216 3.507363363
0 -51.29259661 6.91064396
11.19088529 -34.7361315 18.10723277
8.955283762 -41.12362197 14.48995351
13.11890295 -37.08594771 16.45541982
12.94151692 -50.58037981 3.483164493
9.370559794 -46.96460429 9.690960149
9.402309047 -51.38317047 3.486911646
14.76492576 -48.26870489 6.751242428
7.719396101 -49.88870909 6.787636371
-3.894641839 -45.90622845 12.68816949
3.819687259 -45.02273719 12.44397851
-2.058530661 -48.84732823 9.99888793
2.035625259 -48.3038009 9.887629668
17.32463707 -41.92222445 12.34809556
10.83434932 -43.62771394 12.31164862
15.18012162 -39.50832133 14.53814655
16.21029897 -45.2409456 9.727298229
12.05211854 -40.34035024 14.51493423
12.77164425 -46.11714274 9.721870827
-9.27807015 -32.87420304 20.31737483
-3.04132518 -32.87229499 20.31619559
-7.490191855 -30.43179706 21.43363885
-8.222743696 -36.02803123 18.84341847
9.04043452 -32.03220877 19.79699376
3.011636459 -32.55140316 20.11787354
7.345410965 -29.84356878 21.01933954
8.000689186 -35.05509724 18.33455352
-4.249088244 -25.90581977 23.23965782
-1.513066708 -30.41084999 21.36912176
-5.810315273 -28.0969539 22.40415359
-1.41452235 -25.85465062 23.21202469
-4.466837213 -30.46593138 21.4244941
-5.588624572 -42.55767757 15.12484208
-1.672698289 -35.83452523 18.80155798
-6.991916316 -39.29383237 17.11588851
-1.857887605 -42.35681625 15.03062646
-4.899926937 -35.97934369 18.85747564
4.210681326 -25.67166067 23.02959779
1.506447705 -30.27781585 21.27564122
5.73054554 -27.71121123 22.09656729
1.410111386 -25.77402698 23.13964166
4.411392052 -30.0877693 21.15855996
0 -28.0528815 22.30121768
5.451549626 -41.51384446 14.75386763
1.662293785 -35.61162761 18.68460869
6.804337205 -38.23965754 16.6567035
1.841867614 -41.99158648 14.90102201
4.814504826 -35.35210342 18.52872678
0 -38.87958484 17.01736494
-27.55206034 46.79176651 3.578438181
-23.02824863 43.32161978 9.80711564
-23.8524887 47.8226222 3.524967516
-14.05150003 33.9535642 18.15071624
-18.31133245 38.63110985 14.56675805
-16.63849238 49.69829226 3.468825209
-19.65572474 44.34223116 9.715915912
-20.20254172 48.792383 3.492421894
-21.84870053 46.39113324 6.815305634
-1.276326648 17.96561272 25.72750546
-3.987806346 21.60340675 24.51483384
-10.29407579 29.5506472 20.86371125
-6.9677979 25.44643023 22.93125727
-2.185520123 52.82104387 3.536245842
-6.016551168 47.66835863 9.734984285
-5.80368559 52.13762216 3.507363363
-11.19088529 34.7361315 18.10723277
-8.955283762 41.12362197 14.48995351
-13.11890295 37.08594771 16.45541982
-12.94151692 50.58037981 3.483164493
-9.370559794 46.96460429 9.690960149
-9.402309047 51.38317047 3.486911646
-14.76492576 48.26870489 6.751242428
-7.719396101 49.88870909 6.787636371
-17.32463707 41.92222445 12.34809556
-10.83434932 43.62771394 12.31164862
-15.18012162 39.50832133 14.53814655
-16.21029897 45.2409456 9.727298229
-12.05211854 40.34035024 14.51493423
-12.77164425 46.11714274 9.721870827
28.54501971 48.4781131 3.7074029
24.03618991 45.21779736 10.23637089
25.25094238 50.62642699 3.731633741
14.5648515 35.19400914 18.81382671
19.12324738 40.34399314 15.21264051
17.88954534 53.43512095 3.729647159
20.77808939 46.87422393 10.27070597
21.6598259 52.31195835 3.744343224
23.136393 49.12527813 7.216977932
1.278239047 17.99253171 25.76605457
4.013134944 21.74062104 24.6705401
0 19.81051805 25.22299683
10.54994837 30.28516677 21.38230579
7.066432687 25.80664492 23.25586767
-2.714296903 23.60214501 23.88335004
2.728225977 23.72326515 24.00591325
-1.333863871 21.69003991 24.59469829
1.336776295 21.73739903 24.64839958
2.214194362 53.51406115 3.582641735
6.212996392 49.22476879 10.05283933
6.004477604 53.94144458 3.628708764
0 51.29259661 6.91064396
11.58030016 35.94486216 18.73731926
9.302229006 42.71683168 15.0513227
13.66922819 38.6416672 17.1457087
13.8232501 54.02652912 3.720479929
9.820464416 49.21949546 10.15624801
9.908503484 54.14949893 3.674637371
15.76811101 51.54826442 7.209947535
8.054903471 52.05701725 7.082646758
-3.819687259 45.02273719 12.44397851
3.894641839 45.90622845 12.68816949
-2.035625259 48.3038009 9.887629668
2.058530661 48.84732823 9.99888793
18.25243586 44.1673156 13.00938203
11.36131081 45.74968031 12.91046305
15.91551746 41.42228855 15.24244213
17.21692536 48.05031573 10.33134354
12.60979894 42.2069949 15.18657502
13.51990645 48.81904348 10.2914536
-9.04043452 32.03220877 19.79699376
-3.011636459 32.55140316 20.11787354
-7.345410965 29.84356878 21.01933954
-8.000689186 35.05509724 18.33455352
9.27807015 32.87420304 20.31737483
3.04132518 32.87229499 20.31619559
7.490191855 30.43179706 21.43363885
8.222743696 36.02803123 18.84341847
-4.210681326 25.67166067 23.02959779
-1.506447705 30.27781585 21.27564122
-5.73054554 27.71121123 22.09656729
-1.410111386 25.77402698 23.13964166
-4.411392052 30.0877693 21.15855996
-5.451549626 41.51384446 14.75386763
-1.662293785 35.61162761 18.68460869
-6.804337205 38.23965754 16.6567035
-1.841867614 41.99158648 14.90102201
-4.814504826 35.35210342 18.52872678
4.249088244 25.90581977 23.23965782
1.513066708 30.41084999 21.36912176
5.810315273 28.0969539 22.40415359
1.41452235 25.85465062 23.21202469
4.466837213 30.46593138 21.4244941
0 28.0528815 22.30121768
5.588624572 42.55767757 15.12484208
1.672698289 35.83452523 18.80155798
6.991916316 39.29383237 17.11588851
1.857887605 42.35681625 15.03062646
4.899926937 35.97934369 18.85747564
0 38.87958484 17.01736494
0 -14.0633944 26.7269575
0 -9.920134391 27.51893209
0 -1.960803588 28.29138288
0 -5.905024172 28.03576978
0 14.0633944 26.7269575
0 9.920134391 27.51893209
0 1.960803588 28.29138288
0 5.905024172 28.03576978
-28.54501971 -48.4781131 -3.7074029
-24.03618991 -45.21779736 -10.23637089
-25.25094238 -50.62642699 -3.731633741
-14.5648515 -35.19400914 -18.81382671
-19.12324738 -40.34399314 -15.21264051
-17.88954534 -53.43512095 -3.729647159
-20.77808939 -46.87422393 -10.27070597
-21.6598259 -52.31195835 -3.744343224
-23.136393 -49.12527813 -7.216977932
-1.278239047 -17.99253171 -25.76605457
-4.013134944 -21.74062104 -24.6705401
-10.54994837 -30.28516677 -21.38230579
-7.066432687 -25.80664492 -23.25586767
-2.214194362 -53.51406115 -3.582641735
-6.212996392 -49.22476879 -10.05283933
-6.004477604 -53.94144458 -3.628708764
-11.58030016 -35.94486216 -18.73731926
-9.302229006 -42.71683168 -15.0513227
-13.66922819 -38.6416672 -17.1457087
-13.8232501 -54.02652912 -3.720479929
-9.820464416 -49.21949546 -10.15624801
-9.908503484 -54.14949893 -3.674637371
-15.76811101 -51.54826442 -7.209947535
-8.054903471 -52.05701725 -7.082646758
-18.25243586 -44.1673156 -13.00938203
-11.36131081 -45.74968031 -12.91046305
-15.91551746 -41.42228855 -15.24244213
-17.21692536 -48.05031573 -10.33134354
-12.60979894 -42.2069949 -15.18657502
-13.51990645 -48.81904348 -10.2914536
27.55206034 -46.79176651 -3.578438181
23.02824863 -43.32161978 -9.80711564
23.8524887 -47.8226222 -3.524967516
14.05150003 -33.9535642 -18.15071624
18.31133245 -38.63110985 -14.56675805
16.63849238 -49.69829226 -3.468825209
19.65572474 -44.34223116 -9.715915912
20.20254172 -48.792383 -3.492421894
21.84870053 -46.39113324 -6.815305634
1.276326648 -17.96561272 -25.72750546
3.987806346 -21.60340675 -24.51483384
0 -19.81051805 -25.22299683
10.29407579 -29.5506472 -20.86371125
6.9677979 -25.44643023 -22.93125727
-2.728225977 -23.72326515 -24.00591325
2.714296903 -23.60214501 -23.88335004
-1.336776295 -21.73739903 -24.64839958
1.333863871 -21.69003991 -24.59469829
2.185520123 -52.82104387 -3.536245842
6.016551168 -47.66835863 -9.734984285
5.80368559 -52.13762216 -3.507363363
0 -51.29259661 -6.91064396
11.19088529 -34.7361315 -18.10723277
8.955283762 -41.12362197 -14.48995351
13.11890295 -37.08594771 -16.45541982
12.94151692 -50.58037981 -3.483164493
9.370559794 -46.96460429 -9.690960149
9.402309047 -51.38317047 -3.486911646
14.76492576 -48.26870489 -6.751242428
7.719396101 -49.88870909 -6.787636371
-3.894641839 -45.90622845 -12.68816949
3.819687259 -45.02273719 -12.44397851
-2.058530661 -48.84732823 -9.99888793
2.035625259 -48.3038009 -9.887629668
17.32463707 -41.92222445 -12.34809556
10.83434932 -43.62771394 -12.31164862
15.18012162 -39.50832133 -14.53814655
16.21029897 -45.2409456 -9.727298229
12.05211854 -40.34035024 -14.51493423
12.77164425 -46.11714274 -9.721870827
-9.27807015 -32.87420304 -20.31737483
-3.04132518 -32.87229499 -20.31619559
-7.490191855 -30.43179706 -21.43363885
-8.222743696 -36.02803123 -18.84341847
9.04043452 -32.03220877 -19.79699376
3.011636459 -32.55140316 -20.11787354
7.345410965 -29.84356878 -21.01933954
8.000689186 -35.05509724 -18.33455352
-4.249088244 -25.90581977 -23.23965782
-1.513066708 -30.41084999 -21.36912176
-5.810315273 -28.0969539 -22.40415359
-1.41452235 -25.85465062 -23.21202469
-4.466837213 -30.46593138 -21.4244941
-5.588624572 -42.55767757 -15.12484208
-1.672698289 -35.83452523 -18.80155798
-6.991916316 -39.29383237 -17.11588851
-1.857887605 -42.35681625 -15.03062646
-4.899926937 -35.97934369 -18.85747564
4.210681326 -25.67166067 -23.02959779
1.506447705 -30.27781585 -21.27564122
5.73054554 -27.71121123 -22.09656729
1.410111386 -25.77402698 -23.13964166
4.411392052 -30.0877693 -21.15855996
0 -28.0528815 -22.30121768
5.451549626 -41.51384446 -14.75386763
1.662293785 -35.61162761 -18.68460869
6.804337205 -38.23965754 -16.6567035
1.841867614 -41.99158648 -14.90102201
4.814504826 -35.35210342 -18.52872678
0 -38.87958484 -17.01736494
-27.55206034 46.79176651 -3.578438181
-23.02824863 43.32161978 -9.80711564
-23.8524887 47.8226222 -3.524967516
-14.05150003 33.9535642 -18.15071624
-18.31133245 38.63110985 -14.56675805
-16.63849238 49.69829226 -3.468825209
-19.65572474 44.34223116 -9.715915912
-20.20254172 48.792383 -3.492421894
-21.84870053 46.39113324 -6.815305634
-1.276326648 17.96561272 -25.72750546
-3.987806346 21.60340675 -24.51483384
-10.29407579 29.5506472 -20.86371125
-6.9677979 25.44643023 -22.93125727
-2.185520123 52.82104387 -3.536245842
-6.016551168 47.66835863 -9.734984285
-5.80368559 52.13762216 -3.507363363
-11.19088529 34.7361315 -18.10723277
-8.955283762 41.12362197 -14.48995351
-13.11890295 37.08594771 -16.45541982
-12.94151692 50.58037981 -3.483164493
-9.370559794 46.96460429 -9.690960149
-9.402309047 51.38317047 -3.486911646
-14.76492576 48.26870489 -6.751242428
-7.719396101 49.88870909 -6.787636371
-17.32463707 41.92222445 -12.34809556
-10.83434932 43.62771394 -12.31164862
-15.18012162 39.50832133 -14.53814655
-16.21029897 45.2409456 -9.727298229
-12.05211854 40.34035024 -14.51493423
-12.77164425 46.11714274 -9.721870827
28.54501971 48.4781131 -3.7074029
24.03618991 45.21779736 -10.23637089
25.25094238 50.62642699 -3.731633741
14.5648515 35.19400914 -18.81382671
19.12324738 40.34399314 -15.21264051
17.88954534 53.43512095 -3.729647159
20.77808939 46.87422393 -10.27070597
21.6598259 52.31195835 -3.744343224
23.136393 49.12527813 -7.216977932
1.278239047 17.99253171 -25.76605457
4.013134944 21.74062104 -24.6705401
0 19.81051805 -25.22299683
10.54994837 30.28516677 -21.38230579
7.066432687 25.80664492 -23.25586767
-2.714296903 23.60214501 -23.88335004
2.728225977 23.72326515 -24.00591325
-1.333863871 21.69003991 -24.59469829
1.336776295 21.73739903 -24.64839958
2.214194362 53.51406115 -3.582641735
6.212996392 49.22476879 -10.05283933
6.004477604 53.94144458 -3.628708764
0 51.29259661 -6.91064396
11.58030016 35.94486216 -18.73731926
9.302229006 42.71683168 -15.0513227
13.66922819 38.6416672 -17.1457087
13.8232501 54.02652912 -3.720479929
9.820464416 49.21949546 -10.15624801
9.908503484 54.14949893 -3.674637371
15.76811101 51.54826442 -7.209947535
8.054903471 52.05701725 -7.082646758
-3.819687259 45.02273719 -12.44397851
3.894641839 45.90622845 -12.68816949
-2.035625259 48.3038009 -9.887629668
2.058530661 48.84732823 -9.99888793
18.25243586 44.1673156 -13.00938203
11.36131081 45.74968031 -12.91046305
15.91551746 41.42228855 -15.24244213
17.21692536 48.05031573 -10.33134354
12.60979894 42.2069949 -15.18657502
13.51990645 48.81904348 -10.2914536
-9.04043452 32.03220877 -19.79699376
-3.011636459 32.55140316 -20.11787354
-7.345410965 29.84356878 -21.01933954
-8.000689186 35.05509724 -18.33455352
9.27807015 32.87420304 -20.31737483
3.04132518 32.87229499 -20.31619559
7.490191855 30.43179706 -21.43363885
8.222743696 36.02803123 -18.84341847
-4.210681326 25.67166067 -23.02959779
-1.506447705 30.27781585 -21.27564122
-5.73054554 27.71121123 -22.09656729
-1.410111386 25.77402698 -23.13964166
-4.411392052 30.0877693 -21.15855996
-5.451549626 41.51384446 -14.75386763
-1.662293785 35.61162761 -18.68460869
-6.804337205 38.23965754 -16.6567035
-1.841867614 41.99158648 -14.90102201
-4.814504826 35.35210342 -18.52872678
4.249088244 25.90581977 -23.23965782
1.513066708 30.41084999 -21.36912176
5.810315273 28.0969539 -22.40415359
1.41452235 25.85465062 -23.21202469
4.466837213 30.46593138 -21.4244941
0 28.0528815 -22.30121768
5.588624572 42.55767757 -15.12484208
1.672698289 35.83452523 -18.80155798
6.991916316 39.29383237 -17.11588851
1.857887605 42.35681625 -15.03062646
4.899926937 35.97934369 -18.85747564
0 38.87958484 -17.01736494
0 -14.0633944 -26.7269575
0 -9.920134391 -27.51893209
0 -1.960803588 -28.29138288
0 -5.905024172 -28.03576978
0 14.0633944 -26.7269575
0 9.920134391 -27.51893209
0 1.960803588 -28.29138288
0 5.905024172 -28.03576978
32.19482379 46.10432818 -2.287209023
35.19867365 39.94229456 -6.49737774
30.32061448 45.44362699 -5.85106621
38.07377488 26.88131465 -13.26313842
36.94782376 33.29583147 -10.11713496
25.43312195 41.88460096 -11.96619034
32.73860082 38.68221494 -9.66980278
27.94845468 43.88278238 -9.112976027
31.68538738 42.08613558 -7.851556375
38.49856429 2.944208836 -22.66883354
39.18792505 8.871332944 -20.83092197
38.8225184 20.75353594 -16.06649056
39.22558796 14.79091983 -18.59311793
15.74771376 32.34033518 -19.98742635
22.33972294 31.01057267 -19.16558792
17.98028819 34.74144627 -18.4794355
35.27266296 25.62645119 -15.83801785
28.86311993 28.74720939 -17.76675248
34.82179232 28.70600032 -14.46397563
22.81597611 39.5341432 -14.55511406
24.81312749 33.07892887 -17.34094863
20.35748256 37.17515423 -16.67064355
26.52009345 38.43973794 -13.63781591
21.42339831 34.03910694 -17.98877968
33.5894061 35.17131084 -11.43595623
28.26501953 31.8188336 -16.5061962
34.26549606 31.90335138 -12.99131635
30.12597998 36.95614518 -12.58341646
31.5488756 30.36780928 -15.55301152
27.45409232 35.05720646 -15.15199521
32.09703461 -45.96429001 -2.28026181
36.98613031 -41.97064146 -6.827327136
29.94871614 -44.88623694 -5.779299796
42.71645587 -30.15919736 -14.88043329
40.44857326 -36.45056031 -11.07571794
24.74067031 -40.74423523 -11.64039439
33.80656704 -39.94406786 -9.985241512
27.37823101 -42.98745556 -8.927046799
32.03510449 -42.55064754 -7.93821536
39.30020619 -3.005515048 -23.1408586
41.87658873 -9.479990601 -22.26012097
43.80477878 -23.41692627 -18.12837223
43.51913712 -16.40990236 -20.62828095
15.26902288 -31.35727034 -19.37985887
21.98014035 -30.51142316 -18.85709656
17.38375363 -33.58882441 -17.86634067
38.39136751 -27.89226622 -17.23836855
29.53763229 -29.419013 -18.18194995
37.60805839 -31.00291123 -15.62131079
22.08566865 -38.26871061 -14.08922523
24.56995826 -32.7547546 -17.17100693
19.66680111 -35.91388877 -16.10504787
26.18431845 -37.95304648 -13.46514542
20.88940981 -33.19066584 -17.5404007
35.3401397 -37.00449585 -12.03201657
28.64638399 -32.24814774 -16.72890529
36.58726092 -34.06506181 -13.87158324
30.60116092 -37.5390592 -12.7818963
32.91513926 -31.68292538 -16.22655421
27.48434028 -35.09583127 -15.16868916
2.015244012 -15.51630119 -26.351392
6.011315704 -14.11526872 -26.55418197
3.329861548 -17.25556414 -25.86212166
1.978510562 -13.3880385 -26.84210924
14.28736958 -11.06066402 -26.72661033
10.06122051 -12.64758796 -26.68240344
6.161521999 -20.86077801 -24.64800201
7.447129037 -15.8282407 -26.06677807
4.718892248 -19.04334909 -25.29434032
5.394066247 -16.54298394 -25.9746799
1.926647298 -9.241314987 -27.60331661
5.920051806 -11.97652489 -27.01837974
1.951232998 -11.28725773 -27.26054029
3.957735709 -12.68782164 -26.93992822
34.96503034 -1.734594908 -24.41621069
29.20293456 -4.750415543 -25.73473994
36.18379081 -4.658821704 -24.14232411
18.81705419 -9.284262982 -26.65183212
23.77013895 -7.222697052 -26.37732311
38.15012965 -10.8992733 -23.16548033
29.97891087 -7.494145723 -25.37258007
37.26354481 -7.738383305 -23.73273609
33.03215061 -6.162452055 -24.86891405
12.93283372 -28.80256162 -20.92576453
14.31153271 -23.249915 -23.15654636
11.1065273 -26.73878862 -22.04262399
16.01181098 -28.40848263 -20.7469182
16.20290579 -12.76596187 -26.21685229
15.39345758 -17.94286607 -24.90713756
13.94456897 -13.56791275 -26.21587079
7.763301319 -22.80217548 -23.87605185
12.46682519 -21.34804731 -24.03217746
9.376030167 -24.72992853 -23.02513287
8.423318525 -20.16628203 -24.73838351
11.83056725 -23.9979951 -23.09960417
22.62370351 -27.42325682 -20.33123409
17.27912423 -22.72152251 -23.05436905
19.24948298 -27.94821692 -20.54923938
16.68465802 -25.51707732 -21.97459092
9.623021905 -15.08463877 -26.13774955
13.04408554 -18.664755 -24.88239756
11.74381824 -14.34105254 -26.18844635
9.044603705 -17.58813413 -25.49324602
13.5280959 -16.11103099 -25.59841808
10.72581048 -19.43423206 -24.81633258
1.894755748 -1.171023453 -28.30204148
5.744487365 -3.550288439 -28.12847724
1.899048185 -3.14238288 -28.22971175
14.14665103 -8.743111162 -27.13832294
9.780567639 -6.04472323 -27.75801635
12.04444612 -9.602302558 -27.14483763
1.920433766 -7.135271996 -27.88736204
5.771088023 -5.580285603 -27.96800948
1.906280745 -5.140205006 -28.09097518
3.871282424 -8.466470901 -27.67813345
3.826217057 -4.351453646 -28.12245961
7.97757852 -11.19271 -27.08416337
7.831806947 -6.892052793 -27.75289026
9.981371835 -10.42212897 -27.12500142
5.893703675 -9.821709619 -27.41118048
9.889225458 -8.21127506 -27.48443859
5.845456619 -7.679189914 -27.72879439
39.00297038 -24.10516136 -18.991999
31.180375 -19.27053153 -22.46204693
39.22297547 -20.86322026 -20.29968462
34.47617928 -25.1782005 -19.43173358
19.01670968 -11.75297293 -26.17490756
24.60724984 -15.20811677 -24.70646781
21.50953285 -10.83792084 -26.09212282
18.68893877 -14.42352797 -25.59051842
38.79310103 -14.28228778 -22.38830527
31.19224636 -16.3518941 -23.39789141
39.15667174 -17.55922553 -21.44258117
34.4768468 -12.23184431 -23.78604143
35.0048582 -18.49915402 -22.03121901
26.39374766 -26.78038847 -20.07175552
27.46348965 -20.36106217 -22.65689488
30.25642392 -26.05598321 -19.78353867
23.30607939 -24.32834876 -21.65201279
30.81151099 -22.65450839 -21.22159199
26.93612575 -8.758284739 -25.72461603
27.60579678 -14.32066001 -24.52253262
24.16017157 -9.838227594 -25.94900623
30.51981322 -10.39187172 -24.87919878
24.44001876 -12.51706667 -25.39054116
30.92709449 -13.36692894 -24.2197081
17.83164371 -19.84226922 -24.05174929
24.22459712 -18.1562038 -23.87485545
18.29169272 -17.13472802 -24.877816
20.44356537 -22.0053148 -22.97052902
21.37045202 -16.22595319 -24.81554621
23.84421045 -21.22113403 -22.84228442
2.018930684 15.54468659 -26.39959904
6.037064587 14.17573009 -26.66792421
3.341781336 17.31733327 -25.95469938
1.981292184 13.40686097 -26.87984701
14.32863317 11.09260851 -26.8037999
10.10900947 12.70766168 -26.80913997
6.215966776 21.04510916 -24.86579803
7.492984502 15.9257026 -26.22728344
4.746787547 19.1559221 -25.44386549
5.421947761 16.62849335 -26.10894103
1.92815184 9.248531644 -27.62487238
5.939092887 12.01504583 -27.10528086
1.953301455 11.2992231 -27.28943856
3.967630267 12.71954189 -27.00727953
34.66526269 1.719723608 -24.20688182
28.8489846 4.692838816 -25.42282573
35.30927653 4.546224156 -23.55883612
31.9747665 0 -25.11345869
18.79111982 9.271467064 -26.61509957
23.59593494 7.169764134 -26.18401185
36.01389644 10.28896372 -21.86831912
29.38802657 7.34643612 -24.87248655
35.75015789 7.424103808 -22.76887684
32.26181906 6.018739606 -24.28895456
26.58434725 -3.021260053 -26.27134041
26.43644661 3.00445143 -26.12518117
29.24389756 -1.5860076 -25.79016412
29.11863607 1.579214193 -25.67969613
13.27183685 29.5575515 -21.47428312
14.55052311 23.63816875 -23.54324094
11.34457173 27.31187682 -22.51506004
16.41290678 29.120115 -21.26662842
16.24778421 12.80132072 -26.28946709
15.52378895 18.09478245 -25.11801815
14.01217526 13.63369293 -26.34297101
7.860918509 23.08889426 -24.17627375
12.64156161 21.64726393 -24.36901515
9.533142917 25.14432428 -23.41096161
8.512151852 20.37895805 -24.99927747
12.04003755 24.42290012 -23.50860241
22.81186879 27.65134082 -20.5003325
17.51008199 23.02522493 -23.3625204
19.62025467 28.48653828 -20.94504618
17.00054779 26.00019083 -22.39063472
9.685610612 15.18275016 -26.30775103
13.18033898 18.85971975 -25.14230939
11.81522171 14.42824742 -26.34767445
9.121191612 17.73706696 -25.70911776
13.62819067 16.23023696 -25.78782151
10.84532211 19.6507767 -25.09284692
1.89490079 1.171113093 -28.30420797
5.74819365 3.552579049 -28.14662545
1.899450506 3.143048607 -28.23569233
3.811212555 0 -28.2878107
14.17144043 8.758431856 -27.18587786
9.795196869 6.053764592 -27.79953525
12.07793917 9.629004524 -27.22032166
1.921490348 7.139197672 -27.90270508
5.777357811 5.586348101 -27.9983943
1.90697953 5.142089248 -28.10127248
3.876463879 8.477802711 -27.71517879
3.82844645 4.353989074 -28.13884551
7.772066281 -2.385640777 -28.11959997
7.77593823 2.386829274 -28.13360881
5.777916272 -1.189534065 -28.22671627
5.77911767 1.189781404 -28.23258543
8.005671132 11.23212452 -27.17953879
7.845138898 6.903785017 -27.80013353
10.01509094 10.45733705 -27.21663519
5.907574768 9.844825447 -27.4756939
9.912033806 8.230213411 -27.54782825
5.855093238 7.691849562 -27.77450713
35.68634377 22.05537339 -17.37700998
29.99544915 18.53820708 -21.60843756
35.93053236 19.11192615 -18.59569465
32.52050765 23.74995951 -18.32946266
19.00045133 11.74292472 -26.15252931
24.32665222 15.03469791 -24.4247388
21.40548049 10.7854924 -25.96590218
18.7110635 14.44060313 -25.62081352
36.10317952 13.29195104 -20.83589563
30.04790156 15.75199486 -22.53949682
36.07642098 16.17793301 -19.75580536
32.92799439 11.68233578 -22.71746727
32.98961486 17.4341505 -20.76287314
26.15665511 26.53982275 -19.89145283
26.91116084 19.95157301 -22.20123335
29.3287451 25.25709225 -19.17696435
23.32733119 24.35053273 -21.67175633
29.70762216 21.84286177 -20.46128269
26.5408512 8.62976117 -25.3471198
27.02452801 14.01912362 -24.00618518
23.92882549 9.744021499 -25.70053114
29.7025511 10.11359731 -24.2129815
24.17027886 12.37891816 -25.11031053
29.91785123 12.93072622 -23.42934685
17.97897339 20.00621121 -24.2504711
24.00894301 17.99457222 -23.66231484
18.36960993 17.2077169 -24.98378814
20.5714223 22.14293912 -23.11418993
21.31932507 16.18713401 -24.75617718
23.72663442 21.11649242 -22.72964889
16.74127393 -7.645018865 -27.08795023
17.00525885 -2.545679466 -27.51508681
19.01553949 -6.645163709 -26.99854387
14.35642808 -6.264745897 -27.44904489
16.74175077 7.645236618 -27.08872178
17.00010523 2.544907971 -27.50674808
18.98297948 6.633785297 -26.95231468
14.36834563 6.269946382 -27.47183086
23.88330363 -4.366771037 -26.62330763
19.20440571 -1.35979135 -27.33019671
21.40929929 -5.552308779 -26.84931135
23.9832338 -1.46151922 -26.71365979
19.14550759 -3.99168659 -27.22518058
9.934287726 -3.670716309 -27.9527027
14.56691958 -1.2959597 -27.76358467
12.08114123 -4.935199735 -27.73530207
9.957248079 -1.230783549 -28.05986352
14.49645397 -3.766758958 -27.65868081
23.76450283 4.345049758 -26.49087744
19.194556 1.35909393 -27.31617938
21.33407149 5.532799127 -26.75496848
23.94036371 1.458906752 -26.66590906
19.11981607 3.986330112 -27.18864688
21.51078811 0 -27.05859377
9.942333102 3.673689073 -27.97534046
14.5680226 1.296057832 -27.76568697
12.09302852 4.940055747 -27.76259235
9.959778155 1.231096284 -28.06699336
14.50102772 3.767947403 -27.66740737
12.23164853 0 -27.94565542
32.19482379 46.10432818 2.287209023
35.19867365 39.94229456 6.49737774
30.32061448 45.44362699 5.85106621
34.66229503 44.13246314 0
38.07377488 26.88131465 13.26313842
36.94782376 33.29583147 10.11713496
25.43312195 41.88460096 11.96619034
32.73860082 38.68221494 9.66980278
27.94845468 43.88278238 9.112976027
31.68538738 42.08613558 7.851556375
38.11268697 38.56677617 -4.383040107
38.11268697 38.56677617 4.383040107
36.63566027 41.54178667 -2.252968819
36.63566027 41.54178667 2.252968819
38.49856429 2.944208836 22.66883354
39.18792505 8.871332944 20.83092197
38.8225184 20.75353594 16.06649056
39.22558796 14.79091983 18.59311793
15.74771376 32.34033518 19.98742635
22.33972294 31.01057267 19.16558792
17.98028819 34.74144627 18.4794355
35.27266296 25.62645119 15.83801785
28.86311993 28.74720939 17.76675248
34.82179232 28.70600032 14.46397563
22.81597611 39.5341432 14.55511406
24.81312749 33.07892887 17.34094863
20.35748256 37.17515423 16.67064355
26.52009345 38.43973794 13.63781591
21.42339831 34.03910694 17.98877968
33.5894061 35.17131084 11.43595623
28.26501953 31.8188336 16.5061962
34.26549606 31.90335138 12.99131635
30.12597998 36.95614518 12.58341646
31.5488756 30.36780928 15.55301152
27.45409232 35.05720646 15.15199521
41.26952965 25.50597203 -11.64747905
46.12236964 28.50519208 -4.267214206
40.75086725 28.70153772 -10.03002923
41.26952965 25.50597203 11.64747905
46.12236964 28.50519208 4.267214206
40.75086725 28.70153772 10.03002923
