-41.31051836 -44.81348596 -18.88767147
-4.583391935 -16.92362427 -30.21569128
-13.91789365 -13.60677799 -30.61796059
-7.885990717 -21.14742597 -29.34344369
-4.419066711 -12.02409685 -31.02466424
-33.89187655 -3.506016509 -26.61918553
-23.86201089 -9.322877411 -29.83226629
-35.95493171 -9.662814653 -25.91223663
-16.34423409 -31.08858067 -26.44552628
-18.38565973 -17.81892173 -29.74862235
-11.84697027 -25.91131912 -28.10849589
-24.13717415 -30.39989744 -26.52932158
-13.11977141 -19.56186248 -29.69411431
-4.277052528 -2.643363834 -31.74539613
-13.49162494 -8.338282777 -31.12770197
-4.332292255 -7.181214751 -31.52810509
-8.987614694 -10.25284204 -31.18283792
-39.64435161 -24.50155676 -23.74629622
-24.88513806 -15.37986114 -29.25423431
-37.89387754 -16.74267856 -24.96369528
-32.5232341 -28.38231076 -25.8230794
-30.47404422 -12.84398487 -28.09195795
-24.71823391 -22.48939215 -28.32457563
-4.525644849 16.71040009 -29.83499765
-13.50963655 13.20764693 -29.71983621
-7.660375747 20.54240676 -28.50393977
-4.382796098 11.92540602 -30.77002142
-33.31328115 3.44616249 -26.16474807
-23.06165116 9.01017721 -28.83165723
-34.13479906 9.173657711 -24.60049146
-28.72500851 0 -28.38679729
-14.6247111 27.81785359 -23.66327964
-17.4134147 16.87664616 -28.17549685
-11.16798316 24.42625995 -26.49750962
-20.63471669 25.988679 -22.67974832
-12.56236275 18.73075414 -28.43252553
-4.269875165 2.63892798 -31.69212387
-13.26314231 8.197072744 -30.60054981
-4.312060979 7.147679354 -31.38087269
-8.730899272 0 -31.58869032
-8.861848739 10.10937144 -30.74648862
-32.83472148 20.29297389 -19.66744292
-23.3874594 14.45424482 -27.49360745
-34.08286304 15.05885534 -22.4530785
-26.88864651 23.46513016 -21.34928069
-28.65306087 12.07648967 -26.4133167
-22.3444103 20.32961608 -25.60441582
-18.97212384 -5.715638941 -30.69754122
-18.66337455 5.622623551 -30.19797437
-23.75026505 -3.107090448 -29.87564986
-13.69173948 -2.820653455 -31.28152617
-23.48727437 3.072685113 -29.54483176
-13.61257121 2.804343894 -31.10065036
-24.48682838 31.17693303 3.225163462
-31.99750107 25.59392275 9.999534633
-22.84575532 31.69998732 8.519307015
-28.4347104 28.77349247 0
-39.27895459 5.958190464 21.99990273
-38.1310748 17.33310232 16.9456443
-18.33875303 30.61647873 18.92202447
-29.82574387 25.37129313 15.68032149
-20.84177643 31.63697181 13.9781855
-26.5183584 28.76700969 12.12451601
-36.70455437 22.68466214 -6.834097193
-36.70455437 22.68466214 6.834097193
-32.61974612 25.93174107 -3.39247856
-32.61974612 25.93174107 3.39247856
-47.52925673 -60.51483806 6.260084802
-50.14142373 -40.10674842 15.66968939
-38.19416703 -52.99691751 14.24281362
-58.43151986 -59.12769544 0
-40.69871277 -6.173552349 22.79510063
-45.24606278 -20.56733621 20.10758128
-22.84387403 -38.13776118 23.57043266
-41.25185834 -35.09092664 21.68738536
-29.67327601 -45.04283019 19.90130533
-41.31051836 -44.81348596 18.88767147
-55.40538873 -34.24241339 -10.31604437
-55.40538873 -34.24241339 10.31604437
-58.51964582 -46.52140139 -6.086087948
-58.51964582 -46.52140139 6.086087948
-4.583391935 -16.92362427 30.21569128
-13.91789365 -13.60677799 30.61796059
-7.885990717 -21.14742597 29.34344369
-4.419066711 -12.02409685 31.02466424
-33.89187655 -3.506016509 26.61918553
-23.86201089 -9.322877411 29.83226629
-35.95493171 -9.662814653 25.91223663
-16.34423409 -31.08858067 26.44552628
-18.38565973 -17.81892173 29.74862235
-11.84697027 -25.91131912 28.10849589
-24.13717415 -30.39989744 26.52932158
-13.11977141 -19.56186248 29.69411431
-4.277052528 -2.643363834 31.74539613
-13.49162494 -8.338282777 31.12770197
-4.332292255 -7.181214751 31.52810509
-8.987614694 -10.25284204 31.18283792
-39.64435161 -24.50155676 23.74629622
-24.88513806 -15.37986114 29.25423431
-37.89387754 -16.74267856 24.96369528
-32.5232341 -28.38231076 25.8230794
-30.47404422 -12.84398487 28.09195795
-24.71823391 -22.48939215 28.32457563
-4.525644849 16.71040009 29.83499765
-13.50963655 13.20764693 29.71983621
-7.660375747 20.54240676 28.50393977
-4.382796098 11.92540602 30.77002142
-33.31328115 3.44616249 26.16474807
-23.06165116 9.01017721 28.83165723
-34.13479906 9.173657711 24.60049146
-28.72500851 0 28.38679729
-14.6247111 27.81785359 23.66327964
-17.4134147 16.87664616 28.17549685
-11.16798316 24.42625995 26.49750962
-20.63471669 25.988679 22.67974832
-12.56236275 18.73075414 28.43252553
-4.269875165 2.63892798 31.69212387
-13.26314231 8.197072744 30.60054981
-4.312060979 7.147679354 31.38087269
-8.730899272 0 31.58869032
-8.861848739 10.10937144 30.74648862
-32.83472148 20.29297389 19.66744292
-23.3874594 14.45424482 27.49360745
-34.08286304 15.05885534 22.4530785
-26.88864651 23.46513016 21.34928069
-28.65306087 12.07648967 26.4133167
-22.3444103 20.32961608 25.60441582
-18.97212384 -5.715638941 30.69754122
-18.66337455 5.622623551 30.19797437
-23.75026505 -3.107090448 29.87564986
-13.69173948 -2.820653455 31.28152617
-23.48727437 3.072685113 29.54483176
-13.61257121 2.804343894 31.10065036
-43.86606295 0 -19.3363623
-53.02439685 0 -7.385447569
-44.32084267 6.312937312 -17.17724004
-46.33211821 -6.599417795 -17.95674153
-43.86606295 0 19.3363623
-53.02439685 0 7.385447569
-44.32084267 6.312937312 17.17724004
-46.33211821 -6.599417795 17.95674153
-41.10266079 17.81505374 -11.01030872
-51.50627129 6.939432318 -4.288805035
-43.5643055 12.55623985 -14.32383878
-42.26989993 18.50128586 -3.811474499
-48.69511281 6.691219134 -11.09137582
-51.7354025 -22.42358422 -13.8585372
-55.74582221 -7.510626387 -4.641822384
-48.96975265 -14.11421467 -16.10113679
-57.6066135 -25.21407492 -5.194385098
-51.7224447 -7.107206282 -11.78091679
-41.10266079 17.81505374 11.01030872
-51.50627129 6.939432318 4.288805035
-43.5643055 12.55623985 14.32383878
-42.26989993 18.50128586 3.811474499
-48.69511281 6.691219134 11.09137582
-47.76420705 13.20170214 0
-51.7354025 -22.42358422 13.8585372
-55.74582221 -7.510626387 4.641822384
-48.96975265 -14.11421467 16.10113679
-57.6066135 -25.21407492 5.194385098
-51.7224447 -7.107206282 11.78091679
-57.69981617 -15.94783696 0
-18.36228685 34.89684254 0
-13.56154236 37.62037373 0
-2.994748583 43.20962044 0
-8.502050485 40.36588558 0
30.20567725 57.40476508 0
19.18013121 53.20661065 0
3.204210499 46.23183403 0
10.43128181 49.52545608 0
-30.20567725 -57.40476508 0
-19.18013121 -53.20661065 0
-3.204210499 -46.23183403 0
-10.43128181 -49.52545608 0
18.36228685 -34.89684254 0
13.56154236 -37.62037373 0
2.994748583 -43.20962044 0
8.502050485 -40.36588558 0
-34.30546602 -58.26110049 4.455564772
-28.15448004 -52.96528186 11.9902406
-28.03081993 -56.19989295 4.142449492
-16.77777324 -40.54123756 21.67231972
-22.14390317 -46.7166198 17.61558754
-17.50005799 -52.27174293 3.64844608
-22.95019789 -51.77438093 11.34438927
-22.43150767 -54.17569378 3.877744178
-25.52870985 -54.20486122 7.963217759
-1.452765321 -20.44916885 29.28406125
-4.581281039 -24.81847641 28.16318891
-12.12040935 -34.79340426 24.56526705
-8.096226316 -29.56745603 26.64495315
-1.881883732 -45.48256597 3.044951841
-5.819267344 -46.10530435 9.415772353
-5.236342506 -47.04087478 3.164498762
-13.03948979 -40.47413768 21.09833768
-9.717175269 -44.62230936 15.72271986
-15.31749092 -43.3011563 19.21317236
-12.89242779 -50.38852079 3.469952324
-9.479262029 -47.50941245 9.803379156
-8.908080504 -48.68223506 3.303623557
-15.53223763 -50.77715979 7.102094749
-7.352167247 -47.51539215 6.464733402
-20.23880715 -48.97394459 14.42516363
-11.63282237 -46.84300199 13.21899611
-17.73971213 -46.1700021 16.98949067
-18.0467706 -50.36631148 10.82930797
-13.57878698 -45.45035139 16.35357297
-13.54997939 -48.92763389 10.31434534
19.96787867 -33.91152259 2.593411112
18.30779186 -34.44131643 7.79679926
17.59963783 -35.28608027 2.600908963
13.86918017 -33.51301273 17.91520857
16.32434456 -34.43919496 12.98609908
12.72876219 -38.02013603 2.653717065
15.87011339 -35.80210071 7.844670665
15.17913956 -36.66005996 2.624024247
16.76557732 -35.59818719 5.229717595
1.445255549 -20.34346106 29.1326833
4.483287248 -24.28760818 27.56077714
0 -22.47107536 28.61045133
10.91642887 -31.33720254 22.12507702
7.690444047 -28.0855373 25.30951005
-3.101367782 -26.96791646 27.28922258
3.049058718 -26.51306346 26.82895028
-1.518346989 -24.68993091 27.99632476
1.507444422 -24.51264361 27.79529574
1.808209562 -43.70196166 2.925744531
5.209629604 -41.2752232 8.429357769
4.70366443 -42.25554176 2.842583396
0 -44.24452739 5.961058636
11.17374524 -34.68292935 18.07949958
8.341457675 -38.30486685 13.49676203
12.51023616 -35.36530195 15.69195144
10.09304066 -39.44744914 2.716506967
7.967442553 -39.93227672 8.239867198
7.471652845 -40.83222642 2.770914378
11.73504956 -38.36359582 5.365835615
6.367712217 -41.15308221 5.599105744
-3.751871493 -44.22339128 12.22304473
3.50493454 -41.31274001 11.4185605
-1.873615269 -44.4594301 9.100699569
1.805498976 -42.84308355 8.76983873
14.82627489 -35.8766779 10.56739361
9.569617573 -38.53489726 10.87446652
13.7346757 -35.74635266 13.15382927
13.31948922 -37.17305204 7.992612855
11.06571236 -37.03869247 13.32695879
10.67720556 -38.55433204 8.127568483
-10.49522854 -37.18685765 22.98274196
-3.346292384 -36.16854623 22.35339089
-8.495713121 -34.51711553 24.31099901
-9.078752933 -39.778644 20.80506787
9.437369046 -33.43863338 20.66621197
3.231486717 -34.9276642 21.58648362
7.887869242 -32.04751503 22.57161684
8.136316918 -35.64935146 18.64536098
-4.830799127 -29.45239175 26.42122552
-1.678797366 -33.74184005 23.70974467
-6.601292061 -31.92188203 25.45410262
-1.596597405 -29.1826199 26.19983938
-5.008737561 -34.16194671 24.02363533
-5.694508606 -43.3639902 15.41140262
-1.78647906 -38.27207175 20.08048304
-7.453854408 -41.88987573 18.24669164
-1.84799591 -42.13130169 14.95060097
-5.316821062 -39.0405275 20.46190177
4.683324592 -28.55326975 25.6146389
1.653720633 -33.2378274 23.35558463
6.283105887 -30.38322847 24.22719985
1.580221248 -28.88329638 25.93110997
4.791635854 -32.68121092 22.98234056
0 -31.30944403 24.89008935
5.193256233 -39.54692635 14.05483217
1.746833509 -37.42273779 19.63485688
6.707781447 -37.69702436 16.42033946
1.791744224 -40.8488547 14.49551526
4.979940342 -36.56686874 19.16540897
0 -39.84102856 17.43818319
-19.96787867 33.91152259 2.593411112
-18.30779186 34.44131643 7.79679926
-17.59963783 35.28608027 2.600908963
-13.86918017 33.51301273 17.91520857
-16.32434456 34.43919496 12.98609908
-12.72876219 38.02013603 2.653717065
-15.87011339 35.80210071 7.844670665
-15.17913956 36.66005996 2.624024247
-16.76557732 35.59818719 5.229717595
-1.445255549 20.34346106 29.1326833
-4.483287248 24.28760818 27.56077714
-10.91642887 31.33720254 22.12507702
-7.690444047 28.0855373 25.30951005
-1.808209562 43.70196166 2.925744531
-5.209629604 41.2752232 8.429357769
-4.70366443 42.25554176 2.842583396
-11.17374524 34.68292935 18.07949958
-8.341457675 38.30486685 13.49676203
-12.51023616 35.36530195 15.69195144
-10.09304066 39.44744914 2.716506967
-7.967442553 39.93227672 8.239867198
-7.471652845 40.83222642 2.770914378
-11.73504956 38.36359582 5.365835615
-6.367712217 41.15308221 5.599105744
-14.82627489 35.8766779 10.56739361
-9.569617573 38.53489726 10.87446652
-13.7346757 35.74635266 13.15382927
-13.31948922 37.17305204 7.992612855
-11.06571236 37.03869247 13.32695879
-10.67720556 38.55433204 8.127568483
34.30546602 58.26110049 4.455564772
28.15448004 52.96528186 11.9902406
28.03081993 56.19989295 4.142449492
16.77777324 40.54123756 21.67231972
22.14390317 46.7166198 17.61558754
17.50005799 52.27174293 3.64844608
22.95019789 51.77438093 11.34438927
22.43150767 54.17569378 3.877744178
25.52870985 54.20486122 7.963217759
1.452765321 20.44916885 29.28406125
4.581281039 24.81847641 28.16318891
0 22.47107536 28.61045133
12.12040935 34.79340426 24.56526705
8.096226316 29.56745603 26.64495315
-3.049058718 26.51306346 26.82895028
3.101367782 26.96791646 27.28922258
-1.507444422 24.51264361 27.79529574
1.518346989 24.68993091 27.99632476
1.881883732 45.48256597 3.044951841
5.819267344 46.10530435 9.415772353
5.236342506 47.04087478 3.164498762
0 44.24452739 5.961058636
13.03948979 40.47413768 21.09833768
9.717175269 44.62230936 15.72271986
15.31749092 43.3011563 19.21317236
12.89242779 50.38852079 3.469952324
9.479262029 47.50941245 9.803379156
8.908080504 48.68223506 3.303623557
15.53223763 50.77715979 7.102094749
7.352167247 47.51539215 6.464733402
-3.50493454 41.31274001 11.4185605
3.751871493 44.22339128 12.22304473
-1.805498976 42.84308355 8.76983873
1.873615269 44.4594301 9.100699569
20.23880715 48.97394459 14.42516363
11.63282237 46.84300199 13.21899611
17.73971213 46.1700021 16.98949067
18.0467706 50.36631148 10.82930797
13.57878698 45.45035139 16.35357297
13.54997939 48.92763389 10.31434534
-9.437369046 33.43863338 20.66621197
-3.231486717 34.9276642 21.58648362
-7.887869242 32.04751503 22.57161684
-8.136316918 35.64935146 18.64536098
10.49522854 37.18685765 22.98274196
3.346292384 36.16854623 22.35339089
8.495713121 34.51711553 24.31099901
9.078752933 39.778644 20.80506787
-4.683324592 28.55326975 25.6146389
-1.653720633 33.2378274 23.35558463
-6.283105887 30.38322847 24.22719985
-1.580221248 28.88329638 25.93110997
-4.791635854 32.68121092 22.98234056
-5.193256233 39.54692635 14.05483217
-1.746833509 37.42273779 19.63485688
-6.707781447 37.69702436 16.42033946
-1.791744224 40.8488547 14.49551526
-4.979940342 36.56686874 19.16540897
4.830799127 29.45239175 26.42122552
1.678797366 33.74184005 23.70974467
6.601292061 31.92188203 25.45410262
1.596597405 29.1826199 26.19983938
5.008737561 34.16194671 24.02363533
0 31.30944403 24.89008935
5.694508606 43.3639902 15.41140262
1.78647906 38.27207175 20.08048304
7.453854408 41.88987573 18.24669164
1.84799591 42.13130169 14.95060097
5.316821062 39.0405275 20.46190177
0 39.84102856 17.43818319
0 -15.92575349 30.26630161
0 -11.19685724 31.06062297
0 -2.202814638 31.78323047
0 -6.645169764 31.54981999
0 15.92575349 30.26630161
0 11.19685724 31.06062297
0 2.202814638 31.78323047
0 6.645169764 31.54981999
-34.30546602 -58.26110049 -4.455564772
-28.15448004 -52.96528186 -11.9902406
-28.03081993 -56.19989295 -4.142449492
-16.77777324 -40.54123756 -21.67231972
-22.14390317 -46.7166198 -17.61558754
-17.50005799 -52.27174293 -3.64844608
-22.95019789 -51.77438093 -11.34438927
-22.43150767 -54.17569378 -3.877744178
-25.52870985 -54.20486122 -7.963217759
-1.452765321 -20.44916885 -29.28406125
-4.581281039 -24.81847641 -28.16318891
-12.12040935 -34.79340426 -24.56526705
-8.096226316 -29.56745603 -26.64495315
-1.881883732 -45.48256597 -3.044951841
-5.819267344 -46.10530435 -9.415772353
-5.236342506 -47.04087478 -3.164498762
-13.03948979 -40.47413768 -21.09833768
-9.717175269 -44.62230936 -15.72271986
-15.31749092 -43.3011563 -19.21317236
-12.89242779 -50.38852079 -3.469952324
-9.479262029 -47.50941245 -9.803379156
-8.908080504 -48.68223506 -3.303623557
-15.53223763 -50.77715979 -7.102094749
-7.352167247 -47.51539215 -6.464733402
-20.23880715 -48.97394459 -14.42516363
-11.63282237 -46.84300199 -13.21899611
-17.73971213 -46.1700021 -16.98949067
-18.0467706 -50.36631148 -10.82930797
-13.57878698 -45.45035139 -16.35357297
-13.54997939 -48.92763389 -10.31434534
19.96787867 -33.91152259 -2.593411112
18.30779186 -34.44131643 -7.79679926
17.59963783 -35.28608027 -2.600908963
13.86918017 -33.51301273 -17.91520857
16.32434456 -34.43919496 -12.98609908
12.72876219 -38.02013603 -2.653717065
15.87011339 -35.80210071 -7.844670665
15.17913956 -36.66005996 -2.624024247
16.76557732 -35.59818719 -5.229717595
1.445255549 -20.34346106 -29.1326833
4.483287248 -24.28760818 -27.56077714
0 -22.47107536 -28.61045133
10.91642887 -31.33720254 -22.12507702
7.690444047 -28.0855373 -25.30951005
-3.101367782 -26.96791646 -27.28922258
3.049058718 -26.51306346 -26.82895028
-1.518346989 -24.68993091 -27.99632476
1.507444422 -24.51264361 -27.79529574
1.808209562 -43.70196166 -2.925744531
5.209629604 -41.2752232 -8.429357769
4.70366443 -42.25554176 -2.842583396
0 -44.24452739 -5.961058636
11.17374524 -34.68292935 -18.07949958
8.341457675 -38.30486685 -13.49676203
12.51023616 -35.36530195 -15.69195144
10.09304066 -39.44744914 -2.716506967
7.967442553 -39.93227672 -8.239867198
7.471652845 -40.83222642 -2.770914378
11.73504956 -38.36359582 -5.365835615
6.367712217 -41.15308221 -5.599105744
-3.751871493 -44.22339128 -12.22304473
3.50493454 -41.31274001 -11.4185605
-1.873615269 -44.4594301 -9.100699569
1.805498976 -42.84308355 -8.76983873
14.82627489 -35.8766779 -10.56739361
9.569617573 -38.53489726 -10.87446652
13.7346757 -35.74635266 -13.15382927
13.31948922 -37.17305204 -7.992612855
11.06571236 -37.03869247 -13.32695879
10.67720556 -38.55433204 -8.127568483
-10.49522854 -37.18685765 -22.98274196
-3.346292384 -36.16854623 -22.35339089
-8.495713121 -34.51711553 -24.31099901
-9.078752933 -39.778644 -20.80506787
9.437369046 -33.43863338 -20.66621197
3.231486717 -34.9276642 -21.58648362
7.887869242 -32.04751503 -22.57161684
8.136316918 -35.64935146 -18.64536098
-4.830799127 -29.45239175 -26.42122552
-1.678797366 -33.74184005 -23.70974467
-6.601292061 -31.92188203 -25.45410262
-1.596597405 -29.1826199 -26.19983938
-5.008737561 -34.16194671 -24.02363533
-5.694508606 -43.3639902 -15.41140262
-1.78647906 -38.27207175 -20.08048304
-7.453854408 -41.88987573 -18.24669164
-1.84799591 -42.13130169 -14.95060097
-5.316821062 -39.0405275 -20.46190177
4.683324592 -28.55326975 -25.6146389
1.653720633 -33.2378274 -23.35558463
6.283105887 -30.38322847 -24.22719985
1.580221248 -28.88329638 -25.93110997
4.791635854 -32.68121092 -22.98234056
0 -31.30944403 -24.89008935
5.193256233 -39.54692635 -14.05483217
1.746833509 -37.42273779 -19.63485688
6.707781447 -37.69702436 -16.42033946
1.791744224 -40.8488547 -14.49551526
4.979940342 -36.56686874 -19.16540897
0 -39.84102856 -17.43818319
-19.96787867 33.91152259 -2.593411112
-18.30779186 34.44131643 -7.79679926
-17.59963783 35.28608027 -2.600908963
-13.86918017 33.51301273 -17.91520857
-16.32434456 34.43919496 -12.98609908
-12.72876219 38.02013603 -2.653717065
-15.87011339 35.80210071 -7.844670665
-15.17913956 36.66005996 -2.624024247
-16.76557732 35.59818719 -5.229717595
-1.445255549 20.34346106 -29.1326833
-4.483287248 24.28760818 -27.56077714
-10.91642887 31.33720254 -22.12507702
-7.690444047 28.0855373 -25.30951005
-1.808209562 43.70196166 -2.925744531
-5.209629604 41.2752232 -8.429357769
-4.70366443 42.25554176 -2.842583396
-11.17374524 34.68292935 -18.07949958
-8.341457675 38.30486685 -13.49676203
-12.51023616 35.36530195 -15.69195144
-10.09304066 39.44744914 -2.716506967
-7.967442553 39.93227672 -8.239867198
-7.471652845 40.83222642 -2.770914378
-11.73504956 38.36359582 -5.365835615
-6.367712217 41.15308221 -5.599105744
-14.82627489 35.8766779 -10.56739361
-9.569617573 38.53489726 -10.87446652
-13.7346757 35.74635266 -13.15382927
-13.31948922 37.17305204 -7.992612855
-11.06571236 37.03869247 -13.32695879
-10.67720556 38.55433204 -8.127568483
34.30546602 58.26110049 -4.455564772
28.15448004 52.96528186 -11.9902406
28.03081993 56.19989295 -4.142449492
16.77777324 40.54123756 -21.67231972
22.14390317 46.7166198 -17.61558754
17.50005799 52.27174293 -3.64844608
22.95019789 51.77438093 -11.34438927
22.43150767 54.17569378 -3.877744178
25.52870985 54.20486122 -7.963217759
1.452765321 20.44916885 -29.28406125
4.581281039 24.81847641 -28.16318891
0 22.47107536 -28.61045133
12.12040935 34.79340426 -24.56526705
8.096226316 29.56745603 -26.64495315
-3.049058718 26.51306346 -26.82895028
3.101367782 26.96791646 -27.28922258
-1.507444422 24.51264361 -27.79529574
1.518346989 24.68993091 -27.99632476
1.881883732 45.48256597 -3.044951841
5.819267344 46.10530435 -9.415772353
5.236342506 47.04087478 -3.164498762
0 44.24452739 -5.961058636
13.03948979 40.47413768 -21.09833768
9.717175269 44.62230936 -15.72271986
15.31749092 43.3011563 -19.21317236
12.89242779 50.38852079 -3.469952324
9.479262029 47.50941245 -9.803379156
8.908080504 48.68223506 -3.303623557
15.53223763 50.77715979 -7.102094749
7.352167247 47.51539215 -6.464733402
-3.50493454 41.31274001 -11.4185605
3.751871493 44.22339128 -12.22304473
-1.805498976 42.84308355 -8.76983873
1.873615269 44.4594301 -9.100699569
20.23880715 48.97394459 -14.42516363
11.63282237 46.84300199 -13.21899611
17.73971213 46.1700021 -16.98949067
18.0467706 50.36631148 -10.82930797
13.57878698 45.45035139 -16.35357297
13.54997939 48.92763389 -10.31434534
-9.437369046 33.43863338 -20.66621197
-3.231486717 34.9276642 -21.58648362
-7.887869242 32.04751503 -22.57161684
-8.136316918 35.64935146 -18.64536098
10.49522854 37.18685765 -22.98274196
3.346292384 36.16854623 -22.35339089
8.495713121 34.51711553 -24.31099901
9.078752933 39.778644 -20.80506787
-4.683324592 28.55326975 -25.6146389
-1.653720633 33.2378274 -23.35558463
-6.283105887 30.38322847 -24.22719985
-1.580221248 28.88329638 -25.93110997
-4.791635854 32.68121092 -22.98234056
-5.193256233 39.54692635 -14.05483217
-1.746833509 37.42273779 -19.63485688
-6.707781447 37.69702436 -16.42033946
-1.791744224 40.8488547 -14.49551526
-4.979940342 36.56686874 -19.16540897
4.830799127 29.45239175 -26.42122552
1.678797366 33.74184005 -23.70974467
6.601292061 31.92188203 -25.45410262
1.596597405 29.1826199 -26.19983938
5.008737561 34.16194671 -24.02363533
0 31.30944403 -24.89008935
5.694508606 43.3639902 -15.41140262
1.78647906 38.27207175 -20.08048304
7.453854408 41.88987573 -18.24669164
1.84799591 42.13130169 -14.95060097
5.316821062 39.0405275 -20.46190177
0 39.84102856 -17.43818319
0 -15.92575349 -30.26630161
0 -11.19685724 -31.06062297
0 -2.202814638 -31.78323047
0 -6.645169764 -31.54981999
0 15.92575349 -30.26630161
0 11.19685724 -31.06062297
0 2.202814638 -31.78323047
0 6.645169764 -31.54981999
42.58679559 60.98606451 -3.025483345
50.56439134 57.37880448 -9.333759392
38.98923669 58.4358978 -7.523878037
48.9455905 34.55716757 -17.05037507
51.1176493 46.06508484 -13.99714798
31.30553379 51.55559718 -14.72913851
45.31950677 53.54715406 -13.38574898
35.0870751 55.09136369 -11.44062088
42.8628579 56.93261777 -10.62130442
39.56543583 3.0257987 -23.29703186
41.81717082 9.46653962 -22.2285365
46.45260199 24.83238556 -19.22415964
44.07695434 16.62024031 -20.89268901
18.47195776 37.93498627 -23.44511088
27.46608968 38.12666668 -23.56357589
21.25815607 41.07493046 -21.84829965
44.84955412 32.58429654 -20.13820276
36.95412396 36.80572099 -22.74718655
45.71529513 37.68626452 -18.98882483
27.61824381 47.85522217 -17.61864962
31.20555889 41.6008205 -21.80837518
24.31965839 44.41055267 -19.91525009
33.75924047 48.93257103 -17.36050846
26.10324622 41.47480137 -21.91835013
46.33227673 48.51431138 -15.77443456
36.59270652 41.19357635 -21.36939594
46.31244223 43.11982279 -17.55875901
40.26212517 49.39035823 -16.81721521
41.51248698 39.95842207 -20.46488745
35.51876229 45.35529961 -19.60291056
22.60584309 -32.37250857 -1.605981404
26.36744109 -29.92090297 -4.867206831
21.83613314 -32.727341 -4.213788637
33.80267896 -23.86578299 -11.77528657
30.13426675 -27.15573922 -8.251431681
20.12658416 -33.14551584 -9.46948383
25.54652849 -30.1844392 -7.545523815
21.01304825 -32.99327401 -6.851591874
23.70305353 -31.48359565 -5.873554859
38.91103224 -2.975752655 -22.91170409
39.451961 -8.931105202 -20.97127419
36.95943132 -19.75757674 -15.29546198
38.93521274 -14.68142711 -18.45547868
15.41013276 -31.64706103 -19.55895936
21.2396184 -29.48347801 -18.22179152
16.78678226 -32.43535854 -17.25279689
32.66056972 -23.72870165 -14.66514413
26.97927531 -26.87093005 -16.60714808
31.01822334 -25.57045659 -12.88408197
19.12107262 -33.13183794 -12.1980051
22.51549266 -30.01590108 -15.73521926
18.02661988 -32.9187252 -14.76191143
21.91125661 -31.75942662 -11.26774627
19.67878357 -31.26713179 -16.52386315
27.44819347 -28.74087567 -9.345099408
25.42194812 -28.61829748 -14.84590036
29.25417678 -27.2374951 -11.09133994
24.69287938 -30.29125147 -10.31404738
28.21458319 -27.15833972 -13.9092671
23.69090938 -30.25185068 -13.07508336
2.27851913 -17.54337881 -29.79398545
6.757724772 -15.86792406 -29.85134405
3.7591629 -19.48023231 -29.19638755
2.234739263 -15.12186787 -30.31831953
15.82131143 -12.24817551 -29.59607248
11.23627718 -14.12470821 -29.79865916
6.902488468 -23.36943367 -27.61209806
8.353438986 -17.75452557 -29.23908517
5.311902304 -21.43647377 -28.47300967
6.070485084 -18.6174831 -29.23191887
2.170297003 -10.40999992 -31.09411638
6.651630371 -13.45654047 -30.35721328
2.201005921 -12.73211407 -30.7501004
4.458671314 -14.29373524 -30.34974895
35.87658396 -1.779816555 -25.05275197
30.72751069 -4.998416995 -27.07825458
36.38778237 -4.685086512 -24.27843009
20.59331985 -10.1606657 -29.16767407
25.5816713 -7.773141849 -28.38755006
36.89854858 -10.54170377 -22.40549664
31.18160087 -7.794794876 -26.3904739
36.74295574 -7.630274486 -23.40117872
33.7915058 -6.304116762 -25.44060976
13.60097993 -30.29058217 -22.00684781
15.51168382 -25.19963009 -25.09843165
11.97815117 -28.83720929 -23.77249659
16.57996035 -29.41650487 -21.48308406
17.83772296 -14.05400328 -28.86204204
16.89404514 -19.6919755 -27.33513925
15.44109925 -15.02402031 -29.02935643
8.6267255 -25.3382035 -26.53151499
13.70994375 -23.47674916 -26.428525
10.29467738 -27.15292413 -25.28109553
9.397402347 -22.49833786 -27.59916327
12.91208469 -26.19182485 -25.21130552
22.5291729 -27.30867182 -20.24628231
18.51067483 -24.34097406 -24.69754388
19.57428252 -28.41979156 -20.89596991
17.62479651 -26.9549004 -23.21280381
10.75299383 -16.85593458 -29.20694377
14.40771259 -20.61596611 -27.48360024
13.06829234 -15.95844411 -29.14199333
10.10631897 -19.65274538 -28.48581146
14.97109825 -17.82954746 -28.32892634
11.91046422 -21.58072118 -27.55726867
2.127749442 -1.315021475 -31.78227749
6.440693315 -3.98056738 -31.53752177
2.133003686 -3.529512478 -31.70750468
15.68040245 -9.691021671 -30.08060527
10.92435181 -6.751620724 -31.00416533
13.40368319 -10.6859394 -30.2081806
2.160476448 -8.027138125 -31.37311475
6.471292498 -6.257340074 -31.36136015
2.142466509 -5.777069879 -31.57141134
4.351983924 -9.517762133 -31.11495846
4.295000373 -4.884588289 -31.56798809
8.936930538 -12.538701 -30.34119765
8.767129237 -7.715143894 -31.06731016
11.14695726 -11.63918428 -30.29255261
6.616613845 -11.02642132 -30.77338228
11.0435998 -9.169781394 -30.69271115
6.557654736 -8.614806232 -31.10721228
34.37309541 -21.24374126 -16.73754043
30.86850905 -19.07778778 -22.23738165
35.51351458 -18.89010887 -18.37986887
31.48912514 -22.99673348 -17.74814678
20.75755077 -12.8288719 -28.57102947
26.01673324 -16.07922542 -26.12163433
23.27082417 -11.72537553 -28.22865594
20.37003517 -15.72094465 -27.89242164
36.76310944 -13.53491458 -21.21675491
31.33744759 -16.42801286 -23.50680959
36.32181673 -16.28797708 -19.8901865
34.23300715 -12.14533383 -23.61781317
33.61363108 -17.76392679 -21.155614
25.61891238 -25.99420266 -19.48251353
27.87298623 -20.66465743 -22.99472234
28.54939356 -24.58593657 -18.66737566
23.76060923 -24.80281555 -22.07428399
29.87628235 -21.96687107 -20.57744829
28.45657945 -9.252660457 -27.17668409
28.69882878 -14.88767642 -25.49348496
25.85566348 -10.52864634 -27.77003345
31.40801585 -10.69430109 -25.60324547
26.0084618 -13.3203519 -27.01998417
31.47467035 -13.60359546 -24.64852716
19.28347475 -21.45780298 -26.01001386
25.44074902 -19.06770304 -25.0734492
19.88287322 -18.62526503 -27.04191837
21.59614766 -23.24594653 -24.26557831
22.94573883 -17.42202195 -26.64478233
24.74285285 -22.02091773 -23.70316615
2.293890877 17.66173303 -29.99498688
6.880052034 16.1551627 -30.39170835
3.807757427 19.73205239 -29.57380792
2.247037484 15.20508656 -30.48516736
16.34066257 12.65023471 -30.5675946
11.53799928 14.50399189 -30.59882757
7.126236259 24.12696614 -28.50715873
8.572480785 18.22008033 -30.00578519
5.42499138 21.89285095 -29.07919295
6.191630944 18.9890236 -29.81528674
2.177892841 10.44643396 -31.20294291
6.748611626 13.65273781 -30.79982365
2.210771192 12.78860304 -30.88653032
4.504939089 14.44206178 -30.66468926
36.21032839 1.796373423 -25.28580694
31.46690425 5.118693491 -27.72983639
37.32808706 4.806154863 -24.90581434
33.65135574 0 -26.43027689
21.31909995 10.51876285 -30.19564418
26.41935816 8.027677948 -29.31711708
39.47320788 11.27726917 -23.96887846
32.43076668 8.107062077 -27.44770242
38.41453918 7.977406072 -24.46579157
34.93234567 6.516950951 -26.29951383
28.48047442 -3.236751267 -28.14514237
28.88555517 3.282787918 -28.54545367
31.05108515 -1.684018244 -27.38392105
31.29502736 1.697248156 -27.59905344
15.4572475 34.4246538 -25.01035182
17.05356297 27.7045022 -27.59324452
13.15048667 31.65958845 -26.099178
19.42272752 34.46020054 -25.16653111
18.63395225 14.68133721 -30.15036808
18.05120741 21.04078277 -29.20746713
16.0785705 15.64427286 -30.2278061
9.043317247 26.56180642 -27.81274391
14.70260522 25.17657118 -28.34206884
11.00617048 29.02953645 -27.0283407
9.798905492 23.45957726 -28.77833497
14.00683418 28.41249544 -27.34884291
27.96635328 33.8993343 -25.13251091
20.70615781 27.22796737 -27.62682862
23.63341453 34.31322268 -25.22918112
20.15941702 30.83128238 -26.55103519
11.09841749 17.39740598 -30.14517266
15.28260844 21.86785277 -29.15251802
13.55238122 16.54959291 -30.22150047
10.48335455 20.38592867 -29.5485292
15.72797804 18.73093919 -29.76112533
12.53290879 22.7085364 -28.99742012
2.128632965 1.315567522 -31.79547471
6.465543996 3.995925945 -31.6592057
2.135398328 3.533474927 -31.74310148
4.27898757 0 -31.75975851
16.06883849 9.931088345 -30.82576415
11.04924879 6.828811304 -31.35863274
13.7168506 10.93560868 -30.91397301
2.166180969 8.048332977 -31.4559523
6.51119771 6.295925949 -31.55474991
2.146454627 5.787823669 -31.63018029
4.379895801 9.578805236 -31.31451731
4.30855282 4.900001122 -31.66759774
8.704252531 -2.67177595 -31.49228151
8.73470793 2.681124254 -31.60247017
6.480672227 -1.334214622 -31.65987314
6.489031996 1.335935698 -31.70071292
9.10013706 12.76768317 -30.89528961
8.859026352 7.79601409 -31.39295795
11.38280891 11.88545066 -30.93349419
6.693050569 11.15380121 -31.12888384
11.22080265 9.316917425 -31.18519876
6.615025265 8.690174028 -31.37935792
43.67047409 26.98983729 -21.26478041
35.68586885 22.05507987 -25.70776204
42.63723627 22.6793108 -22.06672081
40.52781832 29.5977558 -22.84260567
21.73912394 13.43551748 -29.92208269
28.26321409 17.46762694 -28.37717313
24.39049838 12.28954122 -29.58687591
21.61166974 16.67919869 -29.59257555
40.54576783 14.92755951 -23.39980572
34.98638816 18.34089496 -26.24394863
41.58900867 18.64997076 -22.77455296
36.92789249 13.10143687 -25.4770509
38.77708563 20.49267777 -24.40536857
32.55562752 33.03253342 -24.75770416
32.26889676 23.92372642 -26.62127105
36.74388924 31.6428063 -24.02544847
28.34216064 29.58532653 -26.33067599
36.27854436 26.67420588 -24.98704028
29.73233393 9.66747219 -28.39505879
31.18925457 16.17959859 -27.70575755
27.08014347 11.02726502 -29.08517473
33.28462125 11.33327756 -27.13302019
27.69742911 14.18536419 -28.77463888
34.13804337 14.75472583 -26.73427489
21.12669972 23.50886269 -28.49619996
28.33177267 21.23450954 -27.92273381
21.41301624 20.05862524 -29.12300606
24.52186847 26.39517252 -27.5529381
24.85649693 18.87280416 -28.8635705
28.43862206 25.31011927 -27.24364033
18.45287763 -8.426634569 -29.8573832
18.81792619 -2.817034936 -30.44804417
20.84325683 -7.283877162 -29.59356394
15.92101151 -6.947486587 -30.44047984
18.91922107 8.639593534 -30.61194273
18.97168954 2.84005324 -30.6968385
21.35468414 7.462600371 -30.319696
16.19963849 7.069071652 -30.97320598
25.81394104 -4.719764561 -28.77543677
21.18508212 -1.500035558 -30.14893929
23.31361593 -6.046176134 -29.23750676
26.07375166 -1.588913719 -29.04217743
21.03967352 -4.386605172 -29.91871111
11.10018644 -4.101515533 -31.23326203
16.21271544 -1.442379478 -30.90036268
13.45693118 -5.49721603 -30.89377438
11.13965404 -1.376936964 -31.3919237
16.09759117 -4.182798488 -30.71358947
26.30985317 4.810436051 -29.32824225
21.28825174 1.507340608 -30.29576216
23.8395821 6.182580718 -29.8971187
26.23889817 1.598977616 -29.22612543
21.34389049 4.450032001 -30.35131192
23.65374882 0 -29.75424132
11.1771995 4.129971834 -31.44995829
16.27041302 1.447512596 -31.01033043
13.61112744 5.560205886 -31.24777073
11.16537555 1.380116317 -31.46440779
16.26522449 4.226356334 -31.03342745
13.67132014 0 -31.23487409
42.58679559 60.98606451 3.025483345
50.56439134 57.37880448 9.333759392
38.98923669 58.4358978 7.523878037
49.12810115 62.55050658 0
48.9455905 34.55716757 17.05037507
51.1176493 46.06508484 13.99714798
31.30553379 51.55559718 14.72913851
45.31950677 53.54715406 13.38574898
35.0870751 55.09136369 11.44062088
42.8628579 56.93261777 10.62130442
56.19633092 56.8658756 -6.462697644
56.19633092 56.8658756 6.462697644
54.19652872 61.45434852 -3.332902653
54.19652872 61.45434852 3.332902653
39.56543583 3.0257987 23.29703186
41.81717082 9.46653962 22.2285365
46.45260199 24.83238556 19.22415964
44.07695434 16.62024031 20.89268901
18.47195776 37.93498627 23.44511088
27.46608968 38.12666668 23.56357589
21.25815607 41.07493046 21.84829965
44.84955412 32.58429654 20.13820276
36.95412396 36.80572099 22.74718655
45.71529513 37.68626452 18.98882483
27.61824381 47.85522217 17.61864962
31.20555889 41.6008205 21.80837518
24.31965839 44.41055267 19.91525009
33.75924047 48.93257103 17.36050846
26.10324622 41.47480137 21.91835013
46.33227673 48.51431138 15.77443456
36.59270652 41.19357635 21.36939594
46.31244223 43.11982279 17.55875901
40.26212517 49.39035823 16.81721521
41.51248698 39.95842207 20.46488745
35.51876229 45.35529961 19.60291056
51.65415849 31.92402561 -14.57832773
58.43524553 36.11496788 -5.406394159
53.16059213 37.44192071 -13.08444038
51.65415849 31.92402561 14.57832773
58.43524553 36.11496788 5.406394159
53.16059213 37.44192071 13.08444038
55.89500998 50.14243585 -9.167933379
59.64437335 41.91095865 -2.967556503
54.65460206 43.58088436 -11.3023095
59.44403428 53.36820874 -3.252216257
57.03951208 40.11177845 -8.36298789
55.89500998 50.14243585 9.167933379
59.64437335 41.91095865 2.967556503
54.65460206 43.58088436 11.3023095
59.44403428 53.36820874 3.252216257
57.03951208 40.11177845 8.36298789
60.25972506 47.90471333 0
22.60584309 -32.37250857 1.605981404
26.36744109 -29.92090297 4.867206831
21.83613314 -32.727341 4.213788637
24.52377519 -31.22397417 0
33.80267896 -23.86578299 11.77528657
30.13426675 -27.15573922 8.251431681
20.12658416 -33.14551584 9.46948383
25.54652849 -30.1844392 7.545523815
21.01304825 -32.99327401 6.851591874
23.70305353 -31.48359565 5.873554859
28.3913954 -28.7296614 -3.265070889
28.3913954 -28.7296614 3.265070889
26.46172718 -30.00539413 -1.62730645
26.46172718 -30.00539413 1.62730645
38.91103224 -2.975752655 22.91170409
39.451961 -8.931105202 20.97127419
36.95943132 -19.75757674 15.29546198
38.93521274 -14.68142711 18.45547868
15.41013276 -31.64706103 19.55895936
21.2396184 -29.48347801 18.22179152
16.78678226 -32.43535854 17.25279689
32.66056972 -23.72870165 14.66514413
26.97927531 -26.87093005 16.60714808
31.01822334 -25.57045659 12.88408197
19.12107262 -33.13183794 12.1980051
22.51549266 -30.01590108 15.73521926
18.02661988 -32.9187252 14.76191143
21.91125661 -31.75942662 11.26774627
19.67878357 -31.26713179 16.52386315
27.44819347 -28.74087567 9.345099408
25.42194812 -28.61829748 14.84590036
29.25417678 -27.2374951 11.09133994
24.69287938 -30.29125147 10.31404738
28.21458319 -27.15833972 13.9092671
23.69090938 -30.25185068 13.07508336
36.23593272 -22.39503804 -10.22684946
36.95850383 -22.84161154 -3.419378791
34.34940261 -24.19287591 -8.454433864
36.23593272 -22.39503804 10.22684946
36.95850383 -22.84161154 3.419378791
34.34940261 -24.19287591 8.454433864
30.43249841 -27.30046206 -4.991556815
34.82208848 -24.46881455 -1.732544234
32.38736358 -25.82527168 -6.697551411
30.52031052 -27.4008035 -1.669783204
34.67292211 -24.38296751 -5.083655471
30.43249841 -27.30046206 4.991556815
34.82208848 -24.46881455 1.732544234
32.38736358 -25.82527168 6.697551411
30.52031052 -27.4008035 1.669783204
34.67292211 -24.38296751 5.083655471
32.67771307 -25.97782309 0
2.27851913 -17.54337881 29.79398545
6.757724772 -15.86792406 29.85134405
3.7591629 -19.48023231 29.19638755
2.234739263 -15.12186787 30.31831953
15.82131143 -12.24817551 29.59607248
11.23627718 -14.12470821 29.79865916
6.902488468 -23.36943367 27.61209806
8.353438986 -17.75452557 29.23908517
5.311902304 -21.43647377 28.47300967
6.070485084 -18.6174831 29.23191887
2.170297003 -10.40999992 31.09411638
6.651630371 -13.45654047 30.35721328
2.201005921 -12.73211407 30.7501004
4.458671314 -14.29373524 30.34974895
35.87658396 -1.779816555 25.05275197
30.72751069 -4.998416995 27.07825458
36.38778237 -4.685086512 24.27843009
20.59331985 -10.1606657 29.16767407
25.5816713 -7.773141849 28.38755006
36.89854858 -10.54170377 22.40549664
31.18160087 -7.794794876 26.3904739
36.74295574 -7.630274486 23.40117872
33.7915058 -6.304116762 25.44060976
13.60097993 -30.29058217 22.00684781
15.51168382 -25.19963009 25.09843165
11.97815117 -28.83720929 23.77249659
16.57996035 -29.41650487 21.48308406
17.83772296 -14.05400328 28.86204204
16.89404514 -19.6919755 27.33513925
15.44109925 -15.02402031 29.02935643
8.6267255 -25.3382035 26.53151499
13.70994375 -23.47674916 26.428525
10.29467738 -27.15292413 25.28109553
9.397402347 -22.49833786 27.59916327
12.91208469 -26.19182485 25.21130552
22.5291729 -27.30867182 20.24628231
18.51067483 -24.34097406 24.69754388
19.57428252 -28.41979156 20.89596991
17.62479651 -26.9549004 23.21280381
10.75299383 -16.85593458 29.20694377
14.40771259 -20.61596611 27.48360024
13.06829234 -15.95844411 29.14199333
10.10631897 -19.65274538 28.48581146
14.97109825 -17.82954746 28.32892634
11.91046422 -21.58072118 27.55726867
2.127749442 -1.315021475 31.78227749
6.440693315 -3.98056738 31.53752177
2.133003686 -3.529512478 31.70750468
15.68040245 -9.691021671 30.08060527
10.92435181 -6.751620724 31.00416533
13.40368319 -10.6859394 30.2081806
2.160476448 -8.027138125 31.37311475
6.471292498 -6.257340074 31.36136015
2.142466509 -5.777069879 31.57141134
4.351983924 -9.517762133 31.11495846
4.295000373 -4.884588289 31.56798809
8.936930538 -12.538701 30.34119765
8.767129237 -7.715143894 31.06731016
11.14695726 -11.63918428 30.29255261
6.616613845 -11.02642132 30.77338228
11.0435998 -9.169781394 30.69271115
6.557654736 -8.614806232 31.10721228
34.37309541 -21.24374126 16.73754043
30.86850905 -19.07778778 22.23738165
35.51351458 -18.89010887 18.37986887
31.48912514 -22.99673348 17.74814678
20.75755077 -12.8288719 28.57102947
26.01673324 -16.07922542 26.12163433
23.27082417 -11.72537553 28.22865594
20.37003517 -15.72094465 27.89242164
36.76310944 -13.53491458 21.21675491
31.33744759 -16.42801286 23.50680959
36.32181673 -16.28797708 19.8901865
34.23300715 -12.14533383 23.61781317
33.61363108 -17.76392679 21.155614
25.61891238 -25.99420266 19.48251353
27.87298623 -20.66465743 22.99472234
28.54939356 -24.58593657 18.66737566
23.76060923 -24.80281555 22.07428399
29.87628235 -21.96687107 20.57744829
28.45657945 -9.252660457 27.17668409
28.69882878 -14.88767642 25.49348496
25.85566348 -10.52864634 27.77003345
31.40801585 -10.69430109 25.60324547
26.0084618 -13.3203519 27.01998417
31.47467035 -13.60359546 24.64852716
19.28347475 -21.45780298 26.01001386
25.44074902 -19.06770304 25.0734492
19.88287322 -18.62526503 27.04191837
21.59614766 -23.24594653 24.26557831
22.94573883 -17.42202195 26.64478233
24.74285285 -22.02091773 23.70316615
2.293890877 17.66173303 29.99498688
6.880052034 16.1551627 30.39170835
3.807757427 19.73205239 29.57380792
2.247037484 15.20508656 30.48516736
16.34066257 12.65023471 30.5675946
11.53799928 14.50399189 30.59882757
7.126236259 24.12696614 28.50715873
8.572480785 18.22008033 30.00578519
5.42499138 21.89285095 29.07919295
6.191630944 18.9890236 29.81528674
2.177892841 10.44643396 31.20294291
6.748611626 13.65273781 30.79982365
2.210771192 12.78860304 30.88653032
4.504939089 14.44206178 30.66468926
36.21032839 1.796373423 25.28580694
31.46690425 5.118693491 27.72983639
37.32808706 4.806154863 24.90581434
33.65135574 0 26.43027689
21.31909995 10.51876285 30.19564418
26.41935816 8.027677948 29.31711708
39.47320788 11.27726917 23.96887846
32.43076668 8.107062077 27.44770242
38.41453918 7.977406072 24.46579157
34.93234567 6.516950951 26.29951383
28.48047442 -3.236751267 28.14514237
28.88555517 3.282787918 28.54545367
31.05108515 -1.684018244 27.38392105
31.29502736 1.697248156 27.59905344
15.4572475 34.4246538 25.01035182
17.05356297 27.7045022 27.59324452
13.15048667 31.65958845 26.099178
19.42272752 34.46020054 25.16653111
18.63395225 14.68133721 30.15036808
18.05120741 21.04078277 29.20746713
16.0785705 15.64427286 30.2278061
9.043317247 26.56180642 27.81274391
14.70260522 25.17657118 28.34206884
11.00617048 29.02953645 27.0283407
9.798905492 23.45957726 28.77833497
14.00683418 28.41249544 27.34884291
27.96635328 33.8993343 25.13251091
20.70615781 27.22796737 27.62682862
23.63341453 34.31322268 25.22918112
20.15941702 30.83128238 26.55103519
11.09841749 17.39740598 30.14517266
15.28260844 21.86785277 29.15251802
13.55238122 16.54959291 30.22150047
10.48335455 20.38592867 29.5485292
15.72797804 18.73093919 29.76112533
12.53290879 22.7085364 28.99742012
2.128632965 1.315567522 31.79547471
6.465543996 3.995925945 31.6592057
2.135398328 3.533474927 31.74310148
4.27898757 0 31.75975851
16.06883849 9.931088345 30.82576415
11.04924879 6.828811304 31.35863274
13.7168506 10.93560868 30.91397301
2.166180969 8.048332977 31.4559523
6.51119771 6.295925949 31.55474991
2.146454627 5.787823669 31.63018029
4.379895801 9.578805236 31.31451731
4.30855282 4.900001122 31.66759774
8.704252531 -2.67177595 31.49228151
8.73470793 2.681124254 31.60247017
6.480672227 -1.334214622 31.65987314
6.489031996 1.335935698 31.70071292
9.10013706 12.76768317 30.89528961
8.859026352 7.79601409 31.39295795
11.38280891 11.88545066 30.93349419
6.693050569 11.15380121 31.12888384
11.22080265 9.316917425 31.18519876
6.615025265 8.690174028 31.37935792
43.67047409 26.98983729 21.26478041
35.68586885 22.05507987 25.70776204
42.63723627 22.6793108 22.06672081
40.52781832 29.5977558 22.84260567
21.73912394 13.43551748 29.92208269
28.26321409 17.46762694 28.37717313
24.39049838 12.28954122 29.58687591
21.61166974 16.67919869 29.59257555
40.54576783 14.92755951 23.39980572
34.98638816 18.34089496 26.24394863
41.58900867 18.64997076 22.77455296
36.92789249 13.10143687 25.4770509
38.77708563 20.49267777 24.40536857
32.55562752 33.03253342 24.75770416
32.26889676 23.92372642 26.62127105
36.74388924 31.6428063 24.02544847
28.34216064 29.58532653 26.33067599
36.27854436 26.67420588 24.98704028
29.73233393 9.66747219 28.39505879
31.18925457 16.17959859 27.70575755
27.08014347 11.02726502 29.08517473
33.28462125 11.33327756 27.13302019
27.69742911 14.18536419 28.77463888
34.13804337 14.75472583 26.73427489
21.12669972 23.50886269 28.49619996
28.33177267 21.23450954 27.92273381
21.41301624 20.05862524 29.12300606
24.52186847 26.39517252 27.5529381
24.85649693 18.87280416 28.8635705
28.43862206 25.31011927 27.24364033
18.45287763 -8.426634569 29.8573832
18.81792619 -2.817034936 30.44804417
20.84325683 -7.283877162 29.59356394
15.92101151 -6.947486587 30.44047984
18.91922107 8.639593534 30.61194273
18.97168954 2.84005324 30.6968385
21.35468414 7.462600371 30.319696
16.19963849 7.069071652 30.97320598
25.81394104 -4.719764561 28.77543677
21.18508212 -1.500035558 30.14893929
23.31361593 -6.046176134 29.23750676
26.07375166 -1.588913719 29.04217743
21.03967352 -4.386605172 29.91871111
11.10018644 -4.101515533 31.23326203
16.21271544 -1.442379478 30.90036268
13.45693118 -5.49721603 30.89377438
11.13965404 -1.376936964 31.3919237
16.09759117 -4.182798488 30.71358947
26.30985317 4.810436051 29.32824225
21.28825174 1.507340608 30.29576216
23.8395821 6.182580718 29.8971187
26.23889817 1.598977616 29.22612543
21.34389049 4.450032001 30.35131192
23.65374882 0 29.75424132
11.1771995 4.129971834 31.44995829
16.27041302 1.447512596 31.01033043
13.61112744 5.560205886 31.24777073
11.16537555 1.380116317 31.46440779
16.26522449 4.226356334 31.03342745
13.67132014 0 31.23487409
41.19269636 0 -21.67508724
46.4209694 0 -16.73401619
42.38567921 3.124214765 -21.14070471
41.61679159 -3.067540669 -20.75720664
54.37704624 0 -3.768734382
51.09844862 0 -10.76259281
44.74168388 9.803440806 -19.83279144
47.7199764 3.330743362 -15.97617197
43.57036849 6.400908043 -20.52021295
45.11699923 3.229348235 -18.68074489
41.90331217 -9.181519441 -18.5746172
46.6293865 -3.254622724 -15.61105335
41.88180312 -6.152841478 -19.7249541
44.20609533 -3.164148289 -18.30358409
41.19269636 0 21.67508724
46.4209694 0 16.73401619
42.38567921 3.124214765 21.14070471
41.61679159 -3.067540669 20.75720664
54.37704624 0 3.768734382
51.09844862 0 10.76259281
44.74168388 9.803440806 19.83279144
47.7199764 3.330743362 15.97617197
43.57036849 6.400908043 20.52021295
45.11699923 3.229348235 18.68074489
41.90331217 -9.181519441 18.5746172
46.6293865 -3.254622724 15.61105335
41.88180312 -6.152841478 19.7249541
44.20609533 -3.164148289 18.30358409
49.92939176 26.02716766 -16.08567425
53.22476385 18.75380418 -11.5904884
48.55903756 21.54614884 -17.17743082
53.53497305 27.99991744 -12.21838516
55.63362259 3.724541436 -2.3018932
55.30185208 11.29392067 -6.98002684
54.49274368 3.665795347 -6.065845317
46.00745628 13.55139127 -19.0128862
51.81324681 14.62158869 -12.86711507
47.24609239 17.38546696 -18.15317392
47.64150563 10.2434449 -17.07044447
50.32546569 18.10769665 -15.03528042
58.88019006 30.89309264 -2.748433042
56.07791728 19.92988554 -7.364086678
56.78194684 29.7605256 -7.732975711
55.00178206 23.95806958 -9.786977606
50.31746901 3.465059418 -12.87424845
53.08787337 10.95447248 -10.59229816
52.59933799 3.56944195 -9.624848504
49.09495008 6.866807609 -15.0176661
54.00647488 7.347881312 -8.356547588
50.46185076 10.63777081 -13.97486417
38.30135381 -19.96571002 -12.3394874
43.87478645 -15.45932934 -9.554390976
39.76846127 -17.64567892 -14.06782397
39.03260332 -20.41487289 -8.908482699
53.46178694 -3.579142098 -2.212031467
49.16368937 -10.0403655 -6.205287138
52.54186586 -3.534557345 -5.84868387
41.59880789 -12.25283395 -17.19098303
45.23605764 -12.76551981 -11.2337596
40.89103538 -15.04695327 -15.71139622
44.16407478 -9.495759224 -15.82444501
42.54626915 -15.3086499 -12.71116081
39.68610126 -20.82239207 -1.852483694
44.64241026 -15.86574841 -5.862389237
39.47881292 -20.6916157 -5.376509937
41.86227465 -18.23466897 -7.448943092
48.97123671 -3.372352551 -12.5298009
47.91144897 -9.886337801 -9.559477914
50.9602393 -3.458211127 -9.324919318
46.63137926 -6.522233129 -14.26408382
50.33952734 -6.848972703 -7.789152259
46.19310747 -9.737884813 -12.79268186
49.92939176 26.02716766 16.08567425
53.22476385 18.75380418 11.5904884
48.55903756 21.54614884 17.17743082
53.53497305 27.99991744 12.21838516
55.63362259 3.724541436 2.3018932
55.30185208 11.29392067 6.98002684
54.49274368 3.665795347 6.065845317
56.57432273 7.622250139 0
46.00745628 13.55139127 19.0128862
51.81324681 14.62158869 12.86711507
47.24609239 17.38546696 18.15317392
47.64150563 10.2434449 17.07044447
50.32546569 18.10769665 15.03528042
58.88019006 30.89309264 2.748433042
56.07791728 19.92988554 7.364086678
56.78194684 29.7605256 7.732975711
58.70672568 25.69558753 0
55.00178206 23.95806958 9.786977606
50.31746901 3.465059418 12.87424845
53.08787337 10.95447248 10.59229816
52.59933799 3.56944195 9.624848504
49.09495008 6.866807609 15.0176661
54.00647488 7.347881312 8.356547588
50.46185076 10.63777081 13.97486417
56.77343927 15.69179268 -4.816605923
56.77343927 15.69179268 4.816605923
56.94927693 11.65733026 -2.39996407
57.94292835 20.56147249 -2.541537772
56.94927693 11.65733026 2.39996407
57.94292835 20.56147249 2.541537772
38.30135381 -19.96571002 12.3394874
43.87478645 -15.45932934 9.554390976
39.76846127 -17.64567892 14.06782397
39.03260332 -20.41487289 8.908482699
53.46178694 -3.579142098 2.212031467
49.16368937 -10.0403655 6.205287138
52.54186586 -3.534557345 5.84868387
52.01251447 -7.007638387 0
41.59880789 -12.25283395 17.19098303
45.23605764 -12.76551981 11.2337596
40.89103538 -15.04695327 15.71139622
44.16407478 -9.495759224 15.82444501
