-4.617144059 7.708304521 -4.76399419
-7.042981988 5.991118322 -3.702714753
-5.220482432 7.92448072 -3.501278889
-6.435250364 6.980933992 -2.942274741
-10.78900955 -13.73670052 -1.4210219
-12.29449726 -9.834030868 -3.842151639
-9.235039007 -12.8142237 -3.443796516
-12.1026867 -1.835846021 -6.778640955
-12.28536823 -5.584514614 -5.459680357
-6.571607857 -10.97127443 -6.780620498
-10.76783604 -9.159668428 -5.660986414
-7.806597467 -11.85009852 -5.23573736
-10.26452625 -11.13491724 -4.693066251
-1.447497798 -5.344711778 -9.542528155
-4.514850286 -4.413926925 -9.932214719
-2.542653675 -6.818493995 -9.461108644
-1.393968275 -3.792929739 -9.786545557
-9.840497915 -1.01797102 -7.728873888
-7.511201369 -2.934623151 -9.390497745
-11.1342348 -2.99230292 -8.024293555
-5.239558863 -9.966233198 -8.477784326
-6.138047821 -5.948842485 -9.93157
-3.946535824 -8.63173848 -9.363675562
-7.324841694 -9.225373065 -8.050780081
-4.337726961 -6.46764457 -9.817622293
-1.337315232 -0.8265062669 -9.925901425
-4.275814794 -2.642598872 -9.865104402
-1.362048175 -2.257733289 -9.91225787
-2.861590254 -3.264429313 -9.928385686
-11.02882287 -6.816187387 -6.606078396
-8.234523908 -5.089215656 -9.680263426
-11.11331173 -4.910202337 -7.321217719
-9.355869171 -8.164661161 -7.428454124
-9.848517962 -4.150883774 -9.07868186
-7.951943058 -7.2349168 -9.112115915
-1.345802134 4.969212755 -8.872106597
-3.810302357 3.725128211 -8.382280422
-2.187175554 5.865227944 -8.138389333
-1.324775705 3.604659632 -9.300769625
-8.971597065 0.9280857428 -7.046426196
-6.244465625 2.439710039 -7.806825764
-8.631223162 2.319623642 -6.220406669
-8.173861714 0 -8.077621824
-3.800787053 7.229526589 -6.149802637
-4.652908485 4.509482572 -7.528564076
-3.035253571 6.638610724 -7.201538502
-5.121856445 6.450792859 -5.629464986
-3.463258599 5.163793358 -7.838429004
-1.322579409 0.8173990274 -9.816528314
-3.856832951 2.383653852 -8.898434931
-1.321479103 2.19048593 -9.617017874
-2.694293268 0 -9.748044618
-2.623901044 2.993279513 -9.103714807
-7.691049734 4.753330145 -4.606808733
-6.054828301 3.742089686 -7.117877561
-8.182629315 3.615336864 -5.390545335
-6.433023902 5.613958408 -5.107748095
-7.28270916 3.069464806 -6.713436458
-5.608069153 5.102389873 -6.426275416
-5.870987749 -1.768723759 -9.499457725
-5.336122376 1.607587484 -8.634027373
-7.094501549 -0.9281268208 -8.924230687
-4.221782976 -0.8697351242 -9.645510333
-6.663666989 0.8717635785 -8.382280422
-4.072912687 0.8390661578 -9.305386285
-6.158560576 7.841155566 0.8111448425
-7.579095976 6.062310819 2.368542235
-5.744775036 7.971253005 2.142258007
-6.981726179 7.064909147 0
-10.04922234 1.524357798 5.628508098
-8.864824495 4.02965064 3.939573261
-4.617144059 7.708304521 4.76399419
-7.042981988 5.991118322 3.702714753
-5.220482432 7.92448072 3.501278889
-6.435250364 6.980933992 2.942274741
-8.568576109 5.295671271 -1.595400978
-8.568576109 5.295671271 1.595400978
-7.799412249 6.200303894 -0.8111448425
-7.799412249 6.200303894 0.8111448425
-10.78900955 -13.73670052 1.4210219
-12.29449726 -9.834030868 3.842151639
-9.235039007 -12.8142237 3.443796516
-13.88124879 -14.04663533 0
-12.1026867 -1.835846021 6.778640955
-12.28536823 -5.584514614 5.459680357
-6.571607857 -10.97127443 6.780620498
-10.76783604 -9.159668428 5.660986414
-7.806597467 -11.85009852 5.23573736
-10.26452625 -11.13491724 4.693066251
-13.49362534 -8.339519093 -2.512406121
-13.49362534 -8.339519093 2.512406121
-13.72211741 -10.90868072 -1.427110712
-13.72211741 -10.90868072 1.427110712
-1.447497798 -5.344711778 9.542528155
-4.514850286 -4.413926925 9.932214719
-2.542653675 -6.818493995 9.461108644
-1.393968275 -3.792929739 9.786545557
-9.840497915 -1.01797102 7.728873888
-7.511201369 -2.934623151 9.390497745
-11.1342348 -2.99230292 8.024293555
-5.239558863 -9.966233198 8.477784326
-6.138047821 -5.948842485 9.93157
-3.946535824 -8.63173848 9.363675562
-7.324841694 -9.225373065 8.050780081
-4.337726961 -6.46764457 9.817622293
-1.337315232 -0.8265062669 9.925901425
-4.275814794 -2.642598872 9.865104402
-1.362048175 -2.257733289 9.91225787
-2.861590254 -3.264429313 9.928385686
-11.02882287 -6.816187387 6.606078396
-8.234523908 -5.089215656 9.680263426
-11.11331173 -4.910202337 7.321217719
-9.355869171 -8.164661161 7.428454124
-9.848517962 -4.150883774 9.07868186
-7.951943058 -7.2349168 9.112115915
-1.345802134 4.969212755 8.872106597
-3.810302357 3.725128211 8.382280422
-2.187175554 5.865227944 8.138389333
-1.324775705 3.604659632 9.300769625
-8.971597065 0.9280857428 7.046426196
-6.244465625 2.439710039 7.806825764
-8.631223162 2.319623642 6.220406669
-8.173861714 0 8.077621824
-3.800787053 7.229526589 6.149802637
-4.652908485 4.509482572 7.528564076
-3.035253571 6.638610724 7.201538502
-5.121856445 6.450792859 5.629464986
-3.463258599 5.163793358 7.838429004
-1.322579409 0.8173990274 9.816528314
-3.856832951 2.383653852 8.898434931
-1.321479103 2.19048593 9.617017874
-2.694293268 0 9.748044618
-2.623901044 2.993279513 9.103714807
-7.691049734 4.753330145 4.606808733
-6.054828301 3.742089686 7.117877561
-8.182629315 3.615336864 5.390545335
-6.433023902 5.613958408 5.107748095
-7.28270916 3.069464806 6.713436458
-5.608069153 5.102389873 6.426275416
-5.870987749 -1.768723759 9.499457725
-5.336122376 1.607587484 8.634027373
-7.094501549 -0.9281268208 8.924230687
-4.221782976 -0.8697351242 9.645510333
-6.663666989 0.8717635785 8.382280422
-4.072912687 0.8390661578 9.305386285
-11.92013044 0 -5.254448321
-13.78181224 0 -1.919585281
-11.08553642 1.578992914 -4.296374091
-13.00497739 -1.852392735 -5.040283642
-11.92013044 0 5.254448321
-13.78181224 0 1.919585281
-11.08553642 1.578992914 4.296374091
-13.00497739 -1.852392735 5.040283642
-9.474054104 4.106322553 -2.537846907
-12.3127129 1.658889989 -1.025250397
-10.25620336 2.956074884 -3.372214974
-9.732046138 4.259659188 -0.8775380528
-11.88234626 1.632758979 -2.706463962
-13.28298182 -5.757219374 -3.558157254
-13.9908375 -1.884983469 -1.164983852
-13.13736975 -3.786493637 -4.319535547
-13.9470662 -6.104548605 -1.257606175
-13.64955422 -1.875591885 -3.108984185
-9.474054104 4.106322553 2.537846907
-12.3127129 1.658889989 1.025250397
-10.25620336 2.956074884 3.372214974
-9.732046138 4.259659188 0.8775380528
-11.88234626 1.632758979 2.706463962
-11.0049437 3.041691629 0
-13.28298182 -5.757219374 3.558157254
-13.9908375 -1.884983469 1.164983852
-13.13736975 -3.786493637 4.319535547
-13.9470662 -6.104548605 1.257606175
-13.64955422 -1.875591885 3.108984185
-14.04663533 -3.882394519 0
-4.842894543 9.203740783 0
-3.721901299 10.32473403 0
-0.9104364398 13.13619889 0
-2.443835617 11.60279971 0
7.391165742 14.04663533 0
5.063587123 14.04663533 0
0.9735364673 14.04663533 0
2.958567637 14.04663533 0
-7.391165742 -14.04663533 0
-5.063587123 -14.04663533 0
-0.9735364673 -14.04663533 0
-2.958567637 -14.04663533 0
4.842894543 -9.203740783 0
3.721901299 -10.32473403 0
0.9104364398 -13.13619889 0
2.443835617 -11.60279971 0
-8.213542048 -13.949089 1.066767861
-7.114695307 -13.38443622 3.029958585
-6.968671704 -13.97171416 1.029843959
-4.904632567 -11.85138643 6.335451287
-5.99017697 -12.63737553 4.76521623
-4.685609073 -13.99566522 0.9768648804
-5.985788306 -13.50360835 2.958802925
-5.79089487 -13.98594119 1.001074435
-6.487906991 -13.77570979 2.023784848
-0.4478747977 -6.304299276 9.02801906
-1.440431558 -7.803345035 8.854978714
-3.851902418 -11.05744816 7.806915496
-2.622223451 -9.576372197 8.629825583
-0.5798404667 -14.01395412 0.9382015832
-1.732643075 -13.72750754 2.803475386
-1.559637755 -14.01106292 0.9425418102
-3.89510161 -12.09026437 6.302406795
-2.851780686 -13.09568228 4.614278079
-4.407939443 -12.46084465 5.52900607
-3.582610789 -14.00220821 0.964247296
-2.732238979 -13.69379475 2.825660329
-2.563113769 -14.0072945 0.9505485522
-4.238169342 -13.85519633 1.937897227
-2.150221324 -13.89639354 1.890681638
-5.443347723 -13.17183408 3.879733674
-3.323168201 -13.38172025 3.776293158
-4.927836939 -12.82536268 4.719436207
-4.866620313 -13.58213721 2.920308086
-3.876447992 -12.9750856 4.668588969
-3.778503765 -13.64380295 2.876225239
5.193708922 -8.820495173 0.6745545009
4.77206483 -8.977390398 2.032294873
4.663261369 -9.349522788 0.6891459022
3.625777 -8.761203562 4.683517725
4.247636112 -8.961166411 3.37901612
3.51356166 -10.4948219 0.7325141592
4.218027925 -9.515638409 2.084990769
4.102525142 -9.908257128 0.7092052489
4.453184571 -9.45540347 1.389090114
0.4355816573 -6.131260658 8.780220555
1.299918963 -7.04213687 7.991184782
0 -6.819928683 8.683217628
2.916432106 -8.372044076 5.91093349
2.134585505 -7.79551616 7.024992701
-0.960054245 -8.348143303 8.44760629
0.8904364882 -7.742782706 7.835033195
-0.4649088046 -7.559909785 8.572307888
0.4491814972 -7.304167102 8.282316991
0.5558083636 -13.43313093 0.8993168235
1.524884429 -12.08146258 2.467314834
1.401852534 -12.59359361 0.8471868683
0 -13.7983979 1.85905611
2.989416756 -9.27904905 4.836977917
2.324769478 -10.67559038 3.761556031
3.330128122 -9.413969889 4.177076123
2.853199367 -11.15139041 0.767928736
2.270244173 -11.3783084 2.347868888
2.165621487 -11.83501813 0.8031357774
3.25316062 -10.63505855 1.487503315
1.856628874 -11.99897201 1.632526885
-1.145879651 -13.50650848 3.733107131
1.03346924 -12.18152451 3.366890567
-0.579556019 -13.75241264 2.815073777
0.5472951095 -12.9868864 2.658373066
3.939863053 -9.533696005 2.808128405
2.661642764 -10.7178923 3.024566543
3.649597614 -9.498571807 3.495254273
3.615884649 -10.0914882 2.169780361
3.008549114 -10.07009055 3.623337456
2.966616877 -10.71215979 2.258210886
-3.28555574 -11.64143241 7.194800905
-1.031465472 -11.14863924 6.890237981
-2.767664507 -11.24470591 7.919840057
-2.791107779 -12.2292658 6.396163351
2.554715065 -9.051906313 5.594385765
0.9288612633 -10.03963721 6.204837032
2.167188097 -8.805038596 6.201540347
2.236008072 -9.797091046 5.124084776
-1.516412934 -9.245258727 8.293759904
-0.5082938754 -10.21610529 7.178661491
-2.106888218 -10.18828383 8.124007908
-0.4854959364 -8.873898539 7.966889787
-1.571564658 -10.71881037 7.537766909
-1.728013898 -13.15891905 4.67663143
-0.5427526225 -11.62748995 6.100678748
-2.266871805 -12.73958049 5.549197577
-0.5705722243 -13.00811889 4.61602626
-1.680650438 -12.34073498 6.468019851
1.338129254 -8.158299685 7.318667959
0.4834818356 -9.717412652 6.82823973
1.758692772 -8.504514371 6.781391565
0.4655891238 -8.510041662 7.640223032
1.356864464 -9.254454028 6.507990621
0 -9.335514325 7.421459973
1.490046201 -11.3467822 4.032604658
0.5110449551 -10.94821072 5.74427643
1.880287392 -10.56701686 4.602856772
0.5319534049 -12.12767261 4.303593448
1.410137755 -10.35440561 5.426945893
0 -11.94365674 5.227668103
-5.193708922 8.820495173 0.6745545009
-4.77206483 8.977390398 2.032294873
-4.663261369 9.349522788 0.6891459022
-3.625777 8.761203562 4.683517725
-4.247636112 8.961166411 3.37901612
-3.51356166 10.4948219 0.7325141592
-4.218027925 9.515638409 2.084990769
-4.102525142 9.908257128 0.7092052489
-4.453184571 9.45540347 1.389090114
-0.4355816573 6.131260658 8.780220555
-1.299918963 7.04213687 7.991184782
-2.916432106 8.372044076 5.91093349
-2.134585505 7.79551616 7.024992701
-0.5558083636 13.43313093 0.8993168235
-1.524884429 12.08146258 2.467314834
-1.401852534 12.59359361 0.8471868683
-2.989416756 9.27904905 4.836977917
-2.324769478 10.67559038 3.761556031
-3.330128122 9.413969889 4.177076123
-2.853199367 11.15139041 0.767928736
-2.270244173 11.3783084 2.347868888
-2.165621487 11.83501813 0.8031357774
-3.25316062 10.63505855 1.487503315
-1.856628874 11.99897201 1.632526885
-3.939863053 9.533696005 2.808128405
-2.661642764 10.7178923 3.024566543
-3.649597614 9.498571807 3.495254273
-3.615884649 10.0914882 2.169780361
-3.008549114 10.07009055 3.623337456
-2.966616877 10.71215979 2.258210886
8.213542048 13.949089 1.066767861
7.114695307 13.38443622 3.029958585
6.968671704 13.97171416 1.029843959
4.904632567 11.85138643 6.335451287
5.99017697 12.63737553 4.76521623
4.685609073 13.99566522 0.9768648804
5.985788306 13.50360835 2.958802925
5.79089487 13.98594119 1.001074435
6.487906991 13.77570979 2.023784848
0.4478747977 6.304299276 9.02801906
1.440431558 7.803345035 8.854978714
0 6.819928683 8.683217628
3.851902418 11.05744816 7.806915496
2.622223451 9.576372197 8.629825583
-0.8904364882 7.742782706 7.835033195
0.960054245 8.348143303 8.44760629
-0.4491814972 7.304167102 8.282316991
0.4649088046 7.559909785 8.572307888
0.5798404667 14.01395412 0.9382015832
1.732643075 13.72750754 2.803475386
1.559637755 14.01106292 0.9425418102
0 13.7983979 1.85905611
3.89510161 12.09026437 6.302406795
2.851780686 13.09568228 4.614278079
4.407939443 12.46084465 5.52900607
3.582610789 14.00220821 0.964247296
2.732238979 13.69379475 2.825660329
2.563113769 14.0072945 0.9505485522
4.238169342 13.85519633 1.937897227
2.150221324 13.89639354 1.890681638
-1.03346924 12.18152451 3.366890567
1.145879651 13.50650848 3.733107131
-0.5472951095 12.9868864 2.658373066
0.579556019 13.75241264 2.815073777
5.443347723 13.17183408 3.879733674
3.323168201 13.38172025 3.776293158
4.927836939 12.82536268 4.719436207
4.866620313 13.58213721 2.920308086
3.876447992 12.9750856 4.668588969
3.778503765 13.64380295 2.876225239
-2.554715065 9.051906313 5.594385765
-0.9288612633 10.03963721 6.204837032
-2.167188097 8.805038596 6.201540347
-2.236008072 9.797091046 5.124084776
3.28555574 11.64143241 7.194800905
1.031465472 11.14863924 6.890237981
2.767664507 11.24470591 7.919840057
2.791107779 12.2292658 6.396163351
-1.338129254 8.158299685 7.318667959
-0.4834818356 9.717412652 6.82823973
-1.758692772 8.504514371 6.781391565
-0.4655891238 8.510041662 7.640223032
-1.356864464 9.254454028 6.507990621
-1.490046201 11.3467822 4.032604658
-0.5110449551 10.94821072 5.74427643
-1.880287392 10.56701686 4.602856772
-0.5319534049 12.12767261 4.303593448
-1.410137755 10.35440561 5.426945893
1.516412934 9.245258727 8.293759904
0.5082938754 10.21610529 7.178661491
2.106888218 10.18828383 8.124007908
0.4854959364 8.873898539 7.966889787
1.571564658 10.71881037 7.537766909
0 9.335514325 7.421459973
1.728013898 13.15891905 4.67663143
0.5427526225 11.62748995 6.100678748
2.266871805 12.73958049 5.549197577
0.5705722243 13.00811889 4.61602626
1.680650438 12.34073498 6.468019851
0 11.94365674 5.227668103
0 -4.898278764 9.308996432
0 -3.469554505 9.624711827
0 -0.6875690446 9.920564822
0 -2.069200256 9.824112537
0 4.898278764 9.308996432
0 3.469554505 9.624711827
0 0.6875690446 9.920564822
0 2.069200256 9.824112537
-8.213542048 -13.949089 -1.066767861
-7.114695307 -13.38443622 -3.029958585
-6.968671704 -13.97171416 -1.029843959
-4.904632567 -11.85138643 -6.335451287
-5.99017697 -12.63737553 -4.76521623
-4.685609073 -13.99566522 -0.9768648804
-5.985788306 -13.50360835 -2.958802925
-5.79089487 -13.98594119 -1.001074435
-6.487906991 -13.77570979 -2.023784848
-0.4478747977 -6.304299276 -9.02801906
-1.440431558 -7.803345035 -8.854978714
-3.851902418 -11.05744816 -7.806915496
-2.622223451 -9.576372197 -8.629825583
-0.5798404667 -14.01395412 -0.9382015832
-1.732643075 -13.72750754 -2.803475386
-1.559637755 -14.01106292 -0.9425418102
-3.89510161 -12.09026437 -6.302406795
-2.851780686 -13.09568228 -4.614278079
-4.407939443 -12.46084465 -5.52900607
-3.582610789 -14.00220821 -0.964247296
-2.732238979 -13.69379475 -2.825660329
-2.563113769 -14.0072945 -0.9505485522
-4.238169342 -13.85519633 -1.937897227
-2.150221324 -13.89639354 -1.890681638
-5.443347723 -13.17183408 -3.879733674
-3.323168201 -13.38172025 -3.776293158
-4.927836939 -12.82536268 -4.719436207
-4.866620313 -13.58213721 -2.920308086
-3.876447992 -12.9750856 -4.668588969
-3.778503765 -13.64380295 -2.876225239
5.193708922 -8.820495173 -0.6745545009
4.77206483 -8.977390398 -2.032294873
4.663261369 -9.349522788 -0.6891459022
3.625777 -8.761203562 -4.683517725
4.247636112 -8.961166411 -3.37901612
3.51356166 -10.4948219 -0.7325141592
4.218027925 -9.515638409 -2.084990769
4.102525142 -9.908257128 -0.7092052489
4.453184571 -9.45540347 -1.389090114
0.4355816573 -6.131260658 -8.780220555
1.299918963 -7.04213687 -7.991184782
0 -6.819928683 -8.683217628
2.916432106 -8.372044076 -5.91093349
2.134585505 -7.79551616 -7.024992701
-0.960054245 -8.348143303 -8.44760629
0.8904364882 -7.742782706 -7.835033195
-0.4649088046 -7.559909785 -8.572307888
0.4491814972 -7.304167102 -8.282316991
0.5558083636 -13.43313093 -0.8993168235
1.524884429 -12.08146258 -2.467314834
1.401852534 -12.59359361 -0.8471868683
0 -13.7983979 -1.85905611
2.989416756 -9.27904905 -4.836977917
2.324769478 -10.67559038 -3.761556031
3.330128122 -9.413969889 -4.177076123
2.853199367 -11.15139041 -0.767928736
2.270244173 -11.3783084 -2.347868888
2.165621487 -11.83501813 -0.8031357774
3.25316062 -10.63505855 -1.487503315
1.856628874 -11.99897201 -1.632526885
-1.145879651 -13.50650848 -3.733107131
1.03346924 -12.18152451 -3.366890567
-0.579556019 -13.75241264 -2.815073777
0.5472951095 -12.9868864 -2.658373066
3.939863053 -9.533696005 -2.808128405
2.661642764 -10.7178923 -3.024566543
3.649597614 -9.498571807 -3.495254273
3.615884649 -10.0914882 -2.169780361
3.008549114 -10.07009055 -3.623337456
2.966616877 -10.71215979 -2.258210886
-3.28555574 -11.64143241 -7.194800905
-1.031465472 -11.14863924 -6.890237981
-2.767664507 -11.24470591 -7.919840057
-2.791107779 -12.2292658 -6.396163351
2.554715065 -9.051906313 -5.594385765
0.9288612633 -10.03963721 -6.204837032
2.167188097 -8.805038596 -6.201540347
2.236008072 -9.797091046 -5.124084776
-1.516412934 -9.245258727 -8.293759904
-0.5082938754 -10.21610529 -7.178661491
-2.106888218 -10.18828383 -8.124007908
-0.4854959364 -8.873898539 -7.966889787
-1.571564658 -10.71881037 -7.537766909
-1.728013898 -13.15891905 -4.67663143
-0.5427526225 -11.62748995 -6.100678748
-2.266871805 -12.73958049 -5.549197577
-0.5705722243 -13.00811889 -4.61602626
-1.680650438 -12.34073498 -6.468019851
1.338129254 -8.158299685 -7.318667959
0.4834818356 -9.717412652 -6.82823973
1.758692772 -8.504514371 -6.781391565
0.4655891238 -8.510041662 -7.640223032
1.356864464 -9.254454028 -6.507990621
0 -9.335514325 -7.421459973
1.490046201 -11.3467822 -4.032604658
0.5110449551 -10.94821072 -5.74427643
1.880287392 -10.56701686 -4.602856772
0.5319534049 -12.12767261 -4.303593448
1.410137755 -10.35440561 -5.426945893
0 -11.94365674 -5.227668103
-5.193708922 8.820495173 -0.6745545009
-4.77206483 8.977390398 -2.032294873
-4.663261369 9.349522788 -0.6891459022
-3.625777 8.761203562 -4.683517725
-4.247636112 8.961166411 -3.37901612
-3.51356166 10.4948219 -0.7325141592
-4.218027925 9.515638409 -2.084990769
-4.102525142 9.908257128 -0.7092052489
-4.453184571 9.45540347 -1.389090114
-0.4355816573 6.131260658 -8.780220555
-1.299918963 7.04213687 -7.991184782
-2.916432106 8.372044076 -5.91093349
-2.134585505 7.79551616 -7.024992701
-0.5558083636 13.43313093 -0.8993168235
-1.524884429 12.08146258 -2.467314834
-1.401852534 12.59359361 -0.8471868683
-2.989416756 9.27904905 -4.836977917
-2.324769478 10.67559038 -3.761556031
-3.330128122 9.413969889 -4.177076123
-2.853199367 11.15139041 -0.767928736
-2.270244173 11.3783084 -2.347868888
-2.165621487 11.83501813 -0.8031357774
-3.25316062 10.63505855 -1.487503315
-1.856628874 11.99897201 -1.632526885
-3.939863053 9.533696005 -2.808128405
-2.661642764 10.7178923 -3.024566543
-3.649597614 9.498571807 -3.495254273
-3.615884649 10.0914882 -2.169780361
-3.008549114 10.07009055 -3.623337456
-2.966616877 10.71215979 -2.258210886
8.213542048 13.949089 -1.066767861
7.114695307 13.38443622 -3.029958585
6.968671704 13.97171416 -1.029843959
4.904632567 11.85138643 -6.335451287
5.99017697 12.63737553 -4.76521623
4.685609073 13.99566522 -0.9768648804
5.985788306 13.50360835 -2.958802925
5.79089487 13.98594119 -1.001074435
6.487906991 13.77570979 -2.023784848
0.4478747977 6.304299276 -9.02801906
1.440431558 7.803345035 -8.854978714
0 6.819928683 -8.683217628
3.851902418 11.05744816 -7.806915496
2.622223451 9.576372197 -8.629825583
-0.8904364882 7.742782706 -7.835033195
0.960054245 8.348143303 -8.44760629
-0.4491814972 7.304167102 -8.282316991
0.4649088046 7.559909785 -8.572307888
0.5798404667 14.01395412 -0.9382015832
1.732643075 13.72750754 -2.803475386
1.559637755 14.01106292 -0.9425418102
0 13.7983979 -1.85905611
3.89510161 12.09026437 -6.302406795
2.851780686 13.09568228 -4.614278079
4.407939443 12.46084465 -5.52900607
3.582610789 14.00220821 -0.964247296
2.732238979 13.69379475 -2.825660329
2.563113769 14.0072945 -0.9505485522
4.238169342 13.85519633 -1.937897227
2.150221324 13.89639354 -1.890681638
-1.03346924 12.18152451 -3.366890567
1.145879651 13.50650848 -3.733107131
-0.5472951095 12.9868864 -2.658373066
0.579556019 13.75241264 -2.815073777
5.443347723 13.17183408 -3.879733674
3.323168201 13.38172025 -3.776293158
4.927836939 12.82536268 -4.719436207
4.866620313 13.58213721 -2.920308086
3.876447992 12.9750856 -4.668588969
3.778503765 13.64380295 -2.876225239
-2.554715065 9.051906313 -5.594385765
-0.9288612633 10.03963721 -6.204837032
-2.167188097 8.805038596 -6.201540347
-2.236008072 9.797091046 -5.124084776
3.28555574 11.64143241 -7.194800905
1.031465472 11.14863924 -6.890237981
2.767664507 11.24470591 -7.919840057
2.791107779 12.2292658 -6.396163351
-1.338129254 8.158299685 -7.318667959
-0.4834818356 9.717412652 -6.82823973
-1.758692772 8.504514371 -6.781391565
-0.4655891238 8.510041662 -7.640223032
-1.356864464 9.254454028 -6.507990621
-1.490046201 11.3467822 -4.032604658
-0.5110449551 10.94821072 -5.74427643
-1.880287392 10.56701686 -4.602856772
-0.5319534049 12.12767261 -4.303593448
-1.410137755 10.35440561 -5.426945893
1.516412934 9.245258727 -8.293759904
0.5082938754 10.21610529 -7.178661491
2.106888218 10.18828383 -8.124007908
0.4854959364 8.873898539 -7.966889787
1.571564658 10.71881037 -7.537766909
0 9.335514325 -7.421459973
1.728013898 13.15891905 -4.67663143
0.5427526225 11.62748995 -6.100678748
2.266871805 12.73958049 -5.549197577
0.5705722243 13.00811889 -4.61602626
1.680650438 12.34073498 -6.468019851
0 11.94365674 -5.227668103
0 -4.898278764 -9.308996432
0 -3.469554505 -9.624711827
0 -0.6875690446 -9.920564822
0 -2.069200256 -9.824112537
0 4.898278764 -9.308996432
0 3.469554505 -9.624711827
0 0.6875690446 -9.920564822
0 2.069200256 -9.824112537
9.769494852 13.99032341 -0.6940518429
11.56790477 13.126877 -2.135337475
9.158898665 13.72708244 -1.767422047
12.3231235 8.700523159 -4.292805041
12.21013018 11.00325798 -3.343404897
7.858619904 12.94198799 -3.697451763
10.65348614 12.58760089 -3.146655852
8.504340797 13.35294351 -2.77295667
10.003256 13.28683102 -2.478780752
11.29594058 0.86386619 -6.651307689
12.18750758 2.758998783 -6.478450164
12.30896799 6.580062811 -5.094000236
12.25619913 4.621484806 -5.809497515
5.470925265 11.23538054 -6.943847051
7.671600329 10.64922426 -6.581582548
6.029996456 11.65113683 -6.197394027
11.61879953 8.441341656 -5.217036054
9.800495136 9.76113762 -6.032714818
11.52550903 9.501270434 -4.787366491
7.212665376 12.49767025 -4.601213058
8.321239698 11.09322862 -5.81539712
6.61225451 12.07475337 -5.41474309
8.501807553 12.32300538 -4.372008964
7.176986331 11.40333581 -6.026365378
11.10019524 11.62296278 -3.779207839
9.487380648 10.68024686 -5.540437228
11.36616642 10.58262226 -4.309333896
9.824738241 12.05220388 -4.103726186
10.55840539 10.16314005 -5.205098361
9.047392622 11.55297022 -4.993282901
5.770733752 -8.263931014 -0.4099688322
6.531285594 -7.411487594 -1.205620134
5.588190432 -8.375412106 -1.078371028
7.910306861 -5.584932104 -2.755584262
7.23980329 -6.524207535 -1.982418976
5.146785796 -8.475997155 -2.421543789
6.323958855 -7.472058353 -1.86786953
5.379437853 -8.446431239 -1.754039312
5.965927991 -7.92424758 -1.4783414
10.32108746 -0.7893135098 -6.077291921
9.765142646 -2.210625634 -5.190806204
8.552542961 -4.571973047 -3.539423931
9.171425142 -3.458299062 -4.347299765
3.965592335 -8.143949478 -5.03323758
5.243899792 -7.279245855 -4.498821351
4.292104425 -8.29318828 -4.411256709
7.635711495 -5.547530907 -3.428562654
6.450634935 -6.424730023 -3.970701523
7.328901466 -6.041717953 -3.044215853
4.881016295 -8.457529769 -3.113772059
5.543646204 -7.390357323 -3.874242942
4.59912574 -8.398543788 -3.766201722
5.49740559 -7.968253604 -2.827011358
4.931712055 -7.83587513 -4.141055509
6.679467445 -6.994039282 -2.274112769
6.159383006 -6.933813818 -3.59695433
7.008880416 -6.525712463 -2.657325683
6.097318207 -7.479702802 -2.546808248
6.744373594 -6.491890666 -3.324851306
5.835745376 -7.451891985 -3.220765232
0.6873346347 -5.292109118 -8.987608591
1.98182008 -4.653544141 -8.754424757
1.114454355 -5.775176631 -8.655661409
0.6786213406 -4.592044546 -9.206737888
4.409803192 -3.413879039 -8.249180575
3.208986298 -4.033897916 -8.510246537
1.962331147 -6.643773152 -7.849934165
2.399411738 -5.099746001 -8.398529549
1.543484616 -6.228817022 -8.273430099
1.77089005 -5.431117141 -8.527574579
0.666523734 -3.197033406 -9.549368833
1.970854187 -3.987124606 -8.994733255
0.6723990901 -3.889613306 -9.394040847
1.337126792 -4.286599076 -9.10169411
9.746770493 -0.4835316401 -6.806206074
8.241422294 -1.340624878 -7.262655712
9.54772804 -1.229311844 -6.370375786
5.622066008 -2.773905989 -7.962902052
6.884585176 -2.09192185 -7.639708292
9.085178014 -2.595583268 -5.516691937
8.116513931 -2.028970913 -6.869392304
9.323669245 -1.936212102 -5.938140956
8.810956407 -1.643765102 -6.633504434
3.550690584 -7.907701169 -5.745138049
4.03406293 -6.553569217 -6.527250934
3.181861953 -7.660282273 -6.314897963
4.22484139 -7.495800031 -5.474236415
4.837176175 -3.811119275 -7.82671546
4.458471539 -5.196867391 -7.213958488
4.242645342 -4.128047412 -7.976197929
2.394278051 -7.032413921 -7.363607894
3.652602865 -6.254674913 -7.041086955
2.7929928 -7.366711827 -6.858876216
2.618772704 -6.26960844 -7.691054694
3.427390852 -6.952372373 -6.692102785
5.505814163 -6.673856725 -4.947907691
4.703309856 -6.184709324 -6.275308849
4.878306501 -7.082785988 -5.20769769
4.471774669 -6.839014611 -5.889567465
3.040176914 -4.765651685 -8.25763295
3.868136679 -5.534908765 -7.378709249
3.64152616 -4.446877234 -8.120520134
2.834389758 -5.511753624 -7.989050464
4.06146339 -4.83692332 -7.685267657
3.255822636 -5.89926633 -7.533004381
0.6630136953 -0.4097649987 -9.903461765
1.975238068 -1.220764262 -9.671957741
0.6629052155 -1.096918981 -9.85421186
4.446781532 -2.748262127 -8.530513195
3.245887355 -2.006068709 -9.212082324
3.838882066 -3.060506619 -8.651774377
0.6666412171 -2.476870847 -9.680555146
1.970001428 -1.904869682 -9.54707646
0.6636678989 -1.789552281 -9.779817859
1.324973965 -2.897709929 -9.47303818
1.323675894 -1.505380956 -9.728936255
2.616207907 -3.67059457 -8.882119077
2.62433337 -2.309434369 -9.299620957
3.226863627 -3.369355381 -8.769203463
1.97913922 -3.298185961 -9.204830333
3.239758142 -2.690053468 -9.004035158
1.979427805 -2.600378898 -9.389710713
7.987944262 -4.936821054 -3.889627584
7.346350546 -4.540294331 -5.292241376
8.273518729 -4.400794214 -4.281924532
7.373266759 -5.384749489 -4.15577823
5.549352719 -3.429688596 -7.638219067
6.525069878 -4.032714964 -6.551379367
6.157140403 -3.102373293 -7.468914583
5.351708703 -4.130278403 -7.328024444
8.817090367 -3.246149925 -5.088526193
7.5639541 -3.965247484 -5.673864415
8.552125787 -3.835073279 -4.683228763
8.413419101 -2.984949092 -5.804531269
7.941580528 -4.196918053 -4.998240499
6.150725633 -6.240827332 -4.677466147
6.70133164 -4.968277224 -5.528480484
6.758946991 -5.820615477 -4.419421461
5.781162848 -6.034740708 -5.370865253
7.058789692 -5.190054145 -4.861778925
7.423711338 -2.413820693 -7.089814084
7.126681469 -3.697005493 -6.33070946
6.783865196 -2.762447674 -7.286146943
7.944741023 -2.705151863 -6.476408939
6.662334334 -3.412144805 -6.921446166
7.758581627 -3.353318862 -6.07592098
4.934756428 -5.491180015 -6.656117985
6.279712642 -4.706610475 -6.189049537
5.146106423 -4.820610933 -6.999018114
5.372281868 -5.782687683 -6.036332426
5.836654069 -4.43159909 -6.777571137
6.04050557 -5.375995928 -5.786685473
0.7141708871 5.49873391 -9.338520243
2.197910292 5.160949103 -9.708974327
1.195150016 6.193346916 -9.282402483
0.7011297619 4.744352862 -9.512105733
5.2904048 4.095602743 -9.896474423
3.736502621 4.697019162 -9.909222269
2.287825373 7.74578379 -9.15201218
2.767038222 5.88110489 -9.685312405
1.720199328 6.941958957 -9.22066132
1.973735711 6.05322157 -9.504361081
0.6814043621 3.268409506 -9.762565451
2.149489302 4.348511291 -9.810001689
0.6909664666 3.99701963 -9.653444371
1.422313211 4.559692122 -9.681549916
10.2486554 0.5084298597 -7.156674171
9.355520597 1.521854263 -8.244441635
10.93722186 1.408215266 -7.29746522
9.398417083 0 -7.381657006
6.798573481 3.354390303 -9.629267008
8.181859659 2.48610636 -9.079271951
11.69246157 3.340469231 -7.099883831
9.944566735 2.485948625 -8.416560457
11.67018159 2.423503692 -7.4326085
10.48340363 1.95577554 -7.892639711
7.860426845 -0.8933224278 -7.767877369
8.487740686 0.9646154421 -8.387805152
8.601395012 -0.4664863097 -7.58556169
8.974129466 0.4867011144 -7.914275834
4.824048071 10.74358063 -7.805473742
5.622582391 9.134211219 -9.097529413
4.290788627 10.33000568 -8.515734735
5.897612554 10.46366485 -7.641689338
6.112398442 4.81584269 -9.890068432
6.122589293 7.136590279 -9.906557575
5.282940328 5.14024303 -9.931958555
2.950161596 8.66514124 -9.073229074
4.985128611 8.536476594 -9.609783855
3.658301317 9.649022933 -8.983852695
3.206175694 7.675910993 -9.416194304
4.701731563 9.537339053 -9.180298438
8.025175523 9.727693315 -7.211981102
6.644628913 8.737484803 -8.86547982
6.974878212 10.12678676 -7.445833333
6.290849462 9.621059775 -8.285386689
3.617520731 5.670671232 -9.825796075
5.141716613 7.357271656 -9.808141512
4.44315662 5.425794338 -9.908137744
3.42892294 6.667882703 -9.664809973
5.235742088 6.235408415 -9.907285986
4.166538295 7.549403586 -9.640129315
0.6648471229 0.4108981193 -9.930847745
2.025362201 1.25174268 -9.917395747
0.6678460142 1.105094593 -9.927657772
1.332168592 0 -9.887701725
5.127027266 3.168677111 -9.835467164
3.483976003 2.153215586 -9.887796536
4.398249519 3.506456186 -9.91243332
0.6780870463 2.519397231 -9.846764463
2.049502237 1.981742053 -9.932355525
0.6718048522 1.81149323 -9.899724097
1.3797587 3.017523808 -9.864727301
1.351250109 1.536740369 -9.93160504
2.659867738 -0.8164481243 -9.623491882
2.720425778 0.8350364538 -9.842592928
2.002864802 -0.4123417157 -9.784547548
2.019844957 0.4158375215 -9.867500295
2.915334144 4.090274955 -9.897663312
2.802119227 2.465887346 -9.929625172
3.654677922 3.816061087 -9.93181553
2.124710216 3.540776381 -9.881870283
3.570494899 2.964672597 -9.923228893
2.091560619 2.747688035 -9.921629422
11.67873145 7.21785298 -5.686809334
10.38157449 6.41616589 -7.478787965
11.70205457 6.224477848 -6.056348717
10.92364188 7.977613855 -6.156868402
7.081140026 4.376385215 -9.746595954
9.096300732 5.621823025 -9.132977584
7.865683515 3.963249962 -9.541461532
7.203892651 5.559735008 -9.864195599
11.70394794 4.30899176 -6.75459173
10.45579268 5.481234429 -7.843086995
11.70937318 5.250893792 -6.4121687
11.1281954 3.94810913 -7.67749204
11.07896676 5.854944799 -6.97283622
9.091022616 9.224196591 -6.913485183
9.567227931 7.093014222 -7.892794409
10.04681565 8.652035699 -6.569235229
8.364977419 8.731888562 -7.771302719
10.23566874 7.525890034 -7.04987126
9.303509858 3.025037423 -8.885064655
9.808967443 5.088456201 -8.713413564
8.614928142 3.508072097 -9.252782968
10.52715381 3.584452867 -8.581545055
9.073518879 4.647043927 -9.426406618
10.49518919 4.536101772 -8.219020337
6.982104186 7.769378597 -9.417629811
8.87448374 6.651377302 -8.74635873
7.275777226 6.815578295 -9.895500095
7.660585613 8.245802279 -8.607486069
8.216767192 6.238748704 -9.541378245
8.646108199 7.694958963 -8.282801519
5.178391167 -2.364748246 -8.378812916
5.485177346 -0.8211285378 -8.87520338
5.806184903 -2.029027323 -8.243707095
4.587754863 -2.001968616 -8.771644899
5.972540542 2.727402067 -9.663773597
5.754170706 0.8613967206 -9.310443779
6.655042834 2.325668916 -9.448928126
5.085581048 2.219206116 -9.723473112
7.127125242 -1.303108002 -7.944782295
6.161531701 -0.4362747611 -8.768606328
6.457658676 -1.674735566 -8.09852233
7.396138647 -0.4507148152 -8.238168933
5.9869474 -1.248231082 -8.513523252
3.33781885 -1.233323055 -9.391821593
4.83189947 -0.4298744808 -9.209280614
3.96904712 -1.62137334 -9.111947187
3.392360521 -0.4193188208 -9.559787251
4.716974635 -1.225658806 -8.999807547
7.910646208 1.446365263 -8.818192441
6.336610146 0.4486714037 -9.017764173
7.308338987 1.895351836 -9.165356897
7.659482018 0.4667627512 -8.531493232
6.499497828 1.355093783 -9.242377156
6.883071029 0 -8.658270531
3.486470431 1.28824977 -9.810091485
4.936962673 0.4392215275 -9.409524126
4.256395925 1.7387566 -9.771628733
3.442358596 0.4254989227 -9.700683525
5.020347342 1.304487178 -9.578631093
4.153026677 0 -9.488422772
9.769494852 13.99032341 0.6940518429
11.56790477 13.126877 2.135337475
9.158898665 13.72708244 1.767422047
11.03243697 14.04663533 0
12.3231235 8.700523159 4.292805041
12.21013018 11.00325798 3.343404897
7.858619904 12.94198799 3.697451763
10.65348614 12.58760089 3.146655852
8.504340797 13.35294351 2.77295667
10.003256 13.28683102 2.478780752
12.91651886 13.07041123 -1.485427156
12.91651886 13.07041123 1.485427156
12.24857205 13.8888603 -0.7532456277
12.24857205 13.8888603 0.7532456277
11.29594058 0.86386619 6.651307689
12.18750758 2.758998783 6.478450164
12.30896799 6.580062811 5.094000236
12.25619913 4.621484806 5.809497515
5.470925265 11.23538054 6.943847051
7.671600329 10.64922426 6.581582548
6.029996456 11.65113683 6.197394027
11.61879953 8.441341656 5.217036054
9.800495136 9.76113762 6.032714818
11.52550903 9.501270434 4.787366491
7.212665376 12.49767025 4.601213058
8.321239698 11.09322862 5.81539712
6.61225451 12.07475337 5.41474309
8.501807553 12.32300538 4.372008964
7.176986331 11.40333581 6.026365378
11.10019524 11.62296278 3.779207839
9.487380648 10.68024686 5.540437228
11.36616642 10.58262226 4.309333896
9.824738241 12.05220388 4.103726186
10.55840539 10.16314005 5.205098361
9.047392622 11.55297022 4.993282901
12.94329914 7.999398794 -3.652980947
13.89525685 8.587741013 -1.285580899
12.99993068 9.156075098 -3.199678767
12.94329914 7.999398794 3.652980947
13.89525685 8.587741013 1.285580899
12.99993068 9.156075098 3.199678767
13.06147859 11.717224 -2.142351627
13.98919171 9.829937048 -0.6960206723
13.04740801 10.40383715 -2.698141381
13.86649192 12.44918593 -0.7586435035
13.60277857 9.565853921 -1.994404726
13.06147859 11.717224 2.142351627
13.98919171 9.829937048 0.6960206723
13.04740801 10.40383715 2.698141381
13.86649192 12.44918593 0.7586435035
13.60277857 9.565853921 1.994404726
14.04663533 11.16666294 0
5.770733752 -8.263931014 0.4099688322
6.531285594 -7.411487594 1.205620134
5.588190432 -8.375412106 1.078371028
6.179200611 -7.867434715 0
7.910306861 -5.584932104 2.755584262
7.23980329 -6.524207535 1.982418976
5.146785796 -8.475997155 2.421543789
6.323958855 -7.472058353 1.86786953
5.379437853 -8.446431239 1.754039312
5.965927991 -7.92424758 1.4783414
6.959025782 -7.041938289 -0.800302774
6.959025782 -7.041938289 0.800302774
6.577100202 -7.457883698 -0.4044693494
6.577100202 -7.457883698 0.4044693494
10.32108746 -0.7893135098 6.077291921
9.765142646 -2.210625634 5.190806204
8.552542961 -4.571973047 3.539423931
9.171425142 -3.458299062 4.347299765
3.965592335 -8.143949478 5.03323758
5.243899792 -7.279245855 4.498821351
4.292104425 -8.29318828 4.411256709
7.635711495 -5.547530907 3.428562654
6.450634935 -6.424730023 3.970701523
7.328901466 -6.041717953 3.044215853
4.881016295 -8.457529769 3.113772059
5.543646204 -7.390357323 3.874242942
4.59912574 -8.398543788 3.766201722
5.49740559 -7.968253604 2.827011358
4.931712055 -7.83587513 4.141055509
6.679467445 -6.994039282 2.274112769
6.159383006 -6.933813818 3.59695433
7.008880416 -6.525712463 2.657325683
6.097318207 -7.479702802 2.546808248
6.744373594 -6.491890666 3.324851306
5.835745376 -7.451891985 3.220765232
8.428643913 -5.209188417 -2.378812024
8.653052415 -5.347880499 -0.8005752627
8.075102893 -5.687434059 -1.987528696
8.428643913 -5.209188417 2.378812024
8.653052415 -5.347880499 0.8005752627
8.075102893 -5.687434059 1.987528696
7.349599374 -6.593197054 -1.205485739
8.242681938 -5.791974706 -0.4101078277
7.713590229 -6.150718716 -1.595133454
7.395434798 -6.639541088 -0.4046083609
8.186626392 -5.757064395 -1.200302297
7.349599374 -6.593197054 1.205485739
8.242681938 -5.791974706 0.4101078277
7.713590229 -6.150718716 1.595133454
7.395434798 -6.639541088 0.4046083609
8.186626392 -5.757064395 1.200302297
7.825551497 -6.221083829 0
0.6873346347 -5.292109118 8.987608591
1.98182008 -4.653544141 8.754424757
1.114454355 -5.775176631 8.655661409
0.6786213406 -4.592044546 9.206737888
4.409803192 -3.413879039 8.249180575
3.208986298 -4.033897916 8.510246537
1.962331147 -6.643773152 7.849934165
2.399411738 -5.099746001 8.398529549
1.543484616 -6.228817022 8.273430099
1.77089005 -5.431117141 8.527574579
0.666523734 -3.197033406 9.549368833
1.970854187 -3.987124606 8.994733255
0.6723990901 -3.889613306 9.394040847
1.337126792 -4.286599076 9.10169411
9.746770493 -0.4835316401 6.806206074
8.241422294 -1.340624878 7.262655712
9.54772804 -1.229311844 6.370375786
5.622066008 -2.773905989 7.962902052
6.884585176 -2.09192185 7.639708292
9.085178014 -2.595583268 5.516691937
8.116513931 -2.028970913 6.869392304
9.323669245 -1.936212102 5.938140956
8.810956407 -1.643765102 6.633504434
3.550690584 -7.907701169 5.745138049
4.03406293 -6.553569217 6.527250934
3.181861953 -7.660282273 6.314897963
4.22484139 -7.495800031 5.474236415
4.837176175 -3.811119275 7.82671546
4.458471539 -5.196867391 7.213958488
4.242645342 -4.128047412 7.976197929
2.394278051 -7.032413921 7.363607894
3.652602865 -6.254674913 7.041086955
2.7929928 -7.366711827 6.858876216
2.618772704 -6.26960844 7.691054694
3.427390852 -6.952372373 6.692102785
5.505814163 -6.673856725 4.947907691
4.703309856 -6.184709324 6.275308849
4.878306501 -7.082785988 5.20769769
4.471774669 -6.839014611 5.889567465
3.040176914 -4.765651685 8.25763295
3.868136679 -5.534908765 7.378709249
3.64152616 -4.446877234 8.120520134
2.834389758 -5.511753624 7.989050464
4.06146339 -4.83692332 7.685267657
3.255822636 -5.89926633 7.533004381
0.6630136953 -0.4097649987 9.903461765
1.975238068 -1.220764262 9.671957741
0.6629052155 -1.096918981 9.85421186
4.446781532 -2.748262127 8.530513195
3.245887355 -2.006068709 9.212082324
3.838882066 -3.060506619 8.651774377
0.6666412171 -2.476870847 9.680555146
1.970001428 -1.904869682 9.54707646
0.6636678989 -1.789552281 9.779817859
1.324973965 -2.897709929 9.47303818
1.323675894 -1.505380956 9.728936255
2.616207907 -3.67059457 8.882119077
2.62433337 -2.309434369 9.299620957
3.226863627 -3.369355381 8.769203463
1.97913922 -3.298185961 9.204830333
3.239758142 -2.690053468 9.004035158
1.979427805 -2.600378898 9.389710713
7.987944262 -4.936821054 3.889627584
7.346350546 -4.540294331 5.292241376
8.273518729 -4.400794214 4.281924532
7.373266759 -5.384749489 4.15577823
5.549352719 -3.429688596 7.638219067
6.525069878 -4.032714964 6.551379367
6.157140403 -3.102373293 7.468914583
5.351708703 -4.130278403 7.328024444
8.817090367 -3.246149925 5.088526193
7.5639541 -3.965247484 5.673864415
8.552125787 -3.835073279 4.683228763
8.413419101 -2.984949092 5.804531269
7.941580528 -4.196918053 4.998240499
6.150725633 -6.240827332 4.677466147
6.70133164 -4.968277224 5.528480484
6.758946991 -5.820615477 4.419421461
5.781162848 -6.034740708 5.370865253
7.058789692 -5.190054145 4.861778925
7.423711338 -2.413820693 7.089814084
7.126681469 -3.697005493 6.33070946
6.783865196 -2.762447674 7.286146943
7.944741023 -2.705151863 6.476408939
6.662334334 -3.412144805 6.921446166
7.758581627 -3.353318862 6.07592098
4.934756428 -5.491180015 6.656117985
6.279712642 -4.706610475 6.189049537
5.146106423 -4.820610933 6.999018114
5.372281868 -5.782687683 6.036332426
5.836654069 -4.43159909 6.777571137
6.04050557 -5.375995928 5.786685473
0.7141708871 5.49873391 9.338520243
2.197910292 5.160949103 9.708974327
1.195150016 6.193346916 9.282402483
0.7011297619 4.744352862 9.512105733
5.2904048 4.095602743 9.896474423
3.736502621 4.697019162 9.909222269
2.287825373 7.74578379 9.15201218
2.767038222 5.88110489 9.685312405
1.720199328 6.941958957 9.22066132
1.973735711 6.05322157 9.504361081
0.6814043621 3.268409506 9.762565451
2.149489302 4.348511291 9.810001689
0.6909664666 3.99701963 9.653444371
1.422313211 4.559692122 9.681549916
10.2486554 0.5084298597 7.156674171
9.355520597 1.521854263 8.244441635
10.93722186 1.408215266 7.29746522
9.398417083 0 7.381657006
6.798573481 3.354390303 9.629267008
8.181859659 2.48610636 9.079271951
11.69246157 3.340469231 7.099883831
9.944566735 2.485948625 8.416560457
11.67018159 2.423503692 7.4326085
10.48340363 1.95577554 7.892639711
7.860426845 -0.8933224278 7.767877369
8.487740686 0.9646154421 8.387805152
8.601395012 -0.4664863097 7.58556169
8.974129466 0.4867011144 7.914275834
4.824048071 10.74358063 7.805473742
5.622582391 9.134211219 9.097529413
4.290788627 10.33000568 8.515734735
5.897612554 10.46366485 7.641689338
6.112398442 4.81584269 9.890068432
6.122589293 7.136590279 9.906557575
5.282940328 5.14024303 9.931958555
2.950161596 8.66514124 9.073229074
4.985128611 8.536476594 9.609783855
3.658301317 9.649022933 8.983852695
3.206175694 7.675910993 9.416194304
4.701731563 9.537339053 9.180298438
8.025175523 9.727693315 7.211981102
6.644628913 8.737484803 8.86547982
6.974878212 10.12678676 7.445833333
6.290849462 9.621059775 8.285386689
3.617520731 5.670671232 9.825796075
5.141716613 7.357271656 9.808141512
4.44315662 5.425794338 9.908137744
3.42892294 6.667882703 9.664809973
5.235742088 6.235408415 9.907285986
4.166538295 7.549403586 9.640129315
0.6648471229 0.4108981193 9.930847745
2.025362201 1.25174268 9.917395747
0.6678460142 1.105094593 9.927657772
1.332168592 0 9.887701725
5.127027266 3.168677111 9.835467164
3.483976003 2.153215586 9.887796536
4.398249519 3.506456186 9.91243332
0.6780870463 2.519397231 9.846764463
2.049502237 1.981742053 9.932355525
0.6718048522 1.81149323 9.899724097
1.3797587 3.017523808 9.864727301
1.351250109 1.536740369 9.93160504
2.659867738 -0.8164481243 9.623491882
2.720425778 0.8350364538 9.842592928
2.002864802 -0.4123417157 9.784547548
2.019844957 0.4158375215 9.867500295
2.915334144 4.090274955 9.897663312
2.802119227 2.465887346 9.929625172
3.654677922 3.816061087 9.93181553
2.124710216 3.540776381 9.881870283
3.570494899 2.964672597 9.923228893
2.091560619 2.747688035 9.921629422
11.67873145 7.21785298 5.686809334
10.38157449 6.41616589 7.478787965
11.70205457 6.224477848 6.056348717
10.92364188 7.977613855 6.156868402
7.081140026 4.376385215 9.746595954
9.096300732 5.621823025 9.132977584
7.865683515 3.963249962 9.541461532
7.203892651 5.559735008 9.864195599
11.70394794 4.30899176 6.75459173
10.45579268 5.481234429 7.843086995
11.70937318 5.250893792 6.4121687
11.1281954 3.94810913 7.67749204
11.07896676 5.854944799 6.97283622
9.091022616 9.224196591 6.913485183
9.567227931 7.093014222 7.892794409
10.04681565 8.652035699 6.569235229
8.364977419 8.731888562 7.771302719
10.23566874 7.525890034 7.04987126
9.303509858 3.025037423 8.885064655
9.808967443 5.088456201 8.713413564
8.614928142 3.508072097 9.252782968
10.52715381 3.584452867 8.581545055
9.073518879 4.647043927 9.426406618
10.49518919 4.536101772 8.219020337
6.982104186 7.769378597 9.417629811
8.87448374 6.651377302 8.74635873
7.275777226 6.815578295 9.895500095
7.660585613 8.245802279 8.607486069
8.216767192 6.238748704 9.541378245
8.646108199 7.694958963 8.282801519
5.178391167 -2.364748246 8.378812916
5.485177346 -0.8211285378 8.87520338
5.806184903 -2.029027323 8.243707095
4.587754863 -2.001968616 8.771644899
5.972540542 2.727402067 9.663773597
5.754170706 0.8613967206 9.310443779
6.655042834 2.325668916 9.448928126
5.085581048 2.219206116 9.723473112
7.127125242 -1.303108002 7.944782295
6.161531701 -0.4362747611 8.768606328
6.457658676 -1.674735566 8.09852233
7.396138647 -0.4507148152 8.238168933
5.9869474 -1.248231082 8.513523252
3.33781885 -1.233323055 9.391821593
4.83189947 -0.4298744808 9.209280614
3.96904712 -1.62137334 9.111947187
3.392360521 -0.4193188208 9.559787251
4.716974635 -1.225658806 8.999807547
7.910646208 1.446365263 8.818192441
6.336610146 0.4486714037 9.017764173
7.308338987 1.895351836 9.165356897
7.659482018 0.4667627512 8.531493232
6.499497828 1.355093783 9.242377156
6.883071029 0 8.658270531
3.486470431 1.28824977 9.810091485
4.936962673 0.4392215275 9.409524126
4.256395925 1.7387566 9.771628733
3.442358596 0.4254989227 9.700683525
5.020347342 1.304487178 9.578631093
4.153026677 0 9.488422772
11.26891694 0 -5.929564692
12.5142468 0 -4.511185597
12.06461072 0.8892728784 -6.017465746
10.93398387 -0.8059352705 -5.453543003
13.9796443 0 -0.9688934903
13.46210932 0 -2.835452051
12.65180397 2.772162345 -5.608206212
13.29190416 0.9277439951 -4.449996892
12.60231958 1.851402491 -5.935278732
12.79695404 0.9159700703 -5.298593388
10.24669722 -2.245174543 -4.542086737
12.00683002 -0.8380488094 -4.019766893
10.59099305 -1.555919193 -4.988009975
11.50299694 -0.8233522506 -4.762828975
11.26891694 0 5.929564692
12.5142468 0 4.511185597
12.06461072 0.8892728784 6.017465746
10.93398387 -0.8059352705 5.453543003
13.9796443 0 0.9688934903
13.46210932 0 2.835452051
12.65180397 2.772162345 5.608206212
13.29190416 0.9277439951 4.449996892
12.60231958 1.851402491 5.935278732
12.79695404 0.9159700703 5.298593388
10.24669722 -2.245174543 4.542086737
12.00683002 -0.8380488094 4.019766893
10.59099305 -1.555919193 4.988009975
11.50299694 -0.8233522506 4.762828975
12.8740865 6.710997188 -4.147624361
13.57495438 4.783150129 -2.956149353
12.81709628 5.687078615 -4.533961046
13.38447169 7.00036034 -3.05476254
14.03377335 0.9395284344 -0.5806605059
13.90912009 2.840564883 -1.755565645
13.95459525 0.9387431593 -1.553352072
12.70820718 3.743173428 -5.251750833
13.49787241 3.809071053 -3.352013012
12.76113631 4.695802392 -4.903159503
13.07061852 2.810325971 -4.683337871
13.20882488 4.752691124 -3.946280147
14.01466722 7.353176209 -0.6541822372
13.86487321 4.927524943 -1.820718976
13.78813049 7.226628063 -1.877767215
13.68029799 5.958962031 -2.434262401
13.58583673 0.9355743134 -3.47607781
13.71294502 2.829611912 -2.736059917
13.80332293 0.9367068448 -2.525790194
13.36083649 1.868752153 -4.086949491
13.85760523 1.885404273 -2.144219519
13.42994268 2.831141743 -3.719277473
8.845256249 -4.610850629 -2.849662406
10.12754106 -3.56845025 -2.205423542
9.193249039 -4.079139991 -3.252049615
9.022489146 -4.718951683 -2.059219259
13.14549811 -0.8800604765 -0.5439072866
11.53841152 -2.356411213 -1.456342221
13.02038498 -0.8758976598 -1.449360702
9.889505826 -2.912931376 -4.08690382
10.5659404 -2.981686038 -2.623907577
9.542912934 -3.51157078 -3.666634624
10.67013697 -2.294196178 -3.823220494
9.864627917 -3.549409576 -2.947164918
9.204235538 -4.829252434 -0.4296389847
10.26755713 -3.649052039 -1.348323625
9.143514584 -4.792294295 -1.245229868
9.637646713 -4.198035079 -1.714915936
12.44772586 -0.8571995089 -3.184880291
11.3379264 -2.339536223 -2.262187001
12.78397398 -0.8675328391 -2.339265427
11.5212374 -1.61145129 -3.524234082
12.14121297 -1.651879558 -1.878638148
11.03796284 -2.326892834 -3.056844511
12.8740865 6.710997188 4.147624361
13.57495438 4.783150129 2.956149353
12.81709628 5.687078615 4.533961046
13.38447169 7.00036034 3.05476254
14.03377335 0.9395284344 0.5806605059
13.90912009 2.840564883 1.755565645
13.95459525 0.9387431593 1.553352072
14.04663533 1.892501101 0
12.70820718 3.743173428 5.251750833
13.49787241 3.809071053 3.352013012
12.76113631 4.695802392 4.903159503
13.07061852 2.810325971 4.683337871
13.20882488 4.752691124 3.946280147
14.01466722 7.353176209 0.6541822372
13.86487321 4.927524943 1.820718976
13.78813049 7.226628063 1.877767215
14.04663533 6.148129425 0
13.68029799 5.958962031 2.434262401
13.58583673 0.9355743134 3.47607781
13.71294502 2.829611912 2.736059917
13.80332293 0.9367068448 2.525790194
13.36083649 1.868752153 4.086949491
13.85760523 1.885404273 2.144219519
