37.88560391 57.50881105 25.40915843
48.42653833 52.53291611 22.14120235
62.13627323 38.40232879 -11.56928173
62.13627323 38.40232879 11.56928173
64.37782288 51.17848027 -6.695342846
64.37782288 51.17848027 6.695342846
51.53498436 -65.61498007 6.787679727
52.12017346 -41.68949601 16.28806819
44.69905409 -62.02287592 16.66852156
57.20109431 -57.88261013 0
46.7265025 -7.087902531 26.17122886
49.49096424 -22.49692544 21.99403716
30.0121032 -50.10509264 30.96665026
44.96093803 -38.24605828 23.63736395
37.00652886 -56.17441076 24.81957941
45.39221247 -49.24129149 20.75387166
58.08296919 -35.89724912 -10.81458864
58.08296919 -35.89724912 10.81458864
58.91483755 -46.83556722 -6.127188191
58.91483755 -46.83556722 6.127188191
6.800355347 -25.10949542 44.83086777
19.52365333 -19.08722852 42.95006584
11.51252929 -30.87251425 42.83764298
6.579358854 -17.90216199 46.19129167
40.43802845 -4.183196971 31.7606309
30.56399214 -11.94133861 38.21107771
41.76649112 -11.2246594 30.10054948
22.55725967 -42.9064576 36.49841284
24.71434964 -23.95252976 39.98865772
16.87807164 -36.9151851 40.04544593
30.76801709 -38.75120419 33.81732323
18.49363396 -27.57440759 41.856833
6.400405973 -3.955668433 47.50547759
19.05262866 -11.77517209 43.95797758
6.469697545 -10.72418127 47.0829972
13.10330621 -14.94791815 45.46237101
43.97023703 -27.17510098 26.33742843
31.38302593 -19.39577669 36.89295962
42.94353238 -18.97377111 28.29030245
38.00624018 -33.16720953 30.17652411
36.60450112 -15.42780653 33.74321107
31.15860659 -28.34903678 35.70458602
6.768480984 24.99180316 44.62073826
19.5261471 19.08966654 42.95555188
11.42053333 30.62581377 42.49532985
6.559340196 17.84769205 46.05074793
40.72733107 4.21312449 31.98785349
30.90295912 12.07377287 38.63485396
42.59984038 11.44862032 30.70113311
35.86718853 0 35.44488455
22.40562499 42.6180313 36.25306278
24.87865373 24.11176918 40.25450733
16.71856495 36.56631711 39.66699532
31.3056249 39.42830177 34.40821139
18.43191827 27.48238818 41.71715126
6.396532768 3.953274661 47.47672964
19.06057132 11.78008092 43.97630279
6.458679844 10.70591831 47.00281627
12.82219868 0 46.39115062
13.06807926 14.90773214 45.34014991
46.08442567 28.48174141 27.60379168
31.9440739 19.74252341 37.55251108
44.40935045 19.62141454 29.25595279
39.57350266 34.53492501 31.42091276
37.40892773 15.76685057 34.48475749
31.81192081 28.9434417 36.45321751
25.5673392 -7.702547209 41.36882383
25.66823591 7.732943867 41.53207814
30.73132681 -4.02037669 38.65718372
19.38804608 -3.994157151 44.29588158
30.85220478 4.036190357 38.80923709
19.39451689 3.995490212 44.31066546
51.18314327 0 -22.56176496
63.33706943 0 -8.821837367
53.51651599 7.622743391 -20.74116795
52.74743243 -7.513197272 -20.44309751
51.18314327 0 22.56176496
63.33706943 0 8.821837367
53.51651599 7.622743391 20.74116795
52.74743243 -7.513197272 20.44309751
58.81269398 25.49108217 -15.75435519
65.56216074 8.833180226 -5.459205608
56.12260378 16.17583171 -18.45297702
65.72557989 28.76769862 -5.926471842
60.10984387 8.259722881 -13.6913302
56.17329366 -24.34709155 -15.04733011
64.62577033 -8.707020484 -5.3812346
54.46769572 -15.69884895 -17.90884723
62.60757608 -27.40296675 -5.645321614
59.23604293 -8.139653469 -13.49230295
58.81269398 25.49108217 15.75435519
65.56216074 8.833180226 5.459205608
56.12260378 16.17583171 18.45297702
65.72557989 28.76769862 5.926471842
60.10984387 8.259722881 13.6913302
66.99798069 18.51778643 0
56.17329366 -24.34709155 15.04733011
64.62577033 -8.707020484 5.3812346
54.46769572 -15.69884895 17.90884723
62.60757608 -27.40296675 5.645321614
59.23604293 -8.139653469 13.49230295
65.02079842 -17.97130669 0
-51.53498436 65.61498007 -6.787679727
-52.12017346 41.68949601 -16.28806819
-44.69905409 62.02287592 -16.66852156
-46.7265025 7.087902531 -26.17122886
-49.49096424 22.49692544 -21.99403716
-30.0121032 50.10509264 -30.96665026
-44.96093803 38.24605828 -23.63736395
-37.00652886 56.17441076 -24.81957941
-45.39221247 49.24129149 -20.75387166
-55.76934017 -71.00621431 -7.345387301
-56.20385296 -44.95591914 -17.56425831
-47.00824505 -65.22703017 -17.52963148
-47.36696221 -7.185053308 -26.52994644
-51.67216255 -23.48842473 -22.96337282
-30.15775745 -50.34826185 -31.1169371
-47.76897352 -40.63471594 -25.11363558
-37.88560391 -57.50881105 -25.40915843
-48.42653833 -52.53291611 -22.14120235
-6.768480984 -24.99180316 -44.62073826
-19.5261471 -19.08966654 -42.95555188
-11.42053333 -30.62581377 -42.49532985
-6.559340196 -17.84769205 -46.05074793
-40.72733107 -4.21312449 -31.98785349
-30.90295912 -12.07377287 -38.63485396
-42.59984038 -11.44862032 -30.70113311
-22.40562499 -42.6180313 -36.25306278
-24.87865373 -24.11176918 -40.25450733
-16.71856495 -36.56631711 -39.66699532
-31.3056249 -39.42830177 -34.40821139
-18.43191827 -27.48238818 -41.71715126
-6.396532768 -3.953274661 -47.47672964
-19.06057132 -11.78008092 -43.97630279
-6.458679844 -10.70591831 -47.00281627
-13.06807926 -14.90773214 -45.34014991
-46.08442567 -28.48174141 -27.60379168
-31.9440739 -19.74252341 -37.55251108
-44.40935045 -19.62141454 -29.25595279
-39.57350266 -34.53492501 -31.42091276
-37.40892773 -15.76685057 -34.48475749
-31.81192081 -28.9434417 -36.45321751
-6.800355347 25.10949542 -44.83086777
-19.52365333 19.08722852 -42.95006584
-11.51252929 30.87251425 -42.83764298
-6.579358854 17.90216199 -46.19129167
-40.43802845 4.183196971 -31.7606309
-30.56399214 11.94133861 -38.21107771
-41.76649112 11.2246594 -30.10054948
-35.86718853 0 -35.44488455
-22.55725967 42.9064576 -36.49841284
-24.71434964 23.95252976 -39.98865772
-16.87807164 36.9151851 -40.04544593
-30.76801709 38.75120419 -33.81732323
-18.49363396 27.57440759 -41.856833
-6.400405973 3.955668433 -47.50547759
-19.05262866 11.77517209 -43.95797758
-6.469697545 10.72418127 -47.0829972
-12.82219868 0 -46.39115062
-13.10330621 14.94791815 -45.46237101
-43.97023703 27.17510098 -26.33742843
-31.38302593 19.39577669 -36.89295962
-42.94353238 18.97377111 -28.29030245
-38.00624018 33.16720953 -30.17652411
-36.60450112 15.42780653 -33.74321107
-31.15860659 28.34903678 -35.70458602
-25.66823591 -7.732943867 -41.53207814
-25.5673392 7.702547209 -41.36882383
-30.85220478 -4.036190357 -38.80923709
-19.39451689 -3.995490212 -44.31066546
-30.73132681 4.02037669 -38.65718372
-19.38804608 3.994157151 -44.29588158
-51.53498436 65.61498007 6.787679727
-52.12017346 41.68949601 16.28806819
-44.69905409 62.02287592 16.66852156
-57.20109431 57.88261013 0
-46.7265025 7.087902531 26.17122886
-49.49096424 22.49692544 21.99403716
-30.0121032 50.10509264 30.96665026
-44.96093803 38.24605828 23.63736395
-37.00652886 56.17441076 24.81957941
-45.39221247 49.24129149 20.75387166
-58.08296919 35.89724912 -10.81458864
-58.08296919 35.89724912 10.81458864
-58.91483755 46.83556722 -6.127188191
-58.91483755 46.83556722 6.127188191
-55.76934017 -71.00621431 7.345387301
-56.20385296 -44.95591914 17.56425831
-47.00824505 -65.22703017 17.52963148
-63.37281506 -64.12786314 0
-47.36696221 -7.185053308 26.52994644
-51.67216255 -23.48842473 22.96337282
-30.15775745 -50.34826185 31.1169371
-47.76897352 -40.63471594 25.11363558
-37.88560391 -57.50881105 25.40915843
-48.42653833 -52.53291611 22.14120235
-62.13627323 -38.40232879 -11.56928173
-62.13627323 -38.40232879 11.56928173
-64.37782288 -51.17848027 -6.695342846
-64.37782288 -51.17848027 6.695342846
-6.768480984 -24.99180316 44.62073826
-19.5261471 -19.08966654 42.95555188
-11.42053333 -30.62581377 42.49532985
-6.559340196 -17.84769205 46.05074793
-40.72733107 -4.21312449 31.98785349
-30.90295912 -12.07377287 38.63485396
-42.59984038 -11.44862032 30.70113311
-22.40562499 -42.6180313 36.25306278
-24.87865373 -24.11176918 40.25450733
-16.71856495 -36.56631711 39.66699532
-31.3056249 -39.42830177 34.40821139
-18.43191827 -27.48238818 41.71715126
-6.396532768 -3.953274661 47.47672964
-19.06057132 -11.78008092 43.97630279
-6.458679844 -10.70591831 47.00281627
-13.06807926 -14.90773214 45.34014991
-46.08442567 -28.48174141 27.60379168
-31.9440739 -19.74252341 37.55251108
-44.40935045 -19.62141454 29.25595279
-39.57350266 -34.53492501 31.42091276
-37.40892773 -15.76685057 34.48475749
-31.81192081 -28.9434417 36.45321751
-6.800355347 25.10949542 44.83086777
-19.52365333 19.08722852 42.95006584
-11.51252929 30.87251425 42.83764298
-6.579358854 17.90216199 46.19129167
-40.43802845 4.183196971 31.7606309
-30.56399214 11.94133861 38.21107771
-41.76649112 11.2246594 30.10054948
-35.86718853 0 35.44488455
-22.55725967 42.9064576 36.49841284
-24.71434964 23.95252976 39.98865772
-16.87807164 36.9151851 40.04544593
-30.76801709 38.75120419 33.81732323
-18.49363396 27.57440759 41.856833
-6.400405973 3.955668433 47.50547759
-19.05262866 11.77517209 43.95797758
-6.469697545 10.72418127 47.0829972
-12.82219868 0 46.39115062
-13.10330621 14.94791815 45.46237101
-43.97023703 27.17510098 26.33742843
-31.38302593 19.39577669 36.89295962
-42.94353238 18.97377111 28.29030245
-38.00624018 33.16720953 30.17652411
-36.60450112 15.42780653 33.74321107
-31.15860659 28.34903678 35.70458602
-25.66823591 -7.732943867 41.53207814
-25.5673392 7.702547209 41.36882383
-30.85220478 -4.036190357 38.80923709
-19.39451689 -3.995490212 44.31066546
-30.73132681 4.02037669 38.65718372
-19.38804608 3.994157151 44.29588158
-51.18314327 0 -22.56176496
-63.33706943 0 -8.821837367
-52.74743243 7.513197272 -20.44309751
-53.51651599 -7.622743391 -20.74116795
-51.18314327 0 22.56176496
-63.33706943 0 8.821837367
-52.74743243 7.513197272 20.44309751
-53.51651599 -7.622743391 20.74116795
-56.17329366 24.34709155 -15.04733011
-64.62577033 8.707020484 -5.3812346
-54.46769572 15.69884895 -17.90884723
-62.60757608 27.40296675 -5.645321614
-59.23604293 8.139653469 -13.49230295
-58.81269398 -25.49108217 -15.75435519
-65.56216074 -8.833180226 -5.459205608
-56.12260378 -16.17583171 -18.45297702
-65.72557989 -28.76769862 -5.926471842
-60.10984387 -8.259722881 -13.6913302
-56.17329366 24.34709155 15.04733011
-64.62577033 8.707020484 5.3812346
-54.46769572 15.69884895 17.90884723
-62.60757608 27.40296675 5.645321614
-59.23604293 8.139653469 13.49230295
-65.02079842 17.97130669 0
-58.81269398 -25.49108217 15.75435519
-65.56216074 -8.833180226 5.459205608
-56.12260378 -16.17583171 18.45297702
-65.72557989 -28.76769862 5.926471842
-60.10984387 -8.259722881 13.6913302
-66.99798069 -18.51778643 0
-40.85388232 77.64128239 0
-29.21197042 81.03541732 0
-5.689417933 82.08955864 0
-17.28354113 82.05849224 0
41.46998515 78.81216289 0
28.92142306 80.2294249 0
5.662190543 81.69670924 0
17.0759442 81.07286715 0
-41.46998515 -78.81216289 0
-28.92142306 -80.2294249 0
-5.662190543 -81.69670924 0
-17.0759442 -81.07286715 0
40.85388232 -77.64128239 0
29.21197042 -81.03541732 0
5.689417933 -82.08955864 0
17.28354113 -82.05849224 0
-45.28672549 -76.91061428 5.88180142
-37.94708506 -71.38750398 16.16064936
-39.00260497 -78.19757786 5.763881383
-23.26227725 -56.21017133 30.04853521
-30.23324582 -63.78256984 24.05070074
-26.66201875 -79.63803267 5.558549453
-32.31416273 -72.89896926 15.97304053
-32.7241416 -79.03405782 5.657036139
-35.80641092 -76.0274039 11.1691601
-2.16450139 -30.4675874 43.63085377
-6.730448329 -36.46130235 41.37508399
-17.13006248 -49.17434485 34.71867553
-11.6770645 -42.64469368 38.42961206
-3.359238717 -81.18822325 5.435362421
-9.608530287 -76.12714575 15.54692859
-9.004776153 -80.89473654 5.441890586
-18.58925515 -57.70042265 30.07804665
-14.72576774 -67.6223023 23.82679271
-21.73470295 -61.44203214 27.26246721
-20.50269142 -80.13233114 5.518228444
-15.07650618 -75.56241699 15.59200557
-14.73782704 -80.54152179 5.465625568
-23.77422156 -77.72141245 10.87073081
-12.19225221 -78.79576535 10.72060217
-28.56508997 -69.12191627 20.35970272
-17.70319455 -71.28715208 20.11708358
-25.0897304 -65.29941956 24.02867293
-26.49283782 -73.93824364 15.89753125
-19.88322762 -66.55231305 23.94630789
-20.7154643 -74.80149035 15.76876588
43.97301325 -74.67953189 5.71117759
37.70085143 -70.92427989 16.05578504
38.71851772 -77.62800219 5.721898413
23.6779768 -57.21465349 30.58550596
30.54951917 -64.4498064 24.3022978
27.01639622 -80.69653936 5.632430758
32.66931184 -73.70016607 16.14859238
32.94408694 -79.56526114 5.695058182
35.88019294 -76.18406454 11.19217506
2.169170147 -30.53330498 43.72496407
6.782255416 -36.7419603 41.69356538
0 -33.61455145 42.79846304
17.43653703 -50.05412478 35.33982857
11.83617661 -43.22577184 38.95325537
-4.588222098 -39.89684518 40.37219152
4.616606727 -40.14366347 40.62195051
-2.260151887 -36.75246456 41.67423301
2.266558817 -36.85664803 41.79236838
3.369965069 -81.44746455 5.452718022
9.741085763 -77.17736568 15.76140785
9.079125762 -81.56265897 5.486822567
0 -79.57762882 10.72148217
19.02223265 -59.04437028 30.77861898
15.08401614 -69.26741731 24.4064508
22.25302321 -62.90727647 27.91261132
20.80141876 -81.29987144 5.598629875
15.37553429 -77.06112543 15.90125812
14.92035487 -81.5390277 5.533317284
24.21285576 -79.15537189 11.07129571
12.35728597 -79.86234117 10.86571574
-6.16995861 -72.72543696 20.10081641
6.236625763 -73.51124415 20.31800817
-3.226964335 -76.57334868 15.67431341
3.242601442 -76.94440504 15.75026743
29.08578563 -70.38189769 20.73082737
18.14689357 -73.07383749 20.62128242
25.64967186 -66.75674302 24.56493418
27.04253014 -75.47236712 16.22738458
20.41177158 -68.32143345 24.58285829
21.19130381 -76.51969971 16.13097846
-15.0719728 -53.4032494 33.00502324
-5.044292673 -54.52145593 33.69611288
-12.28832051 -49.92604771 35.16377536
-13.31457703 -58.33794837 30.51197459
15.38447544 -54.51051365 33.68935018
5.092156808 -55.0387975 34.01584756
12.50418596 -50.80308448 35.78148747
13.60692532 -59.61887522 31.18192629
-7.0947012 -43.25493849 38.80324879
-2.533707792 -50.92452774 35.78369017
-9.621697999 -46.52766544 37.10056849
-2.383486404 -43.56538322 39.11252817
-7.405528459 -50.50918829 35.51947232
-8.938192727 -68.06481975 24.18998659
-2.768868881 -59.31799082 31.12279671
-11.26252628 -63.29421003 27.57014465
-3.010131713 -68.62610821 24.35247711
-8.018622736 -58.87940515 30.85984441
7.165918875 -43.68913805 39.19276162
2.545311829 -51.15775517 35.94757461
9.755145652 -47.17297854 37.61513295
2.392204549 -43.72473353 39.25559115
7.498100603 -51.14057386 35.9634803
0 -47.34077256 37.63452515
9.087920016 -69.20500113 24.59520286
2.784307718 -59.64873989 31.29633321
11.49484971 -64.59984318 28.13886168
3.027950653 -69.03235107 24.49663536
8.140978479 -59.7778429 31.33073315
0 -64.19332791 28.09704097
-43.97301325 74.67953189 5.71117759
-37.70085143 70.92427989 16.05578504
-38.71851772 77.62800219 5.721898413
-23.6779768 57.21465349 30.58550596
-30.54951917 64.4498064 24.3022978
-27.01639622 80.69653936 5.632430758
-32.66931184 73.70016607 16.14859238
-32.94408694 79.56526114 5.695058182
-35.88019294 76.18406454 11.19217506
-2.169170147 30.53330498 43.72496407
-6.782255416 36.7419603 41.69356538
-17.43653703 50.05412478 35.33982857
-11.83617661 43.22577184 38.95325537
-3.369965069 81.44746455 5.452718022
-9.741085763 77.17736568 15.76140785
-9.079125762 81.56265897 5.486822567
-19.02223265 59.04437028 30.77861898
-15.08401614 69.26741731 24.4064508
-22.25302321 62.90727647 27.91261132
-20.80141876 81.29987144 5.598629875
-15.37553429 77.06112543 15.90125812
-14.92035487 81.5390277 5.533317284
-24.21285576 79.15537189 11.07129571
-12.35728597 79.86234117 10.86571574
-29.08578563 70.38189769 20.73082737
-18.14689357 73.07383749 20.62128242
-25.64967186 66.75674302 24.56493418
-27.04253014 75.47236712 16.22738458
-20.41177158 68.32143345 24.58285829
-21.19130381 76.51969971 16.13097846
45.28672549 76.91061428 5.88180142
37.94708506 71.38750398 16.16064936
39.00260497 78.19757786 5.763881383
23.26227725 56.21017133 30.04853521
30.23324582 63.78256984 24.05070074
26.66201875 79.63803267 5.558549453
32.31416273 72.89896926 15.97304053
32.7241416 79.03405782 5.657036139
35.80641092 76.0274039 11.1691601
2.16450139 30.4675874 43.63085377
6.730448329 36.46130235 41.37508399
0 33.61455145 42.79846304
17.13006248 49.17434485 34.71867553
11.6770645 42.64469368 38.42961206
-4.616606727 40.14366347 40.62195051
4.588222098 39.89684518 40.37219152
-2.266558817 36.85664803 41.79236838
2.260151887 36.75246456 41.67423301
3.359238717 81.18822325 5.435362421
9.608530287 76.12714575 15.54692859
9.004776153 80.89473654 5.441890586
0 79.57762882 10.72148217
18.58925515 57.70042265 30.07804665
14.72576774 67.6223023 23.82679271
21.73470295 61.44203214 27.26246721
20.50269142 80.13233114 5.518228444
15.07650618 75.56241699 15.59200557
14.73782704 80.54152179 5.465625568
23.77422156 77.72141245 10.87073081
12.19225221 78.79576535 10.72060217
-6.236625763 73.51124415 20.31800817
6.16995861 72.72543696 20.10081641
-3.242601442 76.94440504 15.75026743
3.226964335 76.57334868 15.67431341
28.56508997 69.12191627 20.35970272
17.70319455 71.28715208 20.11708358
25.0897304 65.29941956 24.02867293
26.49283782 73.93824364 15.89753125
19.88322762 66.55231305 23.94630789
20.7154643 74.80149035 15.76876588
-15.38447544 54.51051365 33.68935018
-5.092156808 55.0387975 34.01584756
-12.50418596 50.80308448 35.78148747
-13.60692532 59.61887522 31.18192629
15.0719728 53.4032494 33.00502324
5.044292673 54.52145593 33.69611288
12.28832051 49.92604771 35.16377536
13.31457703 58.33794837 30.51197459
-7.165918875 43.68913805 39.19276162
-2.545311829 51.15775517 35.94757461
-9.755145652 47.17297854 37.61513295
-2.392204549 43.72473353 39.25559115
-7.498100603 51.14057386 35.9634803
-9.087920016 69.20500113 24.59520286
-2.784307718 59.64873989 31.29633321
-11.49484971 64.59984318 28.13886168
-3.027950653 69.03235107 24.49663536
-8.140978479 59.7778429 31.33073315
7.0947012 43.25493849 38.80324879
2.533707792 50.92452774 35.78369017
9.621697999 46.52766544 37.10056849
2.383486404 43.56538322 39.11252817
7.405528459 50.50918829 35.51947232
0 47.34077256 37.63452515
8.938192727 68.06481975 24.18998659
2.768868881 59.31799082 31.12279671
11.26252628 63.29421003 27.57014465
3.010131713 68.62610821 24.35247711
8.018622736 58.87940515 30.85984441
0 64.19332791 28.09704097
0 -23.86641324 45.35722984
0 -16.82052858 46.66095896
0 -3.31952066 47.89558247
0 -10.0028726 47.49146238
0 23.86641324 45.35722984
0 16.82052858 46.66095896
0 3.31952066 47.89558247
0 10.0028726 47.49146238
-45.28672549 -76.91061428 -5.88180142
-37.94708506 -71.38750398 -16.16064936
-39.00260497 -78.19757786 -5.763881383
-23.26227725 -56.21017133 -30.04853521
-30.23324582 -63.78256984 -24.05070074
-26.66201875 -79.63803267 -5.558549453
-32.31416273 -72.89896926 -15.97304053
-32.7241416 -79.03405782 -5.657036139
-35.80641092 -76.0274039 -11.1691601
-2.16450139 -30.4675874 -43.63085377
-6.730448329 -36.46130235 -41.37508399
-17.13006248 -49.17434485 -34.71867553
-11.6770645 -42.64469368 -38.42961206
-3.359238717 -81.18822325 -5.435362421
-9.608530287 -76.12714575 -15.54692859
-9.004776153 -80.89473654 -5.441890586
-18.58925515 -57.70042265 -30.07804665
-14.72576774 -67.6223023 -23.82679271
-21.73470295 -61.44203214 -27.26246721
-20.50269142 -80.13233114 -5.518228444
-15.07650618 -75.56241699 -15.59200557
-14.73782704 -80.54152179 -5.465625568
-23.77422156 -77.72141245 -10.87073081
-12.19225221 -78.79576535 -10.72060217
-28.56508997 -69.12191627 -20.35970272
-17.70319455 -71.28715208 -20.11708358
-25.0897304 -65.29941956 -24.02867293
-26.49283782 -73.93824364 -15.89753125
-19.88322762 -66.55231305 -23.94630789
-20.7154643 -74.80149035 -15.76876588
43.97301325 -74.67953189 -5.71117759
37.70085143 -70.92427989 -16.05578504
38.71851772 -77.62800219 -5.721898413
23.6779768 -57.21465349 -30.58550596
30.54951917 -64.4498064 -24.3022978
27.01639622 -80.69653936 -5.632430758
32.66931184 -73.70016607 -16.14859238
32.94408694 -79.56526114 -5.695058182
35.88019294 -76.18406454 -11.19217506
2.169170147 -30.53330498 -43.72496407
6.782255416 -36.7419603 -41.69356538
0 -33.61455145 -42.79846304
17.43653703 -50.05412478 -35.33982857
11.83617661 -43.22577184 -38.95325537
-4.588222098 -39.89684518 -40.37219152
4.616606727 -40.14366347 -40.62195051
-2.260151887 -36.75246456 -41.67423301
2.266558817 -36.85664803 -41.79236838
3.369965069 -81.44746455 -5.452718022
9.741085763 -77.17736568 -15.76140785
9.079125762 -81.56265897 -5.486822567
0 -79.57762882 -10.72148217
19.02223265 -59.04437028 -30.77861898
15.08401614 -69.26741731 -24.4064508
22.25302321 -62.90727647 -27.91261132
20.80141876 -81.29987144 -5.598629875
15.37553429 -77.06112543 -15.90125812
14.92035487 -81.5390277 -5.533317284
24.21285576 -79.15537189 -11.07129571
12.35728597 -79.86234117 -10.86571574
-6.16995861 -72.72543696 -20.10081641
6.236625763 -73.51124415 -20.31800817
-3.226964335 -76.57334868 -15.67431341
3.242601442 -76.94440504 -15.75026743
29.08578563 -70.38189769 -20.73082737
18.14689357 -73.07383749 -20.62128242
25.64967186 -66.75674302 -24.56493418
27.04253014 -75.47236712 -16.22738458
20.41177158 -68.32143345 -24.58285829
21.19130381 -76.51969971 -16.13097846
-15.0719728 -53.4032494 -33.00502324
-5.044292673 -54.52145593 -33.69611288
-12.28832051 -49.92604771 -35.16377536
-13.31457703 -58.33794837 -30.51197459
15.38447544 -54.51051365 -33.68935018
5.092156808 -55.0387975 -34.01584756
12.50418596 -50.80308448 -35.78148747
13.60692532 -59.61887522 -31.18192629
-7.0947012 -43.25493849 -38.80324879
-2.533707792 -50.92452774 -35.78369017
-9.621697999 -46.52766544 -37.10056849
-2.383486404 -43.56538322 -39.11252817
-7.405528459 -50.50918829 -35.51947232
-8.938192727 -68.06481975 -24.18998659
-2.768868881 -59.31799082 -31.12279671
-11.26252628 -63.29421003 -27.57014465
-3.010131713 -68.62610821 -24.35247711
-8.018622736 -58.87940515 -30.85984441
7.165918875 -43.68913805 -39.19276162
2.545311829 -51.15775517 -35.94757461
9.755145652 -47.17297854 -37.61513295
2.392204549 -43.72473353 -39.25559115
7.498100603 -51.14057386 -35.9634803
0 -47.34077256 -37.63452515
9.087920016 -69.20500113 -24.59520286
2.784307718 -59.64873989 -31.29633321
11.49484971 -64.59984318 -28.13886168
3.027950653 -69.03235107 -24.49663536
8.140978479 -59.7778429 -31.33073315
0 -64.19332791 -28.09704097
-43.97301325 74.67953189 -5.71117759
-37.70085143 70.92427989 -16.05578504
-38.71851772 77.62800219 -5.721898413
-23.6779768 57.21465349 -30.58550596
-30.54951917 64.4498064 -24.3022978
-27.01639622 80.69653936 -5.632430758
-32.66931184 73.70016607 -16.14859238
-32.94408694 79.56526114 -5.695058182
-35.88019294 76.18406454 -11.19217506
-2.169170147 30.53330498 -43.72496407
-6.782255416 36.7419603 -41.69356538
-17.43653703 50.05412478 -35.33982857
-11.83617661 43.22577184 -38.95325537
-3.369965069 81.44746455 -5.452718022
-9.741085763 77.17736568 -15.76140785
-9.079125762 81.56265897 -5.486822567
-19.02223265 59.04437028 -30.77861898
-15.08401614 69.26741731 -24.4064508
-22.25302321 62.90727647 -27.91261132
-20.80141876 81.29987144 -5.598629875
-15.37553429 77.06112543 -15.90125812
-14.92035487 81.5390277 -5.533317284
-24.21285576 79.15537189 -11.07129571
-12.35728597 79.86234117 -10.86571574
-29.08578563 70.38189769 -20.73082737
-18.14689357 73.07383749 -20.62128242
-25.64967186 66.75674302 -24.56493418
-27.04253014 75.47236712 -16.22738458
-20.41177158 68.32143345 -24.58285829
-21.19130381 76.51969971 -16.13097846
45.28672549 76.91061428 -5.88180142
37.94708506 71.38750398 -16.16064936
39.00260497 78.19757786 -5.763881383
23.26227725 56.21017133 -30.04853521
30.23324582 63.78256984 -24.05070074
26.66201875 79.63803267 -5.558549453
32.31416273 72.89896926 -15.97304053
32.7241416 79.03405782 -5.657036139
35.80641092 76.0274039 -11.1691601
2.16450139 30.4675874 -43.63085377
6.730448329 36.46130235 -41.37508399
0 33.61455145 -42.79846304
17.13006248 49.17434485 -34.71867553
11.6770645 42.64469368 -38.42961206
-4.616606727 40.14366347 -40.62195051
4.588222098 39.89684518 -40.37219152
-2.266558817 36.85664803 -41.79236838
2.260151887 36.75246456 -41.67423301
3.359238717 81.18822325 -5.435362421
9.608530287 76.12714575 -15.54692859
9.004776153 80.89473654 -5.441890586
0 79.57762882 -10.72148217
18.58925515 57.70042265 -30.07804665
14.72576774 67.6223023 -23.82679271
21.73470295 61.44203214 -27.26246721
20.50269142 80.13233114 -5.518228444
15.07650618 75.56241699 -15.59200557
14.73782704 80.54152179 -5.465625568
23.77422156 77.72141245 -10.87073081
12.19225221 78.79576535 -10.72060217
-6.236625763 73.51124415 -20.31800817
6.16995861 72.72543696 -20.10081641
-3.242601442 76.94440504 -15.75026743
3.226964335 76.57334868 -15.67431341
28.56508997 69.12191627 -20.35970272
17.70319455 71.28715208 -20.11708358
25.0897304 65.29941956 -24.02867293
26.49283782 73.93824364 -15.89753125
19.88322762 66.55231305 -23.94630789
20.7154643 74.80149035 -15.76876588
-15.38447544 54.51051365 -33.68935018
-5.092156808 55.0387975 -34.01584756
-12.50418596 50.80308448 -35.78148747
-13.60692532 59.61887522 -31.18192629
15.0719728 53.4032494 -33.00502324
5.044292673 54.52145593 -33.69611288
12.28832051 49.92604771 -35.16377536
13.31457703 58.33794837 -30.51197459
-7.165918875 43.68913805 -39.19276162
-2.545311829 51.15775517 -35.94757461
-9.755145652 47.17297854 -37.61513295
-2.392204549 43.72473353 -39.25559115
-7.498100603 51.14057386 -35.9634803
-9.087920016 69.20500113 -24.59520286
-2.784307718 59.64873989 -31.29633321
-11.49484971 64.59984318 -28.13886168
-3.027950653 69.03235107 -24.49663536
-8.140978479 59.7778429 -31.33073315
7.0947012 43.25493849 -38.80324879
2.533707792 50.92452774 -35.78369017
9.621697999 46.52766544 -37.10056849
2.383486404 43.56538322 -39.11252817
7.405528459 50.50918829 -35.51947232
0 47.34077256 -37.63452515
8.938192727 68.06481975 -24.18998659
2.768868881 59.31799082 -31.12279671
11.26252628 63.29421003 -27.57014465
3.010131713 68.62610821 -24.35247711
8.018622736 58.87940515 -30.85984441
0 64.19332791 -28.09704097
0 -23.86641324 -45.35722984
0 -16.82052858 -46.66095896
0 -3.31952066 -47.89558247
0 -10.0028726 -47.49146238
0 23.86641324 -45.35722984
0 16.82052858 -46.66095896
0 3.31952066 -47.89558247
0 10.0028726 -47.49146238
52.49925365 75.18111718 -3.729691688
57.39497112 65.12992124 -10.5946267
49.06816773 73.54189716 -9.468841681
55.1056942 38.90639973 -19.19626968
57.13715488 51.48961118 -15.64542233
40.5876685 66.84190412 -19.09634876
52.85150247 62.44656544 -15.61042906
44.89481274 70.49081319 -14.63856793
51.61253295 68.55437912 -12.78945109
46.32379057 3.542649343 -27.27650542
48.41713167 10.96063378 -25.73684344
52.8044795 28.22793854 -21.85285
50.5646771 19.066587 -23.96790089
25.14101561 51.63091506 -31.90966038
35.06106394 48.66952354 -30.07941977
28.57017114 55.20317892 -29.36330216
51.07144353 37.10465117 -22.93193556
43.98274626 43.80611726 -27.07366938
51.94513013 42.82194634 -21.57651994
36.24005365 62.79457269 -23.11880552
39.015031 52.01180043 -27.26611744
32.28735297 58.96049882 -26.43995647
42.33926495 61.3689485 -21.77274006
33.88913866 53.84561302 -28.45600124
53.05807019 55.55685842 -18.06431964
43.95993613 49.4871016 -25.6717081
52.66946367 49.03861317 -19.96894086
48.09251595 58.99605599 -20.08791606
48.22780309 46.42234306 -23.77541396
43.41728975 55.44123888 -23.96213136
49.37444409 -70.70625978 -3.507696604
52.58287707 -59.66931555 -9.706354802
46.73747826 -70.04872974 -9.019081061
51.5164439 -36.3722731 -17.94594123
52.60128927 -47.40207904 -14.40340156
39.71104754 -65.39823869 -18.68390182
49.05979974 -57.96648822 -14.49049672
43.35822647 -68.07816885 -14.13754295
48.3604982 -64.23486194 -11.98360535
46.01418127 -3.518971722 -27.0942004
47.42495887 -10.73602645 -25.2094393
50.17757103 -26.82365974 -20.76571805
48.8035659 -18.40251908 -23.13312569
25.38722591 -52.1365455 -32.22215718
34.2739771 -47.57693999 -29.40416599
28.72173662 -55.49603317 -29.51907522
47.99648614 -34.87061952 -21.55122807
41.70167143 -41.53420294 -25.66954911
48.49561566 -39.97827412 -20.14369038
35.86915795 -62.15190705 -22.8821981
37.7217531 -50.28770307 -26.36229483
32.24333256 -58.88011238 -26.40390837
40.83325237 -59.18604785 -20.99828116
33.44542689 -53.14061037 -28.08342574
49.14084654 -51.45515175 -16.73064919
41.72086931 -46.96651269 -24.36413865
48.90936977 -45.53772713 -18.54335025
45.26504053 -55.52753506 -18.90689885
45.23573388 -43.5422852 -22.30037923
41.43522102 -52.91025765 -22.86822173
3.423558341 -26.35956839 -44.766553
10.11543838 -23.75222629 -44.68359417
5.655795115 -29.30870667 -43.92700994
3.358508822 -22.72610836 -45.564306
22.44227477 -17.37383917 -41.98155089
16.49147406 -20.73082172 -43.73546565
10.44006909 -35.3464556 -41.76351948
12.47866624 -26.52234598 -43.6783923
8.007917816 -32.31639258 -42.92426862
9.119725074 -27.96915323 -43.91528186
3.264731175 -15.65953933 -46.77421154
9.942337111 -20.11378477 -45.37558933
3.309292888 -19.14319909 -46.23390041
6.695396852 -21.46429355 -45.57492563
42.85214034 -2.125869867 -29.92380892
38.02005873 -6.184689336 -33.5047261
43.56611734 -5.609328611 -29.06791415
27.95195438 -13.791388 -39.59019239
33.10099793 -10.05793364 -36.73162026
44.90276696 -12.82846307 -27.26580944
38.67004087 -9.666759497 -32.72829732
44.24818497 -9.188857839 -28.18117551
41.11197101 -7.669816998 -30.95196814
21.63449831 -48.18193631 -35.00535359
23.29025267 -37.83636636 -37.68442043
18.65736026 -44.91729942 -37.02842173
26.19259685 -46.4714412 -33.93842614
25.01282019 -19.70712617 -40.47159322
24.34072568 -28.37194821 -39.38412147
22.10632961 -21.50921639 -41.56002828
13.12375793 -38.54677527 -40.36214903
20.4715348 -35.0552195 -39.46277819
15.80563348 -41.6884523 -38.81459471
14.14530725 -33.86530551 -41.54325098
19.66048215 -39.88077194 -38.38779206
34.39206571 -41.68824305 -30.90710319
27.26761506 -35.85608396 -36.3813381
30.48468156 -44.26053905 -32.54305684
26.8062104 -40.99671343 -35.30521914
15.89652524 -24.91871508 -43.17764208
21.14995077 -30.26342077 -40.34483535
19.04794392 -23.2605409 -42.47647973
15.06878977 -29.30276487 -42.47310079
21.67839544 -25.8174767 -41.02074926
17.74826258 -32.1583021 -41.06419629
3.202487742 -1.979246273 -47.83568594
9.589028294 -5.926345405 -46.95367001
3.211024123 -5.313328703 -47.7324831
22.16204438 -13.69689669 -42.51470658
15.9192464 -9.838635348 -45.18006704
19.30193006 -15.38825202 -43.50119151
3.25136183 -12.08026615 -47.21428361
9.643843917 -9.325001309 -46.73626828
3.225105347 -8.69635949 -47.52518982
6.531326447 -14.28397085 -46.69639287
6.441520273 -7.32576758 -47.34477709
13.23922684 -18.57491295 -44.94764691
12.94460517 -11.39135615 -45.87066678
16.30990591 -17.03011828 -44.32318805
9.877598922 -16.46077131 -45.93998301
16.12098263 -13.38566131 -44.80392917
9.780063747 -12.84809242 -46.39318953
47.34093481 -29.25830677 -23.05206444
40.72110859 -25.16702917 -29.33510107
46.76090167 -24.87274306 -24.20090636
44.48494046 -32.48767042 -25.07294977
28.31916779 -17.50220822 -38.97896174
34.45633447 -21.29518583 -34.59526456
30.98503161 -15.61230186 -37.58636953
28.1405627 -21.71799042 -38.53250293
45.54412718 -16.7677838 -26.28446284
40.29070942 -21.12157637 -30.22281989
46.15966978 -20.69961557 -25.27749224
42.36010808 -15.02870172 -29.22480967
43.46073318 -22.96786327 -27.35314412
38.13785436 -38.69653405 -29.00284183
37.80634196 -28.02911389 -31.18956574
41.41331002 -35.66398044 -27.07860726
34.53192541 -36.04659157 -32.08114408
41.07594161 -30.20154592 -28.29127314
36.10283633 -11.73884186 -34.47903425
37.08945051 -19.24035792 -32.94696644
33.58751298 -13.67712129 -36.07435407
39.20998827 -13.35084083 -31.96327203
34.03857568 -17.43301122 -35.36240563
39.74928786 -17.17994901 -31.12856752
27.64040798 -30.75703089 -37.2820461
34.4527912 -25.82217964 -33.95538038
27.91824689 -26.15239467 -37.97051589
31.01640549 -33.38584803 -34.85024405
31.30157258 -23.76635978 -36.34764581
34.53972927 -30.74005012 -33.08838098
3.414030808 26.28621148 -44.6419707
10.06124047 23.6249633 -44.44418218
5.627836736 29.16382449 -43.70986487
3.350820906 22.67408633 -45.46000537
22.51917451 17.43337162 -42.12540307
16.44648368 20.67426597 -43.61615094
10.34081076 35.01040128 -41.3664553
12.39990815 26.35495234 -43.40271966
7.949708609 32.08148612 -42.61225398
9.061008825 27.78907721 -43.63253861
3.259974138 15.63672183 -46.70605687
9.899697782 20.02752353 -45.18098874
3.303172191 19.10779282 -46.14838857
6.669819282 21.38229624 -45.40082156
43.01749765 2.134073148 -30.03927854
38.38834833 6.24459868 -33.82927695
44.01847814 5.667572046 -29.36973551
40.60205661 0 -31.88946107
28.2124567 13.91991885 -39.95915898
33.49021831 10.17620055 -37.16353157
45.99469676 13.14042115 -27.92884987
39.26998038 9.81673273 -33.23605471
45.01162798 9.34739924 -28.66740384
41.66343107 7.772696953 -31.36714585
35.74428631 -4.06226955 -35.3234294
35.94772649 4.085390137 -35.52447425
38.16769728 -2.069979141 -33.6600542
38.29174039 2.076706469 -33.76944769
21.36308843 47.57748257 -34.56620319
23.25319521 37.77616437 -37.6244602
18.40958178 44.32077666 -36.53666696
26.13498499 46.36922507 -33.86377696
25.19003432 19.84674981 -40.75833171
24.465872 28.5178208 -39.58661246
22.16808055 21.56929938 -41.67612042
12.97272756 38.10317262 -39.89765475
20.3777602 34.89464094 -39.28200979
15.60281376 41.15350124 -38.31652133
14.0164826 33.5568862 -41.1649068
19.48903548 39.53299688 -38.05303633
35.36306451 42.86523644 -31.77971027
27.50861625 36.17299319 -36.70288972
30.86359421 44.81068021 -32.94755428
26.91874107 41.16881487 -35.45342808
15.82572523 24.807732 -42.9853373
21.12652578 30.22990199 -40.30015072
19.0235333 23.23073169 -42.42204461
14.96834421 29.10743846 -42.18998354
21.70669099 25.85117475 -41.07429126
17.6390002 31.9603282 -40.81139566
3.201940364 1.978907975 -47.82750973
9.57862942 5.919918547 -46.90275085
3.209538247 5.310870004 -47.71039528
6.407672546 0 -47.55941198
22.22613196 13.73650499 -42.63764942
15.90489699 9.829766925 -45.1393423
19.30939566 15.39420389 -43.5180169
3.247801329 12.06703729 -47.16258021
9.626993531 9.308708026 -46.65460746
3.222623907 8.689668392 -47.48862329
6.516031339 14.25052055 -46.58703892
6.434185453 7.317425888 -47.29086662
12.80954043 -3.931896727 -46.34535264
12.8016014 3.929459837 -46.31662897
9.633540212 -1.983314348 -47.06250376
9.63009193 1.98260443 -47.04565795
13.191787 18.50835386 -44.78658697
12.91948377 11.36924912 -45.78164626
16.27846314 16.99728706 -44.23774037
9.844627276 16.40582488 -45.78663433
16.09946499 13.36779467 -44.74412671
9.755678548 12.81605753 -46.27751471
49.9434172 30.86672935 -24.31931006
42.3708956 26.18665362 -30.52359201
48.96834965 26.04691388 -25.3433617
46.96788704 34.30098409 -26.47240753
28.65006327 17.70671288 -39.43441165
35.31724472 21.82725763 -35.45964605
31.43629066 15.83967592 -38.13376899
28.50251977 21.99733736 -39.028126
46.99896466 17.30340501 -27.1240798
41.68054524 21.85016923 -31.26536192
47.9809897 21.51635933 -26.27486506
43.50198287 15.43382099 -30.01260448
45.24837496 23.9125853 -28.47824302
39.7655239 40.34804725 -30.24064199
39.22857566 29.08353884 -32.36288347
43.56215748 37.51450757 -28.48365787
35.59759262 37.1590019 -33.07117933
42.9982389 31.61493652 -29.61526562
36.70078275 11.93326422 -35.05008676
38.10555308 19.76746676 -33.84958152
34.13267851 13.89911734 -36.65988401
40.06119699 13.64067392 -32.65716196
34.74382373 17.79420721 -36.09508222
40.86631595 17.66273717 -32.00333752
27.96682231 31.12025041 -37.72232159
35.42611984 26.55168417 -34.91465663
28.28127192 26.49245807 -38.46425204
31.64823604 34.06594614 -35.56017315
31.92912522 24.24284198 -37.07636515
35.59603288 31.68015088 -34.10029905
25.43188951 -11.61364875 -41.14966163
25.65867263 -3.841091547 -41.51660442
28.07826707 -9.812221285 -39.86593837
22.36636183 -9.760058191 -42.76378959
25.57273028 11.67796467 -41.37754678
25.71119443 3.848954036 -41.60158647
28.27626166 9.881412404 -40.14705401
22.42143655 9.784091265 -42.86909074
33.17120457 -6.064950544 -36.97675988
28.24684033 -2.000051954 -40.19867703
30.66910546 -7.953756038 -38.46199496
33.31170821 -2.029989043 -37.10415567
28.17706312 -5.874694336 -40.06817933
16.11767649 -5.955476585 -45.35127544
22.5803565 -2.008882653 -43.03666512
19.24206193 -7.860467583 -44.17499889
16.13297242 -1.994145059 -45.46326461
22.50464368 -5.847607173 -42.9380011
33.41053337 6.1087089 -37.24354561
28.28968486 2.003085613 -40.25964999
30.90387022 8.014640163 -38.75641245
33.39300912 2.034943456 -37.19471246
28.30056293 5.900443067 -40.2437978
30.81493924 0 -38.76236047
16.11065413 5.952881827 -45.33151622
22.59367424 2.010067478 -43.06204785
19.25176371 7.864430802 -44.19727176
16.13083205 1.993880495 -45.45723299
22.54148092 5.85717896 -43.00828514
19.41352581 0 -44.35409514
52.49925365 75.18111718 3.729691688
57.39497112 65.12992124 10.5946267
49.06816773 73.54189716 9.468841681
57.25510131 72.89790379 0
55.1056942 38.90639973 19.19626968
57.13715488 51.48961118 15.64542233
40.5876685 66.84190412 19.09634876
52.85150247 62.44656544 15.61042906
44.89481274 70.49081319 14.63856793
51.61253295 68.55437912 12.78945109
61.65916656 62.39379757 -7.090935368
61.65916656 62.39379757 7.090935368
60.40281758 68.49176305 -3.714568363
60.40281758 68.49176305 3.714568363
46.32379057 3.542649343 27.27650542
48.41713167 10.96063378 25.73684344
52.8044795 28.22793854 21.85285
50.5646771 19.066587 23.96790089
25.14101561 51.63091506 31.90966038
35.06106394 48.66952354 30.07941977
28.57017114 55.20317892 29.36330216
51.07144353 37.10465117 22.93193556
43.98274626 43.80611726 27.07366938
51.94513013 42.82194634 21.57651994
36.24005365 62.79457269 23.11880552
39.015031 52.01180043 27.26611744
32.28735297 58.96049882 26.43995647
42.33926495 61.3689485 21.77274006
33.88913866 53.84561302 28.45600124
53.05807019 55.55685842 18.06431964
43.95993613 49.4871016 25.6717081
52.66946367 49.03861317 19.96894086
48.09251595 58.99605599 20.08791606
48.22780309 46.42234306 23.77541396
43.41728975 55.44123888 23.96213136
58.08629257 35.89930309 -16.39366577
65.46390396 40.45891768 -6.056681456
59.40459511 41.83967956 -14.62127963
58.08629257 35.89930309 16.39366577
65.46390396 40.45891768 6.056681456
59.40459511 41.83967956 14.62127963
61.53092096 55.19831302 -10.09233891
66.13716476 46.4733188 -3.290599974
60.62842782 48.34433702 -12.53766801
64.59128282 57.98935261 -3.533825094
63.43597416 44.60994929 -9.300820858
61.53092096 55.19831302 10.09233891
66.13716476 46.4733188 3.290599974
60.62842782 48.34433702 12.53766801
64.59128282 57.98935261 3.533825094
63.43597416 44.60994929 9.300820858
66.01423336 52.47937859 0
49.37444409 -70.70625978 3.507696604
52.58287707 -59.66931555 9.706354802
46.73747826 -70.04872974 9.019081061
52.68419376 -67.07816771 0
51.5164439 -36.3722731 17.94594123
52.60128927 -47.40207904 14.40340156
39.71104754 -65.39823869 18.68390182
49.05979974 -57.96648822 14.49049672
43.35822647 -68.07816885 14.13754295
48.3604982 -64.23486194 11.98360535
55.91420088 -56.58038416 -6.43025209
55.91420088 -56.58038416 6.43025209
54.86720715 -62.21484198 -3.374147101
54.86720715 -62.21484198 3.374147101
46.01418127 -3.518971722 27.0942004
47.42495887 -10.73602645 25.2094393
50.17757103 -26.82365974 20.76571805
48.8035659 -18.40251908 23.13312569
25.38722591 -52.1365455 32.22215718
34.2739771 -47.57693999 29.40416599
28.72173662 -55.49603317 29.51907522
47.99648614 -34.87061952 21.55122807
41.70167143 -41.53420294 25.66954911
48.49561566 -39.97827412 20.14369038
35.86915795 -62.15190705 22.8821981
37.7217531 -50.28770307 26.36229483
32.24333256 -58.88011238 26.40390837
40.83325237 -59.18604785 20.99828116
33.44542689 -53.14061037 28.08342574
49.14084654 -51.45515175 16.73064919
41.72086931 -46.96651269 24.36413865
48.90936977 -45.53772713 18.54335025
45.26504053 -55.52753506 18.90689885
45.23573388 -43.5422852 22.30037923
41.43522102 -52.91025765 22.86822173
54.49890156 -33.68217351 -15.38119817
61.02592138 -37.7160936 -5.646081948
55.22024345 -38.89256861 -13.59138328
54.49890156 -33.68217351 15.38119817
61.02592138 -37.7160936 5.646081948
55.22024345 -38.89256861 13.59138328
56.14131435 -50.36339119 -9.208332372
60.98747463 -42.85473019 -3.034381397
55.81686265 -44.50765617 -11.54265942
58.53540453 -52.55245082 -3.202504617
58.68453319 -41.26860325 -8.604176692
56.14131435 -50.36339119 9.208332372
60.98747463 -42.85473019 3.034381397
55.81686265 -44.50765617 11.54265942
58.53540453 -52.55245082 3.202504617
58.68453319 -41.26860325 8.604176692
60.24201242 -47.8906323 0
3.423558341 -26.35956839 44.766553
10.11543838 -23.75222629 44.68359417
5.655795115 -29.30870667 43.92700994
3.358508822 -22.72610836 45.564306
22.44227477 -17.37383917 41.98155089
16.49147406 -20.73082172 43.73546565
10.44006909 -35.3464556 41.76351948
12.47866624 -26.52234598 43.6783923
8.007917816 -32.31639258 42.92426862
9.119725074 -27.96915323 43.91528186
3.264731175 -15.65953933 46.77421154
9.942337111 -20.11378477 45.37558933
3.309292888 -19.14319909 46.23390041
6.695396852 -21.46429355 45.57492563
42.85214034 -2.125869867 29.92380892
38.02005873 -6.184689336 33.5047261
43.56611734 -5.609328611 29.06791415
27.95195438 -13.791388 39.59019239
33.10099793 -10.05793364 36.73162026
44.90276696 -12.82846307 27.26580944
38.67004087 -9.666759497 32.72829732
44.24818497 -9.188857839 28.18117551
41.11197101 -7.669816998 30.95196814
21.63449831 -48.18193631 35.00535359
23.29025267 -37.83636636 37.68442043
18.65736026 -44.91729942 37.02842173
26.19259685 -46.4714412 33.93842614
25.01282019 -19.70712617 40.47159322
24.34072568 -28.37194821 39.38412147
22.10632961 -21.50921639 41.56002828
13.12375793 -38.54677527 40.36214903
20.4715348 -35.0552195 39.46277819
15.80563348 -41.6884523 38.81459471
14.14530725 -33.86530551 41.54325098
19.66048215 -39.88077194 38.38779206
34.39206571 -41.68824305 30.90710319
27.26761506 -35.85608396 36.3813381
30.48468156 -44.26053905 32.54305684
26.8062104 -40.99671343 35.30521914
15.89652524 -24.91871508 43.17764208
21.14995077 -30.26342077 40.34483535
19.04794392 -23.2605409 42.47647973
15.06878977 -29.30276487 42.47310079
21.67839544 -25.8174767 41.02074926
17.74826258 -32.1583021 41.06419629
3.202487742 -1.979246273 47.83568594
9.589028294 -5.926345405 46.95367001
3.211024123 -5.313328703 47.7324831
22.16204438 -13.69689669 42.51470658
15.9192464 -9.838635348 45.18006704
19.30193006 -15.38825202 43.50119151
3.25136183 -12.08026615 47.21428361
9.643843917 -9.325001309 46.73626828
3.225105347 -8.69635949 47.52518982
6.531326447 -14.28397085 46.69639287
6.441520273 -7.32576758 47.34477709
13.23922684 -18.57491295 44.94764691
12.94460517 -11.39135615 45.87066678
16.30990591 -17.03011828 44.32318805
9.877598922 -16.46077131 45.93998301
16.12098263 -13.38566131 44.80392917
9.780063747 -12.84809242 46.39318953
47.34093481 -29.25830677 23.05206444
40.72110859 -25.16702917 29.33510107
46.76090167 -24.87274306 24.20090636
44.48494046 -32.48767042 25.07294977
28.31916779 -17.50220822 38.97896174
34.45633447 -21.29518583 34.59526456
30.98503161 -15.61230186 37.58636953
28.1405627 -21.71799042 38.53250293
45.54412718 -16.7677838 26.28446284
40.29070942 -21.12157637 30.22281989
46.15966978 -20.69961557 25.27749224
42.36010808 -15.02870172 29.22480967
43.46073318 -22.96786327 27.35314412
38.13785436 -38.69653405 29.00284183
37.80634196 -28.02911389 31.18956574
41.41331002 -35.66398044 27.07860726
34.53192541 -36.04659157 32.08114408
41.07594161 -30.20154592 28.29127314
36.10283633 -11.73884186 34.47903425
37.08945051 -19.24035792 32.94696644
33.58751298 -13.67712129 36.07435407
39.20998827 -13.35084083 31.96327203
34.03857568 -17.43301122 35.36240563
39.74928786 -17.17994901 31.12856752
27.64040798 -30.75703089 37.2820461
34.4527912 -25.82217964 33.95538038
27.91824689 -26.15239467 37.97051589
31.01640549 -33.38584803 34.85024405
31.30157258 -23.76635978 36.34764581
34.53972927 -30.74005012 33.08838098
3.414030808 26.28621148 44.6419707
10.06124047 23.6249633 44.44418218
5.627836736 29.16382449 43.70986487
3.350820906 22.67408633 45.46000537
22.51917451 17.43337162 42.12540307
16.44648368 20.67426597 43.61615094
10.34081076 35.01040128 41.3664553
12.39990815 26.35495234 43.40271966
7.949708609 32.08148612 42.61225398
9.061008825 27.78907721 43.63253861
3.259974138 15.63672183 46.70605687
9.899697782 20.02752353 45.18098874
3.303172191 19.10779282 46.14838857
6.669819282 21.38229624 45.40082156
43.01749765 2.134073148 30.03927854
38.38834833 6.24459868 33.82927695
44.01847814 5.667572046 29.36973551
40.60205661 0 31.88946107
28.2124567 13.91991885 39.95915898
33.49021831 10.17620055 37.16353157
45.99469676 13.14042115 27.92884987
39.26998038 9.81673273 33.23605471
45.01162798 9.34739924 28.66740384
41.66343107 7.772696953 31.36714585
35.74428631 -4.06226955 35.3234294
35.94772649 4.085390137 35.52447425
38.16769728 -2.069979141 33.6600542
38.29174039 2.076706469 33.76944769
21.36308843 47.57748257 34.56620319
23.25319521 37.77616437 37.6244602
18.40958178 44.32077666 36.53666696
26.13498499 46.36922507 33.86377696
25.19003432 19.84674981 40.75833171
24.465872 28.5178208 39.58661246
22.16808055 21.56929938 41.67612042
12.97272756 38.10317262 39.89765475
20.3777602 34.89464094 39.28200979
15.60281376 41.15350124 38.31652133
14.0164826 33.5568862 41.1649068
19.48903548 39.53299688 38.05303633
35.36306451 42.86523644 31.77971027
27.50861625 36.17299319 36.70288972
30.86359421 44.81068021 32.94755428
26.91874107 41.16881487 35.45342808
15.82572523 24.807732 42.9853373
21.12652578 30.22990199 40.30015072
19.0235333 23.23073169 42.42204461
14.96834421 29.10743846 42.18998354
21.70669099 25.85117475 41.07429126
17.6390002 31.9603282 40.81139566
3.201940364 1.978907975 47.82750973
9.57862942 5.919918547 46.90275085
3.209538247 5.310870004 47.71039528
6.407672546 0 47.55941198
22.22613196 13.73650499 42.63764942
15.90489699 9.829766925 45.1393423
19.30939566 15.39420389 43.5180169
3.247801329 12.06703729 47.16258021
9.626993531 9.308708026 46.65460746
3.222623907 8.689668392 47.48862329
6.516031339 14.25052055 46.58703892
6.434185453 7.317425888 47.29086662
12.80954043 -3.931896727 46.34535264
12.8016014 3.929459837 46.31662897
9.633540212 -1.983314348 47.06250376
9.63009193 1.98260443 47.04565795
13.191787 18.50835386 44.78658697
12.91948377 11.36924912 45.78164626
16.27846314 16.99728706 44.23774037
9.844627276 16.40582488 45.78663433
16.09946499 13.36779467 44.74412671
9.755678548 12.81605753 46.27751471
49.9434172 30.86672935 24.31931006
42.3708956 26.18665362 30.52359201
48.96834965 26.04691388 25.3433617
46.96788704 34.30098409 26.47240753
28.65006327 17.70671288 39.43441165
35.31724472 21.82725763 35.45964605
31.43629066 15.83967592 38.13376899
28.50251977 21.99733736 39.028126
46.99896466 17.30340501 27.1240798
41.68054524 21.85016923 31.26536192
47.9809897 21.51635933 26.27486506
43.50198287 15.43382099 30.01260448
45.24837496 23.9125853 28.47824302
39.7655239 40.34804725 30.24064199
39.22857566 29.08353884 32.36288347
43.56215748 37.51450757 28.48365787
35.59759262 37.1590019 33.07117933
42.9982389 31.61493652 29.61526562
36.70078275 11.93326422 35.05008676
38.10555308 19.76746676 33.84958152
34.13267851 13.89911734 36.65988401
40.06119699 13.64067392 32.65716196
34.74382373 17.79420721 36.09508222
40.86631595 17.66273717 32.00333752
27.96682231 31.12025041 37.72232159
35.42611984 26.55168417 34.91465663
28.28127192 26.49245807 38.46425204
31.64823604 34.06594614 35.56017315
31.92912522 24.24284198 37.07636515
35.59603288 31.68015088 34.10029905
25.43188951 -11.61364875 41.14966163
25.65867263 -3.841091547 41.51660442
28.07826707 -9.812221285 39.86593837
22.36636183 -9.760058191 42.76378959
25.57273028 11.67796467 41.37754678
25.71119443 3.848954036 41.60158647
28.27626166 9.881412404 40.14705401
22.42143655 9.784091265 42.86909074
33.17120457 -6.064950544 36.97675988
28.24684033 -2.000051954 40.19867703
30.66910546 -7.953756038 38.46199496
33.31170821 -2.029989043 37.10415567
28.17706312 -5.874694336 40.06817933
16.11767649 -5.955476585 45.35127544
22.5803565 -2.008882653 43.03666512
19.24206193 -7.860467583 44.17499889
16.13297242 -1.994145059 45.46326461
22.50464368 -5.847607173 42.9380011
33.41053337 6.1087089 37.24354561
28.28968486 2.003085613 40.25964999
30.90387022 8.014640163 38.75641245
33.39300912 2.034943456 37.19471246
28.30056293 5.900443067 40.2437978
30.81493924 0 38.76236047
