-1.482542616 -17.80454965 2.398804343
-3.704728179 -13.83014678 5.994376113
-3.940349498 -17.29954574 2.377138994
-4.994624619 -15.19057539 4.378274964
9.248580331 -16.51255332 2.504774853
6.094642088 -13.71415859 6.233994591
6.687693259 -17.25563595 2.457844695
1.107201552 -8.40635047 10.70306949
3.432347834 -10.98316647 8.785133364
0 -9.694068613 9.809567471
1.497924986 -17.98928374 2.423693539
3.80676687 -14.21106813 6.159478183
4.049064236 -17.77684239 2.442724558
0 -16.16568881 4.468086497
5.181883673 -15.76010223 4.542425764
-2.287589723 -12.28618192 7.593278019
2.323280617 -12.4778705 7.711748074
-1.145256942 -11.01200495 8.754220832
-1.275345138 -14.14379431 6.190655341
1.153199783 -11.08837786 8.814935051
1.287184735 -14.27509746 6.248125954
-9.248580331 16.51255332 2.504774853
-6.094642088 13.71415859 6.233994591
-6.687693259 17.25563595 2.457844695
-1.107201552 8.40635047 10.70306949
-3.432347834 10.98316647 8.785133364
-1.497924986 17.98928374 2.423693539
-3.80676687 14.21106813 6.159478183
-4.049064236 17.77684239 2.442724558
-5.181883673 15.76010223 4.542425764
8.716576482 15.56270571 2.360693295
5.83678426 13.13392712 5.970240906
6.402023085 16.51854764 2.35285589
1.102000975 8.366865449 10.65279667
3.361403876 10.75615297 8.603551495
0 9.694068613 9.809567471
1.482542616 17.80454965 2.398804343
3.704728179 13.83014678 5.994376113
3.940349498 17.29954574 2.377138994
0 16.16568881 4.468086497
4.994624619 15.19057539 4.378274964
-2.323280617 12.4778705 7.711748074
2.287589723 12.28618192 7.593278019
-1.153199783 11.08837786 8.814935051
-1.287184735 14.27509746 6.248125954
1.145256942 11.01200495 8.754220832
1.275345138 14.14379431 6.190655341
0 -5.463037046 12.39333041
0 -1.899041041 13.63431327
0 5.463037046 12.39333041
0 1.899041041 13.63431327
-8.716576482 -15.56270571 -2.360693295
-5.83678426 -13.13392712 -5.970240906
-6.402023085 -16.51854764 -2.35285589
-1.102000975 -8.366865449 -10.65279667
-3.361403876 -10.75615297 -8.603551495
-1.482542616 -17.80454965 -2.398804343
-3.704728179 -13.83014678 -5.994376113
-3.940349498 -17.29954574 -2.377138994
-4.994624619 -15.19057539 -4.378274964
9.248580331 -16.51255332 -2.504774853
6.094642088 -13.71415859 -6.233994591
6.687693259 -17.25563595 -2.457844695
1.107201552 -8.40635047 -10.70306949
3.432347834 -10.98316647 -8.785133364
0 -9.694068613 -9.809567471
1.497924986 -17.98928374 -2.423693539
3.80676687 -14.21106813 -6.159478183
4.049064236 -17.77684239 -2.442724558
0 -16.16568881 -4.468086497
5.181883673 -15.76010223 -4.542425764
-2.287589723 -12.28618192 -7.593278019
2.323280617 -12.4778705 -7.711748074
-1.145256942 -11.01200495 -8.754220832
-1.275345138 -14.14379431 -6.190655341
1.153199783 -11.08837786 -8.814935051
1.287184735 -14.27509746 -6.248125954
-9.248580331 16.51255332 -2.504774853
-6.094642088 13.71415859 -6.233994591
-6.687693259 17.25563595 -2.457844695
-1.107201552 8.40635047 -10.70306949
-3.432347834 10.98316647 -8.785133364
-1.497924986 17.98928374 -2.423693539
-3.80676687 14.21106813 -6.159478183
-4.049064236 17.77684239 -2.442724558
-5.181883673 15.76010223 -4.542425764
8.716576482 15.56270571 -2.360693295
5.83678426 13.13392712 -5.970240906
6.402023085 16.51854764 -2.35285589
1.102000975 8.366865449 -10.65279667
3.361403876 10.75615297 -8.603551495
0 9.694068613 -9.809567471
1.482542616 17.80454965 -2.398804343
3.704728179 13.83014678 -5.994376113
3.940349498 17.29954574 -2.377138994
0 16.16568881 -4.468086497
4.994624619 15.19057539 -4.378274964
-2.323280617 12.4778705 -7.711748074
2.287589723 12.28618192 -7.593278019
-1.153199783 11.08837786 -8.814935051
-1.287184735 14.27509746 -6.248125954
1.145256942 11.01200495 -8.754220832
1.275345138 14.14379431 -6.190655341
0 -5.463037046 -12.39333041
0 -1.899041041 -13.63431327
0 5.463037046 -12.39333041
0 1.899041041 -13.63431327
11.59039247 14.75703118 -1.526572153
13.80895873 11.04540702 -4.315435783
9.931722804 13.78091827 -3.703593712
16.68030701 2.530221266 -9.342538153
15.43519976 7.016321939 -6.859481569
6.84633039 11.42992266 -7.064080692
11.77201461 10.01387375 -6.188914335
8.276331063 12.56313507 -5.550778804
10.93366109 11.86079205 -4.999002838
12.50423273 -15.92054391 -1.646934177
15.35969057 -12.28579485 -4.800054773
10.68184498 -14.8217621 -3.983318371
17.7460432 -2.691881862 -9.939450489
17.30810773 -7.86768282 -7.691811431
7.193168123 -12.00896694 -7.421949739
12.90247708 -10.97550256 -6.783233624
8.811128418 -13.37493578 -5.909457281
11.89595185 -12.90468124 -5.43897388
1.786636086 -6.596939177 -11.77827364
5.485217099 -5.362602503 -12.06692372
2.942601568 -7.891012182 -10.94929813
1.799001877 -4.895009335 -12.63013954
14.36773901 -1.486301005 -11.2846366
9.612485899 -3.755594115 -12.01752193
14.75807186 -3.966201747 -10.63594428
5.503573895 -10.46841963 -8.904969622
6.894461231 -6.68193945 -11.15547261
4.205382144 -9.197878975 -9.977822518
7.9712226 -10.03946643 -8.761221444
4.902661083 -7.309973546 -11.09624353
1.846655062 -1.141295594 -13.7063541
5.565440528 -3.439631409 -12.84051216
1.830120884 -3.03361138 -13.31864061
3.684850807 -4.203583994 -12.78471646
13.88577985 -8.581883908 -8.317347319
9.456962475 -5.84472424 -11.11732615
14.49503956 -6.404353522 -9.5490294
10.78506457 -9.411888542 -8.563219082
11.90114209 -5.016009289 -10.97085706
8.748979171 -7.960084211 -10.02543803
1.777218884 6.562167292 -11.71619139
5.397864661 5.27720271 -11.87475718
2.90738592 7.796576322 -10.81826217
1.793282845 4.879448087 -12.58998829
13.98240976 1.44643981 -10.98199325
9.331548801 3.645832111 -11.6662946
13.82414224 3.715210066 -9.96287374
12.08912677 0 -11.94678814
5.32126182 10.12164146 -8.609982487
6.694176846 6.48782883 -10.83140566
4.114319175 8.998708926 -9.761763641
7.57687479 9.54279963 -8.327791259
4.804614866 7.163784518 -10.87433452
1.845922246 1.140842689 -13.70091495
5.513139266 3.407307451 -12.71984337
1.827477787 3.029230178 -13.29940556
3.766164322 0 -13.62611052
3.662067726 4.177593635 -12.70566977
12.64621307 7.815789508 -7.57486778
9.061119446 5.600079794 -10.65198476
13.29464851 5.873983898 -8.758236838
10.04297608 8.764284246 -7.974009228
11.26133652 4.74634856 -10.38106363
8.332320908 7.580996 -9.547990145
7.889548952 -2.376845818 -12.76555836
7.790023765 2.346862352 -12.60452323
9.948789641 -1.301534496 -12.51466269
5.825072761 -1.200030984 -13.30854755
9.834551574 1.286589484 -12.3709617
5.806246955 1.196152655 -13.26553622
11.59039247 14.75703118 1.526572153
13.80895873 11.04540702 4.315435783
9.931722804 13.78091827 3.703593712
13.86198308 14.02714007 0
16.68030701 2.530221266 9.342538153
15.43519976 7.016321939 6.859481569
6.84633039 11.42992266 7.064080692
11.77201461 10.01387375 6.188914335
8.276331063 12.56313507 5.550778804
10.93366109 11.86079205 4.999002838
16.89217992 10.43994133 -3.145190054
16.89217992 10.43994133 3.145190054
15.68234123 12.46700114 -1.630975489
15.68234123 12.46700114 1.630975489
12.50423273 -15.92054391 1.646934177
15.35969057 -12.28579485 4.800054773
10.68184498 -14.8217621 3.983318371
15.12923493 -15.30949045 0
17.7460432 -2.691881862 9.939450489
17.30810773 -7.86768282 7.691811431
7.193168123 -12.00896694 7.421949739
12.90247708 -10.97550256 6.783233624
8.811128418 -13.37493578 5.909457281
11.89595185 -12.90468124 5.43897388
19.01043271 -11.74909356 -3.539591941
19.01043271 -11.74909356 3.539591941
17.39075957 -13.8251436 -1.808652304
17.39075957 -13.8251436 1.808652304
1.786636086 -6.596939177 11.77827364
5.485217099 -5.362602503 12.06692372
2.942601568 -7.891012182 10.94929813
1.799001877 -4.895009335 12.63013954
14.36773901 -1.486301005 11.2846366
9.612485899 -3.755594115 12.01752193
14.75807186 -3.966201747 10.63594428
5.503573895 -10.46841963 8.904969622
6.894461231 -6.68193945 11.15547261
4.205382144 -9.197878975 9.977822518
7.9712226 -10.03946643 8.761221444
4.902661083 -7.309973546 11.09624353
1.846655062 -1.141295594 13.7063541
5.565440528 -3.439631409 12.84051216
1.830120884 -3.03361138 13.31864061
3.684850807 -4.203583994 12.78471646
13.88577985 -8.581883908 8.317347319
9.456962475 -5.84472424 11.11732615
14.49503956 -6.404353522 9.5490294
10.78506457 -9.411888542 8.563219082
11.90114209 -5.016009289 10.97085706
8.748979171 -7.960084211 10.02543803
1.777218884 6.562167292 11.71619139
5.397864661 5.27720271 11.87475718
2.90738592 7.796576322 10.81826217
1.793282845 4.879448087 12.58998829
13.98240976 1.44643981 10.98199325
9.331548801 3.645832111 11.6662946
13.82414224 3.715210066 9.96287374
12.08912677 0 11.94678814
5.32126182 10.12164146 8.609982487
6.694176846 6.48782883 10.83140566
4.114319175 8.998708926 9.761763641
7.57687479 9.54279963 8.327791259
4.804614866 7.163784518 10.87433452
1.845922246 1.140842689 13.70091495
5.513139266 3.407307451 12.71984337
1.827477787 3.029230178 13.29940556
3.766164322 0 13.62611052
3.662067726 4.177593635 12.70566977
12.64621307 7.815789508 7.57486778
9.061119446 5.600079794 10.65198476
13.29464851 5.873983898 8.758236838
10.04297608 8.764284246 7.974009228
11.26133652 4.74634856 10.38106363
8.332320908 7.580996 9.547990145
7.889548952 -2.376845818 12.76555836
7.790023765 2.346862352 12.60452323
9.948789641 -1.301534496 12.51466269
5.825072761 -1.200030984 13.30854755
9.834551574 1.286589484 12.3709617
5.806246955 1.196152655 13.26553622
19.84250094 0 -8.746665677
24.44774204 0 -3.40517814
19.59461157 2.791001863 -7.594200069
21.07413766 -3.001741436 -8.167613688
19.84250094 0 8.746665677
24.44774204 0 3.40517814
19.59461157 2.791001863 7.594200069
21.07413766 -3.001741436 8.167613688
18.00839755 7.805347976 -4.823970343
24.27476726 3.270535805 -2.021302289
18.8638867 5.437008193 -6.202400534
20.49994379 8.972704474 -1.848478779
22.46303174 3.086656116 -5.116446243
20.38770272 -8.836606017 -5.461322864
24.67086069 -3.323901415 -2.05428405
21.1107941 -6.084618845 -6.941178279
22.55305598 -9.87133957 -2.033607789
23.67194236 -3.252773114 -5.39180205
18.00839755 7.805347976 4.823970343
24.27476726 3.270535805 2.021302289
18.8638867 5.437008193 6.202400534
20.49994379 8.972704474 1.848478779
22.46303174 3.086656116 5.116446243
23.35720704 6.45577325 0
20.38770272 -8.836606017 5.461322864
24.67086069 -3.323901415 2.05428405
21.1107941 -6.084618845 6.941178279
22.55305598 -9.87133957 2.033607789
23.67194236 -3.252773114 5.39180205
24.26988926 -6.708032412 0
-12.50423273 15.92054391 -1.646934177
-15.35969057 12.28579485 -4.800054773
-10.68184498 14.8217621 -3.983318371
-17.7460432 2.691881862 -9.939450489
-17.30810773 7.86768282 -7.691811431
-7.193168123 12.00896694 -7.421949739
-12.90247708 10.97550256 -6.783233624
-8.811128418 13.37493578 -5.909457281
-11.89595185 12.90468124 -5.43897388
-11.59039247 -14.75703118 -1.526572153
-13.80895873 -11.04540702 -4.315435783
-9.931722804 -13.78091827 -3.703593712
-16.68030701 -2.530221266 -9.342538153
-15.43519976 -7.016321939 -6.859481569
-6.84633039 -11.42992266 -7.064080692
-11.77201461 -10.01387375 -6.188914335
-8.276331063 -12.56313507 -5.550778804
-10.93366109 -11.86079205 -4.999002838
-1.777218884 -6.562167292 -11.71619139
-5.397864661 -5.27720271 -11.87475718
-2.90738592 -7.796576322 -10.81826217
-1.793282845 -4.879448087 -12.58998829
-13.98240976 -1.44643981 -10.98199325
-9.331548801 -3.645832111 -11.6662946
-13.82414224 -3.715210066 -9.96287374
-5.32126182 -10.12164146 -8.609982487
-6.694176846 -6.48782883 -10.83140566
-4.114319175 -8.998708926 -9.761763641
-7.57687479 -9.54279963 -8.327791259
-4.804614866 -7.163784518 -10.87433452
-1.845922246 -1.140842689 -13.70091495
-5.513139266 -3.407307451 -12.71984337
-1.827477787 -3.029230178 -13.29940556
-3.662067726 -4.177593635 -12.70566977
-12.64621307 -7.815789508 -7.57486778
-9.061119446 -5.600079794 -10.65198476
-13.29464851 -5.873983898 -8.758236838
-10.04297608 -8.764284246 -7.974009228
-11.26133652 -4.74634856 -10.38106363
-8.332320908 -7.580996 -9.547990145
-1.786636086 6.596939177 -11.77827364
-5.485217099 5.362602503 -12.06692372
-2.942601568 7.891012182 -10.94929813
-1.799001877 4.895009335 -12.63013954
-14.36773901 1.486301005 -11.2846366
-9.612485899 3.755594115 -12.01752193
-14.75807186 3.966201747 -10.63594428
-12.08912677 0 -11.94678814
-5.503573895 10.46841963 -8.904969622
-6.894461231 6.68193945 -11.15547261
-4.205382144 9.197878975 -9.977822518
-7.9712226 10.03946643 -8.761221444
-4.902661083 7.309973546 -11.09624353
-1.846655062 1.141295594 -13.7063541
-5.565440528 3.439631409 -12.84051216
-1.830120884 3.03361138 -13.31864061
-3.766164322 0 -13.62611052
-3.684850807 4.203583994 -12.78471646
-13.88577985 8.581883908 -8.317347319
-9.456962475 5.84472424 -11.11732615
-14.49503956 6.404353522 -9.5490294
-10.78506457 9.411888542 -8.563219082
-11.90114209 5.016009289 -10.97085706
-8.748979171 7.960084211 -10.02543803
-7.790023765 -2.346862352 -12.60452323
-7.889548952 2.376845818 -12.76555836
-9.834551574 -1.286589484 -12.3709617
-5.806246955 -1.196152655 -13.26553622
-9.948789641 1.301534496 -12.51466269
-5.825072761 1.200030984 -13.30854755
-12.50423273 15.92054391 1.646934177
-15.35969057 12.28579485 4.800054773
-10.68184498 14.8217621 3.983318371
-15.12923493 15.30949045 0
-17.7460432 2.691881862 9.939450489
-17.30810773 7.86768282 7.691811431
-7.193168123 12.00896694 7.421949739
-12.90247708 10.97550256 6.783233624
-8.811128418 13.37493578 5.909457281
-11.89595185 12.90468124 5.43897388
-19.01043271 11.74909356 -3.539591941
-19.01043271 11.74909356 3.539591941
-17.39075957 13.8251436 -1.808652304
-17.39075957 13.8251436 1.808652304
-11.59039247 -14.75703118 1.526572153
-13.80895873 -11.04540702 4.315435783
-9.931722804 -13.78091827 3.703593712
-13.86198308 -14.02714007 0
-16.68030701 -2.530221266 9.342538153
-15.43519976 -7.016321939 6.859481569
-6.84633039 -11.42992266 7.064080692
-11.77201461 -10.01387375 6.188914335
-8.276331063 -12.56313507 5.550778804
-10.93366109 -11.86079205 4.999002838
-16.89217992 -10.43994133 -3.145190054
-16.89217992 -10.43994133 3.145190054
-15.68234123 -12.46700114 -1.630975489
-15.68234123 -12.46700114 1.630975489
-1.777218884 -6.562167292 11.71619139
-5.397864661 -5.27720271 11.87475718
-2.90738592 -7.796576322 10.81826217
-1.793282845 -4.879448087 12.58998829
-13.98240976 -1.44643981 10.98199325
-9.331548801 -3.645832111 11.6662946
-13.82414224 -3.715210066 9.96287374
-5.32126182 -10.12164146 8.609982487
-6.694176846 -6.48782883 10.83140566
-4.114319175 -8.998708926 9.761763641
-7.57687479 -9.54279963 8.327791259
-4.804614866 -7.163784518 10.87433452
-1.845922246 -1.140842689 13.70091495
-5.513139266 -3.407307451 12.71984337
-1.827477787 -3.029230178 13.29940556
-3.662067726 -4.177593635 12.70566977
-12.64621307 -7.815789508 7.57486778
-9.061119446 -5.600079794 10.65198476
-13.29464851 -5.873983898 8.758236838
-10.04297608 -8.764284246 7.974009228
-11.26133652 -4.74634856 10.38106363
-8.332320908 -7.580996 9.547990145
-1.786636086 6.596939177 11.77827364
-5.485217099 5.362602503 12.06692372
-2.942601568 7.891012182 10.94929813
-1.799001877 4.895009335 12.63013954
-14.36773901 1.486301005 11.2846366
-9.612485899 3.755594115 12.01752193
-14.75807186 3.966201747 10.63594428
-12.08912677 0 11.94678814
-5.503573895 10.46841963 8.904969622
-6.894461231 6.68193945 11.15547261
-4.205382144 9.197878975 9.977822518
-7.9712226 10.03946643 8.761221444
-4.902661083 7.309973546 11.09624353
-1.846655062 1.141295594 13.7063541
-5.565440528 3.439631409 12.84051216
-1.830120884 3.03361138 13.31864061
-3.766164322 0 13.62611052
-3.684850807 4.203583994 12.78471646
-13.88577985 8.581883908 8.317347319
-9.456962475 5.84472424 11.11732615
-14.49503956 6.404353522 9.5490294
-10.78506457 9.411888542 8.563219082
-11.90114209 5.016009289 10.97085706
-8.748979171 7.960084211 10.02543803
-7.790023765 -2.346862352 12.60452323
-7.889548952 2.376845818 12.76555836
-9.834551574 -1.286589484 12.3709617
-5.806246955 -1.196152655 13.26553622
-9.948789641 1.301534496 12.51466269
-5.825072761 1.200030984 13.30854755
-19.84250094 0 -8.746665677
-24.44774204 0 -3.40517814
-21.07413766 3.001741436 -8.167613688
-19.59461157 -2.791001863 -7.594200069
-19.84250094 0 8.746665677
-24.44774204 0 3.40517814
-21.07413766 3.001741436 8.167613688
-19.59461157 -2.791001863 7.594200069
-20.38770272 8.836606017 -5.461322864
-24.67086069 3.323901415 -2.05428405
-21.1107941 6.084618845 -6.941178279
-22.55305598 9.87133957 -2.033607789
-23.67194236 3.252773114 -5.39180205
-18.00839755 -7.805347976 -4.823970343
-24.27476726 -3.270535805 -2.021302289
-18.8638867 -5.437008193 -6.202400534
-20.49994379 -8.972704474 -1.848478779
-22.46303174 -3.086656116 -5.116446243
-20.38770272 8.836606017 5.461322864
-24.67086069 3.323901415 2.05428405
-21.1107941 6.084618845 6.941178279
-22.55305598 9.87133957 2.033607789
-23.67194236 3.252773114 5.39180205
-24.26988926 6.708032412 0
-18.00839755 -7.805347976 4.823970343
-24.27476726 -3.270535805 2.021302289
-18.8638867 -5.437008193 6.202400534
-20.49994379 -8.972704474 1.848478779
-22.46303174 -3.086656116 5.116446243
-23.35720704 -6.45577325 0
-9.185219568 17.45616783 0
-6.554648732 18.18291227 0
-1.308099085 18.87385982 0
-3.934647407 18.68084967 0
8.69905746 16.53223484 0
6.29800251 17.47096325 0
1.297011836 18.71388786 0
3.838016852 18.22206882 0
-8.69905746 -16.53223484 0
-6.29800251 -17.47096325 0
-1.297011836 -18.71388786 0
-3.838016852 -18.22206882 0
9.185219568 -17.45616783 0
6.554648732 -18.18291227 0
1.308099085 -18.87385982 0
3.934647407 -18.68084967 0
-9.394930936 -15.95544614 1.220205646
-7.972736018 -14.99861513 3.395375192
-8.214882558 -16.47028241 1.21401144
-5.184902688 -12.52862156 6.697484054
-6.518120597 -13.75116931 5.185198069
-5.819612183 -17.38287223 1.213284051
-6.858331966 -15.47201874 3.390105304
-7.018087168 -16.94980769 1.213219684
-7.562916986 -16.05826805 2.359114707
-0.5502245864 -7.744978014 11.091131
-1.65693377 -8.976216771 10.1859149
-3.95148858 -11.34332477 8.008753618
-2.784222139 -10.16799216 9.162968716
-0.7666903036 -18.52986012 1.24053097
-2.128056711 -16.86031875 3.443268088
-2.043265981 -18.35575481 1.234814693
-4.145468071 -12.86739344 6.707508238
-3.228148603 -14.82400406 5.22325416
-4.775099581 -13.49877303 5.989545662
-4.548892477 -17.77880528 1.224318669
-3.314446313 -16.61177805 3.42777463
-3.312198812 -18.10100853 1.228351946
-5.180111739 -16.934544 2.36859912
-2.720930574 -17.58475819 2.392504165
-6.116931189 -14.80177398 4.359828753
-3.859061566 -15.53965347 4.385257351
-5.435989011 -14.14789723 5.206098269
-5.693868292 -15.89088432 3.416713971
-4.33451176 -14.5082976 5.220256748
-4.507061989 -16.27455456 3.430809191
9.978549705 -16.94660806 1.296005555
8.441157132 -15.8798268 3.594863225
8.660126102 -17.36296552 1.279810404
5.382913162 -13.0070873 6.95325973
6.843306322 -14.43720816 5.443884967
6.044396946 -18.05429236 1.260147615
7.203001618 -16.24957446 3.560477111
7.34357755 -17.73591924 1.269487344
7.961959902 -16.90555199 2.483588903
0.5513623895 -7.760993766 11.11406622
1.670129526 -9.04770301 10.26703513
0 -8.399491287 10.69433629
4.056128399 -11.64370865 8.220834334
2.829296334 -10.33260333 9.311309408
-1.109843912 -9.650638047 9.765619457
1.116258095 -9.706412517 9.822058445
-0.5554754277 -9.032619043 10.2422375
0.5569325931 -9.056314097 10.26910571
0.7706321197 -18.62512844 1.246908962
2.160992139 -17.1212619 3.49655873
2.071335534 -18.60791867 1.251778073
0 -17.95173113 2.418634082
4.270729597 -13.25620101 6.910185645
3.306218281 -15.18250838 5.349573553
4.946000404 -13.98189414 6.203911512
4.687071923 -18.31886321 1.261509188
3.394527432 -17.01313914 3.510593902
3.38581036 -18.50329212 1.2556513
5.367551192 -17.54731102 2.454305558
2.772840123 -17.92023786 2.43814804
-1.361119187 -16.0435416 4.434325838
1.374830053 -16.20515188 4.47899382
-0.7179060445 -17.03535092 3.487080479
0.7216350044 -17.12383624 3.505193133
6.399209122 -15.48483123 4.561021706
3.970380786 -15.98791326 4.511755315
5.660272855 -14.73162629 5.420897036
5.930919478 -16.55246495 3.558961045
4.476119186 -14.9822801 5.390801244
4.655398324 -16.81018237 3.543723915
-3.423319654 -12.12955966 7.496480137
-1.147278293 -12.40040714 7.663873085
-2.834684908 -11.51700217 8.111623006
-2.979270373 -13.05370202 6.827360846
3.504573586 -12.41745986 7.674412246
1.156138635 -12.49617453 7.723060591
2.887442945 -11.73135207 8.262593332
3.043003452 -13.33294913 6.973412957
-1.688273922 -10.29305993 9.233724039
-0.5839460987 -11.73662543 8.247101873
-2.254474338 -10.90196634 8.693089263
-0.5665970403 -10.35626515 9.297742442
-1.707959728 -11.64908892 8.191964775
-1.968928371 -14.99349575 5.328633243
-0.62094709 -13.30266451 6.979604627
-2.493639319 -14.01399001 6.104313988
-0.6642837367 -15.14458899 5.374168321
-1.797806597 -13.20099305 6.918897881
1.704522005 -10.39212116 9.322590138
0.5861218538 -11.78035553 8.277830178
2.285722201 -11.0530717 8.813578754
0.5683990161 -10.38920168 9.3273125
1.726797156 -11.77756904 8.282315588
0 -11.06956092 8.799976134
1.997753874 -15.21300351 5.406645492
0.6236509414 -13.36058962 7.009996611
2.539369873 -14.2709909 6.216260273
0.6675375724 -15.21877115 5.400492405
1.820714164 -13.36919948 7.007058152
0 -14.24131176 6.23333815
-9.978549705 16.94660806 1.296005555
-8.441157132 15.8798268 3.594863225
-8.660126102 17.36296552 1.279810404
-5.382913162 13.0070873 6.95325973
-6.843306322 14.43720816 5.443884967
-6.044396946 18.05429236 1.260147615
-7.203001618 16.24957446 3.560477111
-7.34357755 17.73591924 1.269487344
-7.961959902 16.90555199 2.483588903
-0.5513623895 7.760993766 11.11406622
-1.670129526 9.04770301 10.26703513
-4.056128399 11.64370865 8.220834334
-2.829296334 10.33260333 9.311309408
-0.7706321197 18.62512844 1.246908962
-2.160992139 17.1212619 3.49655873
-2.071335534 18.60791867 1.251778073
-4.270729597 13.25620101 6.910185645
-3.306218281 15.18250838 5.349573553
-4.946000404 13.98189414 6.203911512
-4.687071923 18.31886321 1.261509188
-3.394527432 17.01313914 3.510593902
-3.38581036 18.50329212 1.2556513
-5.367551192 17.54731102 2.454305558
-2.772840123 17.92023786 2.43814804
-6.399209122 15.48483123 4.561021706
-3.970380786 15.98791326 4.511755315
-5.660272855 14.73162629 5.420897036
-5.930919478 16.55246495 3.558961045
-4.476119186 14.9822801 5.390801244
-4.655398324 16.81018237 3.543723915
9.394930936 15.95544614 1.220205646
7.972736018 14.99861513 3.395375192
8.214882558 16.47028241 1.21401144
5.184902688 12.52862156 6.697484054
6.518120597 13.75116931 5.185198069
5.819612183 17.38287223 1.213284051
6.858331966 15.47201874 3.390105304
7.018087168 16.94980769 1.213219684
7.562916986 16.05826805 2.359114707
0.5502245864 7.744978014 11.091131
1.65693377 8.976216771 10.1859149
0 8.399491287 10.69433629
3.95148858 11.34332477 8.008753618
2.784222139 10.16799216 9.162968716
-1.116258095 9.706412517 9.822058445
1.109843912 9.650638047 9.765619457
-0.5569325931 9.056314097 10.26910571
0.5554754277 9.032619043 10.2422375
0.7666903036 18.52986012 1.24053097
2.128056711 16.86031875 3.443268088
2.043265981 18.35575481 1.234814693
0 17.95173113 2.418634082
4.145468071 12.86739344 6.707508238
3.228148603 14.82400406 5.22325416
4.775099581 13.49877303 5.989545662
4.548892477 17.77880528 1.224318669
3.314446313 16.61177805 3.42777463
3.312198812 18.10100853 1.228351946
5.180111739 16.934544 2.36859912
2.720930574 17.58475819 2.392504165
-1.374830053 16.20515188 4.47899382
1.361119187 16.0435416 4.434325838
-0.7216350044 17.12383624 3.505193133
0.7179060445 17.03535092 3.487080479
6.116931189 14.80177398 4.359828753
3.859061566 15.53965347 4.385257351
5.435989011 14.14789723 5.206098269
5.693868292 15.89088432 3.416713971
4.33451176 14.5082976 5.220256748
4.507061989 16.27455456 3.430809191
-3.504573586 12.41745986 7.674412246
-1.156138635 12.49617453 7.723060591
-2.887442945 11.73135207 8.262593332
-3.043003452 13.33294913 6.973412957
3.423319654 12.12955966 7.496480137
1.147278293 12.40040714 7.663873085
2.834684908 11.51700217 8.111623006
2.979270373 13.05370202 6.827360846
-1.704522005 10.39212116 9.322590138
-0.5861218538 11.78035553 8.277830178
-2.285722201 11.0530717 8.813578754
-0.5683990161 10.38920168 9.3273125
-1.726797156 11.77756904 8.282315588
-1.997753874 15.21300351 5.406645492
-0.6236509414 13.36058962 7.009996611
-2.539369873 14.2709909 6.216260273
-0.6675375724 15.21877115 5.400492405
-1.820714164 13.36919948 7.007058152
1.688273922 10.29305993 9.233724039
0.5839460987 11.73662543 8.247101873
2.254474338 10.90196634 8.693089263
0.5665970403 10.35626515 9.297742442
1.707959728 11.64908892 8.191964775
0 11.06956092 8.799976134
1.968928371 14.99349575 5.328633243
0.62094709 13.30266451 6.979604627
2.493639319 14.01399001 6.104313988
0.6642837367 15.14458899 5.374168321
1.797806597 13.20099305 6.918897881
0 14.24131176 6.23333815
0 -6.294815601 11.9630627
0 -4.608923242 12.78537575
0 -0.9543651958 13.77002334
0 -2.826020243 13.41732914
0 6.294815601 11.9630627
0 4.608923242 12.78537575
0 0.9543651958 13.77002334
0 2.826020243 13.41732914
-9.394930936 -15.95544614 -1.220205646
-7.972736018 -14.99861513 -3.395375192
-8.214882558 -16.47028241 -1.21401144
-5.184902688 -12.52862156 -6.697484054
-6.518120597 -13.75116931 -5.185198069
-5.819612183 -17.38287223 -1.213284051
-6.858331966 -15.47201874 -3.390105304
-7.018087168 -16.94980769 -1.213219684
-7.562916986 -16.05826805 -2.359114707
-0.5502245864 -7.744978014 -11.091131
-1.65693377 -8.976216771 -10.1859149
-3.95148858 -11.34332477 -8.008753618
-2.784222139 -10.16799216 -9.162968716
-0.7666903036 -18.52986012 -1.24053097
-2.128056711 -16.86031875 -3.443268088
-2.043265981 -18.35575481 -1.234814693
-4.145468071 -12.86739344 -6.707508238
-3.228148603 -14.82400406 -5.22325416
-4.775099581 -13.49877303 -5.989545662
-4.548892477 -17.77880528 -1.224318669
-3.314446313 -16.61177805 -3.42777463
-3.312198812 -18.10100853 -1.228351946
-5.180111739 -16.934544 -2.36859912
-2.720930574 -17.58475819 -2.392504165
-6.116931189 -14.80177398 -4.359828753
-3.859061566 -15.53965347 -4.385257351
-5.435989011 -14.14789723 -5.206098269
-5.693868292 -15.89088432 -3.416713971
-4.33451176 -14.5082976 -5.220256748
-4.507061989 -16.27455456 -3.430809191
9.978549705 -16.94660806 -1.296005555
8.441157132 -15.8798268 -3.594863225
8.660126102 -17.36296552 -1.279810404
5.382913162 -13.0070873 -6.95325973
6.843306322 -14.43720816 -5.443884967
6.044396946 -18.05429236 -1.260147615
7.203001618 -16.24957446 -3.560477111
7.34357755 -17.73591924 -1.269487344
7.961959902 -16.90555199 -2.483588903
0.5513623895 -7.760993766 -11.11406622
1.670129526 -9.04770301 -10.26703513
0 -8.399491287 -10.69433629
4.056128399 -11.64370865 -8.220834334
2.829296334 -10.33260333 -9.311309408
-1.109843912 -9.650638047 -9.765619457
1.116258095 -9.706412517 -9.822058445
-0.5554754277 -9.032619043 -10.2422375
0.5569325931 -9.056314097 -10.26910571
0.7706321197 -18.62512844 -1.246908962
2.160992139 -17.1212619 -3.49655873
2.071335534 -18.60791867 -1.251778073
0 -17.95173113 -2.418634082
4.270729597 -13.25620101 -6.910185645
3.306218281 -15.18250838 -5.349573553
4.946000404 -13.98189414 -6.203911512
4.687071923 -18.31886321 -1.261509188
3.394527432 -17.01313914 -3.510593902
3.38581036 -18.50329212 -1.2556513
5.367551192 -17.54731102 -2.454305558
2.772840123 -17.92023786 -2.43814804
-1.361119187 -16.0435416 -4.434325838
1.374830053 -16.20515188 -4.47899382
-0.7179060445 -17.03535092 -3.487080479
0.7216350044 -17.12383624 -3.505193133
6.399209122 -15.48483123 -4.561021706
3.970380786 -15.98791326 -4.511755315
5.660272855 -14.73162629 -5.420897036
5.930919478 -16.55246495 -3.558961045
4.476119186 -14.9822801 -5.390801244
4.655398324 -16.81018237 -3.543723915
-3.423319654 -12.12955966 -7.496480137
-1.147278293 -12.40040714 -7.663873085
-2.834684908 -11.51700217 -8.111623006
-2.979270373 -13.05370202 -6.827360846
3.504573586 -12.41745986 -7.674412246
1.156138635 -12.49617453 -7.723060591
2.887442945 -11.73135207 -8.262593332
3.043003452 -13.33294913 -6.973412957
-1.688273922 -10.29305993 -9.233724039
-0.5839460987 -11.73662543 -8.247101873
-2.254474338 -10.90196634 -8.693089263
-0.5665970403 -10.35626515 -9.297742442
-1.707959728 -11.64908892 -8.191964775
-1.968928371 -14.99349575 -5.328633243
-0.62094709 -13.30266451 -6.979604627
-2.493639319 -14.01399001 -6.104313988
-0.6642837367 -15.14458899 -5.374168321
-1.797806597 -13.20099305 -6.918897881
1.704522005 -10.39212116 -9.322590138
0.5861218538 -11.78035553 -8.277830178
2.285722201 -11.0530717 -8.813578754
0.5683990161 -10.38920168 -9.3273125
1.726797156 -11.77756904 -8.282315588
0 -11.06956092 -8.799976134
1.997753874 -15.21300351 -5.406645492
0.6236509414 -13.36058962 -7.009996611
2.539369873 -14.2709909 -6.216260273
0.6675375724 -15.21877115 -5.400492405
1.820714164 -13.36919948 -7.007058152
0 -14.24131176 -6.23333815
-9.978549705 16.94660806 -1.296005555
-8.441157132 15.8798268 -3.594863225
-8.660126102 17.36296552 -1.279810404
-5.382913162 13.0070873 -6.95325973
-6.843306322 14.43720816 -5.443884967
-6.044396946 18.05429236 -1.260147615
-7.203001618 16.24957446 -3.560477111
-7.34357755 17.73591924 -1.269487344
-7.961959902 16.90555199 -2.483588903
-0.5513623895 7.760993766 -11.11406622
-1.670129526 9.04770301 -10.26703513
-4.056128399 11.64370865 -8.220834334
-2.829296334 10.33260333 -9.311309408
-0.7706321197 18.62512844 -1.246908962
-2.160992139 17.1212619 -3.49655873
-2.071335534 18.60791867 -1.251778073
-4.270729597 13.25620101 -6.910185645
-3.306218281 15.18250838 -5.349573553
-4.946000404 13.98189414 -6.203911512
-4.687071923 18.31886321 -1.261509188
-3.394527432 17.01313914 -3.510593902
-3.38581036 18.50329212 -1.2556513
-5.367551192 17.54731102 -2.454305558
-2.772840123 17.92023786 -2.43814804
-6.399209122 15.48483123 -4.561021706
-3.970380786 15.98791326 -4.511755315
-5.660272855 14.73162629 -5.420897036
-5.930919478 16.55246495 -3.558961045
-4.476119186 14.9822801 -5.390801244
-4.655398324 16.81018237 -3.543723915
9.394930936 15.95544614 -1.220205646
7.972736018 14.99861513 -3.395375192
8.214882558 16.47028241 -1.21401144
5.184902688 12.52862156 -6.697484054
6.518120597 13.75116931 -5.185198069
5.819612183 17.38287223 -1.213284051
6.858331966 15.47201874 -3.390105304
7.018087168 16.94980769 -1.213219684
7.562916986 16.05826805 -2.359114707
0.5502245864 7.744978014 -11.091131
1.65693377 8.976216771 -10.1859149
0 8.399491287 -10.69433629
3.95148858 11.34332477 -8.008753618
2.784222139 10.16799216 -9.162968716
-1.116258095 9.706412517 -9.822058445
1.109843912 9.650638047 -9.765619457
-0.5569325931 9.056314097 -10.26910571
0.5554754277 9.032619043 -10.2422375
0.7666903036 18.52986012 -1.24053097
2.128056711 16.86031875 -3.443268088
2.043265981 18.35575481 -1.234814693
0 17.95173113 -2.418634082
4.145468071 12.86739344 -6.707508238
3.228148603 14.82400406 -5.22325416
4.775099581 13.49877303 -5.989545662
4.548892477 17.77880528 -1.224318669
3.314446313 16.61177805 -3.42777463
3.312198812 18.10100853 -1.228351946
5.180111739 16.934544 -2.36859912
2.720930574 17.58475819 -2.392504165
-1.374830053 16.20515188 -4.47899382
1.361119187 16.0435416 -4.434325838
-0.7216350044 17.12383624 -3.505193133
0.7179060445 17.03535092 -3.487080479
6.116931189 14.80177398 -4.359828753
3.859061566 15.53965347 -4.385257351
5.435989011 14.14789723 -5.206098269
5.693868292 15.89088432 -3.416713971
4.33451176 14.5082976 -5.220256748
4.507061989 16.27455456 -3.430809191
-3.504573586 12.41745986 -7.674412246
-1.156138635 12.49617453 -7.723060591
-2.887442945 11.73135207 -8.262593332
-3.043003452 13.33294913 -6.973412957
3.423319654 12.12955966 -7.496480137
1.147278293 12.40040714 -7.663873085
2.834684908 11.51700217 -8.111623006
2.979270373 13.05370202 -6.827360846
-1.704522005 10.39212116 -9.322590138
-0.5861218538 11.78035553 -8.277830178
-2.285722201 11.0530717 -8.813578754
-0.5683990161 10.38920168 -9.3273125
-1.726797156 11.77756904 -8.282315588
-1.997753874 15.21300351 -5.406645492
-0.6236509414 13.36058962 -7.009996611
-2.539369873 14.2709909 -6.216260273
-0.6675375724 15.21877115 -5.400492405
-1.820714164 13.36919948 -7.007058152
1.688273922 10.29305993 -9.233724039
0.5839460987 11.73662543 -8.247101873
2.254474338 10.90196634 -8.693089263
0.5665970403 10.35626515 -9.297742442
1.707959728 11.64908892 -8.191964775
0 11.06956092 -8.799976134
1.968928371 14.99349575 -5.328633243
0.62094709 13.30266451 -6.979604627
2.493639319 14.01399001 -6.104313988
0.6642837367 15.14458899 -5.374168321
1.797806597 13.20099305 -6.918897881
0 14.24131176 -6.23333815
0 -6.294815601 -11.9630627
0 -4.608923242 -12.78537575
0 -0.9543651958 -13.77002334
0 -2.826020243 -13.41732914
0 6.294815601 -11.9630627
0 4.608923242 -12.78537575
0 0.9543651958 -13.77002334
0 2.826020243 -13.41732914
10.80212845 15.46909772 -0.7674129803
12.26205579 13.9145767 -2.263471888
10.14031208 15.19799542 -1.956808541
14.24064307 10.0543539 -4.960779982
13.34710244 12.02784977 -3.654733161
8.562881553 14.10180306 -4.028804279
11.35229122 13.41327235 -3.353057688
9.356133944 14.69037178 -3.05069548
10.78872937 14.33013652 -2.673419006
16.78109744 1.283347997 -9.881093272
16.45258479 3.724523748 -8.745615126
15.05019965 8.04545589 -6.228444224
15.80466169 5.95951511 -7.491485892
5.696650729 11.69894226 -7.230343946
8.016095514 11.12743042 -6.877130204
6.353106895 12.27544962 -6.529474272
13.16122799 9.561953605 -5.909612327
10.46377155 10.42175041 -6.440995973
12.7568655 10.51636233 -5.298836717
7.770921049 13.46498191 -4.957343998
8.756265759 11.67317148 -6.119420245
7.046288963 12.86735126 -5.770171794
9.083886718 13.16670416 -4.671340054
7.545356372 11.98862985 -6.335678001
11.86871069 12.42767174 -4.040859058
10.05124887 11.31501129 -5.869724792
12.32699052 11.47721047 -4.673617833
10.45086394 12.82028486 -4.365254621
11.36114257 10.9358259 -5.600832928
9.578821753 12.23157291 -5.286580219
11.56558333 -16.5623969 -0.8216509192
13.33826426 -15.1358226 -2.462130879
10.84929556 -16.26059858 -2.093623357
15.92010895 -11.24011106 -5.545828052
14.74982717 -13.29192655 -4.038830354
9.120447428 -15.02003182 -4.291136973
12.33018375 -14.56869891 -3.641891899
9.996155019 -15.69528979 -3.259383108
11.6317521 -15.449882 -2.882317842
17.33260519 -1.325524998 -10.20583363
17.90930087 -4.054294036 -9.519954133
16.90054553 -9.034603976 -6.99419992
17.6374742 -6.650619675 -8.360247864
5.931142226 -12.18050636 -7.527966928
8.503625204 -11.80418791 -7.295389337
6.656133053 -12.86095564 -6.840912681
14.59675443 -10.60489863 -6.554187799
11.33733141 -11.29180216 -6.978717526
14.10151312 -11.62484793 -5.857364845
8.237675472 -14.27374573 -5.255103069
9.356317563 -12.47311381 -6.53877357
7.427877768 -13.56417724 -6.082653013
9.727577209 -14.09970592 -5.002354439
7.98164847 -12.68184356 -6.702023354
12.98199045 -13.5933818 -4.419889834
10.85907574 -12.22440776 -6.341479244
13.56218923 -12.62725885 -5.141927328
11.30969015 -13.87382423 -4.723980475
12.41289925 -11.94820893 -6.119329499
10.30676704 -13.16111478 -5.688335388
0.8910942255 -6.860949001 -11.6519752
2.689744016 -6.315831915 -11.88158393
1.449595264 -7.511899128 -11.25860897
0.8921627135 -6.037020468 -12.10381661
6.46259347 -5.00306055 -12.08922444
4.534291553 -5.699890104 -12.02496222
2.597912535 -8.79563145 -10.39245715
3.27807221 -6.967264258 -11.4740567
2.02173093 -8.158806311 -10.83693958
2.362870952 -7.246654825 -11.37820965
0.9005113853 -4.319373541 -12.90173915
2.698836967 -5.459865751 -12.31715607
0.8965199783 -5.186080838 -12.52521816
1.795600602 -5.756387451 -12.22248146
15.56329563 -0.7720860838 -10.8679072
13.14504307 -2.138292534 -11.5839134
16.0127063 -2.061706139 -10.68389842
8.520741301 -4.204101356 -12.06848662
10.75021528 -3.26651638 -11.92933296
16.27901257 -4.650820553 -9.884924351
13.30860987 -3.326894101 -11.26371038
16.24734856 -3.374027121 -10.34775509
14.64716716 -2.732563993 -11.02741221
5.114437191 -11.39030281 -8.275333208
5.875145178 -9.544514116 -9.506184587
4.460892897 -10.73952902 -8.85333301
6.327938368 -11.22715772 -8.199273641
7.197278218 -5.670598869 -11.64544078
6.57107886 -7.659357058 -10.63222894
6.187573593 -6.020441282 -11.63267436
3.219188193 -9.455319466 -9.900621017
5.207065157 -8.916518168 -10.03760877
3.826328732 -10.09220687 -9.396485066
3.568556007 -8.543486352 -10.48046643
4.84531909 -9.828602582 -9.460658201
8.899492728 -10.78749439 -7.997703376
7.084578755 -9.316005457 -9.452475196
7.593293823 -11.02466093 -8.106005372
6.714471808 -10.26893665 -8.843320076
4.251435153 -6.664368448 -11.5476145
5.56120227 -7.957512814 -10.60833627
5.201935417 -6.35238281 -11.60019713
3.914157788 -7.611470269 -11.03249968
5.883984266 -7.007420226 -11.13391643
4.560549537 -8.263317552 -10.55175404
0.9231239342 -0.5705219672 -13.78873868
2.771235983 -1.712718029 -13.56964396
0.9208585333 -1.523758119 -13.6887369
6.511996634 -4.024635254 -12.49233245
4.628535495 -2.860592254 -13.13614594
5.538288464 -4.41533973 -12.48176459
0.9117978184 -3.387737476 -13.24056904
2.757829695 -2.666650947 -13.36507202
0.916215746 -2.470536817 -13.50136586
1.818858164 -3.977831641 -13.00411426
1.843925025 -2.097046287 -13.55273531
3.651335725 -5.12290061 -12.39641491
3.701581257 -3.257421131 -13.11697021
4.58091746 -4.783201485 -12.44892933
2.735116324 -4.558002877 -12.720824
4.614843445 -3.831821718 -12.82571439
2.756616781 -3.621373857 -13.07642242
15.13254472 -9.352426974 -7.36859966
12.70065311 -7.849435302 -9.149430248
15.53114815 -8.261223449 -8.038079861
13.41479075 -9.796917703 -7.560949194
8.452024411 -5.22363836 -11.63350345
10.49452588 -6.485973688 -10.53684046
9.560564851 -4.817242928 -11.59743608
8.141919145 -6.283673994 -11.14862296
16.12739363 -5.937552577 -9.307454219
12.97852436 -6.803724663 -9.735435533
15.87322524 -7.118111156 -8.692335318
14.68383866 -5.209595572 -10.13057826
14.21642158 -7.513007792 -8.94747511
10.34531438 -10.49686242 -7.867341297
11.19627434 -8.300767336 -9.23672898
11.81546022 -10.17514277 -7.725685454
9.335448788 -9.744927501 -8.672898313
12.27415198 -9.024707651 -8.453887423
11.96497243 -3.89041232 -11.42682227
11.76382898 -6.102551452 -10.44993855
10.73659214 -4.372031743 -11.53153633
13.28934937 -4.524969172 -10.83323683
10.64383237 -5.451287118 -11.05779282
13.16746619 -5.69108052 -10.31174098
7.460967518 -8.302236661 -10.06353217
10.11276504 -7.579462402 -9.966762392
7.807523543 -7.313691217 -10.61870747
8.371092989 -9.010587589 -9.405816987
9.117541005 -6.922679662 -10.58736427
9.743566059 -8.671686642 -9.334144554
0.8886557453 6.842174008 -11.62008956
2.668912776 6.26691774 -11.78956472
1.442030897 7.472700071 -11.1998586
0.8902043067 6.023768466 -12.07724725
6.339079307 4.907441223 -11.85817317
4.475398149 5.625857385 -11.86877663
2.566540652 8.689417129 -10.26695988
3.240851736 6.888155301 -11.34377591
2.004837559 8.090632183 -10.74638725
2.343285416 7.186588229 -11.28389712
0.8994248821 4.314162043 -12.88617269
2.682246738 5.426302991 -12.24144033
0.8950161314 5.177381565 -12.50420802
1.788044793 5.732164822 -12.17104979
15.306323 0.7593378205 -10.68846226
12.72640881 2.070193669 -11.21499692
15.33216243 1.974083132 -10.22983016
14.30050323 0 -11.2318286
8.299504233 4.094943828 -11.755134
10.40801483 3.16253675 -11.54959887
14.97710653 4.278873463 -9.094382379
12.67990806 3.169730853 -10.73161009
15.20280975 3.157111589 -9.682499974
13.95755687 2.60391084 -10.50822534
12.10572694 -1.375792637 -11.96319286
11.88558128 1.350773505 -11.74563922
13.21616715 -0.7167629244 -11.65532464
13.06357377 0.7084872062 -11.52075269
4.948314105 11.02033205 -8.006540409
5.680463374 9.228242233 -9.19118281
4.341306273 10.45162611 -8.615994829
6.071087566 10.77144777 -7.866465404
7.00881065 5.522108851 -11.34049385
6.366481665 7.420875219 -10.30118372
6.051148538 5.887701198 -11.37619446
3.165751419 9.298366304 -9.736276091
5.066883181 8.676472174 -9.767381342
3.744256833 9.875736558 -9.194937467
3.509672681 8.402513677 -10.30753242
4.713591615 9.561396858 -9.203455613
8.380494785 10.15839253 -7.531295713
6.795775602 8.9362381 -9.067144644
7.219420194 10.4818359 -7.706887187
6.439074874 9.847751823 -8.48060752
4.188770296 6.56613769 -11.37740618
5.416849312 7.750958464 -10.3329741
5.107179942 6.236671444 -11.38889458
3.852034163 7.490664684 -10.85739716
5.74073698 6.83682257 -10.86285804
4.464189044 8.088720752 -10.32880454
0.9230497722 0.5704761325 -13.78763092
2.768013657 1.710726522 -13.55386551
0.9206345189 1.523387439 -13.68540688
1.855216926 0 -13.76990248
6.413650825 3.963854202 -12.3036701
4.60386379 2.845344302 -13.06612572
5.468119135 4.359398002 -12.3236224
0.9110744395 3.3850498 -13.23006458
2.752142928 2.661152195 -13.33751265
0.9157799511 2.469361714 -13.49494399
1.814775837 3.968903617 -12.97492724
1.842368617 2.095276225 -13.54129581
3.749726376 -1.150980939 -13.56663748
3.745033357 1.149540413 -13.54965797
2.803481665 -0.5771694816 -13.69578197
2.802473416 0.5769619076 -13.6908564
3.621343851 5.080821382 -12.29459143
3.685630315 3.243384174 -13.06044625
4.53350616 4.733696599 -12.32008616
2.722397406 4.536807119 -12.66166926
4.579114924 3.80215542 -12.72641659
2.747654648 3.609600281 -13.0339092
13.61959326 8.417371546 -6.63188724
11.7171031 7.241567966 -8.440890133
13.98750455 7.440138966 -7.23917366
12.21584719 8.921320642 -6.885191257
8.185770888 5.059084633 -11.26702778
9.935823873 6.14067686 -9.975885734
9.214917552 4.643083029 -11.17814888
7.855197206 6.062391129 -10.75601837
14.6671924 5.39995662 -8.464741722
12.01705531 6.299694277 -9.014219497
14.34170902 6.431325542 -7.853661867
13.58094449 4.818306024 -9.369676705
12.97762512 6.858336194 -8.167806301
9.637260045 9.778435827 -7.328884476
10.43669822 7.737627813 -8.610092075
10.88619732 9.374887641 -7.118075364
8.786528915 9.171930477 -8.162936087
11.30599359 8.312858357 -7.787063185
11.4302929 3.716561203 -10.9161911
11.05231454 5.733449394 -9.81789245
10.29931006 4.193966757 -11.06187761
12.50042671 4.256344228 -10.19012137
10.13449985 5.190430151 -10.52865131
12.27021899 5.303283355 -9.609086377
7.164538027 7.972382954 -9.663700956
9.544795355 7.153772212 -9.406992748
7.51134559 7.036246765 -10.21588742
7.960477114 8.568603452 -8.944446198
8.70376851 6.608514425 -10.10688822
9.177082279 8.167521145 -8.791464239
7.708530618 -3.520153977 -12.47266454
7.997309911 -1.197193633 -12.93991926
8.749580416 -3.057625279 -12.42278353
6.709123489 -2.927674879 -12.82763587
7.569961451 3.456875405 -12.24845492
7.94506505 1.189372601 -12.85538529
8.574117811 2.996308179 -12.17365913
6.633821213 2.89481506 -12.68366025
10.93479273 -1.999293603 -12.18928316
8.975728524 -0.6355373968 -12.77354946
9.833329198 -2.550185286 -12.3319364
11.0245263 -0.6718258775 -12.27963866
8.909385071 -1.857536173 -12.66927065
4.752203607 -1.755937795 -13.37156103
6.915201435 -0.6152173995 -13.17991629
5.718821525 -2.336163939 -13.12899498
4.789911331 -0.5920656011 -13.49813293
6.848697916 -1.779565836 -13.0670542
10.7044103 1.957170984 -11.93247018
8.935162739 0.6326650869 -12.71581943
9.623493305 2.495766239 -12.0687821
10.94178022 0.6667833971 -12.18747217
8.795353493 1.833761493 -12.50711614
9.960468755 0 -12.52935394
4.73718423 1.75038814 -13.3293001
6.898508433 0.6137322908 -13.14810053
5.682641367 2.321384185 -13.04593432
4.784985112 0.591456687 -13.48425068
6.801301213 1.767250276 -12.9766231
5.848309593 0 -13.36163676
10.80212845 15.46909772 0.7674129803
12.26205579 13.9145767 2.263471888
10.14031208 15.19799542 1.956808541
11.84088929 15.07596683 0
14.24064307 10.0543539 4.960779982
13.34710244 12.02784977 3.654733161
8.562881553 14.10180306 4.028804279
11.35229122 13.41327235 3.353057688
9.356133944 14.69037178 3.05069548
10.78872937 14.33013652 2.673419006
13.5535677 13.71505012 -1.558689128
13.5535677 13.71505012 1.558689128
12.7708848 14.48111944 -0.7853660897
12.7708848 14.48111944 0.7853660897
16.78109744 1.283347997 9.881093272
16.45258479 3.724523748 8.745615126
15.05019965 8.04545589 6.228444224
15.80466169 5.95951511 7.491485892
5.696650729 11.69894226 7.230343946
8.016095514 11.12743042 6.877130204
6.353106895 12.27544962 6.529474272
13.16122799 9.561953605 5.909612327
10.46377155 10.42175041 6.440995973
12.7568655 10.51636233 5.298836717
7.770921049 13.46498191 4.957343998
8.756265759 11.67317148 6.119420245
7.046288963 12.86735126 5.770171794
9.083886718 13.16670416 4.671340054
7.545356372 11.98862985 6.335678001
11.86871069 12.42767174 4.040859058
10.05124887 11.31501129 5.869724792
12.32699052 11.47721047 4.673617833
10.45086394 12.82028486 4.365254621
11.36114257 10.9358259 5.600832928
9.578821753 12.23157291 5.286580219
15.75347741 9.736184479 -4.446096177
17.89850752 11.06188599 -1.65595927
15.29928918 10.77555289 -3.765620904
15.75347741 9.736184479 4.446096177
17.89850752 11.06188599 1.65595927
15.29928918 10.77555289 3.765620904
14.24469771 12.77866917 -2.336423942
17.08365102 12.00435433 -0.8499829376
14.80094801 11.80208765 -3.060765042
14.85971226 13.34088837 -0.8129831421
16.34251398 11.49251241 -2.396097749
14.24469771 12.77866917 2.336423942
17.08365102 12.00435433 0.8499829376
14.80094801 11.80208765 3.060765042
14.85971226 13.34088837 0.8129831421
16.34251398 11.49251241 2.396097749
16.0714374 12.77632117 0
11.56558333 -16.5623969 0.8216509192
13.33826426 -15.1358226 2.462130879
10.84929556 -16.26059858 2.093623357
12.75310492 -16.23741106 0
15.92010895 -11.24011106 5.545828052
14.74982717 -13.29192655 4.038830354
9.120447428 -15.02003182 4.291136973
12.33018375 -14.56869891 3.641891899
9.996155019 -15.69528979 3.259383108
11.6317521 -15.449882 2.882317842
14.82514806 -15.00178057 -1.704923576
14.82514806 -15.00178057 1.704923576
13.85386236 -15.70912577 -0.8519655356
13.85386236 -15.70912577 0.8519655356
17.33260519 -1.325524998 10.20583363
17.90930087 -4.054294036 9.519954133
16.90054553 -9.034603976 6.99419992
17.6374742 -6.650619675 8.360247864
5.931142226 -12.18050636 7.527966928
8.503625204 -11.80418791 7.295389337
6.656133053 -12.86095564 6.840912681
14.59675443 -10.60489863 6.554187799
11.33733141 -11.29180216 6.978717526
14.10151312 -11.62484793 5.857364845
8.237675472 -14.27374573 5.255103069
9.356317563 -12.47311381 6.53877357
7.427877768 -13.56417724 6.082653013
9.727577209 -14.09970592 5.002354439
7.98164847 -12.68184356 6.702023354
12.98199045 -13.5933818 4.419889834
10.85907574 -12.22440776 6.341479244
13.56218923 -12.62725885 5.141927328
11.30969015 -13.87382423 4.723980475
12.41289925 -11.94820893 6.119329499
10.30676704 -13.16111478 5.688335388
17.7587841 -10.97553217 -5.012052898
19.98120019 -12.34906085 -1.848648757
17.15452242 -12.08222562 -4.222250295
17.7587841 -10.97553217 5.012052898
19.98120019 -12.34906085 1.848648757
17.15452242 -12.08222562 4.222250295
15.72494325 -14.10657156 -2.579214713
18.98008384 -13.33694135 -0.9443383855
16.47625079 -13.13795276 -3.407209619
16.34070651 -14.67050893 -0.8940091632
18.26824608 -12.84674102 -2.678443682
15.72494325 -14.10657156 2.579214713
18.98008384 -13.33694135 0.9443383855
16.47625079 -13.13795276 3.407209619
16.34070651 -14.67050893 0.8940091632
18.26824608 -12.84674102 2.678443682
17.76351735 -14.12147509 0
0.8910942255 -6.860949001 11.6519752
2.689744016 -6.315831915 11.88158393
1.449595264 -7.511899128 11.25860897
0.8921627135 -6.037020468 12.10381661
6.46259347 -5.00306055 12.08922444
4.534291553 -5.699890104 12.02496222
2.597912535 -8.79563145 10.39245715
3.27807221 -6.967264258 11.4740567
2.02173093 -8.158806311 10.83693958
2.362870952 -7.246654825 11.37820965
0.9005113853 -4.319373541 12.90173915
2.698836967 -5.459865751 12.31715607
0.8965199783 -5.186080838 12.52521816
1.795600602 -5.756387451 12.22248146
15.56329563 -0.7720860838 10.8679072
13.14504307 -2.138292534 11.5839134
16.0127063 -2.061706139 10.68389842
8.520741301 -4.204101356 12.06848662
10.75021528 -3.26651638 11.92933296
16.27901257 -4.650820553 9.884924351
13.30860987 -3.326894101 11.26371038
16.24734856 -3.374027121 10.34775509
14.64716716 -2.732563993 11.02741221
5.114437191 -11.39030281 8.275333208
5.875145178 -9.544514116 9.506184587
4.460892897 -10.73952902 8.85333301
6.327938368 -11.22715772 8.199273641
7.197278218 -5.670598869 11.64544078
6.57107886 -7.659357058 10.63222894
6.187573593 -6.020441282 11.63267436
3.219188193 -9.455319466 9.900621017
