-7.391469 -15.694235 -2.305635
-0.510250 -7.182291 -10.285339
-1.641039 -8.890107 -10.088200
-4.388352 -12.597405 -8.894174
-2.987417 -10.910061 -9.831690
-0.660594 -15.965659 -1.068864
-1.973946 -15.639320 -3.193912
-1.776846 -15.962365 -1.073808
-4.437567 -13.774060 -7.180135
-3.248944 -14.919501 -5.256903
-5.021827 -14.196250 -6.299023
-4.081556 -15.952277 -1.098537
-3.112754 -15.600912 -3.219186
-2.920075 -15.958072 -1.082930
-4.828414 -15.784791 -2.207786
-2.449680 -15.831726 -2.153994
-6.201436 -15.006258 -4.420059
-3.785982 -15.245375 -4.302213
-5.614130 -14.611534 -5.376706
-5.544388 -15.473704 -3.327016
-4.416316 -14.782109 -5.318777
-4.304731 -15.543958 -3.276793
5.917030 -10.048914 -0.768499
5.436664 -10.227660 -2.315330
5.312708 -10.651619 -0.785122
4.130734 -9.981365 -5.335785
4.839199 -10.209176 -3.849607
4.002891 -11.956422 -0.834530
4.805467 -10.840869 -2.375365
4.673878 -11.288167 -0.807975
5.073374 -10.772245 -1.582547
0.496245 -6.985153 -10.003030
1.480957 -8.022886 -9.104107
0.000000 -7.769731 -9.892518
3.322600 -9.538008 -6.734141
2.431866 -8.881187 -8.003354
-1.093760 -9.510778 -9.624093
1.014446 -8.821110 -8.926208
-0.529656 -8.612768 -9.766162
0.511738 -8.321409 -9.435785
0.633215 -15.303946 -1.024563
1.737253 -13.764032 -2.810935
1.597087 -14.347487 -0.965173
0.000000 -15.720083 -2.117964
3.405749 -10.571330 -5.510618
2.648537 -12.162366 -4.285423
3.793911 -10.725041 -4.758812
3.250561 -12.704430 -0.874877
2.586418 -12.962951 -2.674854
2.467225 -13.483266 -0.914987
3.706224 -12.116189 -1.694666
2.115199 -13.670053 -1.859887
-1.305465 -15.387542 -4.253012
1.177399 -13.878030 -3.835793
-0.660270 -15.667693 -3.207125
0.623516 -14.795553 -3.028601
4.488563 -10.861441 -3.199213
3.032326 -12.210559 -3.445794
4.157872 -10.821425 -3.982034
4.119464 -11.496917 -2.471963
3.427546 -11.472539 -4.127955
3.379774 -12.204028 -2.572709
-3.743131 -13.262719 -8.196811
-1.175116 -12.701296 -7.849832
-3.153113 -12.810741 -9.022826
-3.179822 -13.932420 -7.286949
2.910507 -10.312553 -6.373509
1.058223 -11.437844 -7.068977
2.469010 -10.031305 -7.065221
2.547414 -11.161519 -5.837709
-1.727602 -10.532834 -9.448821
-0.579083 -11.638889 -8.178424
-2.400312 -11.607193 -9.255428
-0.553110 -10.109755 -9.076428
-1.790434 -12.211605 -8.587542
-1.968672 -14.991545 -5.327940
-0.618341 -13.246835 -6.950312
-2.582576 -14.513805 -6.322027
-0.650035 -14.819743 -5.258894
-1.914712 -14.059413 -7.368812
1.524489 -9.294495 -8.337929
0.550816 -11.070744 -7.779200
2.003624 -9.688927 -7.725827
0.530431 -9.695224 -8.704267
1.545833 -10.543310 -7.414350
0.000000 -10.635659 -8.455037
1.697563 -12.927034 -4.594220
0.582218 -12.472954 -6.544274
2.142153 -12.038671 -5.243891
0.606038 -13.816678 -4.902949
1.606526 -11.796450 -6.182750
0.000000 -13.607034 -5.955719
-5.917030 10.048914 -0.768499
-5.436664 10.227660 -2.315330
-5.312708 10.651619 -0.785122
-4.130734 9.981365 -5.335785
-4.839199 10.209176 -3.849607
-4.002891 11.956422 -0.834530
-4.805467 10.840869 -2.375365
-4.673878 11.288167 -0.807975
-5.073374 10.772245 -1.582547
-0.496245 6.985153 -10.003030
-1.480957 8.022886 -9.104107
-3.322600 9.538008 -6.734141
-2.431866 8.881187 -8.003354
-0.633215 15.303946 -1.024563
-1.737253 13.764032 -2.810935
-1.597087 14.347487 -0.965173
-3.405749 10.571330 -5.510618
-2.648537 12.162366 -4.285423
-3.793911 10.725041 -4.758812
-3.250561 12.704430 -0.874877
-2.586418 12.962951 -2.674854
-2.467225 13.483266 -0.914987
-3.706224 12.116189 -1.694666
-2.115199 13.670053 -1.859887
-4.488563 10.861441 -3.199213
-3.032326 12.210559 -3.445794
-4.157872 10.821425 -3.982034
-4.119464 11.496917 -2.471963
-3.427546 11.472539 -4.127955
-3.379774 12.204028 -2.572709
9.357431 15.891760 -1.215335
8.105550 15.248469 -3.451937
7.939190 15.917537 -1.173269
5.587694 13.501914 -7.217781
6.824421 14.397366 -5.428862
5.338168 15.944823 -1.112912
6.819421 15.384238 -3.370871
6.597385 15.933745 -1.140493
7.391469 15.694235 -2.305635
0.510250 7.182291 -10.285339
1.641039 8.890107 -10.088200
0.000000 7.769731 -9.892518
4.388352 12.597405 -8.894174
2.987417 10.910061 -9.831690
-1.014446 8.821110 -8.926208
1.093760 9.510778 -9.624093
-0.511738 8.321409 -9.435785
0.529656 8.612768 -9.766162
0.660594 15.965659 -1.068864
1.973946 15.639320 -3.193912
1.776846 15.962365 -1.073808
0.000000 15.720083 -2.117964
4.437567 13.774060 -7.180135
3.248944 14.919501 -5.256903
5.021827 14.196250 -6.299023
4.081556 15.952277 -1.098537
3.112754 15.600912 -3.219186
2.920075 15.958072 -1.082930
4.828414 15.784791 -2.207786
2.449680 15.831726 -2.153994
-1.177399 13.878030 -3.835793
1.305465 15.387542 -4.253012
-0.623516 14.795553 -3.028601
0.660270 15.667693 -3.207125
6.201436 15.006258 -4.420059
3.785982 15.245375 -4.302213
5.614130 14.611534 -5.376706
5.544388 15.473704 -3.327016
4.416316 14.782109 -5.318777
4.304731 15.543958 -3.276793
-2.910507 10.312553 -6.373509
-1.058223 11.437844 -7.068977
-2.469010 10.031305 -7.065221
-2.547414 11.161519 -5.837709
3.743131 13.262719 -8.196811
1.175116 12.701296 -7.849832
3.153113 12.810741 -9.022826
3.179822 13.932420 -7.286949
-1.524489 9.294495 -8.337929
-0.550816 11.070744 -7.779200
-2.003624 9.688927 -7.725827
-0.530431 9.695224 -8.704267
-1.545833 10.543310 -7.414350
-1.697563 12.927034 -4.594220
-0.582218 12.472954 -6.544274
-2.142153 12.038671 -5.243891
-0.606038 13.816678 -4.902949
-1.606526 11.796450 -6.182750
1.727602 10.532834 -9.448821
0.579083 11.638889 -8.178424
2.400312 11.607193 -9.255428
0.553110 10.109755 -9.076428
1.790434 12.211605 -8.587542
0.000000 10.635659 -8.455037
1.968672 14.991545 -5.327940
0.618341 13.246835 -6.950312
2.582576 14.513805 -6.322027
0.650035 14.819743 -5.258894
1.914712 14.059413 -7.368812
0.000000 13.607034 -5.955719
0.000000 -5.580456 -10.605448
0.000000 -3.952755 -10.965133
0.000000 -0.783326 -11.302189
0.000000 -2.357375 -11.192304
0.000000 5.580456 -10.605448
0.000000 3.952755 -10.965133
0.000000 0.783326 -11.302189
0.000000 2.357375 -11.192304
11.130080 15.938737 -0.790712
13.178952 14.955040 -2.432723
10.434447 15.638835 -2.013569
14.039349 9.912234 -4.890658
13.910619 12.535667 -3.809036
8.953080 14.744402 -4.212391
12.137183 14.340660 -3.584887
9.688729 15.212591 -3.159143
11.396396 15.137271 -2.823997
12.869111 0.984176 -7.577627
13.884846 3.143241 -7.380695
14.023222 7.496460 -5.803435
13.963104 5.265113 -6.618579
6.232854 12.800117 -7.910908
8.740014 12.132328 -7.498191
6.869786 13.273775 -7.060497
13.236935 9.616956 -5.943606
11.165397 11.120559 -6.872883
13.130652 10.824500 -5.454097
8.217164 14.238204 -5.242018
9.480128 12.638168 -6.625300
7.533135 13.756388 -6.168847
9.685843 14.039214 -4.980893
8.176516 12.991464 -6.865649
12.646105 13.241678 -4.305533
10.808676 12.167671 -6.312047
12.949118 12.056450 -4.909489
11.193017 13.730699 -4.675247
12.028861 11.578547 -5.930006
10.307411 13.161937 -5.688691
6.574416 -9.414838 -0.467065
7.440889 -8.443676 -1.373525
6.366450 -9.541845 -1.228554
9.011965 -6.362738 -3.139351
8.248081 -7.432825 -2.258508
5.863572 -9.656438 -2.758789
7.204688 -8.512682 -2.128005
6.128625 -9.622755 -1.998322
6.796795 -9.027847 -1.684228
11.758492 -0.899240 -6.923668
11.125121 -2.518497 -5.913723
9.743644 -5.208706 -4.032355
10.448718 -3.939932 -4.952743
4.517875 -9.278147 -5.734210
5.974211 -8.293017 -5.125366
4.889860 -9.448170 -5.025607
8.699127 -6.320128 -3.906054
7.349006 -7.319494 -4.523696
8.349588 -6.883140 -3.468180
5.560789 -9.635399 -3.547423
6.315703 -8.419603 -4.413804
5.239640 -9.568198 -4.290716
6.263022 -9.077982 -3.220725
5.618545 -8.927167 -4.717775
7.609708 -7.968090 -2.590825
7.017192 -7.899477 -4.097898
7.984998 -7.434540 -3.027408
6.946484 -8.521391 -2.901499
7.683654 -7.396008 -3.787899
6.648482 -8.489707 -3.669317
0.783059 -6.029134 -10.239301
2.257826 -5.301637 -9.973642
1.269663 -6.579478 -9.861124
0.773132 -5.231573 -10.488948
5.023951 -3.889325 -9.398033
3.655898 -4.595694 -9.695457
2.235622 -7.569043 -8.943184
2.733575 -5.809981 -9.568182
1.758444 -7.096296 -9.425660
2.017520 -6.187502 -9.715199
0.759350 -3.642280 -10.879297
2.245332 -4.542406 -10.247418
0.766043 -4.431315 -10.702337
1.523347 -4.883588 -10.369275
11.104190 -0.550872 -7.754098
9.389194 -1.527332 -8.274116
10.877428 -1.400516 -7.257570
6.405044 -3.160224 -9.071885
7.843392 -2.383261 -8.703681
10.350459 -2.957067 -6.284994
9.246890 -2.311543 -7.826084
10.622164 -2.205866 -6.765138
10.038047 -1.872690 -7.557344
4.045191 -9.008996 -6.545256
4.595882 -7.466276 -7.436293
3.624996 -8.727120 -7.194366
4.813230 -8.539730 -6.236626
5.510843 -4.341889 -8.916732
5.079397 -5.920628 -8.218637
4.833513 -4.702955 -9.087033
2.727726 -8.011809 -8.389128
4.161296 -7.125755 -8.021690
3.181969 -8.392664 -7.814103
2.983486 -7.142769 -8.762178
3.904719 -7.920620 -7.624103
6.272602 -7.603316 -5.636996
5.358334 -7.046046 -7.149263
5.557702 -8.069196 -5.932967
5.094553 -7.791475 -6.709800
3.463578 -5.429358 -9.407663
4.406847 -6.305748 -8.406332
4.148677 -5.066188 -9.251454
3.229131 -6.279368 -9.101675
4.627098 -5.510555 -8.755585
3.709257 -6.720849 -8.582116
0.755351 -0.466832 -11.282704
2.250327 -1.390778 -11.018959
0.755227 -1.249686 -11.226595
5.066079 -3.131009 -9.718547
3.697938 -2.285451 -10.495037
4.373518 -3.486739 -9.856696
0.759483 -2.821821 -11.028753
2.244361 -2.170158 -10.876685
0.756096 -2.038781 -11.141840
1.509501 -3.301270 -10.792336
1.508023 -1.715033 -11.083873
2.980564 -4.181794 -10.119120
2.989821 -2.631066 -10.594767
3.676265 -3.838601 -9.990479
2.254771 -3.757520 -10.486775
3.690955 -3.064694 -10.258015
2.255100 -2.962530 -10.697403
9.100415 -5.624366 -4.431331
8.369467 -5.172615 -6.029285
9.425761 -5.013687 -4.878263
8.400132 -6.134677 -4.734548
6.322204 -3.907337 -8.701984
7.433808 -4.594346 -7.463781
7.014637 -3.534437 -8.509101
6.097034 -4.705497 -8.348589
10.045035 -3.698237 -5.797199
8.617376 -4.517482 -6.464056
9.743169 -4.369179 -5.335456
9.585145 -3.400659 -6.612921
9.047594 -4.781417 -5.694339
7.007329 -7.109979 -5.328891
7.634617 -5.660203 -6.298425
7.700257 -6.631245 -5.034909
6.586298 -6.875191 -6.118859
8.041858 -5.912866 -5.538873
8.457602 -2.749990 -8.077203
8.119205 -4.211883 -7.212379
7.728645 -3.147170 -8.300879
9.051195 -3.081895 -7.378370
7.590189 -3.887350 -7.885387
8.839109 -3.820331 -6.922107
5.622014 -6.255929 -7.583107
7.154280 -5.362094 -7.050990
5.862798 -5.491971 -7.973762
6.120472 -6.588035 -6.877005
6.649517 -5.048782 -7.721475
6.881759 -6.124704 -6.592590
0.813633 6.264535 -10.639084
2.504010 5.879708 -11.061131
1.361597 7.055886 -10.575151
0.798775 5.405093 -10.836844
6.027193 4.665992 -11.274743
4.256881 5.351167 -11.289267
2.606448 8.824529 -10.426601
3.152400 6.700159 -11.034173
1.959769 7.908756 -10.504811
2.248615 6.896246 -10.828021
0.776303 3.723597 -11.122185
2.448846 4.954123 -11.176228
0.787196 4.553679 -10.997867
1.620397 5.194714 -11.029887
11.675972 0.579238 -8.153375
10.658452 1.733801 -9.392634
12.460434 1.604336 -8.313774
10.707322 0.000000 -8.409691
7.745402 3.821552 -10.970322
9.321337 2.832343 -10.343730
13.320855 3.805692 -8.088675
11.329534 2.832163 -9.588724
13.295473 2.761022 -8.467738
11.943414 2.228154 -8.991837
8.955138 -1.017734 -8.849699
9.669817 1.098956 -9.555964
9.799300 -0.531453 -8.641993
10.223945 0.554483 -9.016487
5.495887 12.239825 -8.892532
6.405632 10.406321 -10.364530
4.888361 11.768652 -9.701710
6.718965 11.920926 -8.705937
6.963664 5.486539 -11.267445
6.975274 8.130494 -11.286231
6.018688 5.856118 -11.315169
3.361027 9.871924 -10.336846
5.679401 9.725340 -10.948126
4.167788 10.992830 -10.235022
3.652696 8.744925 -10.727575
5.356536 10.865592 -10.458827
9.142831 11.082456 -8.216384
7.570018 9.954343 -10.100164
7.946260 11.537131 -8.482805
7.166968 10.960972 -9.439282
4.121328 6.460418 -11.194222
5.857797 8.381909 -11.174109
5.061949 6.181438 -11.288031
3.906465 7.596510 -11.010815
5.964917 7.103806 -11.287061
4.746807 8.600799 -10.982698
0.757440 0.468123 -11.313904
2.307432 1.426071 -11.298578
0.760856 1.259000 -11.310270
1.517698 0.000000 -11.264749
5.841062 3.609975 -11.205240
3.969185 2.453091 -11.264857
5.010788 3.994796 -11.292925
0.772523 2.870270 -11.218110
2.334934 2.257737 -11.315622
0.765366 2.063778 -11.278446
1.571916 3.437770 -11.238575
1.539437 1.750760 -11.314767
3.030304 -0.930154 -10.963743
3.099296 0.951331 -11.213358
2.281801 -0.469768 -11.147229
2.301146 0.473751 -11.241734
3.321349 4.659922 -11.276098
3.192367 2.809308 -11.312511
4.163660 4.347519 -11.315007
2.420616 4.033896 -11.258105
4.067753 3.377559 -11.305224
2.382849 3.130355 -11.303402
13.305213 8.223074 -6.478804
11.827403 7.309737 -8.520349
13.331784 7.091353 -6.899808
12.444963 9.088646 -7.014327
8.067321 4.985879 -11.103992
10.363131 6.404767 -10.404915
8.961127 4.515207 -10.870288
8.207169 6.334032 -11.237969
13.333941 4.909099 -7.695295
11.911957 6.244599 -8.935384
13.340122 5.982179 -7.305183
12.678005 4.497957 -8.746726
12.621920 6.670355 -7.943934
10.357117 10.508838 -7.876317
10.899643 8.080849 -8.992014
11.446023 9.856993 -7.484124
9.529957 9.947967 -8.853602
11.661177 8.574011 -8.031698
10.599198 3.446330 -10.122476
11.175050 5.797119 -9.926919
9.814718 3.996637 -10.541406
11.993257 4.083655 -9.776686
10.337176 5.294232 -10.739210
11.956840 5.167839 -9.363673
7.954493 8.851410 -10.729211
10.110421 7.577706 -9.964453
8.289065 7.764775 -11.273633
8.727465 9.394184 -9.806239
9.361106 7.107611 -10.870194
9.850240 8.766626 -9.436336
5.899579 -2.694084 -9.545719
6.249091 -0.935486 -10.111241
6.614805 -2.311607 -9.391797
5.226686 -2.280780 -9.993260
6.804328 3.107244 -11.009635
6.555547 0.981362 -10.607097
7.581882 2.649562 -10.764868
5.793843 2.528272 -11.077649
8.119711 -1.484590 -9.051242
7.019640 -0.497034 -9.989799
7.357008 -1.907974 -9.226393
8.426189 -0.513485 -9.385488
6.820742 -1.422071 -9.699191
3.802672 -1.405086 -10.699808
5.504832 -0.489743 -10.491845
4.521811 -1.847180 -10.380956
3.864810 -0.477717 -10.891166
5.373901 -1.396355 -10.253199
9.012352 1.647799 -10.046291
7.219102 0.511157 -10.273656
8.326162 2.159315 -10.441804
8.726208 0.531768 -9.719663
7.404674 1.543816 -10.529551
7.841667 0.000000 -9.864097
3.972027 1.467663 -11.176330
5.624527 0.500391 -10.719976
4.849179 1.980911 -11.132511
3.921771 0.484758 -11.051685
5.719525 1.486161 -10.912635
4.731413 0.000000 -10.809863
11.130080 15.938737 0.790712
13.178952 14.955040 2.432723
10.434447 15.638835 2.013569
12.568910 16.002892 0.000000
14.039349 9.912234 4.890658
13.910619 12.535667 3.809036
8.953080 14.744402 4.212391
12.137183 14.340660 3.584887
9.688729 15.212591 3.159143
11.396396 15.137271 2.823997
14.715386 14.890710 -1.692301
14.715386 14.890710 1.692301
13.954415 15.823144 -0.858149
13.954415 15.823144 0.858149
12.869111 0.984176 7.577627
13.884846 3.143241 7.380695
14.023222 7.496460 5.803435
13.963104 5.265113 6.618579
6.232854 12.800117 7.910908
8.740014 12.132328 7.498191
6.869786 13.273775 7.060497
13.236935 9.616956 5.943606
11.165397 11.120559 6.872883
13.130652 10.824500 5.454097
8.217164 14.238204 5.242018
9.480128 12.638168 6.625300
7.533135 13.756388 6.168847
9.685843 14.039214 4.980893
8.176516 12.991464 6.865649
12.646105 13.241678 4.305533
10.808676 12.167671 6.312047
12.949118 12.056450 4.909489
11.193017 13.730699 4.675247
12.028861 11.578547 5.930006
10.307411 13.161937 5.688691
14.745895 9.113465 -4.161727
15.830431 9.783744 -1.464622
14.810414 10.431230 -3.645294
14.745895 9.113465 4.161727
15.830431 9.783744 1.464622
14.810414 10.431230 3.645294
14.880534 13.349066 -2.440714
15.937448 11.198940 -0.792955
14.864503 11.852766 -3.073908
15.797660 14.182968 -0.864299
15.497220 10.898078 -2.272163
14.880534 13.349066 2.440714
15.937448 11.198940 0.792955
14.864503 11.852766 3.073908
15.797660 14.182968 0.864299
15.497220 10.898078 2.272163
16.002892 12.721830 0.000000
6.574416 -9.414838 0.467065
7.440889 -8.443676 1.373525
6.366450 -9.541845 1.228554
7.039770 -8.963122 0.000000
9.011965 -6.362738 3.139351
8.248081 -7.432825 2.258508
5.863572 -9.656438 2.758789
7.204688 -8.512682 2.128005
6.128625 -9.622755 1.998322
6.796795 -9.027847 1.684228
7.928200 -8.022660 -0.911760
7.928200 -8.022660 0.911760
7.493084 -8.496533 -0.460799
7.493084 -8.496533 0.460799
11.758492 -0.899240 6.923668
11.125121 -2.518497 5.913723
9.743644 -5.208706 4.032355
10.448718 -3.939932 4.952743
4.517875 -9.278147 5.734210
5.974211 -8.293017 5.125366
4.889860 -9.448170 5.025607
8.699127 -6.320128 3.906054
7.349006 -7.319494 4.523696
8.349588 -6.883140 3.468180
5.560789 -9.635399 3.547423
6.315703 -8.419603 4.413804
5.239640 -9.568198 4.290716
6.263022 -9.077982 3.220725
5.618545 -8.927167 4.717775
7.609708 -7.968090 2.590825
7.017192 -7.899477 4.097898
7.984998 -7.434540 3.027408
6.946484 -8.521391 2.901499
7.683654 -7.396008 3.787899
6.648482 -8.489707 3.669317
9.602490 -5.934665 -2.710106
9.858152 -6.092673 -0.912070
9.199712 -6.479516 -2.264329
9.602490 -5.934665 2.710106
9.858152 -6.092673 0.912070
9.199712 -6.479516 2.264329
8.373169 -7.511423 -1.373372
9.390629 -6.598616 -0.467223
8.787852 -7.007321 -1.817286
8.425387 -7.564221 -0.460958
9.326767 -6.558843 -1.367467
8.373169 -7.511423 1.373372
9.390629 -6.598616 0.467223
8.787852 -7.007321 1.817286
8.425387 -7.564221 0.460958
9.326767 -6.558843 1.367467
8.915406 -7.087486 0.000000
0.783059 -6.029134 10.239301
2.257826 -5.301637 9.973642
1.269663 -6.579478 9.861124
0.773132 -5.231573 10.488948
5.023951 -3.889325 9.398033
3.655898 -4.595694 9.695457
2.235622 -7.569043 8.943184
2.733575 -5.809981 9.568182
1.758444 -7.096296 9.425660
2.017520 -6.187502 9.715199
0.759350 -3.642280 10.879297
2.245332 -4.542406 10.247418
0.766043 -4.431315 10.702337
1.523347 -4.883588 10.369275
11.104190 -0.550872 7.754098
9.389194 -1.527332 8.274116
10.877428 -1.400516 7.257570
6.405044 -3.160224 9.071885
7.843392 -2.383261 8.703681
10.350459 -2.957067 6.284994
9.246890 -2.311543 7.826084
10.622164 -2.205866 6.765138
10.038047 -1.872690 7.557344
4.045191 -9.008996 6.545256
4.595882 -7.466276 7.436293
3.624996 -8.727120 7.194366
4.813230 -8.539730 6.236626
5.510843 -4.341889 8.916732
5.079397 -5.920628 8.218637
4.833513 -4.702955 9.087033
2.727726 -8.011809 8.389128
4.161296 -7.125755 8.021690
3.181969 -8.392664 7.814103
2.983486 -7.142769 8.762178
3.904719 -7.920620 7.624103
6.272602 -7.603316 5.636996
5.358334 -7.046046 7.149263
5.557702 -8.069196 5.932967
5.094553 -7.791475 6.709800
3.463578 -5.429358 9.407663
4.406847 -6.305748 8.406332
4.148677 -5.066188 9.251454
3.229131 -6.279368 9.101675
4.627098 -5.510555 8.755585
3.709257 -6.720849 8.582116
0.755351 -0.466832 11.282704
2.250327 -1.390778 11.018959
0.755227 -1.249686 11.226595
5.066079 -3.131009 9.718547
3.697938 -2.285451 10.495037
4.373518 -3.486739 9.856696
0.759483 -2.821821 11.028753
2.244361 -2.170158 10.876685
0.756096 -2.038781 11.141840
1.509501 -3.301270 10.792336
1.508023 -1.715033 11.083873
2.980564 -4.181794 10.119120
2.989821 -2.631066 10.594767
3.676265 -3.838601 9.990479
2.254771 -3.757520 10.486775
3.690955 -3.064694 10.258015
2.255100 -2.962530 10.697403
9.100415 -5.624366 4.431331
8.369467 -5.172615 6.029285
9.425761 -5.013687 4.878263
8.400132 -6.134677 4.734548
6.322204 -3.907337 8.701984
7.433808 -4.594346 7.463781
7.014637 -3.534437 8.509101
6.097034 -4.705497 8.348589
10.045035 -3.698237 5.797199
8.617376 -4.517482 6.464056
9.743169 -4.369179 5.335456
9.585145 -3.400659 6.612921
9.047594 -4.781417 5.694339
7.007329 -7.109979 5.328891
7.634617 -5.660203 6.298425
7.700257 -6.631245 5.034909
6.586298 -6.875191 6.118859
8.041858 -5.912866 5.538873
8.457602 -2.749990 8.077203
8.119205 -4.211883 7.212379
7.728645 -3.147170 8.300879
9.051195 -3.081895 7.378370
7.590189 -3.887350 7.885387
8.839109 -3.820331 6.922107
5.622014 -6.255929 7.583107
7.154280 -5.362094 7.050990
5.862798 -5.491971 7.973762
6.120472 -6.588035 6.877005
6.649517 -5.048782 7.721475
6.881759 -6.124704 6.592590
0.813633 6.264535 10.639084
2.504010 5.879708 11.061131
1.361597 7.055886 10.575151
0.798775 5.405093 10.836844
6.027193 4.665992 11.274743
4.256881 5.351167 11.289267
2.606448 8.824529 10.426601
3.152400 6.700159 11.034173
1.959769 7.908756 10.504811
2.248615 6.896246 10.828021
0.776303 3.723597 11.122185
2.448846 4.954123 11.176228
0.787196 4.553679 10.997867
1.620397 5.194714 11.029887
11.675972 0.579238 8.153375
10.658452 1.733801 9.392634
12.460434 1.604336 8.313774
10.707322 0.000000 8.409691
7.745402 3.821552 10.970322
9.321337 2.832343 10.343730
13.320855 3.805692 8.088675
11.329534 2.832163 9.588724
13.295473 2.761022 8.467738
11.943414 2.228154 8.991837
8.955138 -1.017734 8.849699
9.669817 1.098956 9.555964
9.799300 -0.531453 8.641993
10.223945 0.554483 9.016487
5.495887 12.239825 8.892532
6.405632 10.406321 10.364530
4.888361 11.768652 9.701710
6.718965 11.920926 8.705937
6.963664 5.486539 11.267445
6.975274 8.130494 11.286231
6.018688 5.856118 11.315169
3.361027 9.871924 10.336846
5.679401 9.725340 10.948126
4.167788 10.992830 10.235022
3.652696 8.744925 10.727575
5.356536 10.865592 10.458827
9.142831 11.082456 8.216384
7.570018 9.954343 10.100164
7.946260 11.537131 8.482805
7.166968 10.960972 9.439282
4.121328 6.460418 11.194222
5.857797 8.381909 11.174109
5.061949 6.181438 11.288031
3.906465 7.596510 11.010815
5.964917 7.103806 11.287061
4.746807 8.600799 10.982698
0.757440 0.468123 11.313904
2.307432 1.426071 11.298578
0.760856 1.259000 11.310270
1.517698 0.000000 11.264749
5.841062 3.609975 11.205240
3.969185 2.453091 11.264857
5.010788 3.994796 11.292925
0.772523 2.870270 11.218110
2.334934 2.257737 11.315622
0.765366 2.063778 11.278446
1.571916 3.437770 11.238575
1.539437 1.750760 11.314767
3.030304 -0.930154 10.963743
3.099296 0.951331 11.213358
2.281801 -0.469768 11.147229
2.301146 0.473751 11.241734
3.321349 4.659922 11.276098
3.192367 2.809308 11.312511
4.163660 4.347519 11.315007
2.420616 4.033896 11.258105
4.067753 3.377559 11.305224
2.382849 3.130355 11.303402
13.305213 8.223074 6.478804
11.827403 7.309737 8.520349
13.331784 7.091353 6.899808
12.444963 9.088646 7.014327
8.067321 4.985879 11.103992
10.363131 6.404767 10.404915
8.961127 4.515207 10.870288
8.207169 6.334032 11.237969
13.333941 4.909099 7.695295
11.911957 6.244599 8.935384
13.340122 5.982179 7.305183
12.678005 4.497957 8.746726
12.621920 6.670355 7.943934
10.357117 10.508838 7.876317
10.899643 8.080849 8.992014
11.446023 9.856993 7.484124
9.529957 9.947967 8.853602
11.661177 8.574011 8.031698
10.599198 3.446330 10.122476
11.175050 5.797119 9.926919
9.814718 3.996637 10.541406
11.993257 4.083655 9.776686
10.337176 5.294232 10.739210
11.956840 5.167839 9.363673
7.954493 8.851410 10.729211
10.110421 7.577706 9.964453
8.289065 7.764775 11.273633
8.727465 9.394184 9.806239
9.361106 7.107611 10.870194
9.850240 8.766626 9.436336
5.899579 -2.694084 9.545719
6.249091 -0.935486 10.111241
6.614805 -2.311607 9.391797
5.226686 -2.280780 9.993260
6.804328 3.107244 11.009635
6.555547 0.981362 10.607097
7.581882 2.649562 10.764868
5.793843 2.528272 11.077649
8.119711 -1.484590 9.051242
7.019640 -0.497034 9.989799
7.357008 -1.907974 9.226393
8.426189 -0.513485 9.385488
6.820742 -1.422071 9.699191
3.802672 -1.405086 10.699808
5.504832 -0.489743 10.491845
4.521811 -1.847180 10.380956
3.864810 -0.477717 10.891166
5.373901 -1.396355 10.253199
9.012352 1.647799 10.046291
7.219102 0.511157 10.273656
8.326162 2.159315 10.441804
8.726208 0.531768 9.719663
7.404674 1.543816 10.529551
7.841667 0.000000 9.864097
3.972027 1.467663 11.176330
5.624527 0.500391 10.719976
4.849179 1.980911 11.132511
3.921771 0.484758 11.051685
5.719525 1.486161 10.912635
4.731413 0.000000 10.809863
12.838324 0.000000 -6.755367
14.257090 0.000000 -5.139452
13.744833 1.013121 -6.855510
12.456746 -0.918177 -6.213051
15.926571 0.000000 -1.103830
15.336960 0.000000 -3.230342
14.413804 3.158238 -6.389254
15.143050 1.056950 -5.069742
14.357428 2.109245 -6.761877
14.579169 1.043536 -6.036522
11.673741 -2.557857 -5.174657
13.679006 -0.954763 -4.579595
12.065987 -1.772610 -5.682684
13.105004 -0.938019 -5.426142
12.838324 0.000000 6.755367
14.257090 0.000000 5.139452
13.744833 1.013121 6.855510
12.456746 -0.918177 6.213051
15.926571 0.000000 1.103830
15.336960 0.000000 3.230342
14.413804 3.158238 6.389254
15.143050 1.056950 5.069742
14.357428 2.109245 6.761877
14.579169 1.043536 6.036522
11.673741 -2.557857 5.174657
13.679006 -0.954763 4.579595
12.065987 -1.772610 5.682684
13.105004 -0.938019 5.426142
14.667044 7.645629 -4.725259
15.465521 5.449293 -3.367848
14.602117 6.479111 -5.165400
15.248510 7.975291 -3.480195
15.988239 1.070375 -0.661528
15.846225 3.236167 -2.000061
15.898034 1.069481 -1.769685
14.478063 4.264480 -5.983155
15.377703 4.339555 -3.818843
14.538363 5.349781 -5.586016
14.890946 3.201716 -5.335580
15.048401 5.414592 -4.495873
15.966472 8.377244 -0.745289
15.795816 5.613775 -2.074288
15.708385 8.233071 -2.139281
15.585535 6.788859 -2.773279
15.477918 1.065870 -3.960187
15.622729 3.223688 -3.117107
15.725694 1.067161 -2.877554
15.221583 2.129011 -4.656134
15.787536 2.147982 -2.442842
15.300313 3.225431 -4.237256
10.077124 -5.252998 -3.246531
11.537990 -4.065424 -2.512570
10.473581 -4.647236 -3.704958
10.279039 -5.376154 -2.346004
14.976254 -1.002625 -0.619657
13.145351 -2.684585 -1.659165
14.833717 -0.997883 -1.651211
11.266804 -3.318611 -4.656082
12.037445 -3.396942 -2.989336
10.871942 -4.000623 -4.177282
12.156153 -2.613706 -4.355675
11.238462 -4.043731 -3.357613
10.486097 -5.501816 -0.489474
11.697506 -4.157251 -1.536103
10.416920 -5.459711 -1.418651
10.979869 -4.782690 -1.953750
14.181304 -0.976581 -3.628434
12.916945 -2.665360 -2.577239
14.564381 -0.988353 -2.665052
13.125785 -1.835876 -4.015050
13.832104 -1.881935 -2.140274
12.575206 -2.650956 -3.482567
14.667044 7.645629 4.725259
15.465521 5.449293 3.367848
14.602117 6.479111 5.165400
15.248510 7.975291 3.480195
15.988239 1.070375 0.661528
15.846225 3.236167 2.000061
15.898034 1.069481 1.769685
16.002892 2.156067 0.000000
14.478063 4.264480 5.983155
15.377703 4.339555 3.818843
14.538363 5.349781 5.586016
14.890946 3.201716 5.335580
15.048401 5.414592 4.495873
15.966472 8.377244 0.745289
15.795816 5.613775 2.074288
15.708385 8.233071 2.139281
16.002892 7.004371 0.000000
15.585535 6.788859 2.773279
15.477918 1.065870 3.960187
15.622729 3.223688 3.117107
15.725694 1.067161 2.877554
15.221583 2.129011 4.656134
15.787536 2.147982 2.442842
15.300313 3.225431 4.237256
15.924230 4.401349 -1.350997
15.924230 4.401349 1.350997
15.985069 3.272091 -0.673645
15.979120 5.670308 -0.700889
15.985069 3.272091 0.673645
15.979120 5.670308 0.700889
10.077124 -5.252998 3.246531
11.537990 -4.065424 2.512570
10.473581 -4.647236 3.704958
10.279039 -5.376154 2.346004
14.976254 -1.002625 0.619657
13.145351 -2.684585 1.659165
14.833717 -0.997883 1.651211
14.102821 -1.900071 0.000000
11.266804 -3.318611 4.656082
12.037445 -3.396942 2.989336
10.871942 -4.000623 4.177282
12.156153 -2.613706 4.355675
11.238462 -4.043731 3.357613
10.486097 -5.501816 0.489474
11.697506 -4.157251 1.536103
10.416920 -5.459711 1.418651
11.130944 -4.871948 0.000000
10.979869 -4.782690 1.953750
14.181304 -0.976581 3.628434
12.916945 -2.665360 2.577239
14.564381 -0.988353 2.665052
13.125785 -1.835876 4.015050
13.832104 -1.881935 2.140274
12.575206 -2.650956 3.482567
12.482562 -3.450095 -1.059009
12.482562 -3.450095 1.059009
13.267526 -2.715819 -0.559122
11.799136 -4.187010 -0.517543
13.267526 -2.715819 0.559122
11.799136 -4.187010 0.517543
-6.574416 9.414838 -0.467065
-7.440889 8.443676 -1.373525
-6.366450 9.541845 -1.228554
-9.011965 6.362738 -3.139351
-8.248081 7.432825 -2.258508
-5.863572 9.656438 -2.758789
-7.204688 8.512682 -2.128005
-6.128625 9.622755 -1.998322
-6.796795 9.027847 -1.684228
-11.758492 0.899240 -6.923668
-11.125121 2.518497 -5.913723
-9.743644 5.208706 -4.032355
-10.448718 3.939932 -4.952743
-4.517875 9.278147 -5.734210
-5.974211 8.293017 -5.125366
-4.889860 9.448170 -5.025607
-8.699127 6.320128 -3.906054
-7.349006 7.319494 -4.523696
-8.349588 6.883140 -3.468180
-5.560789 9.635399 -3.547423
-6.315703 8.419603 -4.413804
-5.239640 9.568198 -4.290716
-6.263022 9.077982 -3.220725
-5.618545 8.927167 -4.717775
-7.609708 7.968090 -2.590825
-7.017192 7.899477 -4.097898
-7.984998 7.434540 -3.027408
-6.946484 8.521391 -2.901499
-7.683654 7.396008 -3.787899
-6.648482 8.489707 -3.669317
-11.130080 -15.938737 -0.790712
-13.178952 -14.955040 -2.432723
-10.434447 -15.638835 -2.013569
-14.039349 -9.912234 -4.890658
-13.910619 -12.535667 -3.809036
-8.953080 -14.744402 -4.212391
-12.137183 -14.340660 -3.584887
-9.688729 -15.212591 -3.159143
-11.396396 -15.137271 -2.823997
-12.869111 -0.984176 -7.577627
-13.884846 -3.143241 -7.380695
-14.023222 -7.496460 -5.803435
-13.963104 -5.265113 -6.618579
-6.232854 -12.800117 -7.910908
-8.740014 -12.132328 -7.498191
-6.869786 -13.273775 -7.060497
-13.236935 -9.616956 -5.943606
-11.165397 -11.120559 -6.872883
-13.130652 -10.824500 -5.454097
-8.217164 -14.238204 -5.242018
-9.480128 -12.638168 -6.625300
-7.533135 -13.756388 -6.168847
-9.685843 -14.039214 -4.980893
-8.176516 -12.991464 -6.865649
-12.646105 -13.241678 -4.305533
-10.808676 -12.167671 -6.312047
-12.949118 -12.056450 -4.909489
-11.193017 -13.730699 -4.675247
-12.028861 -11.578547 -5.930006
-10.307411 -13.161937 -5.688691
-0.813633 -6.264535 -10.639084
-2.504010 -5.879708 -11.061131
-1.361597 -7.055886 -10.575151
-0.798775 -5.405093 -10.836844
-6.027193 -4.665992 -11.274743
-4.256881 -5.351167 -11.289267
-2.606448 -8.824529 -10.426601
-3.152400 -6.700159 -11.034173
-1.959769 -7.908756 -10.504811
-2.248615 -6.896246 -10.828021
-0.776303 -3.723597 -11.122185
-2.448846 -4.954123 -11.176228
-0.787196 -4.553679 -10.997867
-1.620397 -5.194714 -11.029887
-11.675972 -0.579238 -8.153375
-10.658452 -1.733801 -9.392634
-12.460434 -1.604336 -8.313774
-7.745402 -3.821552 -10.970322
-9.321337 -2.832343 -10.343730
-13.320855 -3.805692 -8.088675
-11.329534 -2.832163 -9.588724
-13.295473 -2.761022 -8.467738
-11.943414 -2.228154 -8.991837
-5.495887 -12.239825 -8.892532
-6.405632 -10.406321 -10.364530
-4.888361 -11.768652 -9.701710
-6.718965 -11.920926 -8.705937
-6.963664 -5.486539 -11.267445
-6.975274 -8.130494 -11.286231
-6.018688 -5.856118 -11.315169
-3.361027 -9.871924 -10.336846
-5.679401 -9.725340 -10.948126
-4.167788 -10.992830 -10.235022
-3.652696 -8.744925 -10.727575
-5.356536 -10.865592 -10.458827
-9.142831 -11.082456 -8.216384
-7.570018 -9.954343 -10.100164
-7.946260 -11.537131 -8.482805
-7.166968 -10.960972 -9.439282
-4.121328 -6.460418 -11.194222
-5.857797 -8.381909 -11.174109
-5.061949 -6.181438 -11.288031
-3.906465 -7.596510 -11.010815
-5.964917 -7.103806 -11.287061
-4.746807 -8.600799 -10.982698
-0.757440 -0.468123 -11.313904
-2.307432 -1.426071 -11.298578
-0.760856 -1.259000 -11.310270
-5.841062 -3.609975 -11.205240
-3.969185 -2.453091 -11.264857
-5.010788 -3.994796 -11.292925
-0.772523 -2.870270 -11.218110
-2.334934 -2.257737 -11.315622
-0.765366 -2.063778 -11.278446
-1.571916 -3.437770 -11.238575
-1.539437 -1.750760 -11.314767
-3.321349 -4.659922 -11.276098
-3.192367 -2.809308 -11.312511
-4.163660 -4.347519 -11.315007
-2.420616 -4.033896 -11.258105
-4.067753 -3.377559 -11.305224
-2.382849 -3.130355 -11.303402
-13.305213 -8.223074 -6.478804
-11.827403 -7.309737 -8.520349
-13.331784 -7.091353 -6.899808
-12.444963 -9.088646 -7.014327
-8.067321 -4.985879 -11.103992
-10.363131 -6.404767 -10.404915
-8.961127 -4.515207 -10.870288
-8.207169 -6.334032 -11.237969
-13.333941 -4.909099 -7.695295
-11.911957 -6.244599 -8.935384
-13.340122 -5.982179 -7.305183
-12.678005 -4.497957 -8.746726
-12.621920 -6.670355 -7.943934
-10.357117 -10.508838 -7.876317
-10.899643 -8.080849 -8.992014
-11.446023 -9.856993 -7.484124
-9.529957 -9.947967 -8.853602
-11.661177 -8.574011 -8.031698
-10.599198 -3.446330 -10.122476
-11.175050 -5.797119 -9.926919
-9.814718 -3.996637 -10.541406
-11.993257 -4.083655 -9.776686
-10.337176 -5.294232 -10.739210
-11.956840 -5.167839 -9.363673
-7.954493 -8.851410 -10.729211
-10.110421 -7.577706 -9.964453
-8.289065 -7.764775 -11.273633
-8.727465 -9.394184 -9.806239
-9.361106 -7.107611 -10.870194
-9.850240 -8.766626 -9.436336
-0.783059 6.029134 -10.239301
-2.257826 5.301637 -9.973642
-1.269663 6.579478 -9.861124
-0.773132 5.231573 -10.488948
-5.023951 3.889325 -9.398033
-3.655898 4.595694 -9.695457
-2.235622 7.569043 -8.943184
-2.733575 5.809981 -9.568182
-1.758444 7.096296 -9.425660
-2.017520 6.187502 -9.715199
-0.759350 3.642280 -10.879297
-2.245332 4.542406 -10.247418
-0.766043 4.431315 -10.702337
-1.523347 4.883588 -10.369275
-11.104190 0.550872 -7.754098
-9.389194 1.527332 -8.274116
-10.877428 1.400516 -7.257570
-10.707322 0.000000 -8.409691
-6.405044 3.160224 -9.071885
-7.843392 2.383261 -8.703681
-10.350459 2.957067 -6.284994
-9.246890 2.311543 -7.826084
-10.622164 2.205866 -6.765138
-10.038047 1.872690 -7.557344
-9.669817 -1.098956 -9.555964
-8.955138 1.017734 -8.849699
-10.223945 -0.554483 -9.016487
-9.799300 0.531453 -8.641993
-4.045191 9.008996 -6.545256
-4.595882 7.466276 -7.436293
-3.624996 8.727120 -7.194366
-4.813230 8.539730 -6.236626
-5.510843 4.341889 -8.916732
-5.079397 5.920628 -8.218637
-4.833513 4.702955 -9.087033
-2.727726 8.011809 -8.389128
-4.161296 7.125755 -8.021690
-3.181969 8.392664 -7.814103
-2.983486 7.142769 -8.762178
-3.904719 7.920620 -7.624103
-6.272602 7.603316 -5.636996
-5.358334 7.046046 -7.149263
-5.557702 8.069196 -5.932967
-5.094553 7.791475 -6.709800
-3.463578 5.429358 -9.407663
-4.406847 6.305748 -8.406332
-4.148677 5.066188 -9.251454
-3.229131 6.279368 -9.101675
-4.627098 5.510555 -8.755585
-3.709257 6.720849 -8.582116
-0.755351 0.466832 -11.282704
-2.250327 1.390778 -11.018959
-0.755227 1.249686 -11.226595
-1.517698 0.000000 -11.264749
-5.066079 3.131009 -9.718547
-3.697938 2.285451 -10.495037
-4.373518 3.486739 -9.856696
-0.759483 2.821821 -11.028753
-2.244361 2.170158 -10.876685
-0.756096 2.038781 -11.141840
-1.509501 3.301270 -10.792336
-1.508023 1.715033 -11.083873
-3.099296 -0.951331 -11.213358
-3.030304 0.930154 -10.963743
-2.301146 -0.473751 -11.241734
-2.281801 0.469768 -11.147229
-2.980564 4.181794 -10.119120
-2.989821 2.631066 -10.594767
-3.676265 3.838601 -9.990479
-2.254771 3.757520 -10.486775
-3.690955 3.064694 -10.258015
-2.255100 2.962530 -10.697403
-9.100415 5.624366 -4.431331
-8.369467 5.172615 -6.029285
-9.425761 5.013687 -4.878263
-8.400132 6.134677 -4.734548
-6.322204 3.907337 -8.701984
-7.433808 4.594346 -7.463781
-7.014637 3.534437 -8.509101
-6.097034 4.705497 -8.348589
-10.045035 3.698237 -5.797199
-8.617376 4.517482 -6.464056
-9.743169 4.369179 -5.335456
-9.585145 3.400659 -6.612921
-9.047594 4.781417 -5.694339
-7.007329 7.109979 -5.328891
-7.634617 5.660203 -6.298425
-7.700257 6.631245 -5.034909
-6.586298 6.875191 -6.118859
-8.041858 5.912866 -5.538873
-8.457602 2.749990 -8.077203
-8.119205 4.211883 -7.212379
-7.728645 3.147170 -8.300879
-9.051195 3.081895 -7.378370
-7.590189 3.887350 -7.885387
-8.839109 3.820331 -6.922107
-5.622014 6.255929 -7.583107
-7.154280 5.362094 -7.050990
-5.862798 5.491971 -7.973762
-6.120472 6.588035 -6.877005
-6.649517 5.048782 -7.721475
-6.881759 6.124704 -6.592590
-6.804328 -3.107244 -11.009635
-6.555547 -0.981362 -10.607097
-7.581882 -2.649562 -10.764868
-5.793843 -2.528272 -11.077649
-5.899579 2.694084 -9.545719
-6.249091 0.935486 -10.111241
-6.614805 2.311607 -9.391797
-5.226686 2.280780 -9.993260
-9.012352 -1.647799 -10.046291
-7.219102 -0.511157 -10.273656
-8.326162 -2.159315 -10.441804
-8.726208 -0.531768 -9.719663
-7.404674 -1.543816 -10.529551
-3.972027 -1.467663 -11.176330
-5.624527 -0.500391 -10.719976
-4.849179 -1.980911 -11.132511
-3.921771 -0.484758 -11.051685
-5.719525 -1.486161 -10.912635
-8.119711 1.484590 -9.051242
-7.019640 0.497034 -9.989799
-7.357008 1.907974 -9.226393
-8.426189 0.513485 -9.385488
-6.820742 1.422071 -9.699191
-7.841667 0.000000 -9.864097
-3.802672 1.405086 -10.699808
-5.504832 0.489743 -10.491845
-4.521811 1.847180 -10.380956
-3.864810 0.477717 -10.891166
-5.373901 1.396355 -10.253199
-4.731413 0.000000 -10.809863
-6.574416 9.414838 0.467065
-7.440889 8.443676 1.373525
-6.366450 9.541845 1.228554
-7.039770 8.963122 0.000000
-9.011965 6.362738 3.139351
-8.248081 7.432825 2.258508
-5.863572 9.656438 2.758789
-7.204688 8.512682 2.128005
-6.128625 9.622755 1.998322
-6.796795 9.027847 1.684228
-7.928200 8.022660 -0.911760
-7.928200 8.022660 0.911760
-7.493084 8.496533 -0.460799
-7.493084 8.496533 0.460799
-11.758492 0.899240 6.923668
-11.125121 2.518497 5.913723
-9.743644 5.208706 4.032355
-10.448718 3.939932 4.952743
-4.517875 9.278147 5.734210
-5.974211 8.293017 5.125366
-4.889860 9.448170 5.025607
-8.699127 6.320128 3.906054
-7.349006 7.319494 4.523696
-8.349588 6.883140 3.468180
-5.560789 9.635399 3.547423
-6.315703 8.419603 4.413804
-5.239640 9.568198 4.290716
-6.263022 9.077982 3.220725
-5.618545 8.927167 4.717775
-7.609708 7.968090 2.590825
-7.017192 7.899477 4.097898
-7.984998 7.434540 3.027408
-6.946484 8.521391 2.901499
-7.683654 7.396008 3.787899
-6.648482 8.489707 3.669317
-9.602490 5.934665 -2.710106
-9.858152 6.092673 -0.912070
-9.199712 6.479516 -2.264329
-9.602490 5.934665 2.710106
-9.858152 6.092673 0.912070
-9.199712 6.479516 2.264329
-8.373169 7.511423 -1.373372
-9.390629 6.598616 -0.467223
-8.787852 7.007321 -1.817286
-8.425387 7.564221 -0.460958
-9.326767 6.558843 -1.367467
-8.373169 7.511423 1.373372
-9.390629 6.598616 0.467223
-8.787852 7.007321 1.817286
-8.425387 7.564221 0.460958
-9.326767 6.558843 1.367467
-8.915406 7.087486 0.000000
-11.130080 -15.938737 0.790712
-13.178952 -14.955040 2.432723
-10.434447 -15.638835 2.013569
-12.568910 -16.002892 0.000000
-14.039349 -9.912234 4.890658
-13.910619 -12.535667 3.809036
-8.953080 -14.744402 4.212391
-12.137183 -14.340660 3.584887
-9.688729 -15.212591 3.159143
-11.396396 -15.137271 2.823997
-14.715386 -14.890710 -1.692301
-14.715386 -14.890710 1.692301
-13.954415 -15.823144 -0.858149
-13.954415 -15.823144 0.858149
-12.869111 -0.984176 7.577627
-13.884846 -3.143241 7.380695
-14.023222 -7.496460 5.803435
-13.963104 -5.265113 6.618579
-6.232854 -12.800117 7.910908
-8.740014 -12.132328 7.498191
-6.869786 -13.273775 7.060497
-13.236935 -9.616956 5.943606
-11.165397 -11.120559 6.872883
-13.130652 -10.824500 5.454097
-8.217164 -14.238204 5.242018
-9.480128 -12.638168 6.625300
-7.533135 -13.756388 6.168847
-9.685843 -14.039214 4.980893
-8.176516 -12.991464 6.865649
-12.646105 -13.241678 4.305533
-10.808676 -12.167671 6.312047
-12.949118 -12.056450 4.909489
-11.193017 -13.730699 4.675247
-12.028861 -11.578547 5.930006
-10.307411 -13.161937 5.688691
-14.745895 -9.113465 -4.161727
-15.830431 -9.783744 -1.464622
-14.810414 -10.431230 -3.645294
-14.745895 -9.113465 4.161727
-15.830431 -9.783744 1.464622
-14.810414 -10.431230 3.645294
-14.880534 -13.349066 -2.440714
-15.937448 -11.198940 -0.792955
-14.864503 -11.852766 -3.073908
-15.797660 -14.182968 -0.864299
-15.497220 -10.898078 -2.272163
-14.880534 -13.349066 2.440714
-15.937448 -11.198940 0.792955
-14.864503 -11.852766 3.073908
-15.797660 -14.182968 0.864299
-15.497220 -10.898078 2.272163
-16.002892 -12.721830 0.000000
-0.813633 -6.264535 10.639084
-2.504010 -5.879708 11.061131
-1.361597 -7.055886 10.575151
-0.798775 -5.405093 10.836844
-6.027193 -4.665992 11.274743
-4.256881 -5.351167 11.289267
-2.606448 -8.824529 10.426601
-3.152400 -6.700159 11.034173
-1.959769 -7.908756 10.504811
-2.248615 -6.896246 10.828021
-0.776303 -3.723597 11.122185
-2.448846 -4.954123 11.176228
-0.787196 -4.553679 10.997867
-1.620397 -5.194714 11.029887
-11.675972 -0.579238 8.153375
-10.658452 -1.733801 9.392634
-12.460434 -1.604336 8.313774
-7.745402 -3.821552 10.970322
-9.321337 -2.832343 10.343730
-13.320855 -3.805692 8.088675
-11.329534 -2.832163 9.588724
-13.295473 -2.761022 8.467738
-11.943414 -2.228154 8.991837
-5.495887 -12.239825 8.892532
-6.405632 -10.406321 10.364530
-4.888361 -11.768652 9.701710
-6.718965 -11.920926 8.705937
-6.963664 -5.486539 11.267445
-6.975274 -8.130494 11.286231
-6.018688 -5.856118 11.315169
-3.361027 -9.871924 10.336846
-5.679401 -9.725340 10.948126
-4.167788 -10.992830 10.235022
-3.652696 -8.744925 10.727575
-5.356536 -10.865592 10.458827
-9.142831 -11.082456 8.216384
-7.570018 -9.954343 10.100164
-7.946260 -11.537131 8.482805
-7.166968 -10.960972 9.439282
-4.121328 -6.460418 11.194222
-5.857797 -8.381909 11.174109
-5.061949 -6.181438 11.288031
-3.906465 -7.596510 11.010815
-5.964917 -7.103806 11.287061
-4.746807 -8.600799 10.982698
-0.757440 -0.468123 11.313904
-2.307432 -1.426071 11.298578
-0.760856 -1.259000 11.310270
-5.841062 -3.609975 11.205240
-3.969185 -2.453091 11.264857
-5.010788 -3.994796 11.292925
-0.772523 -2.870270 11.218110
-2.334934 -2.257737 11.315622
-0.765366 -2.063778 11.278446
-1.571916 -3.437770 11.238575
-1.539437 -1.750760 11.314767
-3.321349 -4.659922 11.276098
-3.192367 -2.809308 11.312511
-4.163660 -4.347519 11.315007
-2.420616 -4.033896 11.258105
-4.067753 -3.377559 11.305224
-2.382849 -3.130355 11.303402
-13.305213 -8.223074 6.478804
-11.827403 -7.309737 8.520349
-13.331784 -7.091353 6.899808
-12.444963 -9.088646 7.014327
-8.067321 -4.985879 11.103992
-10.363131 -6.404767 10.404915
-8.961127 -4.515207 10.870288
-8.207169 -6.334032 11.237969
-13.333941 -4.909099 7.695295
-11.911957 -6.244599 8.935384
-13.340122 -5.982179 7.305183
-12.678005 -4.497957 8.746726
-12.621920 -6.670355 7.943934
-10.357117 -10.508838 7.876317
-10.899643 -8.080849 8.992014
-11.446023 -9.856993 7.484124
-9.529957 -9.947967 8.853602
-11.661177 -8.574011 8.031698
-10.599198 -3.446330 10.122476
-11.175050 -5.797119 9.926919
-9.814718 -3.996637 10.541406
-11.993257 -4.083655 9.776686
-10.337176 -5.294232 10.739210
-11.956840 -5.167839 9.363673
-7.954493 -8.851410 10.729211
-10.110421 -7.577706 9.964453
-8.289065 -7.764775 11.273633
-8.727465 -9.394184 9.806239
-9.361106 -7.107611 10.870194
-9.850240 -8.766626 9.436336
-0.783059 6.029134 10.239301
-2.257826 5.301637 9.973642
-1.269663 6.579478 9.861124
-0.773132 5.231573 10.488948
-5.023951 3.889325 9.398033
-3.655898 4.595694 9.695457
-2.235622 7.569043 8.943184
-2.733575 5.809981 9.568182
-1.758444 7.096296 9.425660
-2.017520 6.187502 9.715199
-0.759350 3.642280 10.879297
-2.245332 4.542406 10.247418
-0.766043 4.431315 10.702337
-1.523347 4.883588 10.369275
-11.104190 0.550872 7.754098
-9.389194 1.527332 8.274116
-10.877428 1.400516 7.257570
-10.707322 0.000000 8.409691
-6.405044 3.160224 9.071885
-7.843392 2.383261 8.703681
-10.350459 2.957067 6.284994
-9.246890 2.311543 7.826084
-10.622164 2.205866 6.765138
-10.038047 1.872690 7.557344
-9.669817 -1.098956 9.555964
-8.955138 1.017734 8.849699
-10.223945 -0.554483 9.016487
-9.799300 0.531453 8.641993
-4.045191 9.008996 6.545256
-4.595882 7.466276 7.436293
-3.624996 8.727120 7.194366
-4.813230 8.539730 6.236626
-5.510843 4.341889 8.916732
-5.079397 5.920628 8.218637
-4.833513 4.702955 9.087033
-2.727726 8.011809 8.389128
-4.161296 7.125755 8.021690
-3.181969 8.392664 7.814103
-2.983486 7.142769 8.762178
-3.904719 7.920620 7.624103
-6.272602 7.603316 5.636996
-5.358334 7.046046 7.149263
-5.557702 8.069196 5.932967
-5.094553 7.791475 6.709800
-3.463578 5.429358 9.407663
-4.406847 6.305748 8.406332
-4.148677 5.066188 9.251454
-3.229131 6.279368 9.101675
-4.627098 5.510555 8.755585
-3.709257 6.720849 8.582116
-0.755351 0.466832 11.282704
-2.250327 1.390778 11.018959
-0.755227 1.249686 11.226595
-1.517698 0.000000 11.264749
-5.066079 3.131009 9.718547
-3.697938 2.285451 10.495037
-4.373518 3.486739 9.856696
-0.759483 2.821821 11.028753
-2.244361 2.170158 10.876685
-0.756096 2.038781 11.141840
-1.509501 3.301270 10.792336
-1.508023 1.715033 11.083873
-3.099296 -0.951331 11.213358
-3.030304 0.930154 10.963743
-2.301146 -0.473751 11.241734
-2.281801 0.469768 11.147229
-2.980564 4.181794 10.119120
-2.989821 2.631066 10.594767
-3.676265 3.838601 9.990479
-2.254771 3.757520 10.486775
-3.690955 3.064694 10.258015
-2.255100 2.962530 10.697403
-9.100415 5.624366 4.431331
-8.369467 5.172615 6.029285
-9.425761 5.013687 4.878263
-8.400132 6.134677 4.734548
-6.322204 3.907337 8.701984
-7.433808 4.594346 7.463781
-7.014637 3.534437 8.509101
-6.097034 4.705497 8.348589
-10.045035 3.698237 5.797199
-8.617376 4.517482 6.464056
-9.743169 4.369179 5.335456
-9.585145 3.400659 6.612921
-9.047594 4.781417 5.694339
-7.007329 7.109979 5.328891
-7.634617 5.660203 6.298425
-7.700257 6.631245 5.034909
-6.586298 6.875191 6.118859
-8.041858 5.912866 5.538873
-8.457602 2.749990 8.077203
-8.119205 4.211883 7.212379
-7.728645 3.147170 8.300879
-9.051195 3.081895 7.378370
-7.590189 3.887350 7.885387
-8.839109 3.820331 6.922107
-5.622014 6.255929 7.583107
-7.154280 5.362094 7.050990
-5.862798 5.491971 7.973762
-6.120472 6.588035 6.877005
-6.649517 5.048782 7.721475
-6.881759 6.124704 6.592590
-6.804328 -3.107244 11.009635
-6.555547 -0.981362 10.607097
-7.581882 -2.649562 10.764868
-5.793843 -2.528272 11.077649
-5.899579 2.694084 9.545719
-6.249091 0.935486 10.111241
-6.614805 2.311607 9.391797
-5.226686 2.280780 9.993260
-9.012352 -1.647799 10.046291
-7.219102 -0.511157 10.273656
-8.326162 -2.159315 10.441804
-8.726208 -0.531768 9.719663
-7.404674 -1.543816 10.529551
-3.972027 -1.467663 11.176330
-5.624527 -0.500391 10.719976
-4.849179 -1.980911 11.132511
-3.921771 -0.484758 11.051685
-5.719525 -1.486161 10.912635
-8.119711 1.484590 9.051242
-7.019640 0.497034 9.989799
-7.357008 1.907974 9.226393
-8.426189 0.513485 9.385488
-6.820742 1.422071 9.699191
-7.841667 0.000000 9.864097
-3.802672 1.405086 10.699808
-5.504832 0.489743 10.491845
-4.521811 1.847180 10.380956
-3.864810 0.477717 10.891166
-5.373901 1.396355 10.253199
-4.731413 0.000000 10.809863
-12.838324 0.000000 -6.755367
-14.257090 0.000000 -5.139452
-12.456746 0.918177 -6.213051
-13.744833 -1.013121 -6.855510
-15.926571 0.000000 -1.103830
-15.336960 0.000000 -3.230342
-11.673741 2.557857 -5.174657
-13.679006 0.954763 -4.579595
-12.065987 1.772610 -5.682684
-13.105004 0.938019 -5.426142
-14.413804 -3.158238 -6.389254
-15.143050 -1.056950 -5.069742
-14.357428 -2.109245 -6.761877
-14.579169 -1.043536 -6.036522
-12.838324 0.000000 6.755367
-14.257090 0.000000 5.139452
-12.456746 0.918177 6.213051
-13.744833 -1.013121 6.855510
-15.926571 0.000000 1.103830
-15.336960 0.000000 3.230342
-11.673741 2.557857 5.174657
-13.679006 0.954763 4.579595
-12.065987 1.772610 5.682684
-13.105004 0.938019 5.426142
-14.413804 -3.158238 6.389254
-15.143050 -1.056950 5.069742
-14.357428 -2.109245 6.761877
-14.579169 -1.043536 6.036522
-10.077124 5.252998 -3.246531
-11.537990 4.065424 -2.512570
-10.473581 4.647236 -3.704958
-10.279039 5.376154 -2.346004
-14.976254 1.002625 -0.619657
-13.145351 2.684585 -1.659165
-14.833717 0.997883 -1.651211
-11.266804 3.318611 -4.656082
-12.037445 3.396942 -2.989336
-10.871942 4.000623 -4.177282
-12.156153 2.613706 -4.355675
-11.238462 4.043731 -3.357613
-10.486097 5.501816 -0.489474
-11.697506 4.157251 -1.536103
-10.416920 5.459711 -1.418651
-10.979869 4.782690 -1.953750
-14.181304 0.976581 -3.628434
-12.916945 2.665360 -2.577239
-14.564381 0.988353 -2.665052
-13.125785 1.835876 -4.015050
-13.832104 1.881935 -2.140274
-12.575206 2.650956 -3.482567
-14.667044 -7.645629 -4.725259
-15.465521 -5.449293 -3.367848
-14.602117 -6.479111 -5.165400
-15.248510 -7.975291 -3.480195
-15.988239 -1.070375 -0.661528
-15.846225 -3.236167 -2.000061
-15.898034 -1.069481 -1.769685
-14.478063 -4.264480 -5.983155
-15.377703 -4.339555 -3.818843
-14.538363 -5.349781 -5.586016
-14.890946 -3.201716 -5.335580
-15.048401 -5.414592 -4.495873
-15.966472 -8.377244 -0.745289
-15.795816 -5.613775 -2.074288
-15.708385 -8.233071 -2.139281
-15.585535 -6.788859 -2.773279
-15.477918 -1.065870 -3.960187
-15.622729 -3.223688 -3.117107
-15.725694 -1.067161 -2.877554
-15.221583 -2.129011 -4.656134
-15.787536 -2.147982 -2.442842
-15.300313 -3.225431 -4.237256
-10.077124 5.252998 3.246531
-11.537990 4.065424 2.512570
-10.473581 4.647236 3.704958
-10.279039 5.376154 2.346004
-14.976254 1.002625 0.619657
-13.145351 2.684585 1.659165
-14.833717 0.997883 1.651211
-14.102821 1.900071 0.000000
-11.266804 3.318611 4.656082
-12.037445 3.396942 2.989336
