15.043689 31.942118 4.692606
1.036536 14.590319 20.893944
3.213133 17.406716 19.752567
0.000000 15.767734 20.075674
8.054112 23.120504 16.323822
5.547733 20.260348 18.257777
-2.062228 17.932089 18.145739
2.136905 18.581436 18.802822
-1.038732 16.890877 19.152847
1.056325 17.176956 19.477238
1.207204 29.176467 1.953296
3.678311 29.142787 5.951633
3.327246 29.890436 2.010767
0.000000 28.444758 3.832358
8.354700 25.932706 13.518188
6.108651 28.051582 9.884006
9.649956 27.279550 12.104219
7.983309 31.201813 2.148680
5.932203 29.731795 6.135038
5.594389 30.573067 2.074718
9.525028 31.138713 4.355306
4.634554 29.952073 4.075146
-2.249134 26.510591 7.327347
2.379574 28.048094 7.752302
-1.160649 27.541309 5.637616
1.195512 28.368565 5.806952
12.326076 29.826687 8.785383
7.250114 29.194731 8.238691
10.986179 28.593018 10.521568
10.993761 30.682231 6.597015
8.478430 28.378649 10.210973
8.376703 30.247444 6.376409
-6.022047 21.337411 13.187245
-2.084350 22.528792 13.923559
-5.078430 20.633085 14.532237
-5.187501 22.729088 11.887791
6.856001 24.292290 15.013461
2.177561 23.536263 14.546210
5.634774 22.893445 16.124248
5.832941 25.557087 13.366894
-3.107633 18.946600 16.996663
-1.080056 21.707843 15.253685
-4.100506 19.828826 15.811253
-1.059029 19.356946 17.378456
-3.107766 21.196424 14.905917
-3.323405 25.307908 8.994338
-1.119886 23.991519 12.587803
-4.282129 24.065114 10.482454
-1.143786 26.076458 9.253422
-3.184380 23.382367 12.255154
3.290091 20.059009 17.994586
1.103549 22.180031 15.585483
4.440184 21.471410 17.121029
1.079517 19.731418 17.714653
3.309583 22.572912 15.873903
0.000000 20.782961 16.521844
3.604022 27.444825 9.753790
1.147609 24.585440 12.899420
4.736931 26.621051 11.595788
1.175404 26.797303 9.509219
3.418325 25.100187 13.155497
0.000000 25.427595 11.129508
0.000000 -11.584485 22.015883
0.000000 -8.308335 23.047723
0.000000 -1.666791 24.049227
0.000000 -4.995800 23.718970
0.000000 11.584485 22.015883
0.000000 8.308335 23.047723
0.000000 1.666791 24.049227
0.000000 4.995800 23.718970
-19.309556 -32.793491 -2.507909
-16.535958 -31.108074 -7.042223
-16.271806 -32.623867 -2.404679
-10.735626 -25.941200 -13.867509
-13.583938 -28.657805 -10.806091
-10.644120 -31.793420 -2.219107
-13.740283 -30.997322 -6.791886
-13.361090 -32.269179 -2.309737
-15.043689 -31.942118 -4.692606
-1.036536 -14.590319 -20.893944
-3.213133 -17.406716 -19.752567
-8.054112 -23.120504 -16.323822
-5.547733 -20.260348 -18.257777
-1.207204 -29.176467 -1.953296
-3.678311 -29.142787 -5.951633
-3.327246 -29.890436 -2.010767
-8.354700 -25.932706 -13.518188
-6.108651 -28.051582 -9.884006
-9.649956 -27.279550 -12.104219
-7.983309 -31.201813 -2.148680
-5.932203 -29.731795 -6.135038
-5.594389 -30.573067 -2.074718
-9.525028 -31.138713 -4.355306
-4.634554 -29.952073 -4.075146
-12.326076 -29.826687 -8.785383
-7.250114 -29.194731 -8.238691
-10.986179 -28.593018 -10.521568
-10.993761 -30.682231 -6.597015
-8.478430 -28.378649 -10.210973
-8.376703 -30.247444 -6.376409
13.126330 -22.292495 -1.704837
11.908732 -22.403161 -5.071611
11.580676 -23.218470 -1.711415
8.789866 -21.239532 -11.354117
10.448892 -22.043852 -8.312147
8.368285 -24.995622 -1.744636
10.331748 -23.307853 -5.107031
9.988463 -24.123743 -1.726710
10.985442 -23.325283 -3.426709
1.021694 -14.381394 -20.594755
3.056440 -16.557853 -18.789306
0.000000 -15.767734 -20.075674
6.976901 -20.028211 -14.140564
5.052936 -18.453344 -16.629381
-2.136905 -18.581436 -18.802822
2.062228 -17.932089 -18.145739
-1.056325 -17.176956 -19.477238
1.038732 -16.890877 -19.152847
1.170404 -28.287064 -1.893753
3.367876 -26.683247 -5.449338
3.062345 -27.510686 -1.850678
0.000000 -28.444758 -3.832358
7.103185 -22.048046 -11.493194
5.347520 -24.556386 -8.652470
7.970428 -22.531676 -9.997538
6.621519 -25.879420 -1.782159
5.168157 -25.902450 -5.344868
4.886260 -26.703177 -1.812103
7.679613 -25.105780 -3.511493
4.143363 -26.777615 -3.643243
-2.379574 -28.048094 -7.752302
2.249134 -26.510591 -7.327347
-1.195512 -28.368565 -5.806952
1.160649 -27.541309 -5.637616
9.574445 -23.168280 -6.824164
6.174686 -24.864199 -7.016624
8.801914 -22.908173 -8.429677
8.668842 -24.193670 -5.201904
7.095400 -23.749427 -8.545324
6.940892 -25.062874 -5.283459
-6.856001 -24.292290 -15.013461
-2.177561 -23.536263 -14.546210
-5.634774 -22.893445 -16.124248
-5.832941 -25.557087 -13.366894
6.022047 -21.337411 -13.187245
2.084350 -22.528792 -13.923559
5.078430 -20.633085 -14.532237
5.187501 -22.729088 -11.887791
-3.290091 -20.059009 -17.994586
-1.103549 -22.180031 -15.585483
-4.440184 -21.471410 -17.121029
-1.079517 -19.731418 -17.714653
-3.309583 -22.572912 -15.873903
-3.604022 -27.444825 -9.753790
-1.147609 -24.585440 -12.899420
-4.736931 -26.621051 -11.595788
-1.175404 -26.797303 -9.509219
-3.418325 -25.100187 -13.155497
3.107633 -18.946600 -16.996663
1.080056 -21.707843 -15.253685
4.100506 -19.828826 -15.811253
1.059029 -19.356946 -17.378456
3.107766 -21.196424 -14.905917
0.000000 -20.782961 -16.521844
3.323405 -25.307908 -8.994338
1.119886 -23.991519 -12.587803
4.282129 -24.065114 -10.482454
1.143786 -26.076458 -9.253422
3.184380 -23.382367 -12.255154
0.000000 -25.427595 -11.129508
-13.126330 22.292495 -1.704837
-11.908732 22.403161 -5.071611
-11.580676 23.218470 -1.711415
-8.789866 21.239532 -11.354117
-10.448892 22.043852 -8.312147
-8.368285 24.995622 -1.744636
-10.331748 23.307853 -5.107031
-9.988463 24.123743 -1.726710
-10.985442 23.325283 -3.426709
-1.021694 14.381394 -20.594755
-3.056440 16.557853 -18.789306
-6.976901 20.028211 -14.140564
-5.052936 18.453344 -16.629381
-1.170404 28.287064 -1.893753
-3.367876 26.683247 -5.449338
-3.062345 27.510686 -1.850678
-7.103185 22.048046 -11.493194
-5.347520 24.556386 -8.652470
-7.970428 22.531676 -9.997538
-6.621519 25.879420 -1.782159
-5.168157 25.902450 -5.344868
-4.886260 26.703177 -1.812103
-7.679613 25.105780 -3.511493
-4.143363 26.777615 -3.643243
-9.574445 23.168280 -6.824164
-6.174686 24.864199 -7.016624
-8.801914 22.908173 -8.429677
-8.668842 24.193670 -5.201904
-7.095400 23.749427 -8.545324
-6.940892 25.062874 -5.283459
19.309556 32.793491 -2.507909
16.535958 31.108074 -7.042223
16.271806 32.623867 -2.404679
10.735626 25.941200 -13.867509
13.583938 28.657805 -10.806091
10.644120 31.793420 -2.219107
13.740283 30.997322 -6.791886
13.361090 32.269179 -2.309737
15.043689 31.942118 -4.692606
1.036536 14.590319 -20.893944
3.213133 17.406716 -19.752567
0.000000 15.767734 -20.075674
8.054112 23.120504 -16.323822
5.547733 20.260348 -18.257777
-2.062228 17.932089 -18.145739
2.136905 18.581436 -18.802822
-1.038732 16.890877 -19.152847
1.056325 17.176956 -19.477238
1.207204 29.176467 -1.953296
3.678311 29.142787 -5.951633
3.327246 29.890436 -2.010767
0.000000 28.444758 -3.832358
8.354700 25.932706 -13.518188
6.108651 28.051582 -9.884006
9.649956 27.279550 -12.104219
7.983309 31.201813 -2.148680
5.932203 29.731795 -6.135038
5.594389 30.573067 -2.074718
9.525028 31.138713 -4.355306
4.634554 29.952073 -4.075146
-2.249134 26.510591 -7.327347
2.379574 28.048094 -7.752302
-1.160649 27.541309 -5.637616
1.195512 28.368565 -5.806952
12.326076 29.826687 -8.785383
7.250114 29.194731 -8.238691
10.986179 28.593018 -10.521568
10.993761 30.682231 -6.597015
8.478430 28.378649 -10.210973
8.376703 30.247444 -6.376409
-6.022047 21.337411 -13.187245
-2.084350 22.528792 -13.923559
-5.078430 20.633085 -14.532237
-5.187501 22.729088 -11.887791
6.856001 24.292290 -15.013461
2.177561 23.536263 -14.546210
5.634774 22.893445 -16.124248
5.832941 25.557087 -13.366894
-3.107633 18.946600 -16.996663
-1.080056 21.707843 -15.253685
-4.100506 19.828826 -15.811253
-1.059029 19.356946 -17.378456
-3.107766 21.196424 -14.905917
-3.323405 25.307908 -8.994338
-1.119886 23.991519 -12.587803
-4.282129 24.065114 -10.482454
-1.143786 26.076458 -9.253422
-3.184380 23.382367 -12.255154
3.290091 20.059009 -17.994586
1.103549 22.180031 -15.585483
4.440184 21.471410 -17.121029
1.079517 19.731418 -17.714653
3.309583 22.572912 -15.873903
0.000000 20.782961 -16.521844
3.604022 27.444825 -9.753790
1.147609 24.585440 -12.899420
4.736931 26.621051 -11.595788
1.175404 26.797303 -9.509219
3.418325 25.100187 -13.155497
0.000000 25.427595 -11.129508
0.000000 -11.584485 -22.015883
0.000000 -8.308335 -23.047723
0.000000 -1.666791 -24.049227
0.000000 -4.995800 -23.718970
0.000000 11.584485 -22.015883
0.000000 8.308335 -23.047723
0.000000 1.666791 -24.049227
0.000000 4.995800 -23.718970
22.934921 32.843762 -1.629360
27.203540 30.869680 -5.021544
21.561749 32.316102 -4.160840
31.305055 22.102380 -10.905230
29.914915 26.958068 -8.191368
18.348554 30.217363 -8.632927
25.322333 29.919541 -7.479304
19.986283 31.381117 -6.516801
23.603363 31.351182 -5.848852
28.067202 2.146462 -16.526609
30.163737 6.828444 -16.033981
31.810806 17.005252 -13.164731
31.464348 11.864364 -14.914253
12.012408 24.669314 -15.246475
17.621652 24.461248 -15.117883
13.503008 26.090462 -13.877862
29.125653 21.160498 -13.077907
23.481332 23.387034 -14.453982
28.574094 23.555593 -11.868861
16.656876 28.862027 -10.626007
19.410371 25.876394 -13.565168
15.059982 27.501296 -12.332546
19.945766 28.910533 -10.257003
16.415774 26.082617 -13.783982
26.738288 27.997537 -9.103403
22.568683 25.406286 -13.179652
27.789080 25.873397 -10.535867
23.358017 28.653750 -9.756485
25.612565 24.653731 -12.626520
21.359754 27.275107 -11.788512
14.844365 -21.257749 -1.054585
17.149013 -19.460135 -3.165563
14.297973 -21.429373 -2.759126
21.284866 -15.027803 -7.414661
19.298049 -17.390594 -5.284235
13.002403 -21.413040 -6.117583
16.510960 -19.508485 -4.876742
13.680359 -21.479979 -4.460668
15.431398 -20.496764 -3.823860
26.674687 -2.039968 -15.706665
25.894499 -5.861977 -13.764605
23.086194 -12.341295 -9.554097
24.652364 -9.295747 -11.685339
9.732849 -19.987892 -12.353197
13.309802 -18.475815 -11.418681
10.609400 -20.499443 -10.903925
20.399180 -14.820503 -9.159574
16.839267 -16.771643 -10.365445
19.512272 -16.085309 -8.104839
12.242135 -21.212431 -7.809689
14.174678 -18.896577 -9.906142
11.451860 -20.912441 -9.377872
14.035303 -20.343570 -7.217579
12.408986 -19.716331 -10.419566
17.581953 -18.409981 -5.986008
15.988994 -17.999320 -9.337247
18.567593 -17.287608 -7.039661
15.820197 -19.406954 -6.607989
17.741244 -17.077081 -8.746105
15.035092 -19.198898 -8.297912
1.631323 -12.560312 -21.331225
4.797251 -11.264503 -21.191213
2.647023 -13.717048 -20.558700
1.620355 -10.964499 -21.983076
11.006530 -8.520780 -20.589322
7.897541 -9.927706 -20.944315
4.681870 -15.851190 -18.728936
5.824526 -12.379536 -20.387269
3.672530 -14.820696 -19.685599
4.254562 -13.048255 -20.487492
1.606334 -7.704906 -23.014146
4.785319 -9.680910 -21.839599
1.613785 -9.335230 -22.546080
3.220846 -10.325479 -21.923990
24.875725 -1.234070 -17.370812
21.092455 -3.431091 -18.587476
24.728981 -3.183965 -16.499517
14.197236 -7.004862 -20.108479
17.539782 -5.329566 -19.463601
24.019223 -6.862154 -14.584927
20.971342 -5.242428 -17.749046
24.433361 -5.073986 -15.561335
22.814305 -4.256219 -17.176205
8.645045 -19.253278 -13.987977
9.990142 -16.229565 -16.164389
7.699537 -18.536514 -15.280924
10.465628 -18.568331 -13.560585
12.152039 -9.574360 -19.662411
11.155515 -13.003051 -18.050002
10.578907 -10.293160 -19.888406
5.735173 -16.845206 -17.638537
8.991530 -15.396993 -17.332885
6.721348 -17.728020 -16.505912
6.333212 -15.162354 -18.599964
8.373101 -16.984615 -16.348777
14.062678 -17.046035 -12.637701
11.811306 -15.531508 -15.759029
12.279548 -17.828608 -13.108683
11.162719 -17.071969 -14.701901
7.453461 -11.683727 -20.244856
9.579950 -13.707931 -18.274345
9.006170 -10.997953 -20.083554
6.907962 -13.433221 -19.470878
10.100876 -12.029449 -19.113293
7.972678 -14.445796 -18.446403
1.608998 -0.994416 -24.033672
4.815402 -2.976082 -23.579114
1.608406 -2.661452 -23.909255
11.080784 -6.848301 -21.256897
7.984221 -4.934520 -22.659845
9.513400 -7.584454 -21.440564
1.611993 -5.989276 -23.408373
4.804599 -4.645750 -23.284182
1.608305 -4.336725 -23.699997
3.212416 -7.025534 -22.967499
3.218165 -3.659933 -23.653315
6.400799 -8.980456 -21.730941
6.428576 -5.657198 -22.780384
7.947702 -8.298656 -21.598377
4.817399 -8.028075 -22.405367
7.978226 -6.624524 -22.173331
4.825319 -6.339032 -22.889618
21.384055 -13.216073 -10.412693
19.321295 -11.941217 -13.918878
22.146164 -11.779838 -11.461653
19.547820 -14.275913 -11.017695
14.055206 -8.686595 -19.345814
16.835412 -10.404857 -16.903293
15.691077 -7.906199 -19.034050
13.558457 -10.463985 -18.565417
23.461998 -8.637902 -13.540407
19.863474 -10.413018 -14.899966
22.847287 -10.245525 -12.511400
22.145384 -7.856835 -15.278399
21.060348 -11.129845 -13.254879
15.931653 -16.165035 -12.115606
17.457200 -12.942533 -14.401882
17.721444 -15.261210 -11.587386
14.843140 -15.494201 -13.789701
18.554527 -13.642424 -12.779529
19.111599 -6.214139 -18.252014
18.522386 -9.608590 -16.453639
17.383745 -7.078809 -18.670849
20.678930 -7.041091 -16.857089
17.144155 -8.780457 -17.810926
20.303112 -8.775162 -15.899827
12.450043 -13.853861 -16.792917
16.201288 -12.142777 -15.967383
13.020352 -12.196804 -17.708472
13.670870 -14.715232 -15.360683
14.920596 -11.328768 -17.325920
15.561360 -13.849471 -14.907477
1.665283 12.821788 -21.775291
5.076781 11.920873 -22.426001
2.745641 14.228096 -21.324644
1.649942 11.164708 -22.384482
12.195829 9.441484 -22.814079
8.594486 10.803810 -22.792617
5.048265 17.091677 -20.194629
6.283555 13.355163 -21.993983
3.880216 15.658825 -20.798844
4.505219 13.816991 -21.694509
1.627136 7.804688 -23.312188
5.025123 10.166044 -22.934034
1.639023 9.481225 -22.898680
3.334029 10.688325 -22.694417
25.604612 1.270230 -17.879796
22.698864 3.692404 -20.003105
26.703769 3.438227 -17.817123
23.658921 0.000000 -18.582070
15.823622 7.807315 -22.412038
19.375159 5.887257 -21.500288
28.501442 8.142698 -17.306614
23.517160 5.878834 -19.903693
27.688309 5.749929 -17.634375
25.169928 4.695682 -18.949683
19.896181 -2.261163 -19.661922
20.816807 2.365790 -20.571708
21.740684 -1.179080 -19.173088
22.288814 1.208807 -19.656483
10.308535 22.958016 -16.679560
11.901333 19.334406 -19.256762
8.934334 21.509269 -17.731571
12.928170 22.937424 -16.751365
13.813279 10.883221 -22.350356
13.081117 15.247564 -21.165692
11.919050 11.597105 -22.407883
6.330391 18.593467 -19.469133
10.428229 17.857178 -20.102395
7.599606 20.044487 -18.662689
6.998911 16.756106 -20.555051
9.731152 19.739387 -19.000422
18.456639 22.372162 -16.586420
14.453864 19.006392 -19.284816
15.669804 22.750900 -16.727854
13.750123 21.029077 -18.109651
8.181817 12.825468 -22.223195
11.043922 15.802725 -21.066961
10.027903 12.245650 -22.361994
7.620244 14.818324 -21.478525
11.533200 13.735248 -21.823595
9.011741 16.328488 -20.850486
1.611716 0.996095 -24.074260
4.889167 3.021671 -23.940312
1.615684 2.673496 -24.017451
3.233877 0.000000 -24.002674
12.033831 7.437317 -23.085181
8.328787 5.147474 -23.637750
10.288743 8.202587 -23.187970
1.628376 6.050148 -23.646284
4.920039 4.757374 -23.843632
1.620153 4.368672 -23.874587
3.289714 7.194585 -23.520152
3.258539 3.705849 -23.950063
6.497263 -1.994339 -23.507319
6.586907 2.021855 -23.831652
4.874465 -1.003535 -23.813105
4.899658 1.008722 -23.936182
6.806773 9.550046 -23.109238
6.683751 5.881754 -23.684625
8.534393 8.911254 -23.192745
5.019217 8.364399 -23.344006
8.445876 7.012825 -23.473038
4.984934 6.548719 -23.646777
29.512791 18.239908 -14.370877
25.016179 15.460849 -18.021418
29.609364 15.749613 -15.324201
26.960635 19.689544 -15.195764
16.079163 9.937469 -22.131621
20.456410 12.642757 -20.538892
17.977273 9.058135 -21.807317
15.867652 12.246149 -21.727368
29.115568 10.719352 -16.803200
24.965304 13.087548 -18.726945
29.481442 13.220513 -16.144330
26.660489 9.458723 -18.393431
27.303143 14.428999 -17.183944
21.417177 21.730916 -16.287204
22.518564 16.694961 -18.577418
24.218645 20.856418 -15.835662
19.246498 20.090703 -17.880546
24.736876 18.188065 -17.037655
21.694305 7.053906 -20.718557
22.541869 11.693720 -20.024190
19.866555 8.089830 -21.337488
24.156308 8.225124 -19.691785
20.233951 10.362910 -21.020891
24.647937 10.653029 -19.302358
15.068265 16.767303 -20.324438
20.196161 15.136913 -19.904580
15.529429 14.547179 -21.120968
17.113302 18.420642 -19.228622
18.014553 13.677918 -20.918648
19.833087 17.651270 -18.999708
12.978176 -5.926574 -20.999130
13.613348 -2.037912 -22.026859
14.610445 -5.105761 -20.744125
11.408630 -4.978409 -21.812947
14.105046 6.441167 -22.822443
14.012204 2.097621 -22.672223
15.827445 5.531053 -22.472041
12.127295 5.292014 -23.187012
18.028338 -3.296262 -20.096633
15.294954 -1.082978 -21.766573
16.301689 -4.227696 -20.443879
18.519290 -1.128551 -20.627661
14.980572 -3.123330 -21.302584
8.194489 -3.027861 -23.057327
11.899324 -1.058634 -22.679324
9.801695 -4.004036 -22.502260
8.296284 -1.025477 -23.379210
11.684280 -3.036043 -22.293159
19.171619 3.505297 -21.371076
15.555457 1.101423 -22.137301
17.533033 4.547034 -21.988102
18.909673 1.152340 -21.062487
15.733807 3.280374 -22.373694
17.057594 0.000000 -21.456884
8.413433 3.108761 -23.673383
12.055726 1.072549 -22.977415
10.221568 4.175556 -23.466184
8.370603 1.034663 -23.588642
12.131277 3.152191 -23.146013
10.156541 0.000000 -23.204655
22.934921 32.843762 1.629360
27.203540 30.869680 5.021544
21.561749 32.316102 4.160840
25.605980 32.601851 0.000000
31.305055 22.102380 10.905230
29.914915 26.958068 8.191368
18.348554 30.217363 8.632927
25.322333 29.919541 7.479304
19.986283 31.381117 6.516801
23.603363 31.351182 5.848852
30.019371 30.377033 -3.452291
30.019371 30.377033 3.452291
28.038903 31.793780 -1.724297
28.038903 31.793780 1.724297
28.067202 2.146462 16.526609
30.163737 6.828444 16.033981
31.810806 17.005252 13.164731
31.464348 11.864364 14.914253
12.012408 24.669314 15.246475
17.621652 24.461248 15.117883
13.503008 26.090462 13.877862
29.125653 21.160498 13.077907
23.481332 23.387034 14.453982
28.574094 23.555593 11.868861
16.656876 28.862027 10.626007
19.410371 25.876394 13.565168
15.059982 27.501296 12.332546
19.945766 28.910533 10.257003
16.415774 26.082617 13.783982
26.738288 27.997537 9.103403
22.568683 25.406286 13.179652
27.789080 25.873397 10.535867
23.358017 28.653750 9.756485
25.612565 24.653731 12.626520
21.359754 27.275107 11.788512
33.660934 20.803601 -9.500109
36.619208 22.631915 -3.387987
33.252426 23.420256 -8.184435
33.660934 20.803601 9.500109
36.619208 22.631915 3.387987
33.252426 23.420256 8.184435
31.571347 28.322103 -5.178351
35.812564 25.164803 -1.781824
32.581380 25.979978 -6.737673
32.547690 29.220963 -1.780702
34.864833 24.517925 -5.111793
31.571347 28.322103 5.178351
35.812564 25.164803 1.781824
32.581380 25.979978 6.737673
32.547690 29.220963 1.780702
34.864833 24.517925 5.111793
34.505379 27.430764 0.000000
14.844365 -21.257749 1.054585
17.149013 -19.460135 3.165563
14.297973 -21.429373 2.759126
16.080140 -20.473433 0.000000
21.284866 -15.027803 7.414661
19.298049 -17.390594 5.284235
13.002403 -21.413040 6.117583
16.510960 -19.508485 4.876742
13.680359 -21.479979 4.460668
15.431398 -20.496764 3.823860
18.464902 -18.684900 -2.123503
18.464902 -18.684900 2.123503
17.294707 -19.610757 -1.063566
17.294707 -19.610757 1.063566
26.674687 -2.039968 15.706665
25.894499 -5.861977 13.764605
23.086194 -12.341295 9.554097
24.652364 -9.295747 11.685339
9.732849 -19.987892 12.353197
13.309802 -18.475815 11.418681
10.609400 -20.499443 10.903925
20.399180 -14.820503 9.159574
16.839267 -16.771643 10.365445
19.512272 -16.085309 8.104839
12.242135 -21.212431 7.809689
14.174678 -18.896577 9.906142
11.451860 -20.912441 9.377872
14.035303 -20.343570 7.217579
12.408986 -19.716331 10.419566
17.581953 -18.409981 5.986008
15.988994 -17.999320 9.337247
18.567593 -17.287608 7.039661
15.820197 -19.406954 6.607989
17.741244 -17.077081 8.746105
15.035092 -19.198898 8.297912
22.877361 -14.138986 -6.456666
23.665834 -14.626289 -2.189549
21.844364 -15.385362 -5.376563
22.877361 -14.138986 6.456666
23.665834 -14.626289 2.189549
21.844364 -15.385362 5.376563
19.659494 -17.636188 -3.224562
22.423951 -15.756881 -1.115685
20.763736 -16.556739 -4.293841
19.814249 -17.789018 -1.084049
22.228863 -15.631958 -3.259139
19.659494 -17.636188 3.224562
22.423951 -15.756881 1.115685
20.763736 -16.556739 4.293841
19.814249 -17.789018 1.084049
22.228863 -15.631958 3.259139
21.143705 -16.808625 0.000000
1.631323 -12.560312 21.331225
4.797251 -11.264503 21.191213
2.647023 -13.717048 20.558700
1.620355 -10.964499 21.983076
11.006530 -8.520780 20.589322
7.897541 -9.927706 20.944315
4.681870 -15.851190 18.728936
5.824526 -12.379536 20.387269
3.672530 -14.820696 19.685599
4.254562 -13.048255 20.487492
1.606334 -7.704906 23.014146
4.785319 -9.680910 21.839599
1.613785 -9.335230 22.546080
3.220846 -10.325479 21.923990
24.875725 -1.234070 17.370812
21.092455 -3.431091 18.587476
24.728981 -3.183965 16.499517
14.197236 -7.004862 20.108479
17.539782 -5.329566 19.463601
24.019223 -6.862154 14.584927
20.971342 -5.242428 17.749046
24.433361 -5.073986 15.561335
22.814305 -4.256219 17.176205
8.645045 -19.253278 13.987977
9.990142 -16.229565 16.164389
7.699537 -18.536514 15.280924
10.465628 -18.568331 13.560585
12.152039 -9.574360 19.662411
11.155515 -13.003051 18.050002
10.578907 -10.293160 19.888406
5.735173 -16.845206 17.638537
8.991530 -15.396993 17.332885
6.721348 -17.728020 16.505912
6.333212 -15.162354 18.599964
8.373101 -16.984615 16.348777
14.062678 -17.046035 12.637701
11.811306 -15.531508 15.759029
12.279548 -17.828608 13.108683
11.162719 -17.071969 14.701901
7.453461 -11.683727 20.244856
9.579950 -13.707931 18.274345
9.006170 -10.997953 20.083554
6.907962 -13.433221 19.470878
10.100876 -12.029449 19.113293
7.972678 -14.445796 18.446403
1.608998 -0.994416 24.033672
4.815402 -2.976082 23.579114
1.608406 -2.661452 23.909255
11.080784 -6.848301 21.256897
7.984221 -4.934520 22.659845
9.513400 -7.584454 21.440564
1.611993 -5.989276 23.408373
4.804599 -4.645750 23.284182
1.608305 -4.336725 23.699997
3.212416 -7.025534 22.967499
3.218165 -3.659933 23.653315
6.400799 -8.980456 21.730941
6.428576 -5.657198 22.780384
7.947702 -8.298656 21.598377
4.817399 -8.028075 22.405367
7.978226 -6.624524 22.173331
4.825319 -6.339032 22.889618
21.384055 -13.216073 10.412693
19.321295 -11.941217 13.918878
22.146164 -11.779838 11.461653
19.547820 -14.275913 11.017695
14.055206 -8.686595 19.345814
16.835412 -10.404857 16.903293
15.691077 -7.906199 19.034050
13.558457 -10.463985 18.565417
23.461998 -8.637902 13.540407
19.863474 -10.413018 14.899966
22.847287 -10.245525 12.511400
22.145384 -7.856835 15.278399
21.060348 -11.129845 13.254879
15.931653 -16.165035 12.115606
17.457200 -12.942533 14.401882
17.721444 -15.261210 11.587386
14.843140 -15.494201 13.789701
18.554527 -13.642424 12.779529
19.111599 -6.214139 18.252014
18.522386 -9.608590 16.453639
17.383745 -7.078809 18.670849
20.678930 -7.041091 16.857089
17.144155 -8.780457 17.810926
20.303112 -8.775162 15.899827
12.450043 -13.853861 16.792917
16.201288 -12.142777 15.967383
13.020352 -12.196804 17.708472
13.670870 -14.715232 15.360683
14.920596 -11.328768 17.325920
15.561360 -13.849471 14.907477
1.665283 12.821788 21.775291
5.076781 11.920873 22.426001
2.745641 14.228096 21.324644
1.649942 11.164708 22.384482
12.195829 9.441484 22.814079
8.594486 10.803810 22.792617
5.048265 17.091677 20.194629
6.283555 13.355163 21.993983
3.880216 15.658825 20.798844
4.505219 13.816991 21.694509
1.627136 7.804688 23.312188
5.025123 10.166044 22.934034
1.639023 9.481225 22.898680
3.334029 10.688325 22.694417
25.604612 1.270230 17.879796
22.698864 3.692404 20.003105
26.703769 3.438227 17.817123
23.658921 0.000000 18.582070
15.823622 7.807315 22.412038
19.375159 5.887257 21.500288
28.501442 8.142698 17.306614
23.517160 5.878834 19.903693
27.688309 5.749929 17.634375
25.169928 4.695682 18.949683
19.896181 -2.261163 19.661922
20.816807 2.365790 20.571708
21.740684 -1.179080 19.173088
22.288814 1.208807 19.656483
10.308535 22.958016 16.679560
11.901333 19.334406 19.256762
8.934334 21.509269 17.731571
12.928170 22.937424 16.751365
13.813279 10.883221 22.350356
13.081117 15.247564 21.165692
11.919050 11.597105 22.407883
6.330391 18.593467 19.469133
10.428229 17.857178 20.102395
7.599606 20.044487 18.662689
6.998911 16.756106 20.555051
9.731152 19.739387 19.000422
18.456639 22.372162 16.586420
14.453864 19.006392 19.284816
15.669804 22.750900 16.727854
13.750123 21.029077 18.109651
8.181817 12.825468 22.223195
11.043922 15.802725 21.066961
10.027903 12.245650 22.361994
7.620244 14.818324 21.478525
11.533200 13.735248 21.823595
9.011741 16.328488 20.850486
1.611716 0.996095 24.074260
4.889167 3.021671 23.940312
1.615684 2.673496 24.017451
3.233877 0.000000 24.002674
12.033831 7.437317 23.085181
8.328787 5.147474 23.637750
10.288743 8.202587 23.187970
1.628376 6.050148 23.646284
4.920039 4.757374 23.843632
1.620153 4.368672 23.874587
3.289714 7.194585 23.520152
3.258539 3.705849 23.950063
6.497263 -1.994339 23.507319
6.586907 2.021855 23.831652
4.874465 -1.003535 23.813105
4.899658 1.008722 23.936182
6.806773 9.550046 23.109238
6.683751 5.881754 23.684625
8.534393 8.911254 23.192745
5.019217 8.364399 23.344006
8.445876 7.012825 23.473038
4.984934 6.548719 23.646777
29.512791 18.239908 14.370877
25.016179 15.460849 18.021418
29.609364 15.749613 15.324201
26.960635 19.689544 15.195764
16.079163 9.937469 22.131621
20.456410 12.642757 20.538892
17.977273 9.058135 21.807317
15.867652 12.246149 21.727368
29.115568 10.719352 16.803200
24.965304 13.087548 18.726945
29.481442 13.220513 16.144330
26.660489 9.458723 18.393431
27.303143 14.428999 17.183944
21.417177 21.730916 16.287204
22.518564 16.694961 18.577418
24.218645 20.856418 15.835662
19.246498 20.090703 17.880546
24.736876 18.188065 17.037655
21.694305 7.053906 20.718557
22.541869 11.693720 20.024190
19.866555 8.089830 21.337488
24.156308 8.225124 19.691785
20.233951 10.362910 21.020891
24.647937 10.653029 19.302358
15.068265 16.767303 20.324438
20.196161 15.136913 19.904580
15.529429 14.547179 21.120968
17.113302 18.420642 19.228622
18.014553 13.677918 20.918648
19.833087 17.651270 18.999708
12.978176 -5.926574 20.999130
13.613348 -2.037912 22.026859
14.610445 -5.105761 20.744125
11.408630 -4.978409 21.812947
14.105046 6.441167 22.822443
14.012204 2.097621 22.672223
15.827445 5.531053 22.472041
12.127295 5.292014 23.187012
18.028338 -3.296262 20.096633
15.294954 -1.082978 21.766573
16.301689 -4.227696 20.443879
18.519290 -1.128551 20.627661
14.980572 -3.123330 21.302584
8.194489 -3.027861 23.057327
11.899324 -1.058634 22.679324
9.801695 -4.004036 22.502260
8.296284 -1.025477 23.379210
11.684280 -3.036043 22.293159
19.171619 3.505297 21.371076
15.555457 1.101423 22.137301
17.533033 4.547034 21.988102
18.909673 1.152340 21.062487
15.733807 3.280374 22.373694
17.057594 0.000000 21.456884
8.413433 3.108761 23.673383
12.055726 1.072549 22.977415
10.221568 4.175556 23.466184
8.370603 1.034663 23.588642
12.131277 3.152191 23.146013
10.156541 0.000000 23.204655
28.732525 0.000000 -15.118699
32.194442 0.000000 -11.605581
30.040698 2.214276 -14.983398
28.443833 -2.096572 -14.186930
36.376357 0.000000 -2.521152
34.883505 0.000000 -7.347326
32.244311 7.065116 -14.293040
33.623928 2.346872 -11.256956
31.239105 4.589326 -14.712593
31.922090 2.284894 -13.217378
27.393624 -6.002272 -12.142861
31.618657 -2.206909 -10.585611
27.987515 -4.111636 -13.181200
30.115250 -2.155565 -12.469254
28.732525 0.000000 15.118699
32.194442 0.000000 11.605581
30.040698 2.214276 14.983398
28.443833 -2.096572 14.186930
36.376357 0.000000 2.521152
34.883505 0.000000 7.347326
32.244311 7.065116 14.293040
33.623928 2.346872 11.256956
31.239105 4.589326 14.712593
31.922090 2.284894 13.217378
27.393624 -6.002272 12.142861
31.618657 -2.206909 10.585611
27.987515 -4.111636 13.181200
30.115250 -2.155565 12.469254
33.880203 17.661055 -10.915132
37.126039 13.081401 -8.084750
33.843405 15.016670 -11.971875
35.713410 18.678865 -8.150937
37.669539 2.521888 -1.558612
38.451158 7.852618 -4.853185
37.213726 2.503414 -4.142436
33.063111 9.738664 -13.663550
36.701974 10.357219 -9.114436
33.576177 12.355255 -12.900838
34.226276 7.359024 -12.263629
35.501664 12.773918 -10.606508
37.974752 19.924486 -1.772601
38.432444 13.658749 -5.046904
37.161047 19.476829 -5.060860
37.323451 16.257616 -6.641308
35.171818 2.422070 -8.999076
37.421150 7.721706 -7.466413
36.359789 2.467411 -6.653267
34.939829 4.886961 -10.687753
37.580356 5.113016 -5.814896
35.989318 7.586843 -9.966852
24.051677 -12.537646 -7.748691
27.818539 -9.801893 -6.057903
24.984603 -11.085927 -8.838134
24.679117 -12.907698 -5.632560
35.124268 -2.351488 -1.453299
31.616016 -6.456724 -3.990475
34.732032 -2.336467 -3.866187
26.665333 -7.854213 -11.019626
28.899530 -8.155386 -7.176805
25.864429 -9.517510 -9.937784
28.754088 -6.182443 -10.302887
26.934060 -9.691193 -8.046844
25.335886 -13.293161 -1.182639
28.340075 -10.071959 -3.721586
25.114831 -13.163172 -3.420319
26.515103 -11.549638 -4.718078
32.961648 -2.269869 -8.433581
30.940555 -6.384461 -6.173379
33.995666 -2.306979 -6.220670
30.880226 -4.319153 -9.445960
32.880210 -4.473535 -5.087631
29.954798 -6.314716 -8.295657
33.880203 17.661055 10.915132
37.126039 13.081401 8.084750
33.843405 15.016670 11.971875
35.713410 18.678865 8.150937
37.669539 2.521888 1.558612
38.451158 7.852618 4.853185
37.213726 2.503414 4.142436
38.638107 5.205706 0.000000
33.063111 9.738664 13.663550
36.701974 10.357219 9.114436
33.576177 12.355255 12.900838
34.226276 7.359024 12.263629
35.501664 12.773918 10.606508
37.974752 19.924486 1.772601
38.432444 13.658749 5.046904
37.161047 19.476829 5.060860
38.817916 16.990373 0.000000
37.323451 16.257616 6.641308
35.171818 2.422070 8.999076
37.421150 7.721706 7.466413
36.359789 2.467411 6.653267
34.939829 4.886961 10.687753
37.580356 5.113016 5.814896
35.989318 7.586843 9.966852
39.056083 10.794836 -3.313482
39.056083 10.794836 3.313482
39.114923 8.006696 -1.648386
39.173679 13.901067 -1.718266
39.114923 8.006696 1.648386
39.173679 13.901067 1.718266
24.051677 -12.537646 7.748691
27.818539 -9.801893 6.057903
24.984603 -11.085927 8.838134
24.679117 -12.907698 5.632560
35.124268 -2.351488 1.453299
31.616016 -6.456724 3.990475
34.732032 -2.336467 3.866187
33.664161 -4.535567 0.000000
26.665333 -7.854213 11.019626
28.899530 -8.155386 7.176805
25.864429 -9.517510 9.937784
28.754088 -6.182443 10.302887
26.934060 -9.691193 8.046844
25.335886 -13.293161 1.182639
28.340075 -10.071959 3.721586
25.114831 -13.163172 3.420319
27.006042 -11.820385 0.000000
26.515103 -11.549638 4.718078
32.961648 -2.269869 8.433581
30.940555 -6.384461 6.173379
33.995666 -2.306979 6.220670
30.880226 -4.319153 9.445960
32.880210 -4.473535 5.087631
29.954798 -6.314716 8.295657
30.239938 -8.358113 -2.565528
30.239938 -8.358113 2.565528
31.998272 -6.549941 -1.348475
28.660670 -10.170449 -1.257137
31.998272 -6.549941 1.348475
28.660670 -10.170449 1.257137
-14.844365 21.257749 -1.054585
-17.149013 19.460135 -3.165563
-14.297973 21.429373 -2.759126
-21.284866 15.027803 -7.414661
-19.298049 17.390594 -5.284235
-13.002403 21.413040 -6.117583
-16.510960 19.508485 -4.876742
-13.680359 21.479979 -4.460668
-15.431398 20.496764 -3.823860
-26.674687 2.039968 -15.706665
-25.894499 5.861977 -13.764605
-23.086194 12.341295 -9.554097
-24.652364 9.295747 -11.685339
-9.732849 19.987892 -12.353197
-13.309802 18.475815 -11.418681
-10.609400 20.499443 -10.903925
-20.399180 14.820503 -9.159574
-16.839267 16.771643 -10.365445
-19.512272 16.085309 -8.104839
-12.242135 21.212431 -7.809689
-14.174678 18.896577 -9.906142
-11.451860 20.912441 -9.377872
-14.035303 20.343570 -7.217579
-12.408986 19.716331 -10.419566
-17.581953 18.409981 -5.986008
-15.988994 17.999320 -9.337247
-18.567593 17.287608 -7.039661
-15.820197 19.406954 -6.607989
-17.741244 17.077081 -8.746105
-15.035092 19.198898 -8.297912
-22.934921 -32.843762 -1.629360
-27.203540 -30.869680 -5.021544
-21.561749 -32.316102 -4.160840
-31.305055 -22.102380 -10.905230
-29.914915 -26.958068 -8.191368
-18.348554 -30.217363 -8.632927
-25.322333 -29.919541 -7.479304
-19.986283 -31.381117 -6.516801
-23.603363 -31.351182 -5.848852
-28.067202 -2.146462 -16.526609
-30.163737 -6.828444 -16.033981
-31.810806 -17.005252 -13.164731
-31.464348 -11.864364 -14.914253
-12.012408 -24.669314 -15.246475
-17.621652 -24.461248 -15.117883
-13.503008 -26.090462 -13.877862
-29.125653 -21.160498 -13.077907
-23.481332 -23.387034 -14.453982
-28.574094 -23.555593 -11.868861
-16.656876 -28.862027 -10.626007
-19.410371 -25.876394 -13.565168
-15.059982 -27.501296 -12.332546
-19.945766 -28.910533 -10.257003
-16.415774 -26.082617 -13.783982
-26.738288 -27.997537 -9.103403
-22.568683 -25.406286 -13.179652
-27.789080 -25.873397 -10.535867
-23.358017 -28.653750 -9.756485
-25.612565 -24.653731 -12.626520
-21.359754 -27.275107 -11.788512
-1.665283 -12.821788 -21.775291
-5.076781 -11.920873 -22.426001
-2.745641 -14.228096 -21.324644
-1.649942 -11.164708 -22.384482
-12.195829 -9.441484 -22.814079
-8.594486 -10.803810 -22.792617
-5.048265 -17.091677 -20.194629
-6.283555 -13.355163 -21.993983
-3.880216 -15.658825 -20.798844
-4.505219 -13.816991 -21.694509
-1.627136 -7.804688 -23.312188
-5.025123 -10.166044 -22.934034
-1.639023 -9.481225 -22.898680
-3.334029 -10.688325 -22.694417
-25.604612 -1.270230 -17.879796
-22.698864 -3.692404 -20.003105
-26.703769 -3.438227 -17.817123
-15.823622 -7.807315 -22.412038
-19.375159 -5.887257 -21.500288
-28.501442 -8.142698 -17.306614
-23.517160 -5.878834 -19.903693
-27.688309 -5.749929 -17.634375
-25.169928 -4.695682 -18.949683
-10.308535 -22.958016 -16.679560
-11.901333 -19.334406 -19.256762
-8.934334 -21.509269 -17.731571
-12.928170 -22.937424 -16.751365
-13.813279 -10.883221 -22.350356
-13.081117 -15.247564 -21.165692
-11.919050 -11.597105 -22.407883
-6.330391 -18.593467 -19.469133
-10.428229 -17.857178 -20.102395
-7.599606 -20.044487 -18.662689
-6.998911 -16.756106 -20.555051
-9.731152 -19.739387 -19.000422
-18.456639 -22.372162 -16.586420
-14.453864 -19.006392 -19.284816
-15.669804 -22.750900 -16.727854
-13.750123 -21.029077 -18.109651
-8.181817 -12.825468 -22.223195
-11.043922 -15.802725 -21.066961
-10.027903 -12.245650 -22.361994
-7.620244 -14.818324 -21.478525
-11.533200 -13.735248 -21.823595
-9.011741 -16.328488 -20.850486
-1.611716 -0.996095 -24.074260
-4.889167 -3.021671 -23.940312
-1.615684 -2.673496 -24.017451
-12.033831 -7.437317 -23.085181
-8.328787 -5.147474 -23.637750
-10.288743 -8.202587 -23.187970
-1.628376 -6.050148 -23.646284
-4.920039 -4.757374 -23.843632
-1.620153 -4.368672 -23.874587
-3.289714 -7.194585 -23.520152
-3.258539 -3.705849 -23.950063
-6.806773 -9.550046 -23.109238
-6.683751 -5.881754 -23.684625
-8.534393 -8.911254 -23.192745
-5.019217 -8.364399 -23.344006
-8.445876 -7.012825 -23.473038
-4.984934 -6.548719 -23.646777
-29.512791 -18.239908 -14.370877
-25.016179 -15.460849 -18.021418
-29.609364 -15.749613 -15.324201
-26.960635 -19.689544 -15.195764
-16.079163 -9.937469 -22.131621
-20.456410 -12.642757 -20.538892
-17.977273 -9.058135 -21.807317
-15.867652 -12.246149 -21.727368
-29.115568 -10.719352 -16.803200
-24.965304 -13.087548 -18.726945
-29.481442 -13.220513 -16.144330
-26.660489 -9.458723 -18.393431
-27.303143 -14.428999 -17.183944
-21.417177 -21.730916 -16.287204
-22.518564 -16.694961 -18.577418
-24.218645 -20.856418 -15.835662
-19.246498 -20.090703 -17.880546
-24.736876 -18.188065 -17.037655
-21.694305 -7.053906 -20.718557
-22.541869 -11.693720 -20.024190
-19.866555 -8.089830 -21.337488
-24.156308 -8.225124 -19.691785
-20.233951 -10.362910 -21.020891
-24.647937 -10.653029 -19.302358
-15.068265 -16.767303 -20.324438
-20.196161 -15.136913 -19.904580
-15.529429 -14.547179 -21.120968
-17.113302 -18.420642 -19.228622
-18.014553 -13.677918 -20.918648
-19.833087 -17.651270 -18.999708
-1.631323 12.560312 -21.331225
-4.797251 11.264503 -21.191213
-2.647023 13.717048 -20.558700
-1.620355 10.964499 -21.983076
-11.006530 8.520780 -20.589322
-7.897541 9.927706 -20.944315
-4.681870 15.851190 -18.728936
-5.824526 12.379536 -20.387269
-3.672530 14.820696 -19.685599
-4.254562 13.048255 -20.487492
-1.606334 7.704906 -23.014146
-4.785319 9.680910 -21.839599
-1.613785 9.335230 -22.546080
-3.220846 10.325479 -21.923990
-24.875725 1.234070 -17.370812
-21.092455 3.431091 -18.587476
-24.728981 3.183965 -16.499517
-23.658921 0.000000 -18.582070
-14.197236 7.004862 -20.108479
-17.539782 5.329566 -19.463601
-24.019223 6.862154 -14.584927
-20.971342 5.242428 -17.749046
-24.433361 5.073986 -15.561335
-22.814305 4.256219 -17.176205
-20.816807 -2.365790 -20.571708
-19.896181 2.261163 -19.661922
-22.288814 -1.208807 -19.656483
-21.740684 1.179080 -19.173088
-8.645045 19.253278 -13.987977
-9.990142 16.229565 -16.164389
-7.699537 18.536514 -15.280924
-10.465628 18.568331 -13.560585
-12.152039 9.574360 -19.662411
-11.155515 13.003051 -18.050002
-10.578907 10.293160 -19.888406
-5.735173 16.845206 -17.638537
-8.991530 15.396993 -17.332885
-6.721348 17.728020 -16.505912
-6.333212 15.162354 -18.599964
-8.373101 16.984615 -16.348777
-14.062678 17.046035 -12.637701
-11.811306 15.531508 -15.759029
-12.279548 17.828608 -13.108683
-11.162719 17.071969 -14.701901
-7.453461 11.683727 -20.244856
-9.579950 13.707931 -18.274345
-9.006170 10.997953 -20.083554
-6.907962 13.433221 -19.470878
-10.100876 12.029449 -19.113293
-7.972678 14.445796 -18.446403
-1.608998 0.994416 -24.033672
-4.815402 2.976082 -23.579114
-1.608406 2.661452 -23.909255
-3.233877 0.000000 -24.002674
-11.080784 6.848301 -21.256897
-7.984221 4.934520 -22.659845
-9.513400 7.584454 -21.440564
-1.611993 5.989276 -23.408373
-4.804599 4.645750 -23.284182
-1.608305 4.336725 -23.699997
-3.212416 7.025534 -22.967499
-3.218165 3.659933 -23.653315
-6.586907 -2.021855 -23.831652
-6.497263 1.994339 -23.507319
-4.899658 -1.008722 -23.936182
-4.874465 1.003535 -23.813105
-6.400799 8.980456 -21.730941
-6.428576 5.657198 -22.780384
-7.947702 8.298656 -21.598377
-4.817399 8.028075 -22.405367
-7.978226 6.624524 -22.173331
-4.825319 6.339032 -22.889618
-21.384055 13.216073 -10.412693
-19.321295 11.941217 -13.918878
-22.146164 11.779838 -11.461653
-19.547820 14.275913 -11.017695
-14.055206 8.686595 -19.345814
-16.835412 10.404857 -16.903293
-15.691077 7.906199 -19.034050
-13.558457 10.463985 -18.565417
-23.461998 8.637902 -13.540407
-19.863474 10.413018 -14.899966
-22.847287 10.245525 -12.511400
-22.145384 7.856835 -15.278399
-21.060348 11.129845 -13.254879
-15.931653 16.165035 -12.115606
-17.457200 12.942533 -14.401882
-17.721444 15.261210 -11.587386
-14.843140 15.494201 -13.789701
-18.554527 13.642424 -12.779529
-19.111599 6.214139 -18.252014
-18.522386 9.608590 -16.453639
-17.383745 7.078809 -18.670849
-20.678930 7.041091 -16.857089
-17.144155 8.780457 -17.810926
-20.303112 8.775162 -15.899827
-12.450043 13.853861 -16.792917
-16.201288 12.142777 -15.967383
-13.020352 12.196804 -17.708472
-13.670870 14.715232 -15.360683
-14.920596 11.328768 -17.325920
-15.561360 13.849471 -14.907477
-14.105046 -6.441167 -22.822443
-14.012204 -2.097621 -22.672223
-15.827445 -5.531053 -22.472041
-12.127295 -5.292014 -23.187012
-12.978176 5.926574 -20.999130
-13.613348 2.037912 -22.026859
-14.610445 5.105761 -20.744125
-11.408630 4.978409 -21.812947
-19.171619 -3.505297 -21.371076
-15.555457 -1.101423 -22.137301
-17.533033 -4.547034 -21.988102
-18.909673 -1.152340 -21.062487
-15.733807 -3.280374 -22.373694
-8.413433 -3.108761 -23.673383
-12.055726 -1.072549 -22.977415
-10.221568 -4.175556 -23.466184
-8.370603 -1.034663 -23.588642
-12.131277 -3.152191 -23.146013
-18.028338 3.296262 -20.096633
-15.294954 1.082978 -21.766573
-16.301689 4.227696 -20.443879
-18.519290 1.128551 -20.627661
-14.980572 3.123330 -21.302584
-17.057594 0.000000 -21.456884
-8.194489 3.027861 -23.057327
-11.899324 1.058634 -22.679324
-9.801695 4.004036 -22.502260
-8.296284 1.025477 -23.379210
-11.684280 3.036043 -22.293159
-10.156541 0.000000 -23.204655
-14.844365 21.257749 1.054585
-17.149013 19.460135 3.165563
-14.297973 21.429373 2.759126
-16.080140 20.473433 0.000000
-21.284866 15.027803 7.414661
-19.298049 17.390594 5.284235
-13.002403 21.413040 6.117583
-16.510960 19.508485 4.876742
-13.680359 21.479979 4.460668
-15.431398 20.496764 3.823860
-18.464902 18.684900 -2.123503
-18.464902 18.684900 2.123503
-17.294707 19.610757 -1.063566
-17.294707 19.610757 1.063566
-26.674687 2.039968 15.706665
-25.894499 5.861977 13.764605
-23.086194 12.341295 9.554097
-24.652364 9.295747 11.685339
-9.732849 19.987892 12.353197
-13.309802 18.475815 11.418681
-10.609400 20.499443 10.903925
-20.399180 14.820503 9.159574
-16.839267 16.771643 10.365445
-19.512272 16.085309 8.104839
-12.242135 21.212431 7.809689
-14.174678 18.896577 9.906142
-11.451860 20.912441 9.377872
-14.035303 20.343570 7.217579
-12.408986 19.716331 10.419566
-17.581953 18.409981 5.986008
-15.988994 17.999320 9.337247
-18.567593 17.287608 7.039661
-15.820197 19.406954 6.607989
-17.741244 17.077081 8.746105
-15.035092 19.198898 8.297912
-22.877361 14.138986 -6.456666
-23.665834 14.626289 -2.189549
-21.844364 15.385362 -5.376563
-22.877361 14.138986 6.456666
-23.665834 14.626289 2.189549
-21.844364 15.385362 5.376563
-19.659494 17.636188 -3.224562
-22.423951 15.756881 -1.115685
-20.763736 16.556739 -4.293841
-19.814249 17.789018 -1.084049
-22.228863 15.631958 -3.259139
-19.659494 17.636188 3.224562
-22.423951 15.756881 1.115685
-20.763736 16.556739 4.293841
-19.814249 17.789018 1.084049
-22.228863 15.631958 3.259139
-21.143705 16.808625 0.000000
-22.934921 -32.843762 1.629360
-27.203540 -30.869680 5.021544
-21.561749 -32.316102 4.160840
-25.605980 -32.601851 0.000000
-31.305055 -22.102380 10.905230
-29.914915 -26.958068 8.191368
-18.348554 -30.217363 8.632927
-25.322333 -29.919541 7.479304
-19.986283 -31.381117 6.516801
-23.603363 -31.351182 5.848852
-30.019371 -30.377033 -3.452291
-30.019371 -30.377033 3.452291
-28.038903 -31.793780 -1.724297
-28.038903 -31.793780 1.724297
-28.067202 -2.146462 16.526609
-30.163737 -6.828444 16.033981
-31.810806 -17.005252 13.164731
-31.464348 -11.864364 14.914253
-12.012408 -24.669314 15.246475
-17.621652 -24.461248 15.117883
-13.503008 -26.090462 13.877862
-29.125653 -21.160498 13.077907
-23.481332 -23.387034 14.453982
-28.574094 -23.555593 11.868861
-16.656876 -28.862027 10.626007
-19.410371 -25.876394 13.565168
-15.059982 -27.501296 12.332546
-19.945766 -28.910533 10.257003
-16.415774 -26.082617 13.783982
-26.738288 -27.997537 9.103403
-22.568683 -25.406286 13.179652
-27.789080 -25.873397 10.535867
-23.358017 -28.653750 9.756485
-25.612565 -24.653731 12.626520
-21.359754 -27.275107 11.788512
-33.660934 -20.803601 -9.500109
-36.619208 -22.631915 -3.387987
-33.252426 -23.420256 -8.184435
-33.660934 -20.803601 9.500109
-36.619208 -22.631915 3.387987
-33.252426 -23.420256 8.184435
-31.571347 -28.322103 -5.178351
-35.812564 -25.164803 -1.781824
-32.581380 -25.979978 -6.737673
-32.547690 -29.220963 -1.780702
-34.864833 -24.517925 -5.111793
-31.571347 -28.322103 5.178351
-35.812564 -25.164803 1.781824
-32.581380 -25.979978 6.737673
-32.547690 -29.220963 1.780702
-34.864833 -24.517925 5.111793
-34.505379 -27.430764 0.000000
-1.665283 -12.821788 21.775291
-5.076781 -11.920873 22.426001
-2.745641 -14.228096 21.324644
-1.649942 -11.164708 22.384482
-12.195829 -9.441484 22.814079
-8.594486 -10.803810 22.792617
-5.048265 -17.091677 20.194629
-6.283555 -13.355163 21.993983
-3.880216 -15.658825 20.798844
-4.505219 -13.816991 21.694509
-1.627136 -7.804688 23.312188
-5.025123 -10.166044 22.934034
-1.639023 -9.481225 22.898680
-3.334029 -10.688325 22.694417
-25.604612 -1.270230 17.879796
-22.698864 -3.692404 20.003105
-26.703769 -3.438227 17.817123
-15.823622 -7.807315 22.412038
-19.375159 -5.887257 21.500288
-28.501442 -8.142698 17.306614
-23.517160 -5.878834 19.903693
-27.688309 -5.749929 17.634375
-25.169928 -4.695682 18.949683
-10.308535 -22.958016 16.679560
-11.901333 -19.334406 19.256762
-8.934334 -21.509269 17.731571
-12.928170 -22.937424 16.751365
-13.813279 -10.883221 22.350356
-13.081117 -15.247564 21.165692
-11.919050 -11.597105 22.407883
-6.330391 -18.593467 19.469133
-10.428229 -17.857178 20.102395
-7.599606 -20.044487 18.662689
-6.998911 -16.756106 20.555051
-9.731152 -19.739387 19.000422
-18.456639 -22.372162 16.586420
-14.453864 -19.006392 19.284816
-15.669804 -22.750900 16.727854
-13.750123 -21.029077 18.109651
-8.181817 -12.825468 22.223195
-11.043922 -15.802725 21.066961
-10.027903 -12.245650 22.361994
-7.620244 -14.818324 21.478525
-11.533200 -13.735248 21.823595
-9.011741 -16.328488 20.850486
-1.611716 -0.996095 24.074260
-4.889167 -3.021671 23.940312
-1.615684 -2.673496 24.017451
-12.033831 -7.437317 23.085181
-8.328787 -5.147474 23.637750
-10.288743 -8.202587 23.187970
-1.628376 -6.050148 23.646284
-4.920039 -4.757374 23.843632
-1.620153 -4.368672 23.874587
-3.289714 -7.194585 23.520152
-3.258539 -3.705849 23.950063
-6.806773 -9.550046 23.109238
-6.683751 -5.881754 23.684625
-8.534393 -8.911254 23.192745
-5.019217 -8.364399 23.344006
-8.445876 -7.012825 23.473038
-4.984934 -6.548719 23.646777
-29.512791 -18.239908 14.370877
-25.016179 -15.460849 18.021418
-29.609364 -15.749613 15.324201
-26.960635 -19.689544 15.195764
-16.079163 -9.937469 22.131621
-20.456410 -12.642757 20.538892
-17.977273 -9.058135 21.807317
-15.867652 -12.246149 21.727368
-29.115568 -10.719352 16.803200
-24.965304 -13.087548 18.726945
-29.481442 -13.220513 16.144330
-26.660489 -9.458723 18.393431
-27.303143 -14.428999 17.183944
-21.417177 -21.730916 16.287204
-22.518564 -16.694961 18.577418
-24.218645 -20.856418 15.835662
-19.246498 -20.090703 17.880546
-24.736876 -18.188065 17.037655
-21.694305 -7.053906 20.718557
-22.541869 -11.693720 20.024190
-19.866555 -8.089830 21.337488
-24.156308 -8.225124 19.691785
-20.233951 -10.362910 21.020891
-24.647937 -10.653029 19.302358
-15.068265 -16.767303 20.324438
-20.196161 -15.136913 19.904580
-15.529429 -14.547179 21.120968
-17.113302 -18.420642 19.228622
-18.014553 -13.677918 20.918648
-19.833087 -17.651270 18.999708
-1.631323 12.560312 21.331225
-4.797251 11.264503 21.191213
-2.647023 13.717048 20.558700
-1.620355 10.964499 21.983076
-11.006530 8.520780 20.589322
-7.897541 9.927706 20.944315
-4.681870 15.851190 18.728936
-5.824526 12.379536 20.387269
-3.672530 14.820696 19.685599
-4.254562 13.048255 20.487492
-1.606334 7.704906 23.014146
-4.785319 9.680910 21.839599
-1.613785 9.335230 22.546080
-3.220846 10.325479 21.923990
-24.875725 1.234070 17.370812
-21.092455 3.431091 18.587476
-24.728981 3.183965 16.499517
-23.658921 0.000000 18.582070
-14.197236 7.004862 20.108479
-17.539782 5.329566 19.463601
-24.019223 6.862154 14.584927
-20.971342 5.242428 17.749046
-24.433361 5.073986 15.561335
-22.814305 4.256219 17.176205
-20.816807 -2.365790 20.571708
-19.896181 2.261163 19.661922
-22.288814 -1.208807 19.656483
-21.740684 1.179080 19.173088
-8.645045 19.253278 13.987977
-9.990142 16.229565 16.164389
-7.699537 18.536514 15.280924
-10.465628 18.568331 13.560585
-12.152039 9.574360 19.662411
-11.155515 13.003051 18.050002
-10.578907 10.293160 19.888406
-5.735173 16.845206 17.638537
-8.991530 15.396993 17.332885
-6.721348 17.728020 16.505912
-6.333212 15.162354 18.599964
-8.373101 16.984615 16.348777
-14.062678 17.046035 12.637701
-11.811306 15.531508 15.759029
-12.279548 17.828608 13.108683
-11.162719 17.071969 14.701901
-7.453461 11.683727 20.244856
-9.579950 13.707931 18.274345
-9.006170 10.997953 20.083554
-6.907962 13.433221 19.470878
-10.100876 12.029449 19.113293
-7.972678 14.445796 18.446403
-1.608998 0.994416 24.033672
-4.815402 2.976082 23.579114
-1.608406 2.661452 23.909255
-3.233877 0.000000 24.002674
-11.080784 6.848301 21.256897
-7.984221 4.934520 22.659845
-9.513400 7.584454 21.440564
-1.611993 5.989276 23.408373
-4.804599 4.645750 23.284182
-1.608305 4.336725 23.699997
-3.212416 7.025534 22.967499
-3.218165 3.659933 23.653315
-6.586907 -2.021855 23.831652
-6.497263 1.994339 23.507319
-4.899658 -1.008722 23.936182
-4.874465 1.003535 23.813105
-6.400799 8.980456 21.730941
-6.428576 5.657198 22.780384
-7.947702 8.298656 21.598377
-4.817399 8.028075 22.405367
-7.978226 6.624524 22.173331
-4.825319 6.339032 22.889618
-21.384055 13.216073 10.412693
