7.812239084 -4.828229282 -18.02429663
2.676732654 -4.436956439 -19.4798281
5.314863917 -6.063061454 -18.44010294
15.57866781 -9.628146205 -9.331358578
12.26440629 -7.579819939 -14.41767429
16.57439079 -7.323074738 -10.91886257
13.03046344 -11.37139872 -10.34604034
14.75155027 -6.21737919 -13.59845535
11.3594697 -10.33518695 -13.01679399
2.931990836 10.82602404 -19.32894485
9.145091403 8.940665276 -20.11827762
5.150292654 13.81125549 -19.16402491
2.82356368 7.682799418 -19.82321627
19.9324999 2.061959409 -15.65528283
15.2143745 5.944249588 -19.02099843
22.55303908 6.06108331 -16.25367252
16.55663151 0 -16.36169202
10.61303071 20.18718402 -17.17224441
12.43297226 12.04972587 -20.1169717
7.993937462 17.48408748 -18.96666854
14.83689216 18.6865288 -16.30732251
8.786317824 13.10058961 -19.886164
2.708809652 1.674136434 -20.10548967
8.660911135 5.352737455 -19.98234177
2.758907664 4.57316987 -20.07785386
5.457447455 0 -19.74523038
5.796317213 6.612291118 -20.11052169
22.33952109 13.80658333 -13.38099537
16.6795063 10.30850181 -19.60793564
22.5106582 9.94589994 -14.82955159
18.95085624 16.53799525 -15.04676515
19.94874497 8.407856099 -18.38939725
16.10712239 14.65474407 -18.45711987
10.80862571 -3.256261793 -17.48872377
11.89202658 3.582652672 -19.2417032
13.4976444 -1.765807746 -16.9787957
8.249921136 -1.699577222 -18.84860023
14.37032482 1.879974766 -18.07654743
8.551466551 1.761698994 -19.53754123
21.85376529 27.8244845 2.878362368
24.90321807 19.91940052 7.782501235
18.70610773 25.95595415 6.975609804
28.11727543 28.45227545 0
24.51469464 3.718612713 13.73053085
24.88472668 11.31175861 11.05889957
13.31117329 22.22295339 13.73454053
21.81087711 18.55344025 11.46665668
15.81271645 24.00306261 10.60529003
20.79139391 22.5544214 9.50607819
27.33212162 16.89218015 -5.089024478
27.33212162 16.89218015 5.089024478
27.79494557 22.09616619 -2.89069561
27.79494557 22.09616619 2.89069561
12.47452204 -15.88271589 1.643020977
15.35189897 -12.27956256 4.797619823
11.6363754 -16.1462358 4.339267981
14.14189176 -14.31038369 0
20.35528334 -3.087675229 11.40086996
17.95621674 -8.162291349 7.979834386
9.35229338 -15.61361838 9.649746847
14.26596896 -12.13535803 7.500063727
10.57439029 -16.05149582 7.092043687
13.03497327 -14.14028714 5.959748327
17.35614843 -10.72668965 -3.231577316
17.35614843 -10.72668965 3.231577316
15.79816237 -12.55907555 -1.643020977
15.79816237 -12.55907555 1.643020977
2.726000366 -10.06542897 17.97096706
7.717988665 -7.545463486 16.9787957
4.430251081 -11.88035976 16.48478014
2.683410112 -7.301447384 18.83924891
18.17249078 -1.87989156 14.2729454
12.6485277 -4.941774343 15.81317888
17.48304368 -4.698532373 12.59979489
7.698714865 -14.64382588 12.45678232
9.424736303 -9.134218787 15.24954367
6.148082346 -13.44689148 14.58713438
10.37461762 -13.06645549 11.4028082
7.015031382 -10.45956328 15.87719308
2.678961386 -1.655689191 19.88394808
7.812239084 -4.828229282 18.02429663
2.676732654 -4.436956439 19.4798281
5.314863917 -6.063061454 18.44010294
15.57866781 -9.628146205 9.331358578
12.26440629 -7.579819939 14.41767429
16.57439079 -7.323074738 10.91886257
13.03046344 -11.37139872 10.34604034
14.75155027 -6.21737919 13.59845535
11.3594697 -10.33518695 13.01679399
2.931990836 10.82602404 19.32894485
9.145091403 8.940665276 20.11827762
5.150292654 13.81125549 19.16402491
2.82356368 7.682799418 19.82321627
19.9324999 2.061959409 15.65528283
15.2143745 5.944249588 19.02099843
22.55303908 6.06108331 16.25367252
16.55663151 0 16.36169202
10.61303071 20.18718402 17.17224441
12.43297226 12.04972587 20.1169717
7.993937462 17.48408748 18.96666854
14.83689216 18.6865288 16.30732251
8.786317824 13.10058961 19.886164
2.708809652 1.674136434 20.10548967
8.660911135 5.352737455 19.98234177
2.758907664 4.57316987 20.07785386
5.457447455 0 19.74523038
5.796317213 6.612291118 20.11052169
22.33952109 13.80658333 13.38099537
16.6795063 10.30850181 19.60793564
22.5106582 9.94589994 14.82955159
18.95085624 16.53799525 15.04676515
19.94874497 8.407856099 18.38939725
16.10712239 14.65474407 18.45711987
10.80862571 -3.256261793 17.48872377
11.89202658 3.582652672 19.2417032
13.4976444 -1.765807746 16.9787957
8.249921136 -1.699577222 18.84860023
14.37032482 1.879974766 18.07654743
8.551466551 1.761698994 19.53754123
24.14491633 0 -10.64319017
27.91586092 0 -3.888231445
26.34233682 3.752129042 -10.20938718
22.45439769 -3.198341829 -8.702555185
24.14491633 0 10.64319017
27.91586092 0 3.888231445
26.34233682 3.752129042 10.20938718
22.45439769 -3.198341829 8.702555185
26.90545094 11.66158213 -7.207254118
28.33925373 3.818143466 -2.359742436
26.61050523 7.66976272 -8.749470059
28.2505924 12.36511765 -2.547354328
27.64796463 3.799120266 -6.297427987
19.19024669 -8.31759476 -5.140556266
24.9401149 -3.360177994 -2.076704208
20.77453541 -5.987701318 -6.830617233
19.71282453 -8.628187016 -1.777504279
24.06838228 -3.307248116 -5.482099903
26.90545094 11.66158213 7.207254118
28.33925373 3.818143466 2.359742436
26.61050523 7.66976272 8.749470059
28.2505924 12.36511765 2.547354328
27.64796463 3.799120266 6.297427987
28.45227545 7.864015524 0
19.19024669 -8.31759476 5.140556266
24.9401149 -3.360177994 2.076704208
20.77453541 -5.987701318 6.830617233
19.71282453 -8.628187016 1.777504279
24.06838228 -3.307248116 5.482099903
22.29115245 -6.161123007 0
-12.47452204 15.88271589 -1.643020977
-15.35189897 12.27956256 -4.797619823
-11.6363754 16.1462358 -4.339267981
-20.35528334 3.087675229 -11.40086996
-17.95621674 8.162291349 -7.979834386
-9.35229338 15.61361838 -9.649746847
-14.26596896 12.13535803 -7.500063727
-10.57439029 16.05149582 -7.092043687
-13.03497327 14.14028714 -5.959748327
-21.85376529 -27.8244845 -2.878362368
-24.90321807 -19.91940052 -7.782501235
-18.70610773 -25.95595415 -6.975609804
-24.51469464 -3.718612713 -13.73053085
-24.88472668 -11.31175861 -11.05889957
-13.31117329 -22.22295339 -13.73454053
-21.81087711 -18.55344025 -11.46665668
-15.81271645 -24.00306261 -10.60529003
-20.79139391 -22.5544214 -9.50607819
-2.931990836 -10.82602404 -19.32894485
-9.145091403 -8.940665276 -20.11827762
-5.150292654 -13.81125549 -19.16402491
-2.82356368 -7.682799418 -19.82321627
-19.9324999 -2.061959409 -15.65528283
-15.2143745 -5.944249588 -19.02099843
-22.55303908 -6.06108331 -16.25367252
-10.61303071 -20.18718402 -17.17224441
-12.43297226 -12.04972587 -20.1169717
-7.993937462 -17.48408748 -18.96666854
-14.83689216 -18.6865288 -16.30732251
-8.786317824 -13.10058961 -19.886164
-2.708809652 -1.674136434 -20.10548967
-8.660911135 -5.352737455 -19.98234177
-2.758907664 -4.57316987 -20.07785386
-5.796317213 -6.612291118 -20.11052169
-22.33952109 -13.80658333 -13.38099537
-16.6795063 -10.30850181 -19.60793564
-22.5106582 -9.94589994 -14.82955159
-18.95085624 -16.53799525 -15.04676515
-19.94874497 -8.407856099 -18.38939725
-16.10712239 -14.65474407 -18.45711987
-2.726000366 10.06542897 -17.97096706
-7.717988665 7.545463486 -16.9787957
-4.430251081 11.88035976 -16.48478014
-2.683410112 7.301447384 -18.83924891
-18.17249078 1.87989156 -14.2729454
-12.6485277 4.941774343 -15.81317888
-17.48304368 4.698532373 -12.59979489
-16.55663151 0 -16.36169202
-7.698714865 14.64382588 -12.45678232
-9.424736303 9.134218787 -15.24954367
-6.148082346 13.44689148 -14.58713438
-10.37461762 13.06645549 -11.4028082
-7.015031382 10.45956328 -15.87719308
-2.678961386 1.655689191 -19.88394808
-7.812239084 4.828229282 -18.02429663
-2.676732654 4.436956439 -19.4798281
-5.457447455 0 -19.74523038
-5.314863917 6.063061454 -18.44010294
-15.57866781 9.628146205 -9.331358578
-12.26440629 7.579819939 -14.41767429
-16.57439079 7.323074738 -10.91886257
-13.03046344 11.37139872 -10.34604034
-14.75155027 6.21737919 -13.59845535
-11.3594697 10.33518695 -13.01679399
-11.89202658 -3.582652672 -19.2417032
-10.80862571 3.256261793 -17.48872377
-14.37032482 -1.879974766 -18.07654743
-8.551466551 -1.761698994 -19.53754123
-13.4976444 1.765807746 -16.9787957
-8.249921136 1.699577222 -18.84860023
-12.47452204 15.88271589 1.643020977
-15.35189897 12.27956256 4.797619823
-11.6363754 16.1462358 4.339267981
-14.14189176 14.31038369 0
-20.35528334 3.087675229 11.40086996
-17.95621674 8.162291349 7.979834386
-9.35229338 15.61361838 9.649746847
-14.26596896 12.13535803 7.500063727
-10.57439029 16.05149582 7.092043687
-13.03497327 14.14028714 5.959748327
-17.35614843 10.72668965 -3.231577316
-17.35614843 10.72668965 3.231577316
-15.79816237 12.55907555 -1.643020977
-15.79816237 12.55907555 1.643020977
-21.85376529 -27.8244845 2.878362368
-24.90321807 -19.91940052 7.782501235
-18.70610773 -25.95595415 6.975609804
-28.11727543 -28.45227545 0
-24.51469464 -3.718612713 13.73053085
-24.88472668 -11.31175861 11.05889957
-13.31117329 -22.22295339 13.73454053
-21.81087711 -18.55344025 11.46665668
-15.81271645 -24.00306261 10.60529003
-20.79139391 -22.5544214 9.50607819
-27.33212162 -16.89218015 -5.089024478
-27.33212162 -16.89218015 5.089024478
-27.79494557 -22.09616619 -2.89069561
-27.79494557 -22.09616619 2.89069561
-2.931990836 -10.82602404 19.32894485
-9.145091403 -8.940665276 20.11827762
-5.150292654 -13.81125549 19.16402491
-2.82356368 -7.682799418 19.82321627
-19.9324999 -2.061959409 15.65528283
-15.2143745 -5.944249588 19.02099843
-22.55303908 -6.06108331 16.25367252
-10.61303071 -20.18718402 17.17224441
-12.43297226 -12.04972587 20.1169717
-7.993937462 -17.48408748 18.96666854
-14.83689216 -18.6865288 16.30732251
-8.786317824 -13.10058961 19.886164
-2.708809652 -1.674136434 20.10548967
-8.660911135 -5.352737455 19.98234177
-2.758907664 -4.57316987 20.07785386
-5.796317213 -6.612291118 20.11052169
-22.33952109 -13.80658333 13.38099537
-16.6795063 -10.30850181 19.60793564
-22.5106582 -9.94589994 14.82955159
-18.95085624 -16.53799525 15.04676515
-19.94874497 -8.407856099 18.38939725
-16.10712239 -14.65474407 18.45711987
-2.726000366 10.06542897 17.97096706
-7.717988665 7.545463486 16.9787957
-4.430251081 11.88035976 16.48478014
-2.683410112 7.301447384 18.83924891
-18.17249078 1.87989156 14.2729454
-12.6485277 4.941774343 15.81317888
-17.48304368 4.698532373 12.59979489
-16.55663151 0 16.36169202
-7.698714865 14.64382588 12.45678232
-9.424736303 9.134218787 15.24954367
-6.148082346 13.44689148 14.58713438
-10.37461762 13.06645549 11.4028082
-7.015031382 10.45956328 15.87719308
-2.678961386 1.655689191 19.88394808
-7.812239084 4.828229282 18.02429663
-2.676732654 4.436956439 19.4798281
-5.457447455 0 19.74523038
-5.314863917 6.063061454 18.44010294
-15.57866781 9.628146205 9.331358578
-12.26440629 7.579819939 14.41767429
-16.57439079 7.323074738 10.91886257
-13.03046344 11.37139872 10.34604034
-14.75155027 6.21737919 13.59845535
-11.3594697 10.33518695 13.01679399
-11.89202658 -3.582652672 19.2417032
-10.80862571 3.256261793 17.48872377
-14.37032482 -1.879974766 18.07654743
-8.551466551 -1.761698994 19.53754123
-13.4976444 1.765807746 16.9787957
-8.249921136 1.699577222 18.84860023
-24.14491633 0 -10.64319017
-27.91586092 0 -3.888231445
-22.45439769 3.198341829 -8.702555185
-26.34233682 -3.752129042 -10.20938718
-24.14491633 0 10.64319017
-27.91586092 0 3.888231445
-22.45439769 3.198341829 8.702555185
-26.34233682 -3.752129042 10.20938718
-19.19024669 8.31759476 -5.140556266
-24.9401149 3.360177994 -2.076704208
-20.77453541 5.987701318 -6.830617233
-19.71282453 8.628187016 -1.777504279
-24.06838228 3.307248116 -5.482099903
-26.90545094 -11.66158213 -7.207254118
-28.33925373 -3.818143466 -2.359742436
-26.61050523 -7.66976272 -8.749470059
-28.2505924 -12.36511765 -2.547354328
-27.64796463 -3.799120266 -6.297427987
-19.19024669 8.31759476 5.140556266
-24.9401149 3.360177994 2.076704208
-20.77453541 5.987701318 6.830617233
-19.71282453 8.628187016 1.777504279
-24.06838228 3.307248116 5.482099903
-22.29115245 6.161123007 0
-26.90545094 -11.66158213 7.207254118
-28.33925373 -3.818143466 2.359742436
-26.61050523 -7.66976272 8.749470059
-28.2505924 -12.36511765 2.547354328
-27.64796463 -3.799120266 6.297427987
-28.45227545 -7.864015524 0
-9.809564094 18.64271136 0
-7.538927189 20.91334826 0
-1.844141872 26.60813358 0
-4.950130941 23.50214451 0
14.97123537 28.45227545 0
10.25658973 28.45227545 0
1.971954642 28.45227545 0
5.992750534 28.45227545 0
-14.97123537 -28.45227545 0
-10.25658973 -28.45227545 0
-1.971954642 -28.45227545 0
-5.992750534 -28.45227545 0
9.809564094 -18.64271136 0
7.538927189 -20.91334826 0
1.844141872 -26.60813358 0
4.950130941 -23.50214451 0
-16.63700633 -28.2546897 2.160800243
-14.41122845 -27.11095271 6.137357044
-14.11544916 -28.30051828 2.086008735
-9.934618046 -24.00567134 12.83282444
-12.13345126 -25.59773791 9.652222161
-9.490973242 -28.34903255 1.978696536
-12.12456177 -27.35234279 5.993227124
-11.7297938 -28.32933596 2.027734394
-13.14163232 -27.90350004 4.099293718
-0.907196408 -12.76972423 18.28677681
-2.917677758 -15.80612846 17.93627354
-7.802252005 -22.39750328 15.81336064
-5.311465856 -19.39749793 17.4802128
-1.174500533 -28.38607777 1.900381782
-3.509569153 -27.80586359 5.678602176
-3.159136831 -28.38022148 1.909173164
-7.889754476 -24.48953249 12.7658909
-5.776447366 -26.52606485 9.346488172
-8.928537283 -25.24016436 11.19932283
-7.256786173 -28.36228575 1.953138886
-5.534308697 -27.73757638 5.723539064
-5.191735764 -28.37258832 1.925391285
-8.584658086 -28.06450466 3.925323355
-4.355398141 -28.14795199 3.829685437
-11.02581688 -26.68031474 7.858625829
-6.731270147 -27.10545135 7.649101057
-9.98161985 -25.97851679 9.559492066
-9.857622018 -27.51140755 5.915253593
-7.851970488 -26.28178926 9.456498032
-7.65357877 -27.63631509 5.825961225
10.52015899 -17.86642512 1.366349309
9.666094397 -18.18422551 4.116531269
9.445706669 -18.93800128 1.395905039
7.344221839 -17.74632652 9.486737094
8.603833579 -18.15136289 6.844393349
7.116923153 -21.25787113 1.483749962
8.543860476 -19.27447811 4.223269865
8.309902883 -20.06975012 1.436536411
9.020183918 -19.15246874 2.813682681
0.8822959384 -12.41922447 17.78484655
2.633061338 -14.26425712 16.18660878
0 -13.81416154 17.58836149
5.907402571 -16.95806139 11.972939
4.323726883 -15.79027062 14.22953061
-1.944645618 -16.90964898 17.11111704
1.803630809 -15.68345595 15.87031467
-0.941699778 -15.31303623 17.36370737
0.9098432037 -14.79501457 16.77631397
1.125822113 -27.20958667 1.821618444
3.088741951 -24.47170396 4.997689459
2.839533705 -25.50905509 1.716026193
0 -27.94945614 3.765626095
6.055237216 -18.79525263 9.797579625
4.708955562 -21.62402818 7.619250151
6.74536787 -19.06854262 8.460910224
5.779320985 -22.58778877 1.555484244
4.598511391 -23.04742433 4.75574476
4.386592067 -23.97251642 1.62679815
6.589465727 -21.54192861 3.013024334
3.760709587 -24.30461452 3.306777997
-2.321045767 -27.35821717 7.561625252
2.093351952 -24.6743852 6.819832339
-1.173924368 -27.85631033 5.70209539
1.108578022 -26.30569248 5.384689001
7.980421378 -19.31105482 5.688027135
5.391311964 -21.70971317 6.126435151
7.392471876 -19.23990872 7.079840478
7.324184309 -20.44089529 4.395016107
6.093990917 -20.39755311 7.339280402
6.009054738 -21.69810165 4.57413727
-6.655083923 -23.58039729 14.57348699
-2.089293204 -22.58221612 13.9565771
-5.606065159 -22.77680473 16.04209589
-5.65355087 -24.77108795 12.95580025
5.1747237 -18.33516183 11.3317532
1.881462422 -20.33586811 12.56825768
4.389765327 -17.83511693 12.56158006
4.529164181 -19.84457677 10.37913124
-3.071582447 -18.72680837 16.79949225
-1.029578758 -20.69331444 14.54079567
-4.267624419 -20.63696046 16.45564973
-0.983400209 -17.97459674 16.13739785
-3.183295465 -21.71157277 15.26818455
-3.500192486 -26.65415459 9.472788504
-1.099376951 -23.55215603 12.35727903
-4.591680464 -25.80475999 11.2402219
-1.15572717 -26.34870012 9.350029213
-3.404255048 -24.99687525 13.10134977
2.710458501 -16.52510971 14.8243869
0.9793205308 -19.68318356 13.83099605
3.562334326 -17.22638766 13.73610237
0.9430778042 -17.23758351 15.47571537
2.748407756 -18.74543398 13.18231288
0 -18.90962632 15.03259809
3.018175098 -22.98356618 8.168274884
1.03515123 -22.1762365 11.63536544
3.808631289 -21.4041062 9.323353652
1.077502509 -24.56530505 8.717178412
2.856315902 -20.97344977 10.99259402
0 -24.19257023 10.58894528
-10.52015899 17.86642512 1.366349309
-9.666094397 18.18422551 4.116531269
-9.445706669 18.93800128 1.395905039
-7.344221839 17.74632652 9.486737094
-8.603833579 18.15136289 6.844393349
-7.116923153 21.25787113 1.483749962
-8.543860476 19.27447811 4.223269865
-8.309902883 20.06975012 1.436536411
-9.020183918 19.15246874 2.813682681
-0.8822959384 12.41922447 17.78484655
-2.633061338 14.26425712 16.18660878
-5.907402571 16.95806139 11.972939
-4.323726883 15.79027062 14.22953061
-1.125822113 27.20958667 1.821618444
-3.088741951 24.47170396 4.997689459
-2.839533705 25.50905509 1.716026193
-6.055237216 18.79525263 9.797579625
-4.708955562 21.62402818 7.619250151
-6.74536787 19.06854262 8.460910224
-5.779320985 22.58778877 1.555484244
-4.598511391 23.04742433 4.75574476
-4.386592067 23.97251642 1.62679815
-6.589465727 21.54192861 3.013024334
-3.760709587 24.30461452 3.306777997
-7.980421378 19.31105482 5.688027135
-5.391311964 21.70971317 6.126435151
-7.392471876 19.23990872 7.079840478
-7.324184309 20.44089529 4.395016107
-6.093990917 20.39755311 7.339280402
-6.009054738 21.69810165 4.57413727
16.63700633 28.2546897 2.160800243
14.41122845 27.11095271 6.137357044
14.11544916 28.30051828 2.086008735
9.934618046 24.00567134 12.83282444
12.13345126 25.59773791 9.652222161
9.490973242 28.34903255 1.978696536
12.12456177 27.35234279 5.993227124
11.7297938 28.32933596 2.027734394
13.14163232 27.90350004 4.099293718
0.907196408 12.76972423 18.28677681
2.917677758 15.80612846 17.93627354
0 13.81416154 17.58836149
7.802252005 22.39750328 15.81336064
5.311465856 19.39749793 17.4802128
-1.803630809 15.68345595 15.87031467
1.944645618 16.90964898 17.11111704
-0.9098432037 14.79501457 16.77631397
0.941699778 15.31303623 17.36370737
1.174500533 28.38607777 1.900381782
3.509569153 27.80586359 5.678602176
3.159136831 28.38022148 1.909173164
0 27.94945614 3.765626095
7.889754476 24.48953249 12.7658909
5.776447366 26.52606485 9.346488172
8.928537283 25.24016436 11.19932283
7.256786173 28.36228575 1.953138886
5.534308697 27.73757638 5.723539064
5.191735764 28.37258832 1.925391285
8.584658086 28.06450466 3.925323355
4.355398141 28.14795199 3.829685437
-2.093351952 24.6743852 6.819832339
2.321045767 27.35821717 7.561625252
-1.108578022 26.30569248 5.384689001
1.173924368 27.85631033 5.70209539
11.02581688 26.68031474 7.858625829
6.731270147 27.10545135 7.649101057
9.98161985 25.97851679 9.559492066
9.857622018 27.51140755 5.915253593
7.851970488 26.28178926 9.456498032
7.65357877 27.63631509 5.825961225
-5.1747237 18.33516183 11.3317532
-1.881462422 20.33586811 12.56825768
-4.389765327 17.83511693 12.56158006
-4.529164181 19.84457677 10.37913124
6.655083923 23.58039729 14.57348699
2.089293204 22.58221612 13.9565771
5.606065159 22.77680473 16.04209589
5.65355087 24.77108795 12.95580025
-2.710458501 16.52510971 14.8243869
-0.9793205308 19.68318356 13.83099605
-3.562334326 17.22638766 13.73610237
-0.9430778042 17.23758351 15.47571537
-2.748407756 18.74543398 13.18231288
-3.018175098 22.98356618 8.168274884
-1.03515123 22.1762365 11.63536544
-3.808631289 21.4041062 9.323353652
-1.077502509 24.56530505 8.717178412
-2.856315902 20.97344977 10.99259402
3.071582447 18.72680837 16.79949225
1.029578758 20.69331444 14.54079567
4.267624419 20.63696046 16.45564973
0.983400209 17.97459674 16.13739785
3.183295465 21.71157277 15.26818455
0 18.90962632 15.03259809
3.500192486 26.65415459 9.472788504
1.099376951 23.55215603 12.35727903
4.591680464 25.80475999 11.2402219
1.15572717 26.34870012 9.350029213
3.404255048 24.99687525 13.10134977
0 24.19257023 10.58894528
0 -9.921748048 18.85591279
0 -7.027784105 19.49541265
0 -1.392711023 20.09468007
0 -4.191285264 19.89931037
0 9.921748048 18.85591279
0 7.027784105 19.49541265
0 1.392711023 20.09468007
0 4.191285264 19.89931037
-16.63700633 -28.2546897 -2.160800243
-14.41122845 -27.11095271 -6.137357044
-14.11544916 -28.30051828 -2.086008735
-9.934618046 -24.00567134 -12.83282444
-12.13345126 -25.59773791 -9.652222161
-9.490973242 -28.34903255 -1.978696536
-12.12456177 -27.35234279 -5.993227124
-11.7297938 -28.32933596 -2.027734394
-13.14163232 -27.90350004 -4.099293718
-0.907196408 -12.76972423 -18.28677681
-2.917677758 -15.80612846 -17.93627354
-7.802252005 -22.39750328 -15.81336064
-5.311465856 -19.39749793 -17.4802128
-1.174500533 -28.38607777 -1.900381782
-3.509569153 -27.80586359 -5.678602176
-3.159136831 -28.38022148 -1.909173164
-7.889754476 -24.48953249 -12.7658909
-5.776447366 -26.52606485 -9.346488172
-8.928537283 -25.24016436 -11.19932283
-7.256786173 -28.36228575 -1.953138886
-5.534308697 -27.73757638 -5.723539064
-5.191735764 -28.37258832 -1.925391285
-8.584658086 -28.06450466 -3.925323355
-4.355398141 -28.14795199 -3.829685437
-11.02581688 -26.68031474 -7.858625829
-6.731270147 -27.10545135 -7.649101057
-9.98161985 -25.97851679 -9.559492066
-9.857622018 -27.51140755 -5.915253593
-7.851970488 -26.28178926 -9.456498032
-7.65357877 -27.63631509 -5.825961225
10.52015899 -17.86642512 -1.366349309
9.666094397 -18.18422551 -4.116531269
9.445706669 -18.93800128 -1.395905039
7.344221839 -17.74632652 -9.486737094
8.603833579 -18.15136289 -6.844393349
7.116923153 -21.25787113 -1.483749962
8.543860476 -19.27447811 -4.223269865
8.309902883 -20.06975012 -1.436536411
9.020183918 -19.15246874 -2.813682681
0.8822959384 -12.41922447 -17.78484655
2.633061338 -14.26425712 -16.18660878
0 -13.81416154 -17.58836149
5.907402571 -16.95806139 -11.972939
4.323726883 -15.79027062 -14.22953061
-1.944645618 -16.90964898 -17.11111704
1.803630809 -15.68345595 -15.87031467
-0.941699778 -15.31303623 -17.36370737
0.9098432037 -14.79501457 -16.77631397
1.125822113 -27.20958667 -1.821618444
3.088741951 -24.47170396 -4.997689459
2.839533705 -25.50905509 -1.716026193
0 -27.94945614 -3.765626095
6.055237216 -18.79525263 -9.797579625
4.708955562 -21.62402818 -7.619250151
6.74536787 -19.06854262 -8.460910224
5.779320985 -22.58778877 -1.555484244
4.598511391 -23.04742433 -4.75574476
4.386592067 -23.97251642 -1.62679815
6.589465727 -21.54192861 -3.013024334
3.760709587 -24.30461452 -3.306777997
-2.321045767 -27.35821717 -7.561625252
2.093351952 -24.6743852 -6.819832339
-1.173924368 -27.85631033 -5.70209539
1.108578022 -26.30569248 -5.384689001
7.980421378 -19.31105482 -5.688027135
5.391311964 -21.70971317 -6.126435151
7.392471876 -19.23990872 -7.079840478
7.324184309 -20.44089529 -4.395016107
6.093990917 -20.39755311 -7.339280402
6.009054738 -21.69810165 -4.57413727
-6.655083923 -23.58039729 -14.57348699
-2.089293204 -22.58221612 -13.9565771
-5.606065159 -22.77680473 -16.04209589
-5.65355087 -24.77108795 -12.95580025
5.1747237 -18.33516183 -11.3317532
1.881462422 -20.33586811 -12.56825768
4.389765327 -17.83511693 -12.56158006
4.529164181 -19.84457677 -10.37913124
-3.071582447 -18.72680837 -16.79949225
-1.029578758 -20.69331444 -14.54079567
-4.267624419 -20.63696046 -16.45564973
-0.983400209 -17.97459674 -16.13739785
-3.183295465 -21.71157277 -15.26818455
-3.500192486 -26.65415459 -9.472788504
-1.099376951 -23.55215603 -12.35727903
-4.591680464 -25.80475999 -11.2402219
-1.15572717 -26.34870012 -9.350029213
-3.404255048 -24.99687525 -13.10134977
2.710458501 -16.52510971 -14.8243869
0.9793205308 -19.68318356 -13.83099605
3.562334326 -17.22638766 -13.73610237
0.9430778042 -17.23758351 -15.47571537
2.748407756 -18.74543398 -13.18231288
0 -18.90962632 -15.03259809
3.018175098 -22.98356618 -8.168274884
1.03515123 -22.1762365 -11.63536544
3.808631289 -21.4041062 -9.323353652
1.077502509 -24.56530505 -8.717178412
2.856315902 -20.97344977 -10.99259402
0 -24.19257023 -10.58894528
-10.52015899 17.86642512 -1.366349309
-9.666094397 18.18422551 -4.116531269
-9.445706669 18.93800128 -1.395905039
-7.344221839 17.74632652 -9.486737094
-8.603833579 18.15136289 -6.844393349
-7.116923153 21.25787113 -1.483749962
-8.543860476 19.27447811 -4.223269865
-8.309902883 20.06975012 -1.436536411
-9.020183918 19.15246874 -2.813682681
-0.8822959384 12.41922447 -17.78484655
-2.633061338 14.26425712 -16.18660878
-5.907402571 16.95806139 -11.972939
-4.323726883 15.79027062 -14.22953061
-1.125822113 27.20958667 -1.821618444
-3.088741951 24.47170396 -4.997689459
-2.839533705 25.50905509 -1.716026193
-6.055237216 18.79525263 -9.797579625
-4.708955562 21.62402818 -7.619250151
-6.74536787 19.06854262 -8.460910224
-5.779320985 22.58778877 -1.555484244
-4.598511391 23.04742433 -4.75574476
-4.386592067 23.97251642 -1.62679815
-6.589465727 21.54192861 -3.013024334
-3.760709587 24.30461452 -3.306777997
-7.980421378 19.31105482 -5.688027135
-5.391311964 21.70971317 -6.126435151
-7.392471876 19.23990872 -7.079840478
-7.324184309 20.44089529 -4.395016107
-6.093990917 20.39755311 -7.339280402
-6.009054738 21.69810165 -4.57413727
16.63700633 28.2546897 -2.160800243
14.41122845 27.11095271 -6.137357044
14.11544916 28.30051828 -2.086008735
9.934618046 24.00567134 -12.83282444
12.13345126 25.59773791 -9.652222161
9.490973242 28.34903255 -1.978696536
12.12456177 27.35234279 -5.993227124
11.7297938 28.32933596 -2.027734394
13.14163232 27.90350004 -4.099293718
0.907196408 12.76972423 -18.28677681
2.917677758 15.80612846 -17.93627354
0 13.81416154 -17.58836149
7.802252005 22.39750328 -15.81336064
5.311465856 19.39749793 -17.4802128
-1.803630809 15.68345595 -15.87031467
1.944645618 16.90964898 -17.11111704
-0.9098432037 14.79501457 -16.77631397
0.941699778 15.31303623 -17.36370737
1.174500533 28.38607777 -1.900381782
3.509569153 27.80586359 -5.678602176
3.159136831 28.38022148 -1.909173164
0 27.94945614 -3.765626095
7.889754476 24.48953249 -12.7658909
5.776447366 26.52606485 -9.346488172
8.928537283 25.24016436 -11.19932283
7.256786173 28.36228575 -1.953138886
5.534308697 27.73757638 -5.723539064
5.191735764 28.37258832 -1.925391285
8.584658086 28.06450466 -3.925323355
4.355398141 28.14795199 -3.829685437
-2.093351952 24.6743852 -6.819832339
2.321045767 27.35821717 -7.561625252
-1.108578022 26.30569248 -5.384689001
1.173924368 27.85631033 -5.70209539
11.02581688 26.68031474 -7.858625829
6.731270147 27.10545135 -7.649101057
9.98161985 25.97851679 -9.559492066
9.857622018 27.51140755 -5.915253593
7.851970488 26.28178926 -9.456498032
7.65357877 27.63631509 -5.825961225
-5.1747237 18.33516183 -11.3317532
-1.881462422 20.33586811 -12.56825768
-4.389765327 17.83511693 -12.56158006
-4.529164181 19.84457677 -10.37913124
6.655083923 23.58039729 -14.57348699
2.089293204 22.58221612 -13.9565771
5.606065159 22.77680473 -16.04209589
5.65355087 24.77108795 -12.95580025
-2.710458501 16.52510971 -14.8243869
-0.9793205308 19.68318356 -13.83099605
-3.562334326 17.22638766 -13.73610237
-0.9430778042 17.23758351 -15.47571537
-2.748407756 18.74543398 -13.18231288
-3.018175098 22.98356618 -8.168274884
-1.03515123 22.1762365 -11.63536544
-3.808631289 21.4041062 -9.323353652
-1.077502509 24.56530505 -8.717178412
-2.856315902 20.97344977 -10.99259402
3.071582447 18.72680837 -16.79949225
1.029578758 20.69331444 -14.54079567
4.267624419 20.63696046 -16.45564973
0.983400209 17.97459674 -16.13739785
3.183295465 21.71157277 -15.26818455
0 18.90962632 -15.03259809
3.500192486 26.65415459 -9.472788504
1.099376951 23.55215603 -12.35727903
4.591680464 25.80475999 -11.2402219
1.15572717 26.34870012 -9.350029213
3.404255048 24.99687525 -13.10134977
0 24.19257023 -10.58894528
0 -9.921748048 -18.85591279
0 -7.027784105 -19.49541265
0 -1.392711023 -20.09468007
0 -4.191285264 -19.89931037
0 9.921748048 -18.85591279
0 7.027784105 -19.49541265
0 1.392711023 -20.09468007
0 4.191285264 -19.89931037
19.78867908 28.3382124 -1.405842307
23.43146278 26.58925156 -4.325250042
18.55188105 27.80500253 -3.580015979
24.96120217 17.62341484 -8.695325868
24.73232765 22.28773793 -6.77226075
15.91809092 26.21474813 -7.489403234
21.57925475 25.49691648 -6.373734136
17.22603608 27.04716241 -5.616784744
20.26217585 26.91324772 -5.020914342
22.88058353 1.749811127 -13.47260992
24.68650426 5.588512232 -13.12247697
24.93252936 13.32829929 -10.31819326
24.82564297 9.361085815 -11.76747454
11.08167679 22.75791566 -14.06516539
15.53927191 21.57062208 -13.3313776
12.21410795 23.60005416 -12.55318145
23.53455309 17.09842766 -10.56740945
19.85147195 19.77175102 -12.21961415
23.34558775 19.24537494 -9.697088801
14.60967251 25.31475675 -9.320024214
16.85515417 22.46997869 -11.77942453
13.39350544 24.45811406 -10.96787653
17.22090485 24.96096292 -8.855758012
14.53740254 23.09811881 -12.20675299
22.48408997 23.54298599 -7.655004913
19.21724038 21.63346016 -11.2224773
23.02283005 21.43571585 -8.728806023
19.90057777 24.41243876 -8.312335668
21.38666318 20.58603028 -10.54322896
18.32601908 23.401212 -10.11418444
11.68895629 -16.7390721 -0.8304156739
13.2294982 -15.01239846 -2.442053584
11.31920419 -16.96488353 -2.184303132
16.02278585 -11.31260426 -5.581595923
14.66464193 -13.21516118 -4.015504743
10.42511347 -17.16862439 -4.904977548
12.80954585 -15.13508805 -3.783478188
10.89636372 -17.10873691 -3.552908472
12.08433355 -16.05102358 -2.994466344
20.90596194 -1.598800345 -12.30990766
19.77986343 -4.477750578 -10.51427936
17.32367236 -9.260796874 -7.169308686
18.57725415 -7.004985553 -8.805708094
8.032537531 -16.49604254 -10.19511497
10.62182351 -14.74453514 -9.112623865
8.693906728 -16.7983344 -8.935256599
15.46657699 -11.23684596 -6.944752732
13.06613561 -13.01366371 -8.042886489
14.84511546 -12.23785052 -6.166235969
9.886781917 -17.13121762 -6.307126103
11.22897727 -14.96959787 -7.847504032
9.315796229 -17.01173809 -7.628660267
11.13531422 -16.14016034 -5.726275654
9.989469121 -15.87202006 -8.387948379
13.52964915 -14.16683267 -4.606347457
12.47618792 -14.04484249 -7.285839849
14.19689424 -13.2182095 -5.382567465
12.35047206 -15.15057233 -5.158707984
13.66112032 -13.14970149 -6.734679373
11.8206411 -15.0942399 -6.523846987
1.392236212 -10.7194743 -18.20492306
4.014291643 -9.42602386 -17.73259566
2.257392005 -11.69795559 -17.53254477
1.374586929 -9.30145286 -18.64878217
8.932312416 -6.915010216 -16.70919423
6.499988073 -8.170894452 -17.2379985
3.974815678 -13.45734828 -15.90049745
4.860147795 -10.32983164 -17.01170925
3.126417711 -12.61683055 -16.75831305
3.587040622 -11.00104312 -17.27309745
1.350082524 -6.475776796 -19.34280104
3.992079592 -8.076152398 -18.21935448
1.361983399 -7.878637596 -19.02817519
2.708427955 -8.682755326 -18.4360099
19.74264957 -0.9794214127 -13.7863656
16.69347939 -2.715513532 -14.71093084
19.33947752 -2.490042519 -12.90356604
11.38782114 -5.618707645 -16.12932046
13.94512702 -4.237309172 -15.47467274
18.40255559 -5.257504618 -11.17437984
16.44047024 -4.109798394 -13.91435298
18.88563342 -3.921910037 -12.0280493
17.8471038 -3.329541657 -13.4365484
7.192129945 -16.01750787 -11.6371107
8.171228698 -13.27463497 -13.22132576
6.445046137 -15.51634653 -12.79119249
8.557661546 -15.1831782 -11.08838371
9.797981207 -7.719643381 -15.85346661
9.030892978 -10.52655665 -14.61229179
8.593724484 -8.361599724 -16.15625203
4.849749213 -14.24456273 -14.91541535
7.398559186 -12.66920721 -14.26213046
5.657369088 -14.92170254 -13.89305203
5.304476168 -12.69945593 -15.57867786
6.942379179 -14.08243392 -13.55524276
11.15234628 -13.51828431 -10.02227432
9.526827206 -12.52748784 -12.71100244
9.88129307 -14.34659427 -10.54849405
9.05783924 -13.85282119 -11.92966087
6.158054863 -9.653104199 -16.72631501
7.835135441 -11.21127908 -14.94600402
7.376122678 -9.007408041 -16.44858504
5.74122103 -11.164377 -16.18228559
8.226729921 -9.797469035 -15.56695588
6.594857794 -11.94930649 -15.25853777
1.342972737 -0.8300027974 -20.06003684
4.000959397 -2.472728895 -19.591112
1.342753005 -2.221873087 -19.9602783
9.007214189 -5.566764513 -17.27904979
6.574733307 -4.063408651 -18.65960764
7.775878524 -6.199233862 -17.52467136
1.350320493 -5.017045717 -19.60852654
3.990352278 -3.858424144 -19.33815771
1.344297864 -3.624842054 -19.80958893
2.683811698 -5.869479713 -19.18818887
2.68118238 -3.049236535 -19.70652528
5.299281023 -7.43500243 -17.99124792
5.31573962 -4.677893408 -18.83692222
6.536199641 -6.824824963 -17.76253079
4.008861407 -6.680667169 -18.64491831
6.56231823 -5.448859494 -18.23819602
4.009445953 -5.267218445 -19.01940425
16.18004491 -9.999817696 -7.878666519
14.88045959 -9.196629793 -10.71974219
16.75849258 -8.914064208 -8.673286764
14.93497994 -10.90712275 -8.417770105
11.24053615 -6.947033392 -15.47165622
13.21690791 -8.168498314 -13.27019931
12.47164539 -6.284037241 -15.12872016
10.84019672 -8.366118725 -14.843339
17.85952849 -6.575265157 -10.30710526
15.32122822 -8.031839017 -11.49274182
17.32282735 -7.768163605 -9.486151786
17.0418689 -6.046187704 -11.75741512
16.08613248 -8.501101206 -10.12422635
12.4586519 -12.64115813 -9.474479271
13.57393634 -10.063534 -11.19825823
13.69063958 -11.78999462 -8.951794777
11.71008103 -12.2237177 -10.87899942
14.29798838 -10.51275602 -9.847815506
15.03715837 -4.88933397 -14.36083009
14.43550712 -7.488499288 -12.8232196
13.74111285 -5.595498162 -14.7585137
16.09253424 -5.47944217 -13.11834235
13.49494503 -6.911497424 -14.01979109
15.71545758 -6.792342062 -12.30713074
9.995635676 -11.12270396 -13.48235346
12.71992258 -9.533512801 -12.5362792
10.42373736 -9.764427347 -14.17691758
10.88186886 -11.71316967 -12.22694182
11.82248172 -8.976461272 -13.72836387
12.23539477 -10.8893919 -11.72126742
1.446594599 11.13800481 -18.91571498
4.451994916 10.45380207 -19.66609124
2.420845752 12.54498379 -18.8020452
1.420179043 9.609962197 -19.26732247
10.7160221 8.295881163 -20.04588357
7.568503014 9.51408504 -20.07170507
4.634123132 15.68953482 -18.53793207
5.604796583 11.91251943 -19.61816264
3.484363621 14.06134094 -18.67698489
3.997916285 12.26115176 -19.25163523
1.3802241 6.620353232 -19.77464317
4.353915389 8.808162112 -19.87072803
1.399592698 8.096195343 -19.55361209
2.880977994 9.235921146 -19.6105415
20.75924659 1.029854202 -14.49625908
18.95015019 3.082604175 -16.69959524
22.15397794 2.852421787 -14.78143952
19.03703951 0 -14.95197487
13.77090534 6.794512327 -19.50463944
16.57283181 5.035752786 -18.39059251
23.68375983 6.766314388 -14.38122695
20.14329734 5.035433284 -17.0482319
23.63863043 4.908947445 -15.05518008
21.23474275 3.961536917 -15.98700001
15.92175098 -1.809476447 -15.73428664
17.19241159 1.953884587 -16.98998636
17.42262503 -0.9448951063 -15.36499565
18.17762031 0.9858413669 -16.03082523
9.771389471 21.76174637 -15.81044028
11.3888671 18.50187519 -18.42757406
8.691241504 20.92402631 -17.24911516
11.94595667 21.19476072 -15.47868546
12.38101795 9.754768995 -20.03290786
12.40166011 14.45557799 -20.06630758
10.70090238 10.41186072 -20.11775874
5.975723611 17.55174671 -18.37835231
10.09766746 17.291129 -19.46517518
7.410101732 19.54465621 -18.19731527
6.49429503 15.54800341 -19.0730483
9.523630282 19.31843403 -18.59522753
16.25545899 19.70400764 -14.60828648
13.45908168 17.6982828 -17.95754414
14.12802081 20.51239457 -15.08196775
12.74248086 19.48801521 -16.78253182
7.327498288 11.48627384 -19.90272047
10.41484555 14.90258093 -19.86696013
8.99987172 10.99026147 -20.0695083
6.945482511 13.50618358 -19.57663378
10.60529961 12.6301818 -20.06778302
8.439565242 15.29175531 -19.52664167
1.346686451 0.8322979989 -20.11550873
4.102488738 2.535477478 -20.08826093
1.352760879 2.238433264 -20.10904725
2.698384834 0 -20.02811396
10.38509142 6.418339475 -19.92230982
7.056995686 4.361463193 -20.02830601
8.90890978 7.102530603 -20.07820924
1.373504685 5.103185378 -19.94519316
4.151385784 4.014133597 -20.11856283
1.360779736 3.669284719 -20.05246597
2.79478136 6.112169683 -19.98157793
2.737035555 3.112756847 -20.11704268
5.387716546 -1.653763082 -19.49294158
5.510380371 1.691414823 -19.93674347
4.05691895 -0.8352220873 -19.81916919
4.09131324 0.8423030448 -19.98719479
5.905178585 8.285089418 -20.04829173
5.675855196 4.994797998 -20.11303234
7.402762335 7.729653307 -20.11746904
4.303723912 7.172048151 -20.01630204
7.232244735 6.005116485 -20.1000763
4.236577478 5.565601657 -20.09683648
23.65594866 14.62018031 -11.5189625
21.02848192 12.99631656 -15.14871927
23.703191 12.6080413 -12.26748598
22.1264709 16.15912007 -12.47109444
14.34326028 8.864622363 -19.74229603
18.4250853 11.38732896 -18.49937639
15.93239867 8.02779292 -19.32678435
14.59190285 11.26156608 -19.98050094
23.70702613 8.728113006 -13.68181775
21.17881518 11.1025586 -15.88662811
23.71801527 10.63599026 -12.98822002
22.54080593 7.997124285 -15.55120591
22.44109046 11.85953065 -14.12388463
18.41439417 18.68414579 -14.00366566
19.37897568 14.36731215 -15.98731336
20.35040845 17.52520068 -13.30636739
16.94374746 17.68694729 -15.74122489
20.73294136 15.24412724 -14.27992358
18.84479941 6.127388946 -17.99721436
19.8686331 10.30696349 -17.64952511
17.45003717 7.105803725 -18.74204915
21.32336129 7.26051741 -17.38241779
18.37893933 9.412857299 -19.09373394
21.25861509 9.188137523 -16.64810292
14.14265744 15.73732747 -19.07595601
17.9757821 13.47275093 -17.71625745
14.73750923 13.80534957 -20.04391001
15.51696096 16.7023513 -17.43496282
16.64353904 12.63694775 -19.32661564
17.51319418 15.58658618 -16.77729541
10.48913199 -4.78993488 -16.97177207
11.1105452 -1.663243531 -17.97723977
11.76076465 -4.109912657 -16.69810738
9.292763857 -4.055103673 -17.76747606
12.09772766 5.52451125 -19.57453454
11.65540687 1.744809074 -18.85884447
13.48017568 4.710777427 -19.13935256
10.3011397 4.495130843 -19.69545937
14.43640601 -2.639520922 -16.09261784
12.48054022 -0.8836998603 -17.76132126
13.0803626 -3.39227413 -16.40402721
14.98130828 -0.9129490285 -16.68688951
12.12690958 -2.528364533 -17.24463567
6.760945887 -2.49816746 -19.02367996
9.787292935 -0.870735721 -18.65393261
8.039535399 -3.284185842 -18.4567781
6.871423209 -0.8493546189 -19.36390415
9.554506008 -2.482643078 -18.22963275
16.02347322 2.929696822 -17.86176081
12.83517178 0.9088099798 -18.26600494
14.80346497 3.839145195 -18.56496257
15.51472557 0.9454550545 -17.28103491
13.16511024 2.74482114 -18.72097158
13.94206003 0 -17.53782969
7.062048297 2.609424709 -19.87090991
10.00010455 0.8896687067 -19.05953747
8.62157709 3.521952453 -19.79300138
6.972697212 0.8618727741 -19.64929774
10.16900504 2.642314522 -19.40207345
8.412196676 0 -19.21935126
19.78867908 28.3382124 1.405842307
23.43146278 26.58925156 4.325250042
18.55188105 27.80500253 3.580015979
22.34684166 28.45227545 0
24.96120217 17.62341484 8.695325868
24.73232765 22.28773793 6.77226075
15.91809092 26.21474813 7.489403234
21.57925475 25.49691648 6.373734136
17.22603608 27.04716241 5.616784744
20.26217585 26.91324772 5.020914342
26.16315894 26.47487687 -3.008818955
26.16315894 26.47487687 3.008818955
24.8101939 28.13269297 -1.525742755
24.8101939 28.13269297 1.525742755
22.88058353 1.749811127 13.47260992
24.68650426 5.588512232 13.12247697
24.93252936 13.32829929 10.31819326
24.82564297 9.361085815 11.76747454
11.08167679 22.75791566 14.06516539
15.53927191 21.57062208 13.3313776
12.21410795 23.60005416 12.55318145
23.53455309 17.09842766 10.56740945
19.85147195 19.77175102 12.21961415
23.34558775 19.24537494 9.697088801
14.60967251 25.31475675 9.320024214
16.85515417 22.46997869 11.77942453
13.39350544 24.45811406 10.96787653
17.22090485 24.96096292 8.855758012
14.53740254 23.09811881 12.20675299
22.48408997 23.54298599 7.655004913
19.21724038 21.63346016 11.2224773
23.02283005 21.43571585 8.728806023
19.90057777 24.41243876 8.312335668
21.38666318 20.58603028 10.54322896
18.32601908 23.401212 10.11418444
26.21740394 16.20324673 -7.399325014
28.14564955 17.39496806 -2.604018756
26.33211442 18.54616175 -6.481135128
26.21740394 16.20324673 7.399325014
28.14564955 17.39496806 2.604018756
26.33211442 18.54616175 6.481135128
26.45678329 23.73391756 -4.339457614
28.33592008 19.91110825 -1.409830285
26.4282825 21.07357624 -5.465242032
28.08738452 25.21654894 -1.536676466
27.55321782 19.37619255 -4.039782574
26.45678329 23.73391756 4.339457614
28.33592008 19.91110825 1.409830285
26.4282825 21.07357624 5.465242032
28.08738452 25.21654894 1.536676466
27.55321782 19.37619255 4.039782574
28.45227545 22.61872416 0
11.68895629 -16.7390721 0.8304156739
13.2294982 -15.01239846 2.442053584
11.31920419 -16.96488353 2.184303132
12.51632963 -15.93594583 0
16.02278585 -11.31260426 5.581595923
14.66464193 -13.21516118 4.015504743
10.42511347 -17.16862439 4.904977548
12.80954585 -15.13508805 3.783478188
10.89636372 -17.10873691 3.552908472
12.08433355 -16.05102358 2.994466344
14.09591079 -14.26385489 -1.621059737
14.09591079 -14.26385489 1.621059737
13.32229835 -15.10637646 -0.8192761523
13.32229835 -15.10637646 0.8192761523
20.90596194 -1.598800345 12.30990766
19.77986343 -4.477750578 10.51427936
17.32367236 -9.260796874 7.169308686
18.57725415 -7.004985553 8.805708094
8.032537531 -16.49604254 10.19511497
10.62182351 -14.74453514 9.112623865
8.693906728 -16.7983344 8.935256599
15.46657699 -11.23684596 6.944752732
13.06613561 -13.01366371 8.042886489
14.84511546 -12.23785052 6.166235969
9.886781917 -17.13121762 6.307126103
11.22897727 -14.96959787 7.847504032
9.315796229 -17.01173809 7.628660267
11.13531422 -16.14016034 5.726275654
9.989469121 -15.87202006 8.387948379
13.52964915 -14.16683267 4.606347457
12.47618792 -14.04484249 7.285839849
14.19689424 -13.2182095 5.382567465
12.35047206 -15.15057233 5.158707984
13.66112032 -13.14970149 6.734679373
11.8206411 -15.0942399 6.523846987
17.07270765 -10.5515136 -4.818421878
17.5272601 -10.83244247 -1.621611679
16.35658978 -11.52022792 -4.025854776
17.07270765 -10.5515136 4.818421878
17.5272601 -10.83244247 1.621611679
16.35658978 -11.52022792 4.025854776
14.88704028 -13.35490346 -2.44178136
16.69603087 -11.73198107 -0.8306972174
15.62432489 -12.45863789 -3.23103543
14.97988259 -13.44877599 -0.8195577281
16.5824871 -11.66126821 -2.431281997
14.88704028 -13.35490346 2.44178136
16.69603087 -11.73198107 0.8306972174
15.62432489 -12.45863789 3.23103543
14.97988259 -13.44877599 0.8195577281
16.5824871 -11.66126821 2.431281997
15.85110894 -12.60116652 0
1.392236212 -10.7194743 18.20492306
4.014291643 -9.42602386 17.73259566
2.257392005 -11.69795559 17.53254477
1.374586929 -9.30145286 18.64878217
8.932312416 -6.915010216 16.70919423
6.499988073 -8.170894452 17.2379985
3.974815678 -13.45734828 15.90049745
4.860147795 -10.32983164 17.01170925
3.126417711 -12.61683055 16.75831305
3.587040622 -11.00104312 17.27309745
1.350082524 -6.475776796 19.34280104
3.992079592 -8.076152398 18.21935448
1.361983399 -7.878637596 19.02817519
2.708427955 -8.682755326 18.4360099
19.74264957 -0.9794214127 13.7863656
16.69347939 -2.715513532 14.71093084
19.33947752 -2.490042519 12.90356604
11.38782114 -5.618707645 16.12932046
13.94512702 -4.237309172 15.47467274
18.40255559 -5.257504618 11.17437984
16.44047024 -4.109798394 13.91435298
18.88563342 -3.921910037 12.0280493
17.8471038 -3.329541657 13.4365484
7.192129945 -16.01750787 11.6371107
8.171228698 -13.27463497 13.22132576
6.445046137 -15.51634653 12.79119249
8.557661546 -15.1831782 11.08838371
9.797981207 -7.719643381 15.85346661
9.030892978 -10.52655665 14.61229179
8.593724484 -8.361599724 16.15625203
4.849749213 -14.24456273 14.91541535
7.398559186 -12.66920721 14.26213046
5.657369088 -14.92170254 13.89305203
5.304476168 -12.69945593 15.57867786
6.942379179 -14.08243392 13.55524276
11.15234628 -13.51828431 10.02227432
9.526827206 -12.52748784 12.71100244
9.88129307 -14.34659427 10.54849405
9.05783924 -13.85282119 11.92966087
6.158054863 -9.653104199 16.72631501
7.835135441 -11.21127908 14.94600402
7.376122678 -9.007408041 16.44858504
5.74122103 -11.164377 16.18228559
8.226729921 -9.797469035 15.56695588
6.594857794 -11.94930649 15.25853777
1.342972737 -0.8300027974 20.06003684
4.000959397 -2.472728895 19.591112
1.342753005 -2.221873087 19.9602783
9.007214189 -5.566764513 17.27904979
6.574733307 -4.063408651 18.65960764
7.775878524 -6.199233862 17.52467136
1.350320493 -5.017045717 19.60852654
3.990352278 -3.858424144 19.33815771
1.344297864 -3.624842054 19.80958893
2.683811698 -5.869479713 19.18818887
2.68118238 -3.049236535 19.70652528
5.299281023 -7.43500243 17.99124792
5.31573962 -4.677893408 18.83692222
6.536199641 -6.824824963 17.76253079
4.008861407 -6.680667169 18.64491831
6.56231823 -5.448859494 18.23819602
4.009445953 -5.267218445 19.01940425
16.18004491 -9.999817696 7.878666519
14.88045959 -9.196629793 10.71974219
16.75849258 -8.914064208 8.673286764
14.93497994 -10.90712275 8.417770105
11.24053615 -6.947033392 15.47165622
13.21690791 -8.168498314 13.27019931
12.47164539 -6.284037241 15.12872016
10.84019672 -8.366118725 14.843339
17.85952849 -6.575265157 10.30710526
15.32122822 -8.031839017 11.49274182
17.32282735 -7.768163605 9.486151786
17.0418689 -6.046187704 11.75741512
16.08613248 -8.501101206 10.12422635
12.4586519 -12.64115813 9.474479271
13.57393634 -10.063534 11.19825823
13.69063958 -11.78999462 8.951794777
11.71008103 -12.2237177 10.87899942
14.29798838 -10.51275602 9.847815506
15.03715837 -4.88933397 14.36083009
14.43550712 -7.488499288 12.8232196
13.74111285 -5.595498162 14.7585137
16.09253424 -5.47944217 13.11834235
13.49494503 -6.911497424 14.01979109
15.71545758 -6.792342062 12.30713074
9.995635676 -11.12270396 13.48235346
12.71992258 -9.533512801 12.5362792
10.42373736 -9.764427347 14.17691758
10.88186886 -11.71316967 12.22694182
11.82248172 -8.976461272 13.72836387
12.23539477 -10.8893919 11.72126742
1.446594599 11.13800481 18.91571498
4.451994916 10.45380207 19.66609124
2.420845752 12.54498379 18.8020452
1.420179043 9.609962197 19.26732247
10.7160221 8.295881163 20.04588357
7.568503014 9.51408504 20.07170507
4.634123132 15.68953482 18.53793207
5.604796583 11.91251943 19.61816264
3.484363621 14.06134094 18.67698489
3.997916285 12.26115176 19.25163523
1.3802241 6.620353232 19.77464317
4.353915389 8.808162112 19.87072803
1.399592698 8.096195343 19.55361209
2.880977994 9.235921146 19.6105415
20.75924659 1.029854202 14.49625908
18.95015019 3.082604175 16.69959524
22.15397794 2.852421787 14.78143952
19.03703951 0 14.95197487
13.77090534 6.794512327 19.50463944
16.57283181 5.035752786 18.39059251
23.68375983 6.766314388 14.38122695
20.14329734 5.035433284 17.0482319
23.63863043 4.908947445 15.05518008
21.23474275 3.961536917 15.98700001
15.92175098 -1.809476447 15.73428664
17.19241159 1.953884587 16.98998636
17.42262503 -0.9448951063 15.36499565
18.17762031 0.9858413669 16.03082523
9.771389471 21.76174637 15.81044028
11.3888671 18.50187519 18.42757406
8.691241504 20.92402631 17.24911516
11.94595667 21.19476072 15.47868546
12.38101795 9.754768995 20.03290786
12.40166011 14.45557799 20.06630758
10.70090238 10.41186072 20.11775874
5.975723611 17.55174671 18.37835231
10.09766746 17.291129 19.46517518
7.410101732 19.54465621 18.19731527
6.49429503 15.54800341 19.0730483
9.523630282 19.31843403 18.59522753
16.25545899 19.70400764 14.60828648
13.45908168 17.6982828 17.95754414
14.12802081 20.51239457 15.08196775
12.74248086 19.48801521 16.78253182
7.327498288 11.48627384 19.90272047
10.41484555 14.90258093 19.86696013
8.99987172 10.99026147 20.0695083
6.945482511 13.50618358 19.57663378
10.60529961 12.6301818 20.06778302
8.439565242 15.29175531 19.52664167
1.346686451 0.8322979989 20.11550873
4.102488738 2.535477478 20.08826093
1.352760879 2.238433264 20.10904725
2.698384834 0 20.02811396
10.38509142 6.418339475 19.92230982
7.056995686 4.361463193 20.02830601
8.90890978 7.102530603 20.07820924
1.373504685 5.103185378 19.94519316
4.151385784 4.014133597 20.11856283
1.360779736 3.669284719 20.05246597
2.79478136 6.112169683 19.98157793
2.737035555 3.112756847 20.11704268
5.387716546 -1.653763082 19.49294158
5.510380371 1.691414823 19.93674347
4.05691895 -0.8352220873 19.81916919
4.09131324 0.8423030448 19.98719479
5.905178585 8.285089418 20.04829173
5.675855196 4.994797998 20.11303234
7.402762335 7.729653307 20.11746904
4.303723912 7.172048151 20.01630204
7.232244735 6.005116485 20.1000763
4.236577478 5.565601657 20.09683648
23.65594866 14.62018031 11.5189625
21.02848192 12.99631656 15.14871927
23.703191 12.6080413 12.26748598
22.1264709 16.15912007 12.47109444
14.34326028 8.864622363 19.74229603
18.4250853 11.38732896 18.49937639
