6.820793 -11.387288 22.640501
19.298930 -4.415425 19.071702
11.155262 -15.416194 18.049594
6.875499 -4.249292 24.875790
18.180615 -11.236238 15.528099
7.406406 12.364966 24.584346
21.140512 4.836763 20.891601
13.692768 18.922940 22.155364
7.080743 4.376140 25.618368
23.460801 14.499573 20.037916
14.407602 0.000000 23.311990
30.204558 0.000000 -8.580482
30.204558 0.000000 8.580482
34.815558 9.622784 -5.947207
27.061764 -7.479687 -4.622701
34.815558 9.622784 5.947207
27.061764 -7.479687 4.622701
-18.116180 18.332023 -4.194205
-24.027970 7.238789 -12.085131
-15.374084 18.000291 -11.124791
-30.597303 -30.961851 -7.083799
-29.579256 -8.911198 -14.877211
-22.696564 -26.573600 -16.423388
-7.406406 -12.364966 -24.584346
-21.140512 -4.836763 -20.891601
-13.692768 -18.922940 -22.155364
-7.080743 -4.376140 -25.618368
-23.460801 -14.499573 -20.037916
-6.820793 11.387288 -22.640501
-19.298930 4.415425 -19.071702
-11.155262 15.416194 -18.049594
-6.875499 4.249292 -24.875790
-18.180615 11.236238 -15.528099
-14.407602 0.000000 -23.311990
-18.116180 18.332023 4.194205
-24.027970 7.238789 12.085131
-15.374084 18.000291 11.124791
-22.613628 13.975991 0.000000
-30.597303 -30.961851 7.083799
-29.579256 -8.911198 14.877211
-22.696564 -26.573600 16.423388
-36.589619 -22.613628 0.000000
-7.406406 -12.364966 24.584346
-21.140512 -4.836763 20.891601
-13.692768 -18.922940 22.155364
-7.080743 -4.376140 25.618368
-23.460801 -14.499573 20.037916
-6.820793 11.387288 22.640501
-19.298930 4.415425 19.071702
-11.155262 15.416194 18.049594
-6.875499 4.249292 24.875790
-18.180615 11.236238 15.528099
-14.407602 0.000000 23.311990
-30.204558 0.000000 -8.580482
-30.204558 0.000000 8.580482
-27.061764 7.479687 -4.622701
-34.815558 -9.622784 -5.947207
-27.061764 7.479687 4.622701
-34.815558 -9.622784 5.947207
-11.024463 25.009863 0.000000
-4.138127 29.710006 0.000000
16.240095 36.841935 0.000000
4.748062 34.089079 0.000000
-16.240095 -36.841935 0.000000
-4.748062 -34.089079 0.000000
11.024463 -25.009863 0.000000
4.138127 -29.710006 0.000000
-20.176617 -36.023633 5.464394
-13.784473 -31.017810 14.099652
-13.917902 -35.911073 5.115073
-2.312682 -17.558874 22.356176
-7.566070 -24.210659 19.365441
-2.730834 -32.795871 4.418583
-8.221770 -30.692747 13.303103
-7.889614 -34.638232 4.759656
-11.059846 -33.637248 9.695032
12.966454 -23.150501 3.511679
10.172821 -22.890874 10.405420
9.897583 -25.537816 3.637535
2.225988 -16.900656 21.518124
6.492127 -20.774152 16.616674
0.000000 -20.082343 20.321612
2.519135 -30.253471 4.076046
6.727707 -25.115252 10.885659
6.369212 -27.963120 3.842426
0.000000 -30.291983 8.372498
8.414744 -25.592473 7.376342
-4.994414 -26.823989 16.578137
4.445887 -23.877959 14.757390
-2.442166 -23.482196 18.667656
-2.626606 -29.129510 12.749815
2.315767 -22.266826 17.701473
2.449728 -27.167906 11.891232
-12.966454 23.150501 3.511679
-10.172821 22.890874 10.405420
-9.897583 25.537816 3.637535
-2.225988 16.900656 21.518124
-6.492127 20.774152 16.616674
-2.519135 30.253471 4.076046
-6.727707 25.115252 10.885659
-6.369212 27.963120 3.842426
-8.414744 25.592473 7.376342
20.176617 36.023633 5.464394
13.784473 31.017810 14.099652
13.917902 35.911073 5.115073
2.312682 17.558874 22.356176
7.566070 24.210659 19.365441
0.000000 20.082343 20.321612
2.730834 32.795871 4.418583
8.221770 30.692747 13.303103
7.889614 34.638232 4.759656
0.000000 30.291983 8.372498
11.059846 33.637248 9.695032
-4.445887 23.877959 14.757390
4.994414 26.823989 16.578137
-2.315767 22.266826 17.701473
-2.449728 27.167906 11.891232
2.442166 23.482196 18.667656
2.626606 29.129510 12.749815
0.000000 -10.830165 24.569084
0.000000 -3.613685 25.944731
0.000000 10.830165 24.569084
0.000000 3.613685 25.944731
-20.176617 -36.023633 -5.464394
-13.784473 -31.017810 -14.099652
-13.917902 -35.911073 -5.115073
-2.312682 -17.558874 -22.356176
-7.566070 -24.210659 -19.365441
-2.730834 -32.795871 -4.418583
-8.221770 -30.692747 -13.303103
-7.889614 -34.638232 -4.759656
-11.059846 -33.637248 -9.695032
12.966454 -23.150501 -3.511679
10.172821 -22.890874 -10.405420
9.897583 -25.537816 -3.637535
2.225988 -16.900656 -21.518124
6.492127 -20.774152 -16.616674
0.000000 -20.082343 -20.321612
2.519135 -30.253471 -4.076046
6.727707 -25.115252 -10.885659
6.369212 -27.963120 -3.842426
0.000000 -30.291983 -8.372498
8.414744 -25.592473 -7.376342
-4.994414 -26.823989 -16.578137
4.445887 -23.877959 -14.757390
-2.442166 -23.482196 -18.667656
-2.626606 -29.129510 -12.749815
2.315767 -22.266826 -17.701473
2.449728 -27.167906 -11.891232
-12.966454 23.150501 -3.511679
-10.172821 22.890874 -10.405420
-9.897583 25.537816 -3.637535
-2.225988 16.900656 -21.518124
-6.492127 20.774152 -16.616674
-2.519135 30.253471 -4.076046
-6.727707 25.115252 -10.885659
-6.369212 27.963120 -3.842426
-8.414744 25.592473 -7.376342
20.176617 36.023633 -5.464394
13.784473 31.017810 -14.099652
13.917902 35.911073 -5.115073
2.312682 17.558874 -22.356176
7.566070 24.210659 -19.365441
0.000000 20.082343 -20.321612
2.730834 32.795871 -4.418583
8.221770 30.692747 -13.303103
7.889614 34.638232 -4.759656
0.000000 30.291983 -8.372498
11.059846 33.637248 -9.695032
-4.445887 23.877959 -14.757390
4.994414 26.823989 -16.578137
-2.315767 22.266826 -17.701473
-2.449728 27.167906 -11.891232
2.442166 23.482196 -18.667656
2.626606 29.129510 -12.749815
0.000000 -10.830165 -24.569084
0.000000 -3.613685 -25.944731
0.000000 10.830165 -24.569084
0.000000 3.613685 -25.944731
27.284189 34.738567 -3.593604
32.199930 25.755840 -10.062796
24.200162 33.579316 -9.024373
27.607602 4.187773 -15.462850
31.234947 14.198355 -13.880970
16.593042 27.702020 -17.120790
28.184083 23.974813 -14.817249
20.386040 30.945182 -13.672531
26.975032 29.262407 -12.333313
16.151966 -20.564883 -2.127378
19.886454 -15.906629 -6.214713
15.039879 -20.868821 -5.608453
24.932650 -3.782012 -13.964625
22.858143 -10.390542 -10.158275
12.041438 -20.103136 -12.424421
18.498366 -15.735650 -9.725167
13.640400 -20.705575 -9.148359
16.913697 -18.347911 -7.733148
3.499450 -12.921297 -23.069877
10.017032 -9.793115 -22.036460
5.685374 -15.246154 -21.155040
3.467577 -9.435134 -24.344602
22.393774 -2.316571 -17.588404
16.219255 -6.336856 -20.277299
21.964001 -5.902781 -15.829161
9.894306 -18.820088 -16.009323
12.232051 -11.854998 -19.791874
7.893426 -17.264251 -18.728191
13.445061 -16.933568 -14.777552
9.082574 -13.542314 -20.556684
3.476246 -2.148438 -25.801599
10.120884 -6.255050 -23.350771
3.471888 -5.755008 -25.266546
6.897309 -7.868275 -23.930452
20.073578 -12.406154 -12.023734
15.846405 -9.793617 -18.628567
21.142405 -9.341364 -13.928175
16.902522 -14.750459 -13.420411
18.865091 -7.951125 -17.390450
14.740149 -13.411031 -16.890708
3.665246 13.533479 -24.162875
11.142639 10.893561 -24.512681
6.238643 16.729825 -23.213732
3.584126 9.752257 -25.162846
23.624089 2.443844 -18.554712
18.144855 7.089187 -22.684683
25.421723 6.832036 -18.321095
20.369804 0.000000 -20.129968
12.408064 23.601541 -20.076670
14.451482 14.006015 -23.382989
9.216394 20.157806 -21.867107
18.050982 22.734558 -19.839949
10.422031 15.539474 -23.588292
3.501912 2.164301 -25.992101
10.812247 6.682336 -24.945876
3.541771 5.870845 -25.775112
7.040124 0.000000 -25.471409
7.295270 8.322258 -25.311190
28.026093 17.321078 -16.787155
18.987364 11.734836 -22.320985
26.986384 11.923413 -17.778066
23.611550 20.605280 -18.747303
22.441331 9.458414 -20.687143
18.819926 17.122935 -21.565717
13.866508 -4.177495 -22.436482
14.725606 4.436311 -23.826531
17.042185 -2.229517 -21.437502
10.614132 -2.186631 -24.250114
17.712930 2.317266 -22.281237
10.863519 2.238008 -24.819888
27.284189 34.738567 3.593604
32.199930 25.755840 10.062796
24.200162 33.579316 9.024373
31.789442 32.168193 0.000000
27.607602 4.187773 15.462850
31.234947 14.198355 13.880970
16.593042 27.702020 17.120790
28.184083 23.974813 14.817249
20.386040 30.945182 13.672531
26.975032 29.262407 12.333313
35.404456 21.881157 -6.592029
35.404456 21.881157 6.592029
34.621964 27.523445 -3.600711
34.621964 27.523445 3.600711
16.151966 -20.564883 2.127378
19.886454 -15.906629 6.214713
15.039879 -20.868821 5.608453
18.354501 -18.573183 0.000000
24.932650 -3.782012 13.964625
22.858143 -10.390542 10.158275
12.041438 -20.103136 12.424421
18.498366 -15.735650 9.725167
13.640400 -20.705575 9.148359
16.913697 -18.347911 7.733148
22.325255 -13.797767 -4.156786
22.325255 -13.797767 4.156786
20.460117 -16.265193 -2.127868
20.460117 -16.265193 2.127868
3.499450 -12.921297 23.069877
10.017032 -9.793115 22.036460
5.685374 -15.246154 21.155040
3.467577 -9.435134 24.344602
22.393774 -2.316571 17.588404
16.219255 -6.336856 20.277299
21.964001 -5.902781 15.829161
9.894306 -18.820088 16.009323
12.232051 -11.854998 19.791874
7.893426 -17.264251 18.728191
13.445061 -16.933568 14.777552
9.082574 -13.542314 20.556684
3.476246 -2.148438 25.801599
10.120884 -6.255050 23.350771
3.471888 -5.755008 25.266546
6.897309 -7.868275 23.930452
20.073578 -12.406154 12.023734
15.846405 -9.793617 18.628567
21.142405 -9.341364 13.928175
16.902522 -14.750459 13.420411
18.865091 -7.951125 17.390450
14.740149 -13.411031 16.890708
3.665246 13.533479 24.162875
11.142639 10.893561 24.512681
6.238643 16.729825 23.213732
3.584126 9.752257 25.162846
23.624089 2.443844 18.554712
18.144855 7.089187 22.684683
25.421723 6.832036 18.321095
20.369804 0.000000 20.129968
12.408064 23.601541 20.076670
14.451482 14.006015 23.382989
9.216394 20.157806 21.867107
18.050982 22.734558 19.839949
10.422031 15.539474 23.588292
3.501912 2.164301 25.992101
10.812247 6.682336 24.945876
3.541771 5.870845 25.775112
7.040124 0.000000 25.471409
7.295270 8.322258 25.311190
28.026093 17.321078 16.787155
18.987364 11.734836 22.320985
26.986384 11.923413 17.778066
23.611550 20.605280 18.747303
22.441331 9.458414 20.687143
18.819926 17.122935 21.565717
13.866508 -4.177495 22.436482
14.725606 4.436311 23.826531
17.042185 -2.229517 21.437502
10.614132 -2.186631 24.250114
17.712930 2.317266 22.281237
10.863519 2.238008 24.819888
28.141306 0.000000 -12.404817
31.525098 0.000000 -4.390940
30.448479 4.336996 -11.800787
27.144686 -3.866413 -10.520350
28.141306 0.000000 12.404817
31.525098 0.000000 4.390940
30.448479 4.336996 11.800787
27.144686 -3.866413 10.520350
34.444111 14.929050 -9.226660
33.826697 4.557466 -2.816669
32.690889 9.422270 -10.748685
36.538336 15.992614 -3.294660
32.652017 4.486730 -7.437210
24.321899 -10.541798 -6.515189
29.651229 -3.994906 -2.468987
25.825538 -7.443517 -8.491375
24.961419 -10.925466 -2.250770
28.787764 -3.955741 -6.557042
34.444111 14.929050 9.226660
33.826697 4.557466 2.816669
32.690889 9.422270 10.748685
36.538336 15.992614 3.294660
32.652017 4.486730 7.437210
35.755285 9.882518 0.000000
24.321899 -10.541798 6.515189
29.651229 -3.994906 2.468987
25.825538 -7.443517 8.491375
24.961419 -10.925466 2.250770
28.787764 -3.955741 6.557042
27.496070 -7.599727 0.000000
-16.151966 20.564883 -2.127378
-19.886454 15.906629 -6.214713
-15.039879 20.868821 -5.608453
-24.932650 3.782012 -13.964625
-22.858143 10.390542 -10.158275
-12.041438 20.103136 -12.424421
-18.498366 15.735650 -9.725167
-13.640400 20.705575 -9.148359
-16.913697 18.347911 -7.733148
-27.284189 -34.738567 -3.593604
-32.199930 -25.755840 -10.062796
-24.200162 -33.579316 -9.024373
-27.607602 -4.187773 -15.462850
-31.234947 -14.198355 -13.880970
-16.593042 -27.702020 -17.120790
-28.184083 -23.974813 -14.817249
-20.386040 -30.945182 -13.672531
-26.975032 -29.262407 -12.333313
-3.665246 -13.533479 -24.162875
-11.142639 -10.893561 -24.512681
-6.238643 -16.729825 -23.213732
-3.584126 -9.752257 -25.162846
-23.624089 -2.443844 -18.554712
-18.144855 -7.089187 -22.684683
-25.421723 -6.832036 -18.321095
-12.408064 -23.601541 -20.076670
-14.451482 -14.006015 -23.382989
-9.216394 -20.157806 -21.867107
-18.050982 -22.734558 -19.839949
-10.422031 -15.539474 -23.588292
-3.501912 -2.164301 -25.992101
-10.812247 -6.682336 -24.945876
-3.541771 -5.870845 -25.775112
-7.295270 -8.322258 -25.311190
-28.026093 -17.321078 -16.787155
-18.987364 -11.734836 -22.320985
-26.986384 -11.923413 -17.778066
-23.611550 -20.605280 -18.747303
-22.441331 -9.458414 -20.687143
-18.819926 -17.122935 -21.565717
-3.499450 12.921297 -23.069877
-10.017032 9.793115 -22.036460
-5.685374 15.246154 -21.155040
-3.467577 9.435134 -24.344602
-22.393774 2.316571 -17.588404
-16.219255 6.336856 -20.277299
-21.964001 5.902781 -15.829161
-20.369804 0.000000 -20.129968
-9.894306 18.820088 -16.009323
-12.232051 11.854998 -19.791874
-7.893426 17.264251 -18.728191
-13.445061 16.933568 -14.777552
-9.082574 13.542314 -20.556684
-3.476246 2.148438 -25.801599
-10.120884 6.255050 -23.350771
-3.471888 5.755008 -25.266546
-7.040124 0.000000 -25.471409
-6.897309 7.868275 -23.930452
-20.073578 12.406154 -12.023734
-15.846405 9.793617 -18.628567
-21.142405 9.341364 -13.928175
-16.902522 14.750459 -13.420411
-18.865091 7.951125 -17.390450
-14.740149 13.411031 -16.890708
-14.725606 -4.436311 -23.826531
-13.866508 4.177495 -22.436482
-17.712930 -2.317266 -22.281237
-10.863519 -2.238008 -24.819888
-17.042185 2.229517 -21.437502
-10.614132 2.186631 -24.250114
-16.151966 20.564883 2.127378
-19.886454 15.906629 6.214713
-15.039879 20.868821 5.608453
-18.354501 18.573183 0.000000
-24.932650 3.782012 13.964625
-22.858143 10.390542 10.158275
-12.041438 20.103136 12.424421
-18.498366 15.735650 9.725167
-13.640400 20.705575 9.148359
-16.913697 18.347911 7.733148
-22.325255 13.797767 -4.156786
-22.325255 13.797767 4.156786
-20.460117 16.265193 -2.127868
-20.460117 16.265193 2.127868
-27.284189 -34.738567 3.593604
-32.199930 -25.755840 10.062796
-24.200162 -33.579316 9.024373
-31.789442 -32.168193 0.000000
-27.607602 -4.187773 15.462850
-31.234947 -14.198355 13.880970
-16.593042 -27.702020 17.120790
-28.184083 -23.974813 14.817249
-20.386040 -30.945182 13.672531
-26.975032 -29.262407 12.333313
-35.404456 -21.881157 -6.592029
-35.404456 -21.881157 6.592029
-34.621964 -27.523445 -3.600711
-34.621964 -27.523445 3.600711
-3.665246 -13.533479 24.162875
-11.142639 -10.893561 24.512681
-6.238643 -16.729825 23.213732
-3.584126 -9.752257 25.162846
-23.624089 -2.443844 18.554712
-18.144855 -7.089187 22.684683
-25.421723 -6.832036 18.321095
-12.408064 -23.601541 20.076670
-14.451482 -14.006015 23.382989
-9.216394 -20.157806 21.867107
-18.050982 -22.734558 19.839949
-10.422031 -15.539474 23.588292
-3.501912 -2.164301 25.992101
-10.812247 -6.682336 24.945876
-3.541771 -5.870845 25.775112
-7.295270 -8.322258 25.311190
-28.026093 -17.321078 16.787155
-18.987364 -11.734836 22.320985
-26.986384 -11.923413 17.778066
-23.611550 -20.605280 18.747303
-22.441331 -9.458414 20.687143
-18.819926 -17.122935 21.565717
-3.499450 12.921297 23.069877
-10.017032 9.793115 22.036460
-5.685374 15.246154 21.155040
-3.467577 9.435134 24.344602
-22.393774 2.316571 17.588404
-16.219255 6.336856 20.277299
-21.964001 5.902781 15.829161
-20.369804 0.000000 20.129968
-9.894306 18.820088 16.009323
-12.232051 11.854998 19.791874
-7.893426 17.264251 18.728191
-13.445061 16.933568 14.777552
-9.082574 13.542314 20.556684
-3.476246 2.148438 25.801599
-10.120884 6.255050 23.350771
-3.471888 5.755008 25.266546
-7.040124 0.000000 25.471409
-6.897309 7.868275 23.930452
-20.073578 12.406154 12.023734
-15.846405 9.793617 18.628567
-21.142405 9.341364 13.928175
-16.902522 14.750459 13.420411
-18.865091 7.951125 17.390450
-14.740149 13.411031 16.890708
-14.725606 -4.436311 23.826531
-13.866508 4.177495 22.436482
-17.712930 -2.317266 22.281237
-10.863519 -2.238008 24.819888
-17.042185 2.229517 21.437502
-10.614132 2.186631 24.250114
-28.141306 0.000000 -12.404817
-31.525098 0.000000 -4.390940
-27.144686 3.866413 -10.520350
-30.448479 -4.336996 -11.800787
-28.141306 0.000000 12.404817
-31.525098 0.000000 4.390940
-27.144686 3.866413 10.520350
-30.448479 -4.336996 11.800787
-24.321899 10.541798 -6.515189
-29.651229 3.994906 -2.468987
-25.825538 7.443517 -8.491375
-24.961419 10.925466 -2.250770
-28.787764 3.955741 -6.557042
-34.444111 -14.929050 -9.226660
-33.826697 -4.557466 -2.816669
-32.690889 -9.422270 -10.748685
-36.538336 -15.992614 -3.294660
-32.652017 -4.486730 -7.437210
-24.321899 10.541798 6.515189
-29.651229 3.994906 2.468987
-25.825538 7.443517 8.491375
-24.961419 10.925466 2.250770
-28.787764 3.955741 6.557042
-27.496070 7.599727 0.000000
-34.444111 -14.929050 9.226660
-33.826697 -4.557466 2.816669
-32.690889 -9.422270 10.748685
-36.538336 -15.992614 3.294660
-32.652017 -4.486730 7.437210
-35.755285 -9.882518 0.000000
-12.532008 23.816615 0.000000
-9.443110 26.195643 0.000000
-2.138654 30.857495 0.000000
-6.012772 28.547334 0.000000
19.422127 36.911028 0.000000
13.142466 36.457836 0.000000
2.291628 33.064675 0.000000
7.376997 35.024377 0.000000
-19.422127 -36.911028 0.000000
-13.142466 -36.457836 0.000000
-2.291628 -33.064675 0.000000
-7.376997 -35.024377 0.000000
12.532008 -23.816615 0.000000
9.443110 -26.195643 0.000000
2.138654 -30.857495 0.000000
6.012772 -28.547334 0.000000
-21.506405 -36.524408 2.793234
-18.683619 -35.148337 7.956854
-18.319249 -36.728853 2.707255
-12.152509 -29.364907 15.697736
-15.439751 -32.572982 12.282400
-12.087405 -36.104436 2.520006
-15.605168 -35.204399 7.713707
-15.138681 -36.562345 2.617030
-17.019035 -36.136352 5.308779
-1.134557 -15.970062 22.869794
-3.539928 -19.177088 21.761527
-9.034021 -25.933477 18.309873
-6.162474 -22.505382 20.280908
-1.345571 -32.520615 2.177179
-4.136391 -32.772092 6.692821
-3.736177 -33.564081 2.257898
-9.447930 -29.326058 15.287072
-6.909574 -31.729503 11.179925
-10.953435 -30.964365 13.739210
-9.054248 -35.387454 2.436920
-6.710562 -33.632880 6.940012
-6.319831 -34.537573 2.343753
-10.822652 -35.380834 4.948643
-5.224874 -33.767175 4.594212
-14.027532 -33.943877 9.998091
-8.223073 -33.112636 9.344316
-12.498786 -32.529782 11.970206
-12.507048 -34.905628 7.505092
-9.628493 -32.228092 11.596048
-9.514947 -34.357531 7.242849
13.504775 -22.935210 1.753989
12.362207 -23.256255 5.264734
12.038199 -24.135772 1.779029
9.326484 -22.536196 12.047280
10.962975 -23.128403 8.721102
8.878679 -26.520143 1.851044
10.835098 -24.443384 5.355839
10.490775 -25.336906 1.813545
11.467330 -24.348471 3.577026
1.114976 -15.694441 22.475094
3.326039 -18.018370 20.446652
0.000000 -17.263809 21.980495
7.481368 -21.476358 15.163003
5.465714 -19.960814 17.987850
-2.357300 -20.497880 20.742100
2.253248 -19.593100 19.826540
-1.160713 -18.874415 21.402014
1.136621 -18.482661 20.957798
1.291450 -31.212583 2.089610
3.677576 -29.136964 5.950444
3.348142 -30.078152 2.023395
0.000000 -31.553808 4.251240
7.608880 -23.617708 12.311427
5.780663 -26.545424 9.353309
8.493225 -24.009575 10.653297
7.099335 -27.746905 1.910761
5.589517 -28.014278 5.780635
5.290772 -28.913817 1.962120
8.183981 -26.754631 3.742114
4.505191 -29.116032 3.961398
-2.664419 -31.405569 8.680286
2.469987 -29.113794 8.046855
-1.332825 -31.626911 6.473925
1.281071 -30.398819 6.222538
10.094329 -24.426297 7.194710
6.642621 -26.748480 7.548365
9.328814 -24.279502 8.934294
9.186161 -25.637442 5.512331
7.595846 -25.424498 9.148035
7.431568 -26.834655 5.656965
-7.710247 -27.319066 16.884111
-2.424780 -26.208335 16.197642
-6.305087 -25.616850 18.042389
-6.570092 -28.786920 15.056165
6.488824 -22.991304 14.209408
2.286845 -24.717461 15.276231
5.496528 -22.331767 15.728648
5.613515 -24.595668 12.864052
-3.645832 -22.227889 19.940250
-1.222756 -24.575952 17.269051
-4.943500 -23.905292 19.061776
-1.191239 -21.773482 19.547996
-3.687735 -25.152090 17.687652
-4.049768 -30.839202 10.960139
-1.276115 -27.338457 14.343865
-5.333637 -29.974480 13.056498
-1.309814 -29.861637 10.596621
-3.828119 -28.109236 14.732599
3.387300 -20.651677 18.526258
1.188339 -23.884207 16.782974
4.455423 -21.545100 17.179788
1.162132 -21.241453 19.070346
3.392850 -23.140832 16.273280
0.000000 -22.913656 18.215684
3.630617 -27.647343 9.825764
1.234694 -26.451072 13.878274
4.655345 -26.162547 11.396069
1.262425 -28.781233 10.213231
3.479499 -25.549382 13.390929
0.000000 -28.186070 12.336877
-13.504775 22.935210 1.753989
-12.362207 23.256255 5.264734
-12.038199 24.135772 1.779029
-9.326484 22.536196 12.047280
-10.962975 23.128403 8.721102
-8.878679 26.520143 1.851044
-10.835098 24.443384 5.355839
-10.490775 25.336906 1.813545
-11.467330 24.348471 3.577026
-1.114976 15.694441 22.475094
-3.326039 18.018370 20.446652
-7.481368 21.476358 15.163003
-5.465714 19.960814 17.987850
-1.291450 31.212583 2.089610
-3.677576 29.136964 5.950444
-3.348142 30.078152 2.023395
-7.608880 23.617708 12.311427
-5.780663 26.545424 9.353309
-8.493225 24.009575 10.653297
-7.099335 27.746905 1.910761
-5.589517 28.014278 5.780635
-5.290772 28.913817 1.962120
-8.183981 26.754631 3.742114
-4.505191 29.116032 3.961398
-10.094329 24.426297 7.194710
-6.642621 26.748480 7.548365
-9.328814 24.279502 8.934294
-9.186161 25.637442 5.512331
-7.595846 25.424498 9.148035
-7.431568 26.834655 5.656965
21.506405 36.524408 2.793234
18.683619 35.148337 7.956854
18.319249 36.728853 2.707255
12.152509 29.364907 15.697736
15.439751 32.572982 12.282400
12.087405 36.104436 2.520006
15.605168 35.204399 7.713707
15.138681 36.562345 2.617030
17.019035 36.136352 5.308779
1.134557 15.970062 22.869794
3.539928 19.177088 21.761527
0.000000 17.263809 21.980495
9.034021 25.933477 18.309873
6.162474 22.505382 20.280908
-2.253248 19.593100 19.826540
2.357300 20.497880 20.742100
-1.136621 18.482661 20.957798
1.160713 18.874415 21.402014
1.345571 32.520615 2.177179
4.136391 32.772092 6.692821
3.736177 33.564081 2.257898
0.000000 31.553808 4.251240
9.447930 29.326058 15.287072
6.909574 31.729503 11.179925
10.953435 30.964365 13.739210
9.054248 35.387454 2.436920
6.710562 33.632880 6.940012
6.319831 34.537573 2.343753
10.822652 35.380834 4.948643
5.224874 33.767175 4.594212
-2.469987 29.113794 8.046855
2.664419 31.405569 8.680286
-1.281071 30.398819 6.222538
1.332825 31.626911 6.473925
14.027532 33.943877 9.998091
8.223073 33.112636 9.344316
12.498786 32.529782 11.970206
12.507048 34.905628 7.505092
9.628493 32.228092 11.596048
9.514947 34.357531 7.242849
-6.488824 22.991304 14.209408
-2.286845 24.717461 15.276231
-5.496528 22.331767 15.728648
-5.613515 24.595668 12.864052
7.710247 27.319066 16.884111
2.424780 26.208335 16.197642
6.305087 25.616850 18.042389
6.570092 28.786920 15.056165
-3.387300 20.651677 18.526258
-1.188339 23.884207 16.782974
-4.455423 21.545100 17.179788
-1.162132 21.241453 19.070346
-3.392850 23.140832 16.273280
-3.630617 27.647343 9.825764
-1.234694 26.451072 13.878274
-4.655345 26.162547 11.396069
-1.262425 28.781233 10.213231
-3.479499 25.549382 13.390929
3.645832 22.227889 19.940250
1.222756 24.575952 17.269051
4.943500 23.905292 19.061776
1.191239 21.773482 19.547996
3.687735 25.152090 17.687652
0.000000 22.913656 18.215684
4.049768 30.839202 10.960139
1.276115 27.338457 14.343865
5.333637 29.974480 13.056498
1.309814 29.861637 10.596621
3.828119 28.109236 14.732599
0.000000 28.186070 12.336877
0.000000 -12.624019 23.991478
0.000000 -9.029927 25.049455
0.000000 -1.806863 26.070259
0.000000 -5.420256 25.734195
0.000000 12.624019 23.991478
0.000000 9.029927 25.049455
0.000000 1.806863 26.070259
0.000000 5.420256 25.734195
-21.506405 -36.524408 -2.793234
-18.683619 -35.148337 -7.956854
-18.319249 -36.728853 -2.707255
-12.152509 -29.364907 -15.697736
-15.439751 -32.572982 -12.282400
-12.087405 -36.104436 -2.520006
-15.605168 -35.204399 -7.713707
-15.138681 -36.562345 -2.617030
-17.019035 -36.136352 -5.308779
-1.134557 -15.970062 -22.869794
-3.539928 -19.177088 -21.761527
-9.034021 -25.933477 -18.309873
-6.162474 -22.505382 -20.280908
-1.345571 -32.520615 -2.177179
-4.136391 -32.772092 -6.692821
-3.736177 -33.564081 -2.257898
-9.447930 -29.326058 -15.287072
-6.909574 -31.729503 -11.179925
-10.953435 -30.964365 -13.739210
-9.054248 -35.387454 -2.436920
-6.710562 -33.632880 -6.940012
-6.319831 -34.537573 -2.343753
-10.822652 -35.380834 -4.948643
-5.224874 -33.767175 -4.594212
-14.027532 -33.943877 -9.998091
-8.223073 -33.112636 -9.344316
-12.498786 -32.529782 -11.970206
-12.507048 -34.905628 -7.505092
-9.628493 -32.228092 -11.596048
-9.514947 -34.357531 -7.242849
13.504775 -22.935210 -1.753989
12.362207 -23.256255 -5.264734
12.038199 -24.135772 -1.779029
9.326484 -22.536196 -12.047280
10.962975 -23.128403 -8.721102
8.878679 -26.520143 -1.851044
10.835098 -24.443384 -5.355839
10.490775 -25.336906 -1.813545
11.467330 -24.348471 -3.577026
1.114976 -15.694441 -22.475094
3.326039 -18.018370 -20.446652
0.000000 -17.263809 -21.980495
7.481368 -21.476358 -15.163003
5.465714 -19.960814 -17.987850
-2.357300 -20.497880 -20.742100
2.253248 -19.593100 -19.826540
-1.160713 -18.874415 -21.402014
1.136621 -18.482661 -20.957798
1.291450 -31.212583 -2.089610
3.677576 -29.136964 -5.950444
3.348142 -30.078152 -2.023395
0.000000 -31.553808 -4.251240
7.608880 -23.617708 -12.311427
5.780663 -26.545424 -9.353309
8.493225 -24.009575 -10.653297
7.099335 -27.746905 -1.910761
5.589517 -28.014278 -5.780635
5.290772 -28.913817 -1.962120
8.183981 -26.754631 -3.742114
4.505191 -29.116032 -3.961398
-2.664419 -31.405569 -8.680286
2.469987 -29.113794 -8.046855
-1.332825 -31.626911 -6.473925
1.281071 -30.398819 -6.222538
10.094329 -24.426297 -7.194710
6.642621 -26.748480 -7.548365
9.328814 -24.279502 -8.934294
9.186161 -25.637442 -5.512331
7.595846 -25.424498 -9.148035
7.431568 -26.834655 -5.656965
-7.710247 -27.319066 -16.884111
-2.424780 -26.208335 -16.197642
-6.305087 -25.616850 -18.042389
-6.570092 -28.786920 -15.056165
6.488824 -22.991304 -14.209408
2.286845 -24.717461 -15.276231
5.496528 -22.331767 -15.728648
5.613515 -24.595668 -12.864052
-3.645832 -22.227889 -19.940250
-1.222756 -24.575952 -17.269051
-4.943500 -23.905292 -19.061776
-1.191239 -21.773482 -19.547996
-3.687735 -25.152090 -17.687652
-4.049768 -30.839202 -10.960139
-1.276115 -27.338457 -14.343865
-5.333637 -29.974480 -13.056498
-1.309814 -29.861637 -10.596621
-3.828119 -28.109236 -14.732599
3.387300 -20.651677 -18.526258
1.188339 -23.884207 -16.782974
4.455423 -21.545100 -17.179788
1.162132 -21.241453 -19.070346
3.392850 -23.140832 -16.273280
0.000000 -22.913656 -18.215684
3.630617 -27.647343 -9.825764
1.234694 -26.451072 -13.878274
4.655345 -26.162547 -11.396069
1.262425 -28.781233 -10.213231
3.479499 -25.549382 -13.390929
0.000000 -28.186070 -12.336877
-13.504775 22.935210 -1.753989
-12.362207 23.256255 -5.264734
-12.038199 24.135772 -1.779029
-9.326484 22.536196 -12.047280
-10.962975 23.128403 -8.721102
-8.878679 26.520143 -1.851044
-10.835098 24.443384 -5.355839
-10.490775 25.336906 -1.813545
-11.467330 24.348471 -3.577026
-1.114976 15.694441 -22.475094
-3.326039 18.018370 -20.446652
-7.481368 21.476358 -15.163003
-5.465714 19.960814 -17.987850
-1.291450 31.212583 -2.089610
-3.677576 29.136964 -5.950444
-3.348142 30.078152 -2.023395
-7.608880 23.617708 -12.311427
-5.780663 26.545424 -9.353309
-8.493225 24.009575 -10.653297
-7.099335 27.746905 -1.910761
-5.589517 28.014278 -5.780635
-5.290772 28.913817 -1.962120
-8.183981 26.754631 -3.742114
-4.505191 29.116032 -3.961398
-10.094329 24.426297 -7.194710
-6.642621 26.748480 -7.548365
-9.328814 24.279502 -8.934294
-9.186161 25.637442 -5.512331
-7.595846 25.424498 -9.148035
-7.431568 26.834655 -5.656965
21.506405 36.524408 -2.793234
18.683619 35.148337 -7.956854
18.319249 36.728853 -2.707255
12.152509 29.364907 -15.697736
15.439751 32.572982 -12.282400
12.087405 36.104436 -2.520006
15.605168 35.204399 -7.713707
15.138681 36.562345 -2.617030
17.019035 36.136352 -5.308779
1.134557 15.970062 -22.869794
3.539928 19.177088 -21.761527
0.000000 17.263809 -21.980495
9.034021 25.933477 -18.309873
6.162474 22.505382 -20.280908
-2.253248 19.593100 -19.826540
2.357300 20.497880 -20.742100
-1.136621 18.482661 -20.957798
1.160713 18.874415 -21.402014
1.345571 32.520615 -2.177179
4.136391 32.772092 -6.692821
3.736177 33.564081 -2.257898
0.000000 31.553808 -4.251240
9.447930 29.326058 -15.287072
6.909574 31.729503 -11.179925
10.953435 30.964365 -13.739210
9.054248 35.387454 -2.436920
6.710562 33.632880 -6.940012
6.319831 34.537573 -2.343753
10.822652 35.380834 -4.948643
5.224874 33.767175 -4.594212
-2.469987 29.113794 -8.046855
2.664419 31.405569 -8.680286
-1.281071 30.398819 -6.222538
1.332825 31.626911 -6.473925
14.027532 33.943877 -9.998091
8.223073 33.112636 -9.344316
12.498786 32.529782 -11.970206
12.507048 34.905628 -7.505092
9.628493 32.228092 -11.596048
9.514947 34.357531 -7.242849
-6.488824 22.991304 -14.209408
-2.286845 24.717461 -15.276231
-5.496528 22.331767 -15.728648
-5.613515 24.595668 -12.864052
7.710247 27.319066 -16.884111
2.424780 26.208335 -16.197642
6.305087 25.616850 -18.042389
6.570092 28.786920 -15.056165
-3.387300 20.651677 -18.526258
-1.188339 23.884207 -16.782974
-4.455423 21.545100 -17.179788
-1.162132 21.241453 -19.070346
-3.392850 23.140832 -16.273280
-3.630617 27.647343 -9.825764
-1.234694 26.451072 -13.878274
-4.655345 26.162547 -11.396069
-1.262425 28.781233 -10.213231
-3.479499 25.549382 -13.390929
3.645832 22.227889 -19.940250
1.222756 24.575952 -17.269051
4.943500 23.905292 -19.061776
1.191239 21.773482 -19.547996
3.687735 25.152090 -17.687652
0.000000 22.913656 -18.215684
4.049768 30.839202 -10.960139
1.276115 27.338457 -14.343865
5.333637 29.974480 -13.056498
1.309814 29.861637 -10.596621
3.828119 28.109236 -14.732599
0.000000 28.186070 -12.336877
0.000000 -12.624019 -23.991478
0.000000 -9.029927 -25.049455
0.000000 -1.806863 -26.070259
0.000000 -5.420256 -25.734195
0.000000 12.624019 -23.991478
0.000000 9.029927 -25.049455
0.000000 1.806863 -26.070259
0.000000 5.420256 -25.734195
25.077753 35.912387 -1.781593
29.145046 33.072837 -5.379929
23.814380 35.692278 -4.595537
32.396639 22.873073 -11.285487
31.612835 28.488163 -8.656296
20.654855 34.015501 -9.718034
27.571784 32.577375 -8.143711
22.310805 35.030924 -7.274743
25.870733 34.362817 -6.410700
26.563478 2.031464 -15.641182
28.618999 6.478747 -15.212853
31.851816 17.027175 -13.181703
30.462705 11.486671 -14.439469
13.538130 27.802617 -17.182963
19.672158 27.307630 -16.877044
15.271072 29.506708 -15.695009
30.440540 22.115796 -13.668314
25.569212 25.466529 -15.739181
30.299795 24.978206 -12.585667
18.844400 32.652436 -12.021506
21.676319 28.897180 -15.148752
17.059066 31.151857 -13.969586
22.346289 32.389987 -11.491459
18.484786 29.370018 -15.521288
28.916051 30.277862 -9.844851
24.873515 28.000909 -14.525627
29.803407 27.748863 -11.299573
25.772098 31.615151 -10.764830
27.746141 26.707434 -13.678334
23.767440 30.349575 -13.117321
15.091933 -21.612277 -1.072173
17.159196 -19.471690 -3.167443
14.595606 -21.875456 -2.816561
20.701459 -14.615898 -7.211429
19.024852 -17.144400 -5.209427
13.405714 -22.077234 -6.307339
16.606890 -19.621831 -4.905077
14.031225 -22.030884 -4.575073
15.633563 -20.765290 -3.873956
25.263920 -1.932079 -14.875973
24.517336 -5.550216 -13.032553
22.189182 -11.861775 -9.182874
23.472735 -8.850940 -11.126190
10.274916 -21.101110 -13.041203
13.737960 -19.070157 -11.786005
11.134169 -21.513400 -11.443263
20.000370 -14.530757 -8.980502
16.958386 -16.890284 -10.438769
19.240406 -15.861191 -7.991914
12.695506 -21.998004 -8.098910
14.532165 -19.373150 -10.155976
11.946081 -21.814946 -9.782587
14.378444 -20.840938 -7.394038
12.873830 -20.454910 -10.809886
17.558517 -18.385442 -5.978029
16.184512 -18.219421 -9.451426
18.422363 -17.152389 -6.984599
16.003731 -19.632099 -6.684649
17.729665 -17.065936 -8.740397
15.308145 -19.547570 -8.448611
1.775448 -13.670000 -23.215812
5.178972 -12.160829 -22.877416
2.877521 -14.911505 -22.348916
1.761420 -11.919048 -23.896884
11.583451 -8.967407 -21.668535
8.431419 -10.598825 -22.360163
5.065940 -17.151516 -20.265333
6.269435 -13.325153 -21.944561
3.984530 -16.079791 -21.357993
4.603773 -14.119245 -22.169089
1.742856 -8.359744 -24.970111
5.163575 -10.446140 -23.565916
1.752448 -10.137351 -24.483331
3.489689 -11.187345 -23.753980
23.946781 -1.187986 -16.722126
20.844040 -3.390681 -18.368563
23.750631 -3.057998 -15.846748
14.679882 -7.242998 -20.792083
17.757959 -5.395861 -19.705709
23.077608 -6.593140 -14.013160
20.699776 -5.174542 -17.519206
23.454078 -4.870622 -14.937641
22.219488 -4.145250 -16.728385
9.188410 -20.463400 -14.867160
10.548936 -17.137358 -17.068536
8.226743 -19.805753 -16.327245
11.007857 -19.530365 -14.263165
12.705400 -10.010343 -20.557769
11.715704 -13.656016 -18.956407
11.153578 -10.852309 -20.968792
6.183084 -18.160800 -19.016089
9.548057 -16.349982 -18.405696
7.216232 -19.033312 -17.721222
6.808395 -16.299991 -19.995527
8.917330 -18.088569 -17.411404
14.457857 -17.525050 -12.992836
12.341908 -16.229234 -16.466975
12.772499 -18.544320 -13.634919
11.700815 -17.894919 -15.410602
7.972448 -12.497269 -21.654512
10.145357 -14.516971 -19.352895
9.568149 -11.684218 -21.336754
7.406755 -14.403174 -20.876783
10.671964 -12.709575 -20.193928
8.509315 -15.418135 -19.688021
1.742935 -1.077193 -26.034294
5.190307 -3.207786 -25.414875
1.742467 -2.883286 -25.902108
11.661981 -7.207500 -22.371839
8.522217 -5.267020 -24.186718
10.087067 -8.041804 -22.733450
1.747735 -6.493620 -25.379540
5.179016 -5.007789 -25.098695
1.742884 -4.699614 -25.683165
3.476035 -7.602067 -24.852271
3.479780 -3.957461 -25.576172
6.871430 -9.640760 -23.328748
6.898663 -6.070879 -24.446190
8.483117 -8.857715 -23.053401
5.195428 -8.658050 -24.163551
8.514989 -7.070211 -23.665117
5.202122 -6.834040 -24.677043
20.836692 -12.877784 -10.146161
19.186000 -11.857600 -13.821413
21.480238 -11.425623 -11.117006
19.319526 -14.109188 -10.889022
14.533915 -8.982453 -20.004716
17.064774 -10.546610 -17.133580
16.060711 -8.092445 -19.482434
14.051677 -10.844637 -19.240777
22.594915 -8.318672 -13.039995
19.671227 -10.312237 -14.755758
22.072089 -9.897899 -12.086894
21.587625 -7.658951 -14.893594
20.635029 -10.905074 -12.987193
16.169838 -16.406710 -12.296740
17.572938 -13.028340 -14.497364
17.755732 -15.290738 -11.609806
15.197562 -15.864169 -14.118969
18.502704 -13.604320 -12.743836
19.115501 -6.215408 -18.255740
18.552260 -9.624088 -16.480177
17.595697 -7.165118 -18.898494
20.418197 -6.952312 -16.644544
17.360715 -8.891369 -18.035908
20.070567 -8.674654 -15.717715
12.969836 -14.432263 -17.494026
16.474648 -12.347659 -16.236796
13.527645 -12.672010 -18.398421
14.121451 -15.200234 -15.866958
15.318747 -11.631072 -17.788256
15.874266 -14.127955 -15.207235
1.819142 14.006419 -23.787153
5.530739 12.986819 -24.431299
3.006414 15.579437 -23.349992
1.798731 12.171517 -24.403065
12.976064 10.045508 -24.273621
9.281282 11.667157 -24.614004
5.560294 18.825228 -22.242903
6.854259 14.568146 -23.991588
4.260349 17.192871 -22.836442
4.927590 15.112353 -23.728400
1.768227 8.481441 -25.333614
5.459530 11.044869 -24.916615
1.783705 10.318161 -24.920017
3.631044 11.640505 -24.716171
24.642021 1.222476 -17.207615
22.453305 3.652459 -19.786709
25.641204 3.301417 -17.108165
23.048059 0.000000 -18.102289
16.494478 8.138313 -23.362215
19.699181 5.985712 -21.859849
27.534640 7.866489 -16.719554
23.281083 5.819819 -19.703890
26.614400 5.526915 -16.950414
24.539005 4.577978 -18.474680
19.866157 -2.257751 -19.632251
20.799237 2.363793 -20.554345
21.445589 -1.163076 -18.912844
21.988548 1.192522 -19.391679
11.555111 25.734252 -18.696563
13.119901 21.314040 -21.228445
9.966314 23.993743 -19.779694
14.459131 25.653686 -18.735070
14.658351 11.549037 -23.717710
14.133385 16.474105 -22.868297
12.766334 12.421503 -24.000783
6.999095 20.557568 -21.525733
11.455358 19.616022 -22.082382
8.437797 22.255273 -20.721072
7.694285 18.420902 -22.597291
10.777670 21.862220 -21.043785
20.354622 24.672796 -18.292080
15.824099 20.808208 -21.113027
17.432514 25.310170 -18.609586
15.226123 23.286433 -20.053623
8.884831 13.927482 -24.132698
12.023459 17.204343 -22.935490
10.824215 13.218072 -24.137751
8.325956 16.190652 -23.467655
12.450043 14.827144 -23.558483
9.868953 17.881682 -22.833821
1.746144 1.079176 -26.082218
5.276921 3.261316 -25.838988
1.751090 2.897555 -26.030291
3.496966 0.000000 -25.955392
12.757475 7.884553 -24.473387
8.922815 5.514603 -25.323647
10.996911 8.767167 -24.783985
1.767458 6.566899 -25.665944
5.315565 5.139823 -25.760440
1.757013 4.737710 -25.891357
3.569484 7.806439 -25.520392
3.527603 4.011848 -25.927664
6.972673 -2.140266 -25.227367
7.076696 2.172197 -25.603727
5.254215 -1.081717 -25.668293
5.283659 1.087778 -25.812135
7.365017 10.333273 -25.004494
7.199786 6.335869 -25.513253
9.184709 9.590287 -24.960020
5.440203 9.065962 -25.301983
9.065308 7.527156 -25.194582
5.392962 7.084746 -25.582317
30.224212 18.679591 -14.717295
25.750765 15.914848 -18.550608
29.785745 15.843433 -15.415486
28.271941 20.647201 -15.934852
16.841842 10.408831 -23.181384
21.197961 13.101061 -21.283433
18.596936 9.370362 -22.558999
16.770914 12.943257 -22.964192
28.411873 10.460276 -16.397083
25.325542 13.276395 -18.997166
29.164022 13.078171 -15.970507
26.242999 9.310604 -18.105399
27.575729 14.573053 -17.355503
23.309648 23.651110 -17.726378
23.646084 17.530889 -19.507603
25.924697 22.325622 -16.951185
20.904396 21.821321 -19.420780
25.965900 19.091719 -17.884152
21.817241 7.093879 -20.835964
22.996271 11.929443 -20.427840
20.271071 8.254553 -21.771955
24.022929 8.179709 -19.583057
20.777544 10.641314 -21.585625
24.713850 10.681517 -19.353976
16.289341 18.126062 -21.971454
21.229721 15.911560 -20.923217
16.591382 15.541963 -22.565289
18.538353 19.954557 -20.829820
18.977509 14.409062 -22.036841
21.185725 18.855106 -20.295508
13.523597 -6.175644 -21.881639
14.162369 -2.120100 -22.915194
15.083476 -5.271066 -21.415742
11.993430 -5.233599 -22.931065
14.784682 6.751528 -23.922118
14.597397 2.185224 -23.619084
16.413268 5.735775 -23.303801
12.805025 5.587757 -24.482811
18.222036 -3.331677 -20.312553
15.767663 -1.116449 -22.439295
16.658017 -4.320107 -20.890749
18.697135 -1.139389 -20.825753
15.449072 -3.221009 -21.968797
8.742313 -3.230282 -24.598773
12.499865 -1.112062 -23.823915
10.386184 -4.242802 -23.844100
8.852495 -1.094229 -24.946632
12.274947 -3.189522 -23.420130
19.410631 3.548997 -21.637509
16.046272 1.136176 -22.835790
17.970399 4.660461 -22.536601
19.099191 1.163890 -21.273582
16.260462 3.390177 -23.122605
17.411851 0.000000 -21.902508
8.994187 3.323349 -25.307484
12.673299 1.127492 -24.154470
10.864853 4.438341 -24.943007
8.937549 1.104742 -25.186316
12.773662 3.319109 -24.371659
10.762426 0.000000 -24.588921
25.077753 35.912387 1.781593
29.145046 33.072837 5.379929
23.814380 35.692278 4.595537
27.546300 35.072290 0.000000
32.396639 22.873073 11.285487
31.612835 28.488163 8.656296
20.654855 34.015501 9.718034
27.571784 32.577375 8.143711
22.310805 35.030924 7.274743
25.870733 34.362817 6.410700
31.482382 31.857475 -3.620541
31.482382 31.857475 3.620541
29.724900 33.705561 -1.827981
29.724900 33.705561 1.827981
26.563478 2.031464 15.641182
28.618999 6.478747 15.212853
31.851816 17.027175 13.181703
30.462705 11.486671 14.439469
13.538130 27.802617 17.182963
19.672158 27.307630 16.877044
15.271072 29.506708 15.695009
30.440540 22.115796 13.668314
25.569212 25.466529 15.739181
30.299795 24.978206 12.585667
18.844400 32.652436 12.021506
21.676319 28.897180 15.148752
17.059066 31.151857 13.969586
22.346289 32.389987 11.491459
18.484786 29.370018 15.521288
28.916051 30.277862 9.844851
24.873515 28.000909 14.525627
29.803407 27.748863 11.299573
25.772098 31.615151 10.764830
27.746141 26.707434 13.678334
23.767440 30.349575 13.117321
34.025423 21.028868 -9.602978
36.285952 22.425952 -3.357155
34.040771 23.975501 -8.378470
34.025423 21.028868 9.602978
36.285952 22.425952 3.357155
34.040771 23.975501 8.378470
32.845397 29.465031 -5.387322
35.872224 25.206724 -1.784793
33.662088 26.841721 -6.961158
33.474571 30.053106 -1.831412
35.240426 24.782052 -5.166862
32.845397 29.465031 5.387322
35.872224 25.206724 1.784793
33.662088 26.841721 6.961158
33.474571 30.053106 1.831412
35.240426 24.782052 5.166862
34.955903 27.788917 0.000000
15.091933 -21.612277 1.072173
17.159196 -19.471690 3.167443
14.595606 -21.875456 2.816561
16.205840 -20.633476 0.000000
20.701459 -14.615898 7.211429
19.024852 -17.144400 5.209427
13.405714 -22.077234 6.307339
16.606890 -19.621831 4.905077
14.031225 -22.030884 4.575073
15.633563 -20.765290 3.873956
18.294824 -18.512795 -2.103944
18.294824 -18.512795 2.103944
17.279547 -19.593567 -1.062634
17.279547 -19.593567 1.062634
25.263920 -1.932079 14.875973
24.517336 -5.550216 13.032553
22.189182 -11.861775 9.182874
23.472735 -8.850940 11.126190
10.274916 -21.101110 13.041203
13.737960 -19.070157 11.786005
11.134169 -21.513400 11.443263
20.000370 -14.530757 8.980502
16.958386 -16.890284 10.438769
19.240406 -15.861191 7.991914
12.695506 -21.998004 8.098910
14.532165 -19.373150 10.155976
11.946081 -21.814946 9.782587
14.378444 -20.840938 7.394038
12.873830 -20.454910 10.809886
17.558517 -18.385442 5.978029
16.184512 -18.219421 9.451426
18.422363 -17.152389 6.984599
16.003731 -19.632099 6.684649
17.729665 -17.065936 8.740397
15.308145 -19.547570 8.448611
21.966990 -13.576347 -6.199733
22.541387 -13.931344 -2.085516
21.127542 -14.880492 -5.200131
21.966990 -13.576347 6.199733
22.541387 -13.931344 2.085516
21.127542 -14.880492 5.200131
19.312397 -17.324814 -3.167631
21.560492 -15.150145 -1.072724
20.236931 -16.136672 -4.184900
19.432850 -17.446602 -1.063182
21.415715 -15.060129 -3.139918
19.312397 -17.324814 3.167631
21.560492 -15.150145 1.072724
20.236931 -16.136672 4.184900
19.432850 -17.446602 1.063182
21.415715 -15.060129 3.139918
20.528391 -16.319469 0.000000
1.775448 -13.670000 23.215812
5.178972 -12.160829 22.877416
2.877521 -14.911505 22.348916
1.761420 -11.919048 23.896884
11.583451 -8.967407 21.668535
8.431419 -10.598825 22.360163
5.065940 -17.151516 20.265333
6.269435 -13.325153 21.944561
3.984530 -16.079791 21.357993
4.603773 -14.119245 22.169089
1.742856 -8.359744 24.970111
5.163575 -10.446140 23.565916
1.752448 -10.137351 24.483331
3.489689 -11.187345 23.753980
23.946781 -1.187986 16.722126
20.844040 -3.390681 18.368563
23.750631 -3.057998 15.846748
14.679882 -7.242998 20.792083
17.757959 -5.395861 19.705709
23.077608 -6.593140 14.013160
20.699776 -5.174542 17.519206
23.454078 -4.870622 14.937641
22.219488 -4.145250 16.728385
9.188410 -20.463400 14.867160
10.548936 -17.137358 17.068536
8.226743 -19.805753 16.327245
11.007857 -19.530365 14.263165
12.705400 -10.010343 20.557769
11.715704 -13.656016 18.956407
11.153578 -10.852309 20.968792
6.183084 -18.160800 19.016089
9.548057 -16.349982 18.405696
7.216232 -19.033312 17.721222
6.808395 -16.299991 19.995527
8.917330 -18.088569 17.411404
14.457857 -17.525050 12.992836
12.341908 -16.229234 16.466975
12.772499 -18.544320 13.634919
11.700815 -17.894919 15.410602
7.972448 -12.497269 21.654512
10.145357 -14.516971 19.352895
9.568149 -11.684218 21.336754
7.406755 -14.403174 20.876783
10.671964 -12.709575 20.193928
8.509315 -15.418135 19.688021
1.742935 -1.077193 26.034294
5.190307 -3.207786 25.414875
1.742467 -2.883286 25.902108
11.661981 -7.207500 22.371839
8.522217 -5.267020 24.186718
10.087067 -8.041804 22.733450
1.747735 -6.493620 25.379540
5.179016 -5.007789 25.098695
1.742884 -4.699614 25.683165
3.476035 -7.602067 24.852271
3.479780 -3.957461 25.576172
6.871430 -9.640760 23.328748
6.898663 -6.070879 24.446190
8.483117 -8.857715 23.053401
5.195428 -8.658050 24.163551
8.514989 -7.070211 23.665117
5.202122 -6.834040 24.677043
20.836692 -12.877784 10.146161
19.186000 -11.857600 13.821413
21.480238 -11.425623 11.117006
19.319526 -14.109188 10.889022
14.533915 -8.982453 20.004716
17.064774 -10.546610 17.133580
16.060711 -8.092445 19.482434
14.051677 -10.844637 19.240777
22.594915 -8.318672 13.039995
19.671227 -10.312237 14.755758
22.072089 -9.897899 12.086894
21.587625 -7.658951 14.893594
20.635029 -10.905074 12.987193
16.169838 -16.406710 12.296740
17.572938 -13.028340 14.497364
17.755732 -15.290738 11.609806
15.197562 -15.864169 14.118969
18.502704 -13.604320 12.743836
19.115501 -6.215408 18.255740
18.552260 -9.624088 16.480177
17.595697 -7.165118 18.898494
20.418197 -6.952312 16.644544
17.360715 -8.891369 18.035908
20.070567 -8.674654 15.717715
12.969836 -14.432263 17.494026
16.474648 -12.347659 16.236796
13.527645 -12.672010 18.398421
14.121451 -15.200234 15.866958
15.318747 -11.631072 17.788256
15.874266 -14.127955 15.207235
1.819142 14.006419 23.787153
5.530739 12.986819 24.431299
3.006414 15.579437 23.349992
1.798731 12.171517 24.403065
12.976064 10.045508 24.273621
9.281282 11.667157 24.614004
5.560294 18.825228 22.242903
6.854259 14.568146 23.991588
4.260349 17.192871 22.836442
4.927590 15.112353 23.728400
1.768227 8.481441 25.333614
5.459530 11.044869 24.916615
1.783705 10.318161 24.920017
3.631044 11.640505 24.716171
24.642021 1.222476 17.207615
22.453305 3.652459 19.786709
25.641204 3.301417 17.108165
23.048059 0.000000 18.102289
16.494478 8.138313 23.362215
19.699181 5.985712 21.859849
27.534640 7.866489 16.719554
23.281083 5.819819 19.703890
26.614400 5.526915 16.950414
24.539005 4.577978 18.474680
19.866157 -2.257751 19.632251
20.799237 2.363793 20.554345
21.445589 -1.163076 18.912844
21.988548 1.192522 19.391679
11.555111 25.734252 18.696563
13.119901 21.314040 21.228445
9.966314 23.993743 19.779694
14.459131 25.653686 18.735070
14.658351 11.549037 23.717710
14.133385 16.474105 22.868297
12.766334 12.421503 24.000783
6.999095 20.557568 21.525733
11.455358 19.616022 22.082382
8.437797 22.255273 20.721072
7.694285 18.420902 22.597291
10.777670 21.862220 21.043785
20.354622 24.672796 18.292080
15.824099 20.808208 21.113027
17.432514 25.310170 18.609586
15.226123 23.286433 20.053623
8.884831 13.927482 24.132698
12.023459 17.204343 22.935490
10.824215 13.218072 24.137751
8.325956 16.190652 23.467655
12.450043 14.827144 23.558483
9.868953 17.881682 22.833821
1.746144 1.079176 26.082218
5.276921 3.261316 25.838988
1.751090 2.897555 26.030291
3.496966 0.000000 25.955392
12.757475 7.884553 24.473387
8.922815 5.514603 25.323647
10.996911 8.767167 24.783985
1.767458 6.566899 25.665944
5.315565 5.139823 25.760440
1.757013 4.737710 25.891357
3.569484 7.806439 25.520392
3.527603 4.011848 25.927664
6.972673 -2.140266 25.227367
7.076696 2.172197 25.603727
5.254215 -1.081717 25.668293
5.283659 1.087778 25.812135
7.365017 10.333273 25.004494
7.199786 6.335869 25.513253
9.184709 9.590287 24.960020
5.440203 9.065962 25.301983
9.065308 7.527156 25.194582
5.392962 7.084746 25.582317
30.224212 18.679591 14.717295
25.750765 15.914848 18.550608
29.785745 15.843433 15.415486
28.271941 20.647201 15.934852
16.841842 10.408831 23.181384
21.197961 13.101061 21.283433
18.596936 9.370362 22.558999
16.770914 12.943257 22.964192
28.411873 10.460276 16.397083
25.325542 13.276395 18.997166
29.164022 13.078171 15.970507
26.242999 9.310604 18.105399
27.575729 14.573053 17.355503
23.309648 23.651110 17.726378
23.646084 17.530889 19.507603
25.924697 22.325622 16.951185
20.904396 21.821321 19.420780
25.965900 19.091719 17.884152
21.817241 7.093879 20.835964
22.996271 11.929443 20.427840
20.271071 8.254553 21.771955
24.022929 8.179709 19.583057
20.777544 10.641314 21.585625
24.713850 10.681517 19.353976
16.289341 18.126062 21.971454
21.229721 15.911560 20.923217
16.591382 15.541963 22.565289
18.538353 19.954557 20.829820
18.977509 14.409062 22.036841
21.185725 18.855106 20.295508
13.523597 -6.175644 21.881639
14.162369 -2.120100 22.915194
15.083476 -5.271066 21.415742
11.993430 -5.233599 22.931065
14.784682 6.751528 23.922118
14.597397 2.185224 23.619084
16.413268 5.735775 23.303801
12.805025 5.587757 24.482811
18.222036 -3.331677 20.312553
15.767663 -1.116449 22.439295
16.658017 -4.320107 20.890749
18.697135 -1.139389 20.825753
15.449072 -3.221009 21.968797
8.742313 -3.230282 24.598773
12.499865 -1.112062 23.823915
10.386184 -4.242802 23.844100
8.852495 -1.094229 24.946632
12.274947 -3.189522 23.420130
19.410631 3.548997 21.637509
16.046272 1.136176 22.835790
17.970399 4.660461 22.536601
19.099191 1.163890 21.273582
16.260462 3.390177 23.122605
17.411851 0.000000 21.902508
8.994187 3.323349 25.307484
12.673299 1.127492 24.154470
10.864853 4.438341 24.943007
8.937549 1.104742 25.186316
12.773662 3.319109 24.371659
10.762426 0.000000 24.588921
26.881867 0.000000 -14.144906
29.256022 0.000000 -10.546327
27.996244 2.063581 -13.963686
