22.5932765 -8.827183432 -28.24609562
31.32112923 -8.417489675 -22.57271738
16.65366496 -31.67715316 -26.94619595
17.99633996 -17.44160274 -29.11868973
12.15176988 -26.57796719 -28.83167307
23.06212171 -29.04590779 -25.34772461
13.18564 -19.66007398 -29.84319539
4.2932371 -2.65336645 -31.86552223
13.36818906 -8.261995205 -30.8429123
4.35871841 -7.225018789 -31.72042051
9.012421761 -10.28114131 -31.2689069
32.63185261 -20.16759403 -19.5459279
23.35630532 -14.43499054 -27.45698363
32.06367715 -14.16671702 -21.122881
28.53543881 -24.90224956 -22.65681512
27.48931266 -11.58600129 -25.34053602
23.27433034 -21.17568529 -26.67000938
4.644566529 17.14950411 -30.61898052
13.68611603 13.38018145 -30.10807324
7.979983632 21.39948158 -29.69318742
4.448065456 12.10300123 -31.22825391
30.62917171 3.16849914 -24.05660847
22.63786547 8.844604322 -28.3018407
32.08557024 8.62293164 -23.12363976
26.81274116 0 -26.49704518
16.44737482 31.28476601 -26.61241149
17.84672364 17.29659834 -28.87660543
11.95540006 26.14847332 -28.36575983
23.34219323 29.39864774 -25.655553
13.00362326 19.38868309 -29.43123501
4.288548581 2.650468786 -31.83072282
13.27931779 8.207069739 -30.63786966
4.345851206 7.20369009 -31.62677989
8.725675755 0 -31.56979146
8.9464952 10.20593397 -31.04017243
34.97148838 21.61356845 -20.94733016
23.49483566 14.520607 -27.61983581
33.5394278 14.81874897 -22.09507472
29.98091355 26.16368356 -23.80450568
28.0028472 11.80244221 -25.81392875
23.4771694 21.36023435 -26.90244225
18.4403309 -5.555428281 -29.83708215
18.3900184 5.54027088 -29.75567482
22.63316248 -2.960947291 -28.47043753
13.54938458 -2.791326732 -30.95628783
22.64827203 2.962923974 -28.48944396
13.51819541 2.78490141 -30.88502992
45.26663137 57.63403545 5.962074112
42.52540196 34.01490167 13.28960748
38.00024259 52.7278346 14.17049814
48.2113865 48.78579549 0
35.38375662 5.367331271 19.81822612
38.63082164 17.5602704 17.16773435
22.94030098 38.29874562 23.66992652
36.65404375 31.17979195 19.27017118
29.7754662 45.19795075 19.96984236
37.85937254 41.06969671 17.30976562
45.04216787 27.83759067 -8.386494762
45.04216787 27.83759067 8.386494762
47.06215045 37.41302875 -4.894499662
47.06215045 37.41302875 4.894499662
35.05429688 -44.63156475 4.617006161
36.79606722 -29.43216409 11.49913387
31.92888433 -44.3034259 11.90645546
38.03235919 -38.48549133 0
34.68603898 -5.261495089 19.42743873
36.00155358 -16.36509369 15.9992742
22.54827491 -37.64425957 23.26543189
33.04212572 -28.10731096 17.3712735
27.5111086 -41.76074769 18.45118052
32.96546216 -35.76080219 15.07221027
39.64827541 -24.5039818 -7.382194725
39.64827541 -24.5039818 7.382194725
39.41100316 -31.33059115 -4.098774489
39.41100316 -31.33059115 4.098774489
4.676169905 -17.26619578 30.82732357
13.8277295 -13.51862934 30.41960858
8.079135542 -21.66537178 30.06212756
4.469859548 -12.16230205 31.38126232
30.38993904 -3.143751212 23.86871156
22.5932765 -8.827183432 28.24609562
31.32112923 -8.417489675 22.57271738
16.65366496 -31.67715316 26.94619595
17.99633996 -17.44160274 29.11868973
12.15176988 -26.57796719 28.83167307
23.06212171 -29.04590779 25.34772461
13.18564 -19.66007398 29.84319539
4.2932371 -2.65336645 31.86552223
13.36818906 -8.261995205 30.8429123
4.35871841 -7.225018789 31.72042051
9.012421761 -10.28114131 31.2689069
32.63185261 -20.16759403 19.5459279
23.35630532 -14.43499054 27.45698363
32.06367715 -14.16671702 21.122881
28.53543881 -24.90224956 22.65681512
27.48931266 -11.58600129 25.34053602
23.27433034 -21.17568529 26.67000938
4.644566529 17.14950411 30.61898052
13.68611603 13.38018145 30.10807324
7.979983632 21.39948158 29.69318742
4.448065456 12.10300123 31.22825391
30.62917171 3.16849914 24.05660847
22.63786547 8.844604322 28.3018407
32.08557024 8.62293164 23.12363976
26.81274116 0 26.49704518
16.44737482 31.28476601 26.61241149
17.84672364 17.29659834 28.87660543
11.95540006 26.14847332 28.36575983
23.34219323 29.39864774 25.655553
13.00362326 19.38868309 29.43123501
4.288548581 2.650468786 31.83072282
13.27931779 8.207069739 30.63786966
4.345851206 7.20369009 31.62677989
8.725675755 0 31.56979146
8.9464952 10.20593397 31.04017243
34.97148838 21.61356845 20.94733016
23.49483566 14.520607 27.61983581
33.5394278 14.81874897 22.09507472
29.98091355 26.16368356 23.80450568
28.0028472 11.80244221 25.81392875
23.4771694 21.36023435 26.90244225
18.4403309 -5.555428281 29.83708215
18.3900184 5.54027088 29.75567482
22.63316248 -2.960947291 28.47043753
13.54938458 -2.791326732 30.95628783
22.64827203 2.962923974 28.48944396
13.51819541 2.78490141 30.88502992
37.53726797 0 -16.54660037
43.19332556 0 -6.016137103
39.10082623 5.569412718 -15.15414052
38.16939789 -5.43674266 -14.79315081
37.53726797 0 16.54660037
43.19332556 0 6.016137103
39.10082623 5.569412718 15.15414052
38.16939789 -5.43674266 14.79315081
42.67804714 18.49787067 -11.43231279
44.42709508 5.985655954 -3.699338824
40.84958351 11.77379422 -13.43124472
45.74504167 20.0223349 -4.124827835
42.34959568 5.81927854 -9.646045656
39.29428553 -17.03125284 -10.52589313
43.19058838 -5.819061588 -3.596377844
38.78693128 -11.17929017 -12.75304963
41.6620556 -18.23523598 -3.75666521
41.23019983 -5.665461812 -9.391078795
42.67804714 18.49787067 11.43231279
44.42709508 5.985655954 3.699338824
40.84958351 11.77379422 13.43124472
45.74504167 20.0223349 4.124827835
42.34959568 5.81927854 9.646045656
45.47149333 12.56801165 0
39.29428553 -17.03125284 10.52589313
43.19058838 -5.819061588 3.596377844
38.78693128 -11.17929017 12.75304963
41.6620556 -18.23523598 3.75666521
41.23019983 -5.665461812 9.391078795
42.86224839 -11.84683409 0
-35.05429688 44.63156475 -4.617006161
-36.79606722 29.43216409 -11.49913387
-31.92888433 44.3034259 -11.90645546
-34.68603898 5.261495089 -19.42743873
-36.00155358 16.36509369 -15.9992742
-22.54827491 37.64425957 -23.26543189
-33.04212572 28.10731096 -17.3712735
-27.5111086 41.76074769 -18.45118052
-32.96546216 35.76080219 -15.07221027
-45.26663137 -57.63403545 -5.962074112
-42.52540196 -34.01490167 -13.28960748
-38.00024259 -52.7278346 -14.17049814
-35.38375662 -5.367331271 -19.81822612
-38.63082164 -17.5602704 -17.16773435
-22.94030098 -38.29874562 -23.66992652
-36.65404375 -31.17979195 -19.27017118
-29.7754662 -45.19795075 -19.96984236
-37.85937254 -41.06969671 -17.30976562
-4.644566529 -17.14950411 -30.61898052
-13.68611603 -13.38018145 -30.10807324
-7.979983632 -21.39948158 -29.69318742
-4.448065456 -12.10300123 -31.22825391
-30.62917171 -3.16849914 -24.05660847
-22.63786547 -8.844604322 -28.3018407
-32.08557024 -8.62293164 -23.12363976
-16.44737482 -31.28476601 -26.61241149
-17.84672364 -17.29659834 -28.87660543
-11.95540006 -26.14847332 -28.36575983
-23.34219323 -29.39864774 -25.655553
-13.00362326 -19.38868309 -29.43123501
-4.288548581 -2.650468786 -31.83072282
-13.27931779 -8.207069739 -30.63786966
-4.345851206 -7.20369009 -31.62677989
-8.9464952 -10.20593397 -31.04017243
-34.97148838 -21.61356845 -20.94733016
-23.49483566 -14.520607 -27.61983581
-33.5394278 -14.81874897 -22.09507472
-29.98091355 -26.16368356 -23.80450568
-28.0028472 -11.80244221 -25.81392875
-23.4771694 -21.36023435 -26.90244225
-4.676169905 17.26619578 -30.82732357
-13.8277295 13.51862934 -30.41960858
-8.079135542 21.66537178 -30.06212756
-4.469859548 12.16230205 -31.38126232
-30.38993904 3.143751212 -23.86871156
-22.5932765 8.827183432 -28.24609562
-31.32112923 8.417489675 -22.57271738
-26.81274116 0 -26.49704518
-16.65366496 31.67715316 -26.94619595
-17.99633996 17.44160274 -29.11868973
-12.15176988 26.57796719 -28.83167307
-23.06212171 29.04590779 -25.34772461
-13.18564 19.66007398 -29.84319539
-4.2932371 2.65336645 -31.86552223
-13.36818906 8.261995205 -30.8429123
-4.35871841 7.225018789 -31.72042051
-8.725675755 0 -31.56979146
-9.012421761 10.28114131 -31.2689069
-32.63185261 20.16759403 -19.5459279
-23.35630532 14.43499054 -27.45698363
-32.06367715 14.16671702 -21.122881
-28.53543881 24.90224956 -22.65681512
-27.48931266 11.58600129 -25.34053602
-23.27433034 21.17568529 -26.67000938
-18.3900184 -5.54027088 -29.75567482
-18.4403309 5.555428281 -29.83708215
-22.64827203 -2.962923974 -28.48944396
-13.51819541 -2.78490141 -30.88502992
-22.63316248 2.960947291 -28.47043753
-13.54938458 2.791326732 -30.95628783
-35.05429688 44.63156475 4.617006161
-36.79606722 29.43216409 11.49913387
-31.92888433 44.3034259 11.90645546
-38.03235919 38.48549133 0
-34.68603898 5.261495089 19.42743873
-36.00155358 16.36509369 15.9992742
-22.54827491 37.64425957 23.26543189
-33.04212572 28.10731096 17.3712735
-27.5111086 41.76074769 18.45118052
-32.96546216 35.76080219 15.07221027
-39.64827541 24.5039818 -7.382194725
-39.64827541 24.5039818 7.382194725
-39.41100316 31.33059115 -4.098774489
-39.41100316 31.33059115 4.098774489
-45.26663137 -57.63403545 5.962074112
-42.52540196 -34.01490167 13.28960748
-38.00024259 -52.7278346 14.17049814
-48.2113865 -48.78579549 0
-35.38375662 -5.367331271 19.81822612
-38.63082164 -17.5602704 17.16773435
-22.94030098 -38.29874562 23.66992652
-36.65404375 -31.17979195 19.27017118
-29.7754662 -45.19795075 19.96984236
-37.85937254 -41.06969671 17.30976562
-45.04216787 -27.83759067 -8.386494762
-45.04216787 -27.83759067 8.386494762
-47.06215045 -37.41302875 -4.894499662
-47.06215045 -37.41302875 4.894499662
-4.644566529 -17.14950411 30.61898052
-13.68611603 -13.38018145 30.10807324
-7.979983632 -21.39948158 29.69318742
-4.448065456 -12.10300123 31.22825391
-30.62917171 -3.16849914 24.05660847
-22.63786547 -8.844604322 28.3018407
-32.08557024 -8.62293164 23.12363976
-16.44737482 -31.28476601 26.61241149
-17.84672364 -17.29659834 28.87660543
-11.95540006 -26.14847332 28.36575983
-23.34219323 -29.39864774 25.655553
-13.00362326 -19.38868309 29.43123501
-4.288548581 -2.650468786 31.83072282
-13.27931779 -8.207069739 30.63786966
-4.345851206 -7.20369009 31.62677989
-8.9464952 -10.20593397 31.04017243
-34.97148838 -21.61356845 20.94733016
-23.49483566 -14.520607 27.61983581
-33.5394278 -14.81874897 22.09507472
-29.98091355 -26.16368356 23.80450568
-28.0028472 -11.80244221 25.81392875
-23.4771694 -21.36023435 26.90244225
-4.676169905 17.26619578 30.82732357
-13.8277295 13.51862934 30.41960858
-8.079135542 21.66537178 30.06212756
-4.469859548 12.16230205 31.38126232
-30.38993904 3.143751212 23.86871156
-22.5932765 8.827183432 28.24609562
-31.32112923 8.417489675 22.57271738
-26.81274116 0 26.49704518
-16.65366496 31.67715316 26.94619595
-17.99633996 17.44160274 29.11868973
-12.15176988 26.57796719 28.83167307
-23.06212171 29.04590779 25.34772461
-13.18564 19.66007398 29.84319539
-4.2932371 2.65336645 31.86552223
-13.36818906 8.261995205 30.8429123
-4.35871841 7.225018789 31.72042051
-8.725675755 0 31.56979146
-9.012421761 10.28114131 31.2689069
-32.63185261 20.16759403 19.5459279
-23.35630532 14.43499054 27.45698363
-32.06367715 14.16671702 21.122881
-28.53543881 24.90224956 22.65681512
-27.48931266 11.58600129 25.34053602
-23.27433034 21.17568529 26.67000938
-18.3900184 -5.54027088 29.75567482
-18.4403309 5.555428281 29.83708215
-22.64827203 -2.962923974 28.48944396
-13.51819541 -2.78490141 30.88502992
-22.63316248 2.960947291 28.47043753
-13.54938458 2.791326732 30.95628783
-37.53726797 0 -16.54660037
-43.19332556 0 -6.016137103
-38.16939789 5.43674266 -14.79315081
-39.10082623 -5.569412718 -15.15414052
-37.53726797 0 16.54660037
-43.19332556 0 6.016137103
-38.16939789 5.43674266 14.79315081
-39.10082623 -5.569412718 15.15414052
-39.29428553 17.03125284 -10.52589313
-43.19058838 5.819061588 -3.596377844
-38.78693128 11.17929017 -12.75304963
-41.6620556 18.23523598 -3.75666521
-41.23019983 5.665461812 -9.391078795
-42.67804714 -18.49787067 -11.43231279
-44.42709508 -5.985655954 -3.699338824
-40.84958351 -11.77379422 -13.43124472
-45.74504167 -20.0223349 -4.124827835
-42.34959568 -5.81927854 -9.646045656
-39.29428553 17.03125284 10.52589313
-43.19058838 5.819061588 3.596377844
-38.78693128 11.17929017 12.75304963
-41.6620556 18.23523598 3.75666521
-41.23019983 5.665461812 9.391078795
-42.86224839 11.84683409 0
-42.67804714 -18.49787067 11.43231279
-44.42709508 -5.985655954 3.699338824
-40.84958351 -11.77379422 13.43124472
-45.74504167 -20.0223349 4.124827835
-42.34959568 -5.81927854 9.646045656
-45.47149333 -12.56801165 0
-28.58157045 54.31821058 0
-21.36238709 59.26029391 0
-4.507209676 65.03211002 0
-13.20067367 62.67392598 0
35.19878294 66.89397656 0
24.3379046 67.51452323 0
4.611450952 66.53615147 0
14.17794358 67.31379085 0
-35.19878294 -66.89397656 0
-24.3379046 -67.51452323 0
-4.611450952 -66.53615147 0
-14.17794358 -67.31379085 0
28.58157045 -54.31821058 0
21.36238709 -59.26029391 0
4.507209676 -65.03211002 0
13.20067367 -62.67392598 0
-38.22890416 -64.92429007 4.965137583
-31.22165047 -58.73535987 13.29646651
-32.9556553 -66.07385388 4.870251313
-17.79719171 -43.0045255 22.98913111
-23.98250913 -50.59549585 19.07820793
-22.32993784 -66.69833729 4.655388812
-26.5817735 -59.96701526 13.13949394
-27.5492184 -66.53578713 4.762444985
-29.91540739 -63.51909344 9.331568452
-1.497694871 -21.08159856 30.18972692
-4.741414182 -25.68597627 29.14759915
-12.69236791 -36.43529481 25.7244948
-8.417304592 -30.74003539 27.70163255
-2.719590885 -65.72880658 4.400390487
-7.767971787 -61.54463823 12.56884238
-7.370498948 -66.21314737 4.454241633
-14.2053797 -44.09302075 22.98478718
-11.62670128 -53.39105726 18.81239784
-16.90463459 -47.78786737 21.20397262
-17.06076602 -66.67997505 4.591846134
-12.2636301 -61.46447465 12.68295099
-12.17332581 -66.52664489 4.514562467
-19.7096552 -64.43374969 9.012213311
-9.978904445 -64.49139989 8.774413681
-23.06303979 -55.80803377 16.43812901
-14.22529894 -57.28237611 16.16496541
-19.88114177 -51.74336262 19.04035817
-21.73277277 -60.65348902 13.04116368
-15.7307159 -52.65319844 18.94524237
-16.92939466 -61.13036779 12.88678144
30.53170356 -51.85210566 3.96543171
27.29012896 -51.33923164 11.62213657
27.38697346 -54.90902445 4.0473006
17.79612127 -43.00193891 22.98774839
22.86101017 -48.22948837 18.1860498
19.95272194 -59.59771976 4.159782223
23.97968924 -54.09685664 11.85327162
23.80399997 -57.49048311 4.115007499
25.83274569 -54.85041757 8.058056224
1.501615603 -21.1367869 30.26875893
4.783401831 -25.91343873 29.40571606
0 -23.43056738 29.83208846
12.88511261 -36.98859659 26.11514373
8.540585998 -31.19025965 28.10735581
-3.258020379 -28.33008775 28.6676233
3.278922494 -28.51184191 28.85154295
-1.588963407 -25.83822869 29.29839878
1.59385861 -25.91782988 29.3886599
2.685337491 -64.90094873 4.344967332
7.606215722 -60.2630658 12.30711556
7.121352936 -63.97493505 4.303674277
0 -63.75857617 8.590183543
14.30251693 -44.39453144 23.14195852
11.54398758 -53.01122709 18.67856426
16.80581867 -47.50852375 21.08002495
15.70840876 -61.39444753 4.227863858
11.84180388 -59.35031049 12.24670159
11.49305005 -62.80897035 4.262277477
18.1288313 -59.26580481 8.28938371
9.599151319 -62.03714142 8.440498165
-4.907704175 -57.84721635 15.98857737
4.874785155 -57.45919914 15.88133205
-2.584466968 -61.32738691 12.55351502
2.567141043 -60.91625622 12.46935792
21.71476365 -52.5454699 15.47714826
13.86966933 -55.85032826 15.76084454
19.33280766 -50.31624887 18.51521339
20.17405112 -56.30328911 12.10582311
15.50149247 -51.88595128 18.66917779
16.07074116 -58.02985501 12.23316799
-11.29444532 -40.01865504 24.732889
-3.756547578 -40.60280727 25.09391493
-9.070014201 -36.85043546 25.95439643
-10.13430006 -44.40353398 23.22398265
11.44530554 -40.55318532 25.06324688
3.780136242 -40.85776637 25.25148832
9.198949821 -37.37428621 26.32335354
10.23029388 -44.82413181 23.44396417
-5.098267046 -31.08308881 27.88409533
-1.860562532 -37.39510476 26.2768238
-7.002562371 -33.86230572 27.00137178
-1.709156916 -31.23998353 28.04691812
-5.449591401 -37.16877731 26.13812262
-7.019826421 -53.45635685 18.99819261
-2.093397819 -44.84724918 23.53032866
-8.712568564 -48.96371655 21.32796582
-2.351558873 -53.61171838 19.02451092
-6.081583967 -44.65605356 23.40510848
5.148470442 -31.38916862 28.15867417
1.867110251 -37.52670615 26.36929757
7.091170625 -34.29078884 27.34303877
1.715050503 -31.34770656 28.14363068
5.502837931 -37.5319437 26.39351137
0 -34.32349524 27.28617163
7.005830237 -53.34977516 18.96031386
2.099251838 -44.9726609 23.59612932
8.747547776 -49.16029603 21.41359331
2.350728919 -53.59279678 19.01779645
6.126391226 -44.98506576 23.57755019
0 -49.23943415 21.55180988
-30.53170356 51.85210566 3.96543171
-27.29012896 51.33923164 11.62213657
-27.38697346 54.90902445 4.0473006
-17.79612127 43.00193891 22.98774839
-22.86101017 48.22948837 18.1860498
-19.95272194 59.59771976 4.159782223
-23.97968924 54.09685664 11.85327162
-23.80399997 57.49048311 4.115007499
-25.83274569 54.85041757 8.058056224
-1.501615603 21.1367869 30.26875893
-4.783401831 25.91343873 29.40571606
-12.88511261 36.98859659 26.11514373
-8.540585998 31.19025965 28.10735581
-2.685337491 64.90094873 4.344967332
-7.606215722 60.2630658 12.30711556
-7.121352936 63.97493505 4.303674277
-14.30251693 44.39453144 23.14195852
-11.54398758 53.01122709 18.67856426
-16.80581867 47.50852375 21.08002495
-15.70840876 61.39444753 4.227863858
-11.84180388 59.35031049 12.24670159
-11.49305005 62.80897035 4.262277477
-18.1288313 59.26580481 8.28938371
-9.599151319 62.03714142 8.440498165
-21.71476365 52.5454699 15.47714826
-13.86966933 55.85032826 15.76084454
-19.33280766 50.31624887 18.51521339
-20.17405112 56.30328911 12.10582311
-15.50149247 51.88595128 18.66917779
-16.07074116 58.02985501 12.23316799
38.22890416 64.92429007 4.965137583
31.22165047 58.73535987 13.29646651
32.9556553 66.07385388 4.870251313
17.79719171 43.0045255 22.98913111
23.98250913 50.59549585 19.07820793
22.32993784 66.69833729 4.655388812
26.5817735 59.96701526 13.13949394
27.5492184 66.53578713 4.762444985
29.91540739 63.51909344 9.331568452
1.497694871 21.08159856 30.18972692
4.741414182 25.68597627 29.14759915
0 23.43056738 29.83208846
12.69236791 36.43529481 25.7244948
8.417304592 30.74003539 27.70163255
-3.278922494 28.51184191 28.85154295
3.258020379 28.33008775 28.6676233
-1.59385861 25.91782988 29.3886599
1.588963407 25.83822869 29.29839878
2.719590885 65.72880658 4.400390487
7.767971787 61.54463823 12.56884238
7.370498948 66.21314737 4.454241633
0 63.75857617 8.590183543
14.2053797 44.09302075 22.98478718
11.62670128 53.39105726 18.81239784
16.90463459 47.78786737 21.20397262
17.06076602 66.67997505 4.591846134
12.2636301 61.46447465 12.68295099
12.17332581 66.52664489 4.514562467
19.7096552 64.43374969 9.012213311
9.978904445 64.49139989 8.774413681
-4.874785155 57.45919914 15.88133205
4.907704175 57.84721635 15.98857737
-2.567141043 60.91625622 12.46935792
2.584466968 61.32738691 12.55351502
23.06303979 55.80803377 16.43812901
14.22529894 57.28237611 16.16496541
19.88114177 51.74336262 19.04035817
21.73277277 60.65348902 13.04116368
15.7307159 52.65319844 18.94524237
16.92939466 61.13036779 12.88678144
-11.44530554 40.55318532 25.06324688
-3.780136242 40.85776637 25.25148832
-9.198949821 37.37428621 26.32335354
-10.23029388 44.82413181 23.44396417
11.29444532 40.01865504 24.732889
3.756547578 40.60280727 25.09391493
9.070014201 36.85043546 25.95439643
10.13430006 44.40353398 23.22398265
-5.148470442 31.38916862 28.15867417
-1.867110251 37.52670615 26.36929757
-7.091170625 34.29078884 27.34303877
-1.715050503 31.34770656 28.14363068
-5.502837931 37.5319437 26.39351137
-7.005830237 53.34977516 18.96031386
-2.099251838 44.9726609 23.59612932
-8.747547776 49.16029603 21.41359331
-2.350728919 53.59279678 19.01779645
-6.126391226 44.98506576 23.57755019
5.098267046 31.08308881 27.88409533
1.860562532 37.39510476 26.2768238
7.002562371 33.86230572 27.00137178
1.709156916 31.23998353 28.04691812
5.449591401 37.16877731 26.13812262
0 34.32349524 27.28617163
7.019826421 53.45635685 18.99819261
2.093397819 44.84724918 23.53032866
8.712568564 48.96371655 21.32796582
2.351558873 53.61171838 19.02451092
6.081583967 44.65605356 23.40510848
0 49.23943415 21.55180988
0 -16.28215028 30.94362044
0 -11.34518261 31.47208471
0 -2.21432177 31.9492607
0 -6.696925771 31.79554624
0 16.28215028 30.94362044
0 11.34518261 31.47208471
0 2.21432177 31.9492607
0 6.696925771 31.79554624
-38.22890416 -64.92429007 -4.965137583
-31.22165047 -58.73535987 -13.29646651
-32.9556553 -66.07385388 -4.870251313
-17.79719171 -43.0045255 -22.98913111
-23.98250913 -50.59549585 -19.07820793
-22.32993784 -66.69833729 -4.655388812
-26.5817735 -59.96701526 -13.13949394
-27.5492184 -66.53578713 -4.762444985
-29.91540739 -63.51909344 -9.331568452
-1.497694871 -21.08159856 -30.18972692
-4.741414182 -25.68597627 -29.14759915
-12.69236791 -36.43529481 -25.7244948
-8.417304592 -30.74003539 -27.70163255
-2.719590885 -65.72880658 -4.400390487
-7.767971787 -61.54463823 -12.56884238
-7.370498948 -66.21314737 -4.454241633
-14.2053797 -44.09302075 -22.98478718
-11.62670128 -53.39105726 -18.81239784
-16.90463459 -47.78786737 -21.20397262
-17.06076602 -66.67997505 -4.591846134
-12.2636301 -61.46447465 -12.68295099
-12.17332581 -66.52664489 -4.514562467
-19.7096552 -64.43374969 -9.012213311
-9.978904445 -64.49139989 -8.774413681
-23.06303979 -55.80803377 -16.43812901
-14.22529894 -57.28237611 -16.16496541
-19.88114177 -51.74336262 -19.04035817
-21.73277277 -60.65348902 -13.04116368
-15.7307159 -52.65319844 -18.94524237
-16.92939466 -61.13036779 -12.88678144
30.53170356 -51.85210566 -3.96543171
27.29012896 -51.33923164 -11.62213657
27.38697346 -54.90902445 -4.0473006
17.79612127 -43.00193891 -22.98774839
22.86101017 -48.22948837 -18.1860498
19.95272194 -59.59771976 -4.159782223
23.97968924 -54.09685664 -11.85327162
23.80399997 -57.49048311 -4.115007499
25.83274569 -54.85041757 -8.058056224
1.501615603 -21.1367869 -30.26875893
4.783401831 -25.91343873 -29.40571606
0 -23.43056738 -29.83208846
12.88511261 -36.98859659 -26.11514373
8.540585998 -31.19025965 -28.10735581
-3.258020379 -28.33008775 -28.6676233
3.278922494 -28.51184191 -28.85154295
-1.588963407 -25.83822869 -29.29839878
1.59385861 -25.91782988 -29.3886599
2.685337491 -64.90094873 -4.344967332
7.606215722 -60.2630658 -12.30711556
7.121352936 -63.97493505 -4.303674277
0 -63.75857617 -8.590183543
14.30251693 -44.39453144 -23.14195852
11.54398758 -53.01122709 -18.67856426
16.80581867 -47.50852375 -21.08002495
15.70840876 -61.39444753 -4.227863858
11.84180388 -59.35031049 -12.24670159
11.49305005 -62.80897035 -4.262277477
18.1288313 -59.26580481 -8.28938371
9.599151319 -62.03714142 -8.440498165
-4.907704175 -57.84721635 -15.98857737
4.874785155 -57.45919914 -15.88133205
-2.584466968 -61.32738691 -12.55351502
2.567141043 -60.91625622 -12.46935792
21.71476365 -52.5454699 -15.47714826
13.86966933 -55.85032826 -15.76084454
19.33280766 -50.31624887 -18.51521339
20.17405112 -56.30328911 -12.10582311
15.50149247 -51.88595128 -18.66917779
16.07074116 -58.02985501 -12.23316799
-11.29444532 -40.01865504 -24.732889
-3.756547578 -40.60280727 -25.09391493
-9.070014201 -36.85043546 -25.95439643
-10.13430006 -44.40353398 -23.22398265
11.44530554 -40.55318532 -25.06324688
3.780136242 -40.85776637 -25.25148832
9.198949821 -37.37428621 -26.32335354
10.23029388 -44.82413181 -23.44396417
-5.098267046 -31.08308881 -27.88409533
-1.860562532 -37.39510476 -26.2768238
-7.002562371 -33.86230572 -27.00137178
-1.709156916 -31.23998353 -28.04691812
-5.449591401 -37.16877731 -26.13812262
-7.019826421 -53.45635685 -18.99819261
-2.093397819 -44.84724918 -23.53032866
-8.712568564 -48.96371655 -21.32796582
-2.351558873 -53.61171838 -19.02451092
-6.081583967 -44.65605356 -23.40510848
5.148470442 -31.38916862 -28.15867417
1.867110251 -37.52670615 -26.36929757
7.091170625 -34.29078884 -27.34303877
1.715050503 -31.34770656 -28.14363068
5.502837931 -37.5319437 -26.39351137
0 -34.32349524 -27.28617163
7.005830237 -53.34977516 -18.96031386
2.099251838 -44.9726609 -23.59612932
8.747547776 -49.16029603 -21.41359331
2.350728919 -53.59279678 -19.01779645
6.126391226 -44.98506576 -23.57755019
0 -49.23943415 -21.55180988
-30.53170356 51.85210566 -3.96543171
-27.29012896 51.33923164 -11.62213657
-27.38697346 54.90902445 -4.0473006
-17.79612127 43.00193891 -22.98774839
-22.86101017 48.22948837 -18.1860498
-19.95272194 59.59771976 -4.159782223
-23.97968924 54.09685664 -11.85327162
-23.80399997 57.49048311 -4.115007499
-25.83274569 54.85041757 -8.058056224
-1.501615603 21.1367869 -30.26875893
-4.783401831 25.91343873 -29.40571606
-12.88511261 36.98859659 -26.11514373
-8.540585998 31.19025965 -28.10735581
-2.685337491 64.90094873 -4.344967332
-7.606215722 60.2630658 -12.30711556
-7.121352936 63.97493505 -4.303674277
-14.30251693 44.39453144 -23.14195852
-11.54398758 53.01122709 -18.67856426
-16.80581867 47.50852375 -21.08002495
-15.70840876 61.39444753 -4.227863858
-11.84180388 59.35031049 -12.24670159
-11.49305005 62.80897035 -4.262277477
-18.1288313 59.26580481 -8.28938371
-9.599151319 62.03714142 -8.440498165
-21.71476365 52.5454699 -15.47714826
-13.86966933 55.85032826 -15.76084454
-19.33280766 50.31624887 -18.51521339
-20.17405112 56.30328911 -12.10582311
-15.50149247 51.88595128 -18.66917779
-16.07074116 58.02985501 -12.23316799
38.22890416 64.92429007 -4.965137583
31.22165047 58.73535987 -13.29646651
32.9556553 66.07385388 -4.870251313
17.79719171 43.0045255 -22.98913111
23.98250913 50.59549585 -19.07820793
22.32993784 66.69833729 -4.655388812
26.5817735 59.96701526 -13.13949394
27.5492184 66.53578713 -4.762444985
29.91540739 63.51909344 -9.331568452
1.497694871 21.08159856 -30.18972692
4.741414182 25.68597627 -29.14759915
0 23.43056738 -29.83208846
12.69236791 36.43529481 -25.7244948
8.417304592 30.74003539 -27.70163255
-3.278922494 28.51184191 -28.85154295
3.258020379 28.33008775 -28.6676233
-1.59385861 25.91782988 -29.3886599
1.588963407 25.83822869 -29.29839878
2.719590885 65.72880658 -4.400390487
7.767971787 61.54463823 -12.56884238
7.370498948 66.21314737 -4.454241633
0 63.75857617 -8.590183543
14.2053797 44.09302075 -22.98478718
11.62670128 53.39105726 -18.81239784
16.90463459 47.78786737 -21.20397262
17.06076602 66.67997505 -4.591846134
12.2636301 61.46447465 -12.68295099
12.17332581 66.52664489 -4.514562467
19.7096552 64.43374969 -9.012213311
9.978904445 64.49139989 -8.774413681
-4.874785155 57.45919914 -15.88133205
4.907704175 57.84721635 -15.98857737
-2.567141043 60.91625622 -12.46935792
2.584466968 61.32738691 -12.55351502
23.06303979 55.80803377 -16.43812901
14.22529894 57.28237611 -16.16496541
19.88114177 51.74336262 -19.04035817
21.73277277 60.65348902 -13.04116368
15.7307159 52.65319844 -18.94524237
16.92939466 61.13036779 -12.88678144
-11.44530554 40.55318532 -25.06324688
-3.780136242 40.85776637 -25.25148832
-9.198949821 37.37428621 -26.32335354
-10.23029388 44.82413181 -23.44396417
11.29444532 40.01865504 -24.732889
3.756547578 40.60280727 -25.09391493
9.070014201 36.85043546 -25.95439643
10.13430006 44.40353398 -23.22398265
-5.148470442 31.38916862 -28.15867417
-1.867110251 37.52670615 -26.36929757
-7.091170625 34.29078884 -27.34303877
-1.715050503 31.34770656 -28.14363068
-5.502837931 37.5319437 -26.39351137
-7.005830237 53.34977516 -18.96031386
-2.099251838 44.9726609 -23.59612932
-8.747547776 49.16029603 -21.41359331
-2.350728919 53.59279678 -19.01779645
-6.126391226 44.98506576 -23.57755019
5.098267046 31.08308881 -27.88409533
1.860562532 37.39510476 -26.2768238
7.002562371 33.86230572 -27.00137178
1.709156916 31.23998353 -28.04691812
5.449591401 37.16877731 -26.13812262
0 34.32349524 -27.28617163
7.019826421 53.45635685 -18.99819261
2.093397819 44.84724918 -23.53032866
8.712568564 48.96371655 -21.32796582
2.351558873 53.61171838 -19.02451092
6.081583967 44.65605356 -23.40510848
0 49.23943415 -21.55180988
0 -16.28215028 -30.94362044
0 -11.34518261 -31.47208471
0 -2.21432177 -31.9492607
0 -6.696925771 -31.79554624
0 16.28215028 -30.94362044
0 11.34518261 -31.47208471
0 2.21432177 -31.9492607
0 6.696925771 -31.79554624
43.76271715 62.67003314 -3.109024054
45.31361941 51.42040158 -8.36451126
40.8125418 61.16861278 -7.875727071
41.47757262 29.28450577 -14.44886379
43.59320553 39.28437122 -11.93678812
32.92883983 54.22894283 -15.49289804
42.02852517 49.65870268 -12.41371162
36.96482469 58.03967971 -12.05288683
41.97364863 55.75152501 -10.40096069
34.62100367 2.647669252 -20.38563733
36.15859214 8.185554842 -19.2206352
39.52953573 21.13148952 -16.35908588
37.77449178 14.24375029 -17.90529134
19.01269333 39.04546934 -24.13142716
26.83457496 37.25003838 -23.0217898
21.96993357 42.4502243 -22.57983666
38.8278769 28.20940096 -17.43436859
33.87852577 33.74247401 -20.8539958
39.72204082 32.74561246 -16.49939857
28.87764246 50.03743195 -18.42206433
30.29780877 40.39067875 -21.17398324
25.2720749 46.14977709 -20.69517934
33.80175621 48.99419577 -17.38237195
26.20214347 41.63193676 -22.00139209
41.42788465 43.37894525 -14.10466961
34.1691236 38.46527178 -19.95407283
40.62018611 37.8199711 -15.40061428
38.165561 46.81846081 -15.94149465
37.29905901 35.90272835 -18.38774548
34.1528567 43.61112124 -18.8490632
33.59335185 -48.1070786 -2.386564312
36.00729684 -40.85989351 -6.646642749
32.3776463 -48.52664455 -6.248018237
36.69196208 -25.90571018 -12.78177889
36.77073263 -33.13624435 -10.06864347
28.84381586 -47.50151082 -13.57090928
34.47318577 -40.73170961 -10.18213666
30.76579514 -48.30638075 -10.03160843
33.67731537 -44.73191517 -8.345150936
34.2925826 -2.622552985 -20.19225551
35.04996525 -7.934584722 -18.63132815
36.27141071 -19.38977833 -15.01072835
35.70632589 -13.46390026 -16.92497074
19.0247145 -39.07015664 -24.14668475
25.7379282 -35.72774358 -22.08095988
21.59166037 -41.71932624 -22.1910623
34.87618769 -25.33840223 -15.6599938
30.95025411 -30.82596191 -19.0514922
35.00596895 -28.85782979 -14.54047733
26.5639459 -46.02839851 -16.94607588
28.13652671 -37.50942585 -19.66354562
24.15133586 -44.10317597 -19.77741159
29.84881569 -43.26457804 -15.34959348
25.0866037 -39.85948325 -21.06469666
34.8870537 -36.5300716 -11.87775746
30.83805672 -34.7153836 -18.00879756
35.03142972 -32.61648423 -13.28171011
32.61526641 -40.00980289 -13.62317444
33.06711246 -31.8292093 -16.30147419
30.47618203 -38.91623125 -16.81989551
2.350605975 -18.09840896 -30.73659523
6.983892378 -16.39899191 -30.85040916
3.915736808 -20.29160873 -30.41245417
2.290038752 -15.49606435 -31.06855809
16.07487097 -12.44447035 -30.07039262
11.56021056 -14.53191287 -30.65773199
7.37896999 -24.98263496 -29.51817216
8.708433193 -18.50903563 -30.48165195
5.598628268 -22.59357216 -30.00992633
6.33100127 -19.41645644 -30.48641302
2.202147751 -10.56277454 -31.55044604
6.822438297 -13.8020924 -31.13675939
2.243133455 -12.97580836 -31.33866124
4.574102139 -14.66378666 -31.13547552
32.15725006 -1.595302554 -22.45552727
28.55286945 -4.644670028 -25.16187777
32.62310627 -4.200367958 -21.76658629
20.46940969 -10.0995289 -28.99217195
24.65312787 -7.490998447 -27.35716105
33.42700353 -9.54990325 -20.29750882
29.05785961 -7.26390079 -24.59305053
33.04444634 -6.862218642 -21.04563933
30.8728417 -5.759613081 -23.24323522
16.05260608 -35.75056988 -25.97366225
17.12282305 -27.81701922 -27.70530968
13.68844772 -32.95472115 -27.16684504
19.56326429 -34.70954375 -25.34862824
18.16595931 -14.31261446 -29.3931396
17.77480041 -20.71859826 -28.76023121
15.876966 -15.44811389 -29.84878846
9.391502725 -27.58448814 -28.88358918
14.8592481 -25.44480463 -28.64402779
11.45240175 -30.20650229 -28.12417059
10.05066066 -24.06230475 -29.51771289
14.33939004 -29.08707628 -27.99817008
25.85168462 -31.3360448 -23.23212251
20.24864958 -26.62635797 -27.01640627
22.88125245 -33.22116275 -24.42623183
19.96107063 -30.52793663 -26.28980234
11.18397331 -17.53151963 -30.37755668
15.2881879 -21.87583641 -29.16316118
13.53128619 -16.52383256 -30.17445904
10.64681721 -20.70379811 -30.00926732
15.6166853 -18.59839719 -29.55053263
12.70903118 -23.02765479 -29.4049149
2.138504843 -1.321668678 -31.94293134
6.480021029 -4.004873244 -31.73009399
2.146531819 -3.551897679 -31.90860295
15.79966143 -9.764727774 -30.30938654
11.00681132 -6.802583503 -31.23819187
13.60395961 -10.84560758 -30.65954806
2.18427423 -8.115557547 -31.71869154
6.532539845 -6.316562475 -31.65817877
2.160296069 -5.82514653 -31.83414794
4.416578354 -9.659029754 -31.57678301
4.32839476 -4.922566827 -31.81343478
9.149644827 -12.83714361 -31.06337024
8.8670464 -7.803071797 -31.42137789
11.37357463 -11.87580862 -30.90839947
6.743414082 -11.23773074 -31.36312082
11.19027468 -9.291569273 -31.10035448
6.64800419 -8.733498519 -31.53579837
34.63513242 -21.40568904 -16.86513602
30.49913066 -18.84949938 -21.97128495
34.38333101 -18.28894925 -17.79494715
32.86908545 -24.00452837 -18.5259308
20.82407165 -12.86998407 -28.66258989
25.84121065 -15.97074649 -25.94540403
22.98559501 -11.58165827 -27.88265891
20.73981134 -16.00632613 -28.39875129
33.77831249 -12.43601483 -19.49416653
30.22275938 -15.84366048 -22.67066097
34.09593636 -15.28981422 -18.67127237
31.70561587 -11.24865506 -21.87413185
32.35995088 -17.10138953 -20.36657772
28.59027065 -29.00908822 -21.74215386
28.40911949 -21.06213943 -23.43702284
30.85982614 -26.57561628 -20.17808071
25.96016917 -27.09885429 -24.11773794
30.69896444 -22.57175728 -21.14407495
27.07913051 -8.804782757 -25.86118885
27.87351104 -14.45953827 -24.76034614
25.08482054 -10.21475253 -26.9421168
29.4628565 -10.03198228 -24.01758681
25.48084901 -13.05013261 -26.47185143
29.85087018 -12.90177649 -23.37689247
20.46991724 -22.77802402 -27.61031599
25.86549306 -19.38604639 -25.49206102
20.62504606 -19.32049483 -28.05131863
23.21095127 -24.98411016 -26.07998262
23.34002788 -17.72139399 -27.10263405
25.95440064 -23.09918442 -24.86380509
2.342017534 18.03228256 -30.62429251
6.920210393 16.2494592 -30.56910252
3.890564016 20.16116164 -30.21694399
2.282788536 15.44700412 -30.97019567
15.94016501 12.34018681 -29.81840546
11.43340387 14.37250887 -30.32144005
7.287594567 24.67326945 -29.15264208
8.607107149 18.29367572 -30.12698595
5.545759163 22.38021598 -29.72653585
6.270648036 19.23135997 -30.19578701
2.197316109 10.53959918 -31.48122249
6.769244021 13.69447805 -30.89398733
2.23712483 12.94105039 -31.25471516
4.54742815 14.57827442 -30.95390823
32.31267375 1.603013033 -22.56406022
28.80729642 4.686057437 -25.38608852
33.06554014 4.25733326 -22.06178427
30.52311124 0 -23.97330699
20.4305392 10.08035035 -28.93711711
24.78865696 7.532179762 -27.5075554
34.57370891 9.877510403 -20.99381001
29.50402993 7.375434707 -24.97066572
33.81903535 7.023074692 -21.53896643
31.35396504 5.849371073 -23.60545853
26.742713 -3.039258017 -26.42784154
26.85064417 3.051524187 -26.53450192
28.65569072 -1.554106909 -25.2714251
28.74113638 1.558740952 -25.34677954
15.85914758 35.31972074 -25.66063982
16.91927415 27.48634222 -27.37596064
13.47112529 32.43152084 -26.73553501
19.51728705 34.62796999 -25.28905434
18.04039206 14.21368241 -29.18996753
17.60291176 20.51824202 -28.48210952
15.71493067 15.29045529 -29.5441611
9.250676591 27.17085712 -28.45047807
14.63789094 25.06575519 -28.21731974
11.26437831 29.71057747 -27.66243311
9.902662334 23.7079817 -29.08305769
14.11364514 28.62915867 -27.55739511
26.79210168 32.47596861 -24.07724671
20.18879595 26.54765227 -26.93654761
23.21221987 33.7016925 -24.77954671
19.90226668 30.43800341 -26.21235437
11.04316298 17.31079136 -29.99509208
15.08110176 21.57951729 -28.76813161
13.36724453 16.32351184 -29.80864988
10.49907352 20.41649577 -29.5928349
15.42990577 18.37595563 -29.19710075
12.51561531 22.67720213 -28.95740816
2.137906263 1.321298735 -31.93399032
6.464798563 3.995465242 -31.65555561
2.144919564 3.549229856 -31.88463647
4.294485261 0 -31.8747864
15.69042183 9.69721399 -30.09982602
10.94678873 6.765487501 -31.06784306
13.48833542 10.75342746 -30.39896324
2.180549124 8.10171711 -31.66459784
6.508458337 6.293277144 -31.54147428
2.15764356 5.817994151 -31.79506053
4.39925504 9.621143773 -31.45292819
4.319633191 4.91260253 -31.74903778
8.727046581 -2.678772598 -31.57475115
8.709953004 2.673525714 -31.51290601
6.500622961 -1.338321999 -31.75733799
6.495465715 1.337260246 -31.73214342
9.06750725 12.72190287 -30.78451025
8.817293342 7.759288708 -31.24507233
11.26884819 11.76645767 -30.62379882
6.699787791 11.16502862 -31.16021816
11.10803517 9.223283722 -30.87179192
6.614210767 8.68910402 -31.37549423
37.79343492 23.35762733 -18.40303114
32.07536784 19.82366752 -23.10679129
36.95711845 19.65798089 -19.12699993
35.8042864 26.14812663 -20.1802917
20.79235217 12.85038035 -28.61893068
26.29261123 16.2497274 -26.39862468
23.07013556 11.62425538 -27.98521077
20.70015889 15.97572363 -28.34445571
35.35968414 13.01822157 -20.40680899
31.47249474 16.49880855 -23.608111
36.14404861 16.20825961 -19.79283891
32.8029783 11.63798203 -22.63121698
34.24299681 18.09653015 -21.55172171
30.31664696 30.76075414 -23.05501795
29.58844294 21.93647398 -24.40994389
33.29156825 28.66976434 -21.7681055
26.77676456 27.95126783 -24.87637836
32.67749958 24.02649739 -22.50680155
27.4283843 8.91834267 -26.1947342
28.58097365 14.82653841 -25.38879295
25.30512638 10.30446294 -27.17873423
30.13708255 10.26155349 -24.56720367
25.80678733 13.21706341 -26.81046616
30.79310124 13.30901603 -24.11477495
20.41508889 22.71701344 -27.53636218
26.4206763 19.8021532 -26.03922882
20.57744077 19.27590061 -27.98657254
23.45283361 25.24447067 -26.35176327
23.51168922 17.85173137 -27.30196861
26.63967911 23.70907614 -25.52028838
18.38252608 -8.394508045 -29.743552
18.46889633 -2.764785327 -29.883302
20.51780732 -7.170145693 -29.13148593
15.90901926 -6.942253504 -30.41755103
18.30699642 8.360016903 -29.62134244
18.44376026 2.761022468 -29.84263098
20.49030191 7.16053366 -29.09243333
15.82994837 6.907749165 -30.26636994
24.66849281 -4.51033331 -27.49857737
20.55938051 -1.455731993 -29.25849007
22.62950351 -5.868757743 -28.37956428
24.74231968 -1.507777311 -27.55916554
20.54777738 -4.284048727 -29.2192279
11.12255388 -4.109780294 -31.29619862
15.99829685 -1.423303526 -30.49169503
13.47086095 -5.502906403 -30.92575368
11.11260207 -1.373593157 -31.31569034
15.97390462 -4.150659772 -30.47760026
24.74990202 4.525217991 -27.58932622
20.55382416 1.455338569 -29.25058271
22.65973592 5.876598246 -28.41747861
24.77007364 1.509468615 -27.59007921
20.53140029 4.280634232 -29.19593944
22.65714623 0 -28.50060688
11.08526897 4.096003531 -31.19128783
15.98179169 1.421835129 -30.46023728
13.41029527 5.478165052 -30.78670989
11.10004772 1.372041353 -31.28031175
15.92606831 4.138229985 -30.38633041
13.54508792 0 -30.94647125
43.76271715 62.67003314 3.109024054
45.31361941 51.42040158 8.36451126
40.8125418 61.16861278 7.875727071
46.57288283 59.29717097 0
41.47757262 29.28450577 14.44886379
43.59320553 39.28437122 11.93678812
32.92883983 54.22894283 15.49289804
42.02852517 49.65870268 12.41371162
36.96482469 58.03967971 12.05288683
41.97364863 55.75152501 10.40096069
47.1894944 47.75172817 -5.426892278
47.1894944 47.75172817 5.426892278
47.52182877 53.88579484 -2.92243125
47.52182877 53.88579484 2.92243125
34.62100367 2.647669252 20.38563733
36.15859214 8.185554842 19.2206352
39.52953573 21.13148952 16.35908588
37.77449178 14.24375029 17.90529134
19.01269333 39.04546934 24.13142716
26.83457496 37.25003838 23.0217898
21.96993357 42.4502243 22.57983666
38.8278769 28.20940096 17.43436859
33.87852577 33.74247401 20.8539958
39.72204082 32.74561246 16.49939857
28.87764246 50.03743195 18.42206433
30.29780877 40.39067875 21.17398324
25.2720749 46.14977709 20.69517934
33.80175621 48.99419577 17.38237195
26.20214347 41.63193676 22.00139209
41.42788465 43.37894525 14.10466961
34.1691236 38.46527178 19.95407283
40.62018611 37.8199711 15.40061428
38.165561 46.81846081 15.94149465
37.29905901 35.90272835 18.38774548
34.1528567 43.61112124 18.8490632
42.94141588 26.53925454 -12.11933467
46.52421171 28.75354414 -4.304392395
44.02290196 31.00608813 -10.8353766
42.94141588 26.53925454 12.11933467
46.52421171 28.75354414 4.304392395
44.02290196 31.00608813 10.8353766
46.2482348 41.48848256 -7.585663474
47.27648043 33.2202772 -2.352202213
45.15008002 36.00209941 -9.336819944
47.88898537 42.99421125 -2.620033088
46.0817482 32.40597275 -6.756388476
46.2482348 41.48848256 7.585663474
47.27648043 33.2202772 2.352202213
45.15008002 36.00209941 9.336819944
47.88898537 42.99421125 2.620033088
46.0817482 32.40597275 6.756388476
47.81097459 38.00832197 0
33.59335185 -48.1070786 2.386564312
36.00729684 -40.85989351 6.646642749
32.3776463 -48.52664455 6.248018237
35.42382677 -45.10205478 0
36.69196208 -25.90571018 12.78177889
36.77073263 -33.13624435 10.06864347
28.84381586 -47.50151082 13.57090928
34.47318577 -40.73170961 10.18213666
30.76579514 -48.30638075 10.03160843
33.67731537 -44.73191517 8.345150936
37.63450094 -38.08289285 -4.328047696
37.63450094 -38.08289285 4.328047696
36.76929634 -41.69331884 -2.261186984
36.76929634 -41.69331884 2.261186984
34.2925826 -2.622552985 20.19225551
35.04996525 -7.934584722 18.63132815
36.27141071 -19.38977833 15.01072835
35.70632589 -13.46390026 16.92497074
19.0247145 -39.07015664 24.14668475
25.7379282 -35.72774358 22.08095988
21.59166037 -41.71932624 22.1910623
34.87618769 -25.33840223 15.6599938
30.95025411 -30.82596191 19.0514922
35.00596895 -28.85782979 14.54047733
26.5639459 -46.02839851 16.94607588
28.13652671 -37.50942585 19.66354562
24.15133586 -44.10317597 19.77741159
29.84881569 -43.26457804 15.34959348
25.0866037 -39.85948325 21.06469666
34.8870537 -36.5300716 11.87775746
30.83805672 -34.7153836 18.00879756
35.03142972 -32.61648423 13.28171011
32.61526641 -40.00980289 13.62317444
33.06711246 -31.8292093 16.30147419
30.47618203 -38.91623125 16.81989551
38.21168097 -23.6161176 -10.78446392
40.64337511 -25.11898723 -3.76030089
38.33213801 -26.99798506 -9.434706314
38.21168097 -23.6161176 10.78446392
40.64337511 -25.11898723 3.76030089
38.33213801 -26.99798506 9.434706314
38.14020378 -34.21490974 -6.255779316
40.35990086 -28.36012923 -2.008073512
38.32998521 -30.56384257 -7.926457056
38.91241108 -34.93514029 -2.128919704
39.62780901 -27.86738241 -5.810128361
38.14020378 -34.21490974 6.255779316
40.35990086 -28.36012923 2.008073512
38.32998521 -30.56384257 7.926457056
38.91241108 -34.93514029 2.128919704
39.62780901 -27.86738241 5.810128361
39.81337291 -31.6504633 0
2.350605975 -18.09840896 30.73659523
6.983892378 -16.39899191 30.85040916
3.915736808 -20.29160873 30.41245417
2.290038752 -15.49606435 31.06855809
16.07487097 -12.44447035 30.07039262
11.56021056 -14.53191287 30.65773199
7.37896999 -24.98263496 29.51817216
8.708433193 -18.50903563 30.48165195
5.598628268 -22.59357216 30.00992633
6.33100127 -19.41645644 30.48641302
2.202147751 -10.56277454 31.55044604
6.822438297 -13.8020924 31.13675939
2.243133455 -12.97580836 31.33866124
4.574102139 -14.66378666 31.13547552
32.15725006 -1.595302554 22.45552727
28.55286945 -4.644670028 25.16187777
32.62310627 -4.200367958 21.76658629
20.46940969 -10.0995289 28.99217195
24.65312787 -7.490998447 27.35716105
33.42700353 -9.54990325 20.29750882
29.05785961 -7.26390079 24.59305053
33.04444634 -6.862218642 21.04563933
30.8728417 -5.759613081 23.24323522
16.05260608 -35.75056988 25.97366225
17.12282305 -27.81701922 27.70530968
13.68844772 -32.95472115 27.16684504
19.56326429 -34.70954375 25.34862824
18.16595931 -14.31261446 29.3931396
17.77480041 -20.71859826 28.76023121
15.876966 -15.44811389 29.84878846
9.391502725 -27.58448814 28.88358918
14.8592481 -25.44480463 28.64402779
11.45240175 -30.20650229 28.12417059
10.05066066 -24.06230475 29.51771289
14.33939004 -29.08707628 27.99817008
25.85168462 -31.3360448 23.23212251
20.24864958 -26.62635797 27.01640627
22.88125245 -33.22116275 24.42623183
19.96107063 -30.52793663 26.28980234
11.18397331 -17.53151963 30.37755668
15.2881879 -21.87583641 29.16316118
13.53128619 -16.52383256 30.17445904
10.64681721 -20.70379811 30.00926732
15.6166853 -18.59839719 29.55053263
12.70903118 -23.02765479 29.4049149
2.138504843 -1.321668678 31.94293134
6.480021029 -4.004873244 31.73009399
2.146531819 -3.551897679 31.90860295
15.79966143 -9.764727774 30.30938654
11.00681132 -6.802583503 31.23819187
13.60395961 -10.84560758 30.65954806
2.18427423 -8.115557547 31.71869154
6.532539845 -6.316562475 31.65817877
2.160296069 -5.82514653 31.83414794
4.416578354 -9.659029754 31.57678301
4.32839476 -4.922566827 31.81343478
9.149644827 -12.83714361 31.06337024
8.8670464 -7.803071797 31.42137789
11.37357463 -11.87580862 30.90839947
6.743414082 -11.23773074 31.36312082
11.19027468 -9.291569273 31.10035448
6.64800419 -8.733498519 31.53579837
34.63513242 -21.40568904 16.86513602
30.49913066 -18.84949938 21.97128495
34.38333101 -18.28894925 17.79494715
32.86908545 -24.00452837 18.5259308
20.82407165 -12.86998407 28.66258989
25.84121065 -15.97074649 25.94540403
22.98559501 -11.58165827 27.88265891
20.73981134 -16.00632613 28.39875129
33.77831249 -12.43601483 19.49416653
30.22275938 -15.84366048 22.67066097
34.09593636 -15.28981422 18.67127237
31.70561587 -11.24865506 21.87413185
32.35995088 -17.10138953 20.36657772
28.59027065 -29.00908822 21.74215386
28.40911949 -21.06213943 23.43702284
30.85982614 -26.57561628 20.17808071
25.96016917 -27.09885429 24.11773794
30.69896444 -22.57175728 21.14407495
27.07913051 -8.804782757 25.86118885
27.87351104 -14.45953827 24.76034614
25.08482054 -10.21475253 26.9421168
29.4628565 -10.03198228 24.01758681
25.48084901 -13.05013261 26.47185143
29.85087018 -12.90177649 23.37689247
20.46991724 -22.77802402 27.61031599
25.86549306 -19.38604639 25.49206102
20.62504606 -19.32049483 28.05131863
23.21095127 -24.98411016 26.07998262
23.34002788 -17.72139399 27.10263405
25.95440064 -23.09918442 24.86380509
2.342017534 18.03228256 30.62429251
6.920210393 16.2494592 30.56910252
3.890564016 20.16116164 30.21694399
2.282788536 15.44700412 30.97019567
15.94016501 12.34018681 29.81840546
11.43340387 14.37250887 30.32144005
7.287594567 24.67326945 29.15264208
8.607107149 18.29367572 30.12698595
5.545759163 22.38021598 29.72653585
6.270648036 19.23135997 30.19578701
2.197316109 10.53959918 31.48122249
6.769244021 13.69447805 30.89398733
2.23712483 12.94105039 31.25471516
4.54742815 14.57827442 30.95390823
32.31267375 1.603013033 22.56406022
28.80729642 4.686057437 25.38608852
33.06554014 4.25733326 22.06178427
30.52311124 0 23.97330699
20.4305392 10.08035035 28.93711711
24.78865696 7.532179762 27.5075554
34.57370891 9.877510403 20.99381001
29.50402993 7.375434707 24.97066572
33.81903535 7.023074692 21.53896643
31.35396504 5.849371073 23.60545853
26.742713 -3.039258017 26.42784154
26.85064417 3.051524187 26.53450192
28.65569072 -1.554106909 25.2714251
28.74113638 1.558740952 25.34677954
15.85914758 35.31972074 25.66063982
16.91927415 27.48634222 27.37596064
13.47112529 32.43152084 26.73553501
19.51728705 34.62796999 25.28905434
18.04039206 14.21368241 29.18996753
17.60291176 20.51824202 28.48210952
15.71493067 15.29045529 29.5441611
9.250676591 27.17085712 28.45047807
14.63789094 25.06575519 28.21731974
11.26437831 29.71057747 27.66243311
9.902662334 23.7079817 29.08305769
14.11364514 28.62915867 27.55739511
26.79210168 32.47596861 24.07724671
20.18879595 26.54765227 26.93654761
23.21221987 33.7016925 24.77954671
19.90226668 30.43800341 26.21235437
11.04316298 17.31079136 29.99509208
15.08110176 21.57951729 28.76813161
13.36724453 16.32351184 29.80864988
10.49907352 20.41649577 29.5928349
15.42990577 18.37595563 29.19710075
12.51561531 22.67720213 28.95740816
2.137906263 1.321298735 31.93399032
6.464798563 3.995465242 31.65555561
2.144919564 3.549229856 31.88463647
4.294485261 0 31.8747864
15.69042183 9.69721399 30.09982602
10.94678873 6.765487501 31.06784306
13.48833542 10.75342746 30.39896324
2.180549124 8.10171711 31.66459784
6.508458337 6.293277144 31.54147428
2.15764356 5.817994151 31.79506053
4.39925504 9.621143773 31.45292819
4.319633191 4.91260253 31.74903778
8.727046581 -2.678772598 31.57475115
8.709953004 2.673525714 31.51290601
6.500622961 -1.338321999 31.75733799
6.495465715 1.337260246 31.73214342
9.06750725 12.72190287 30.78451025
8.817293342 7.759288708 31.24507233
11.26884819 11.76645767 30.62379882
6.699787791 11.16502862 31.16021816
11.10803517 9.223283722 30.87179192
6.614210767 8.68910402 31.37549423
