39.06920646 10.79846308 0
35.65024305 -15.45182194 9.549751146
39.21616631 -5.28358829 3.265437146
35.27754941 -10.1678052 11.59917332
37.78856596 -16.53983241 3.407392867
37.2767807 -5.122220567 8.490601216
39.21480631 -10.83870589 0
-21.91098914 27.89734262 -2.885899329
-29.10836758 23.28298418 -9.096651926
-19.71802076 27.36005001 -7.352957705
-30.48167251 4.623738396 -17.07259873
-32.1937695 14.6342033 -14.30707552
-14.48396973 24.18093262 -14.94463824
-25.73375102 21.89043611 -13.52903354
-17.1367915 26.01295486 -11.49332214
-22.99810229 24.94824986 -10.5150121
-26.13056168 -33.26975462 -3.441659797
-29.785196 -23.82436065 -9.308167481
-22.70174322 -31.50016106 -8.465604115
-29.53849675 -4.480668886 -16.54433175
-30.19228726 -13.72439689 -13.41760659
-15.2758872 -25.50303583 -15.76174296
-25.6728258 -21.83861002 -13.49700326
-18.82066157 -28.56900137 -12.62266197
-24.66255231 -26.75383863 -11.2760189
-3.661168051 -13.51842334 -24.13599473
-10.96892264 -10.72372724 -24.13052216
-6.060892255 -16.25316018 -22.55232817
-3.651939972 -9.936776878 -25.6389457
-25.50472094 -2.638389543 -20.03178837
-18.31265653 -7.154747044 -22.89446806
-25.97736716 -6.981364506 -18.7215398
-11.54588928 -21.96158647 -18.68164128
-13.83415637 -13.40771847 -22.3841352
-8.732894328 -19.1003106 -20.71994094
-16.56120337 -20.85823638 -18.20252393
-9.998942039 -14.9086385 -22.63070893
-3.71366389 -2.295170507 -27.56377914
-11.00381102 -6.800729218 -25.38784999
-3.688161283 -6.113502193 -26.84046451
-7.390802517 -8.43123936 -25.64264322
-26.16242484 -16.16926778 -15.67085007
-18.36547559 -11.35048814 -21.58991141
-26.19569524 -11.57406245 -17.25717705
-21.6418254 -18.88634483 -17.18336418
-22.15906744 -9.339447198 -20.42694387
-17.57987904 -15.99470233 -20.14474882
-3.698945793 13.65791311 -24.38504185
-11.3862165 11.13169305 -25.04852651
-6.121379399 16.41536521 -22.77739832
-3.699229181 10.06544885 -25.97094608
-26.04865853 2.694658312 -20.45900507
-19.24355536 7.51844882 -24.05827701
-27.3490249 7.349994728 -19.71007511
-22.56869191 0 -22.30296581
-11.34288357 21.57544666 -18.35317114
-14.40541537 13.96136841 -23.30845169
-8.741131455 19.11832658 -20.73948461
-16.47773246 20.75310779 -18.11078052
-10.23691405 15.2634599 -23.16931343
-3.731922781 2.306455122 -27.69930138
-11.37714566 7.031462715 -26.24920282
-3.729346196 6.181770374 -27.14018628
-7.55068217 0 -27.31862473
-7.581174212 8.648410544 -26.30314436
-27.74852323 17.14953049 -16.62089618
-19.4675483 12.03160653 -22.88547558
-28.06523432 12.40008221 -18.48879035
-22.22019206 19.39107269 -17.64258075
-23.58550341 9.94065135 -21.7418786
-18.26859289 16.6213149 -20.93394467
-15.26787277 -4.59967734 -24.70393707
-15.76218213 4.748595504 -25.50374643
-18.87164769 -2.468853133 -23.73879775
-11.4950822 -2.368117169 -26.26282185
-19.24712793 2.517974735 -24.21111737
-11.65924587 2.401936743 -26.63788667
-21.91098914 27.89734262 2.885899329
-29.10836758 23.28298418 9.096651926
-19.71802076 27.36005001 7.352957705
-26.37689145 26.69115587 0
-30.48167251 4.623738396 17.07259873
-32.1937695 14.6342033 14.30707552
-14.48396973 24.18093262 14.94463824
-25.73375102 21.89043611 13.52903354
-17.1367915 26.01295486 11.49332214
-22.99810229 24.94824986 10.5150121
-34.14801809 21.10463583 -6.358090394
-34.14801809 21.10463583 6.358090394
-30.84807298 24.5233129 -3.208223197
-30.84807298 24.5233129 3.208223197
-26.13056168 -33.26975462 3.441659797
-29.785196 -23.82436065 9.308167481
-22.70174322 -31.50016106 8.465604115
-30.44485467 -30.80758637 0
-29.53849675 -4.480668886 16.54433175
-30.19228726 -13.72439689 13.41760659
-15.2758872 -25.50303583 15.76174296
-25.6728258 -21.83861002 13.49700326
-18.82066157 -28.56900137 12.62266197
-24.66255231 -26.75383863 11.2760189
-34.10512021 -21.07812348 -6.350103149
-34.10512021 -21.07812348 6.350103149
-33.15082861 -26.35393606 -3.447711545
-33.15082861 -26.35393606 3.447711545
-3.661168051 -13.51842334 24.13599473
-10.96892264 -10.72372724 24.13052216
-6.060892255 -16.25316018 22.55232817
-3.651939972 -9.936776878 25.6389457
-25.50472094 -2.638389543 20.03178837
-18.31265653 -7.154747044 22.89446806
-25.97736716 -6.981364506 18.7215398
-11.54588928 -21.96158647 18.68164128
-13.83415637 -13.40771847 22.3841352
-8.732894328 -19.1003106 20.71994094
-16.56120337 -20.85823638 18.20252393
-9.998942039 -14.9086385 22.63070893
-3.71366389 -2.295170507 27.56377914
-11.00381102 -6.800729218 25.38784999
-3.688161283 -6.113502193 26.84046451
-7.390802517 -8.43123936 25.64264322
-26.16242484 -16.16926778 15.67085007
-18.36547559 -11.35048814 21.58991141
-26.19569524 -11.57406245 17.25717705
-21.6418254 -18.88634483 17.18336418
-22.15906744 -9.339447198 20.42694387
-17.57987904 -15.99470233 20.14474882
-3.698945793 13.65791311 24.38504185
-11.3862165 11.13169305 25.04852651
-6.121379399 16.41536521 22.77739832
-3.699229181 10.06544885 25.97094608
-26.04865853 2.694658312 20.45900507
-19.24355536 7.51844882 24.05827701
-27.3490249 7.349994728 19.71007511
-22.56869191 0 22.30296581
-11.34288357 21.57544666 18.35317114
-14.40541537 13.96136841 23.30845169
-8.741131455 19.11832658 20.73948461
-16.47773246 20.75310779 18.11078052
-10.23691405 15.2634599 23.16931343
-3.731922781 2.306455122 27.69930138
-11.37714566 7.031462715 26.24920282
-3.729346196 6.181770374 27.14018628
-7.55068217 0 27.31862473
-7.581174212 8.648410544 26.30314436
-27.74852323 17.14953049 16.62089618
-19.4675483 12.03160653 22.88547558
-28.06523432 12.40008221 18.48879035
-22.22019206 19.39107269 17.64258075
-23.58550341 9.94065135 21.7418786
-18.26859289 16.6213149 20.93394467
-15.26787277 -4.59967734 24.70393707
-15.76218213 4.748595504 25.50374643
-18.87164769 -2.468853133 23.73879775
-11.4950822 -2.368117169 26.26282185
-19.24712793 2.517974735 24.21111737
-11.65924587 2.401936743 26.63788667
-32.63811489 0 -14.38703116
-38.58681049 0 -5.374523478
-34.1113579 4.858726754 -13.22039355
-33.23816232 -4.734351208 -12.88197287
-32.63811489 0 14.38703116
-38.58681049 0 5.374523478
-34.1113579 4.858726754 13.22039355
-33.23816232 -4.734351208 12.88197287
-35.65024305 15.45182194 -9.549751146
-39.21616631 5.28358829 -3.265437146
-35.27754941 10.1678052 -11.59917332
-37.78856596 16.53983241 -3.407392867
-37.2767807 5.122220567 -8.490601216
-34.11956454 -14.78838265 -9.139723119
-39.05148414 -5.261400686 -3.251724452
-33.76730885 -9.732518957 -11.10260986
-37.46017007 -16.39609547 -3.377781428
-36.70044561 -5.043026081 -8.359328307
-35.65024305 15.45182194 9.549751146
-39.21616631 5.28358829 3.265437146
-35.27754941 10.1678052 11.59917332
-37.78856596 16.53983241 3.407392867
-37.2767807 5.122220567 8.490601216
-39.21480631 10.83870589 0
-34.11956454 -14.78838265 9.139723119
-39.05148414 -5.261400686 3.251724452
-33.76730885 -9.732518957 11.10260986
-37.46017007 -16.39609547 3.377781428
-36.70044561 -5.043026081 8.359328307
-39.06920646 -10.79846308 0
-15.68969941 29.81768961 0
-11.17366578 30.99628872 0
-2.304167204 33.24559227 0
-6.766411014 32.12544706 0
19.08719045 36.27449486 0
13.07509287 36.27093933 0
2.382056516 34.36941535 0
7.466429062 35.44898042 0
-19.08719045 -36.27449486 0
-13.07509287 -36.27093933 0
-2.382056516 -34.36941535 0
-7.466429062 -35.44898042 0
15.68969941 -29.81768961 0
11.17366578 -30.99628872 0
2.304167204 -33.24559227 0
6.766411014 -32.12544706 0
-20.96027598 -35.59691462 2.722302831
-17.91392304 -33.70035539 7.629061059
-17.98054455 -36.04977241 2.657200105
-11.41210227 -27.5758137 14.74133221
-14.57379283 -30.74608544 11.59352628
-12.02536673 -35.91913118 2.507071813
-15.09964504 -34.06396658 7.463824582
-14.95595804 -36.12104076 2.585442765
-16.60170325 -35.25023497 5.178600052
-1.141484049 -16.06756419 23.00942094
-3.469152358 -18.79366824 21.3264352
-8.534298505 -24.49894962 17.29704962
-5.90952507 -21.58161295 19.44844579
-1.405886411 -33.97835921 2.274771998
-4.196534394 -33.24860056 6.790135284
-3.842840256 -34.52229625 2.322358252
-8.987638651 -27.89732804 14.54230482
-6.776009873 -31.11616291 10.96381428
-10.42314266 -29.46527809 13.07404963
-9.088972821 -35.52316938 2.446265582
-6.710875427 -33.63444829 6.940335236
-6.413509213 -35.04952194 2.378494459
-10.73433413 -35.09211053 4.908259835
-5.304554593 -34.28213522 4.664275187
-13.46639691 -32.58603984 9.598143682
-8.084027126 -32.55272767 9.186310915
-11.93068675 -31.05122722 11.42613193
-12.21573133 -34.09259987 7.330281938
-9.308053975 -31.15553138 11.21012798
-9.394666251 -33.92320958 7.151289998
17.23893146 -29.2769414 2.238977768
15.31454331 -28.81030309 6.522054703
14.91145622 -29.89645845 2.203644217
10.70432591 -25.86556711 13.82707766
13.0878206 -27.61115483 10.41142782
10.40103213 -31.06733006 2.16842738
13.03683238 -29.41037498 6.444166718
12.62580397 -30.49334444 2.18262805
14.01412177 -29.7560484 4.371450968
1.14368136 -16.09849361 23.05371316
3.470297934 -18.79987425 21.33347757
0 -17.46336745 22.23457563
8.270570965 -23.74188122 16.76253488
5.849241686 -21.36145775 19.25005114
-2.324715474 -20.2145431 20.45538694
2.319839541 -20.17214446 20.41248314
-1.158643996 -18.84077908 21.36387388
1.158683264 -18.84141763 21.36459793
1.378714228 -33.32164456 2.230806481
3.988380567 -31.59942464 6.453335318
3.647579144 -32.7681609 2.204355363
0 -33.18682235 4.47125567
8.495314421 -26.36917019 13.74570748
6.357331836 -29.19354854 10.28637899
9.663769632 -27.31859947 12.12154605
8.098758887 -31.65303598 2.179752928
6.203007459 -31.0890488 6.415102129
5.893824174 -32.20946799 2.185765651
9.458794738 -30.92218541 4.325021162
4.956255439 -32.03115665 4.358017032
-2.707891941 -31.91798148 8.821913111
2.627050895 -30.96510631 8.55854489
-1.378591246 -32.71289585 6.696222522
1.355152496 -32.15671257 6.582373628
11.92590013 -28.85833971 8.500158114
7.434597449 -29.93760688 8.448329358
10.81988951 -28.16022707 10.36231088
10.74140159 -29.97792736 6.445582334
8.570741658 -28.68763024 10.32214802
8.457194835 -30.53809313 6.437679766
-7.357120481 -26.06786418 16.11082608
-2.398357965 -25.92275599 16.02114428
-6.047714039 -24.57117386 17.30590098
-6.346985038 -27.80937648 14.54488909
7.089048019 -25.11802565 15.52379358
2.366911357 -25.58286396 15.81107946
5.90308653 -23.98356875 16.89204058
6.08567295 -26.66443503 13.94606062
-3.55543673 -21.67676872 19.44585009
-1.218241748 -24.48521724 17.20529313
-4.776854244 -23.09944421 18.41920294
-1.184864145 -21.65695614 19.44338015
-3.600869327 -24.55962297 17.27101301
-4.03988444 -30.76393793 10.93339039
-1.281214086 -27.44768665 14.40117509
-5.231464713 -29.40028 12.80638422
-1.333978107 -30.41253163 10.79210959
-3.765706133 -27.65095009 14.49240214
3.531054819 -21.52811721 19.31249742
1.211815636 -24.35605998 17.1145368
4.709922236 -22.77578096 18.16111798
1.182043815 -21.60540613 19.39709911
3.546542519 -24.18908858 17.01044288
0 -23.04962739 18.32377747
3.884419105 -29.58006101 10.51264489
1.269725523 -27.20156504 14.27204069
5.011716988 -28.16532096 12.26845193
1.31635631 -30.01078331 10.64954626
3.669446105 -26.94412882 14.12194333
0 -28.81779189 12.61337752
-17.23893146 29.2769414 2.238977768
-15.31454331 28.81030309 6.522054703
-14.91145622 29.89645845 2.203644217
-10.70432591 25.86556711 13.82707766
-13.0878206 27.61115483 10.41142782
-10.40103213 31.06733006 2.16842738
-13.03683238 29.41037498 6.444166718
-12.62580397 30.49334444 2.18262805
-14.01412177 29.7560484 4.371450968
-1.14368136 16.09849361 23.05371316
-3.470297934 18.79987425 21.33347757
-8.270570965 23.74188122 16.76253488
-5.849241686 21.36145775 19.25005114
-1.378714228 33.32164456 2.230806481
-3.988380567 31.59942464 6.453335318
-3.647579144 32.7681609 2.204355363
-8.495314421 26.36917019 13.74570748
-6.357331836 29.19354854 10.28637899
-9.663769632 27.31859947 12.12154605
-8.098758887 31.65303598 2.179752928
-6.203007459 31.0890488 6.415102129
-5.893824174 32.20946799 2.185765651
-9.458794738 30.92218541 4.325021162
-4.956255439 32.03115665 4.358017032
-11.92590013 28.85833971 8.500158114
-7.434597449 29.93760688 8.448329358
-10.81988951 28.16022707 10.36231088
-10.74140159 29.97792736 6.445582334
-8.570741658 28.68763024 10.32214802
-8.457194835 30.53809313 6.437679766
20.96027598 35.59691462 2.722302831
17.91392304 33.70035539 7.629061059
17.98054455 36.04977241 2.657200105
11.41210227 27.5758137 14.74133221
14.57379283 30.74608544 11.59352628
12.02536673 35.91913118 2.507071813
15.09964504 34.06396658 7.463824582
14.95595804 36.12104076 2.585442765
16.60170325 35.25023497 5.178600052
1.141484049 16.06756419 23.00942094
3.469152358 18.79366824 21.3264352
0 17.46336745 22.23457563
8.534298505 24.49894962 17.29704962
5.90952507 21.58161295 19.44844579
-2.319839541 20.17214446 20.41248314
2.324715474 20.2145431 20.45538694
-1.158683264 18.84141763 21.36459793
1.158643996 18.84077908 21.36387388
1.405886411 33.97835921 2.274771998
4.196534394 33.24860056 6.790135284
3.842840256 34.52229625 2.322358252
0 33.18682235 4.47125567
8.987638651 27.89732804 14.54230482
6.776009873 31.11616291 10.96381428
10.42314266 29.46527809 13.07404963
9.088972821 35.52316938 2.446265582
6.710875427 33.63444829 6.940335236
6.413509213 35.04952194 2.378494459
10.73433413 35.09211053 4.908259835
5.304554593 34.28213522 4.664275187
-2.627050895 30.96510631 8.55854489
2.707891941 31.91798148 8.821913111
-1.355152496 32.15671257 6.582373628
1.378591246 32.71289585 6.696222522
13.46639691 32.58603984 9.598143682
8.084027126 32.55272767 9.186310915
11.93068675 31.05122722 11.42613193
12.21573133 34.09259987 7.330281938
9.308053975 31.15553138 11.21012798
9.394666251 33.92320958 7.151289998
-7.089048019 25.11802565 15.52379358
-2.366911357 25.58286396 15.81107946
-5.90308653 23.98356875 16.89204058
-6.08567295 26.66443503 13.94606062
7.357120481 26.06786418 16.11082608
2.398357965 25.92275599 16.02114428
6.047714039 24.57117386 17.30590098
6.346985038 27.80937648 14.54488909
-3.531054819 21.52811721 19.31249742
-1.211815636 24.35605998 17.1145368
-4.709922236 22.77578096 18.16111798
-1.182043815 21.60540613 19.39709911
-3.546542519 24.18908858 17.01044288
-3.884419105 29.58006101 10.51264489
-1.269725523 27.20156504 14.27204069
-5.011716988 28.16532096 12.26845193
-1.31635631 30.01078331 10.64954626
-3.669446105 26.94412882 14.12194333
3.55543673 21.67676872 19.44585009
1.218241748 24.48521724 17.20529313
4.776854244 23.09944421 18.41920294
1.184864145 21.65695614 19.44338015
3.600869327 24.55962297 17.27101301
0 23.04962739 18.32377747
4.03988444 30.76393793 10.93339039
1.281214086 27.44768665 14.40117509
5.231464713 29.40028 12.80638422
1.333978107 30.41253163 10.79210959
3.765706133 27.65095009 14.49240214
0 28.81779189 12.61337752
0 -12.9688282 24.64677518
0 -9.416104072 26.12072763
0 -1.926342218 27.79415826
0 -5.730325743 27.20633965
0 12.9688282 24.64677518
0 9.416104072 26.12072763
0 1.926342218 27.79415826
0 5.730325743 27.20633965
-20.96027598 -35.59691462 -2.722302831
-17.91392304 -33.70035539 -7.629061059
-17.98054455 -36.04977241 -2.657200105
-11.41210227 -27.5758137 -14.74133221
-14.57379283 -30.74608544 -11.59352628
-12.02536673 -35.91913118 -2.507071813
-15.09964504 -34.06396658 -7.463824582
-14.95595804 -36.12104076 -2.585442765
-16.60170325 -35.25023497 -5.178600052
-1.141484049 -16.06756419 -23.00942094
-3.469152358 -18.79366824 -21.3264352
-8.534298505 -24.49894962 -17.29704962
-5.90952507 -21.58161295 -19.44844579
-1.405886411 -33.97835921 -2.274771998
-4.196534394 -33.24860056 -6.790135284
-3.842840256 -34.52229625 -2.322358252
-8.987638651 -27.89732804 -14.54230482
-6.776009873 -31.11616291 -10.96381428
-10.42314266 -29.46527809 -13.07404963
-9.088972821 -35.52316938 -2.446265582
-6.710875427 -33.63444829 -6.940335236
-6.413509213 -35.04952194 -2.378494459
-10.73433413 -35.09211053 -4.908259835
-5.304554593 -34.28213522 -4.664275187
-13.46639691 -32.58603984 -9.598143682
-8.084027126 -32.55272767 -9.186310915
-11.93068675 -31.05122722 -11.42613193
-12.21573133 -34.09259987 -7.330281938
-9.308053975 -31.15553138 -11.21012798
-9.394666251 -33.92320958 -7.151289998
17.23893146 -29.2769414 -2.238977768
15.31454331 -28.81030309 -6.522054703
14.91145622 -29.89645845 -2.203644217
10.70432591 -25.86556711 -13.82707766
13.0878206 -27.61115483 -10.41142782
10.40103213 -31.06733006 -2.16842738
13.03683238 -29.41037498 -6.444166718
12.62580397 -30.49334444 -2.18262805
14.01412177 -29.7560484 -4.371450968
1.14368136 -16.09849361 -23.05371316
3.470297934 -18.79987425 -21.33347757
0 -17.46336745 -22.23457563
8.270570965 -23.74188122 -16.76253488
5.849241686 -21.36145775 -19.25005114
-2.324715474 -20.2145431 -20.45538694
2.319839541 -20.17214446 -20.41248314
-1.158643996 -18.84077908 -21.36387388
1.158683264 -18.84141763 -21.36459793
1.378714228 -33.32164456 -2.230806481
3.988380567 -31.59942464 -6.453335318
3.647579144 -32.7681609 -2.204355363
0 -33.18682235 -4.47125567
8.495314421 -26.36917019 -13.74570748
6.357331836 -29.19354854 -10.28637899
9.663769632 -27.31859947 -12.12154605
8.098758887 -31.65303598 -2.179752928
6.203007459 -31.0890488 -6.415102129
5.893824174 -32.20946799 -2.185765651
9.458794738 -30.92218541 -4.325021162
4.956255439 -32.03115665 -4.358017032
-2.707891941 -31.91798148 -8.821913111
2.627050895 -30.96510631 -8.55854489
-1.378591246 -32.71289585 -6.696222522
1.355152496 -32.15671257 -6.582373628
11.92590013 -28.85833971 -8.500158114
7.434597449 -29.93760688 -8.448329358
10.81988951 -28.16022707 -10.36231088
10.74140159 -29.97792736 -6.445582334
8.570741658 -28.68763024 -10.32214802
8.457194835 -30.53809313 -6.437679766
-7.357120481 -26.06786418 -16.11082608
-2.398357965 -25.92275599 -16.02114428
-6.047714039 -24.57117386 -17.30590098
-6.346985038 -27.80937648 -14.54488909
7.089048019 -25.11802565 -15.52379358
2.366911357 -25.58286396 -15.81107946
5.90308653 -23.98356875 -16.89204058
6.08567295 -26.66443503 -13.94606062
-3.55543673 -21.67676872 -19.44585009
-1.218241748 -24.48521724 -17.20529313
-4.776854244 -23.09944421 -18.41920294
-1.184864145 -21.65695614 -19.44338015
-3.600869327 -24.55962297 -17.27101301
-4.03988444 -30.76393793 -10.93339039
-1.281214086 -27.44768665 -14.40117509
-5.231464713 -29.40028 -12.80638422
-1.333978107 -30.41253163 -10.79210959
-3.765706133 -27.65095009 -14.49240214
3.531054819 -21.52811721 -19.31249742
1.211815636 -24.35605998 -17.1145368
4.709922236 -22.77578096 -18.16111798
1.182043815 -21.60540613 -19.39709911
3.546542519 -24.18908858 -17.01044288
0 -23.04962739 -18.32377747
3.884419105 -29.58006101 -10.51264489
1.269725523 -27.20156504 -14.27204069
5.011716988 -28.16532096 -12.26845193
1.31635631 -30.01078331 -10.64954626
3.669446105 -26.94412882 -14.12194333
0 -28.81779189 -12.61337752
-17.23893146 29.2769414 -2.238977768
-15.31454331 28.81030309 -6.522054703
-14.91145622 29.89645845 -2.203644217
-10.70432591 25.86556711 -13.82707766
-13.0878206 27.61115483 -10.41142782
-10.40103213 31.06733006 -2.16842738
-13.03683238 29.41037498 -6.444166718
-12.62580397 30.49334444 -2.18262805
-14.01412177 29.7560484 -4.371450968
-1.14368136 16.09849361 -23.05371316
-3.470297934 18.79987425 -21.33347757
-8.270570965 23.74188122 -16.76253488
-5.849241686 21.36145775 -19.25005114
-1.378714228 33.32164456 -2.230806481
-3.988380567 31.59942464 -6.453335318
-3.647579144 32.7681609 -2.204355363
-8.495314421 26.36917019 -13.74570748
-6.357331836 29.19354854 -10.28637899
-9.663769632 27.31859947 -12.12154605
-8.098758887 31.65303598 -2.179752928
-6.203007459 31.0890488 -6.415102129
-5.893824174 32.20946799 -2.185765651
-9.458794738 30.92218541 -4.325021162
-4.956255439 32.03115665 -4.358017032
-11.92590013 28.85833971 -8.500158114
-7.434597449 29.93760688 -8.448329358
-10.81988951 28.16022707 -10.36231088
-10.74140159 29.97792736 -6.445582334
-8.570741658 28.68763024 -10.32214802
-8.457194835 30.53809313 -6.437679766
20.96027598 35.59691462 -2.722302831
17.91392304 33.70035539 -7.629061059
17.98054455 36.04977241 -2.657200105
11.41210227 27.5758137 -14.74133221
14.57379283 30.74608544 -11.59352628
12.02536673 35.91913118 -2.507071813
15.09964504 34.06396658 -7.463824582
14.95595804 36.12104076 -2.585442765
16.60170325 35.25023497 -5.178600052
1.141484049 16.06756419 -23.00942094
3.469152358 18.79366824 -21.3264352
0 17.46336745 -22.23457563
8.534298505 24.49894962 -17.29704962
5.90952507 21.58161295 -19.44844579
-2.319839541 20.17214446 -20.41248314
2.324715474 20.2145431 -20.45538694
-1.158683264 18.84141763 -21.36459793
1.158643996 18.84077908 -21.36387388
1.405886411 33.97835921 -2.274771998
4.196534394 33.24860056 -6.790135284
3.842840256 34.52229625 -2.322358252
0 33.18682235 -4.47125567
8.987638651 27.89732804 -14.54230482
6.776009873 31.11616291 -10.96381428
10.42314266 29.46527809 -13.07404963
9.088972821 35.52316938 -2.446265582
6.710875427 33.63444829 -6.940335236
6.413509213 35.04952194 -2.378494459
10.73433413 35.09211053 -4.908259835
5.304554593 34.28213522 -4.664275187
-2.627050895 30.96510631 -8.55854489
2.707891941 31.91798148 -8.821913111
-1.355152496 32.15671257 -6.582373628
1.378591246 32.71289585 -6.696222522
13.46639691 32.58603984 -9.598143682
8.084027126 32.55272767 -9.186310915
11.93068675 31.05122722 -11.42613193
12.21573133 34.09259987 -7.330281938
9.308053975 31.15553138 -11.21012798
9.394666251 33.92320958 -7.151289998
-7.089048019 25.11802565 -15.52379358
-2.366911357 25.58286396 -15.81107946
-5.90308653 23.98356875 -16.89204058
-6.08567295 26.66443503 -13.94606062
7.357120481 26.06786418 -16.11082608
2.398357965 25.92275599 -16.02114428
6.047714039 24.57117386 -17.30590098
6.346985038 27.80937648 -14.54488909
-3.531054819 21.52811721 -19.31249742
-1.211815636 24.35605998 -17.1145368
-4.709922236 22.77578096 -18.16111798
-1.182043815 21.60540613 -19.39709911
-3.546542519 24.18908858 -17.01044288
-3.884419105 29.58006101 -10.51264489
-1.269725523 27.20156504 -14.27204069
-5.011716988 28.16532096 -12.26845193
-1.31635631 30.01078331 -10.64954626
-3.669446105 26.94412882 -14.12194333
3.55543673 21.67676872 -19.44585009
1.218241748 24.48521724 -17.20529313
4.776854244 23.09944421 -18.41920294
1.184864145 21.65695614 -19.44338015
3.600869327 24.55962297 -17.27101301
0 23.04962739 -18.32377747
4.03988444 30.76393793 -10.93339039
1.281214086 27.44768665 -14.40117509
5.231464713 29.40028 -12.80638422
1.333978107 30.41253163 -10.79210959
3.765706133 27.65095009 -14.49240214
0 28.81779189 -12.61337752
0 -12.9688282 -24.64677518
0 -9.416104072 -26.12072763
0 -1.926342218 -27.79415826
0 -5.730325743 -27.20633965
0 12.9688282 -24.64677518
0 9.416104072 -26.12072763
0 1.926342218 -27.79415826
0 5.730325743 -27.20633965
24.28447519 34.77637962 -1.725236055
27.56575396 31.28070891 -5.08840526
22.92462017 34.3587327 -4.42383747
30.05684243 21.22110143 -10.47041075
29.32538789 26.42681147 -8.029942681
19.49365766 32.10317923 -9.171694237
25.76213886 30.43919312 -7.60920735
21.26769895 33.39310941 -6.934624219
24.53360092 32.58677074 -6.079362337
29.26803565 2.238296694 -17.23368756
29.76634198 6.738482066 -15.82273994
30.22947424 16.15991198 -12.51030542
30.09691961 11.34874322 -14.2660851
12.58434456 25.84387341 -15.97239217
17.97606286 24.95321922 -15.42193761
14.18425696 27.4067688 -14.57802339
28.0007507 20.34322932 -12.57280716
23.21353646 23.12031391 -14.28913983
27.73248794 22.86179874 -11.51928155
17.63390174 30.5549582 -11.24928646
19.81365894 26.41402681 -13.8470107
15.88002814 28.99879656 -13.00407789
20.76220229 30.09392167 -10.67685124
17.01484944 27.03447283 -14.28701336
26.68125822 27.93782133 -9.083986188
22.63475288 25.48066293 -13.21823506
27.30806049 25.42553733 -10.35349531
23.81665012 29.21636342 -9.948052392
25.24482759 24.29976013 -12.44523258
21.80147056 27.8391522 -12.03229645
19.97611297 -28.60662553 -1.419158127
23.83051929 -27.04208774 -4.398912503
19.0612878 -28.56848609 -3.678317834
30.45715987 -21.50373847 -10.60986279
27.49189713 -24.77454638 -7.527892178
16.91764541 -27.86086697 -7.959689949
22.64855583 -26.76034659 -6.689567135
18.03086532 -28.31085111 -5.87921033
20.87742116 -27.73044769 -5.173370525
29.74715927 -2.27493806 -17.51580648
31.13459807 -7.048226849 -16.55005674
32.01480927 -17.11430691 -13.24915673
32.05176275 -12.08586227 -15.19269018
11.9458791 -24.53268708 -15.16203445
17.12555587 -23.77259988 -14.69227473
13.21129852 -25.52682209 -13.57805483
28.68415144 -20.83973665 -12.87966556
22.76825404 -22.67681969 -14.01504533
27.48874584 -22.66086535 -11.41803806
15.69926818 -27.20274221 -10.01511563
18.536864 -24.71190324 -12.9547074
14.47328411 -26.42991673 -11.85210203
18.46691648 -26.76700334 -9.496512817
15.82653167 -25.14638416 -13.28920777
24.42319883 -25.57341785 -8.315200093
21.47412531 -24.17410748 -12.54045217
26.03372736 -24.23905232 -9.870348505
21.38637769 -26.23509938 -8.932944165
24.4369104 -23.52208819 -12.04694436
19.99787442 -25.5360696 -11.03688638
1.843208053 -14.19171631 -24.10184457
5.576308046 -13.09382012 -24.6325939
3.007043589 -15.58269999 -23.35488308
1.83927962 -12.44590089 -24.95318723
13.37282286 -10.35266148 -25.01581721
9.419492474 -11.84089539 -24.9805377
5.39955648 -18.28102685 -21.59990324
6.817383592 -14.4897702 -23.86251456
4.200935458 -16.95310599 -22.51797361
4.906462929 -15.04756036 -23.62666645
1.842040998 -8.83549423 -26.39115158
5.577338759 -11.28320134 -25.45428004
1.841251965 -10.6510527 -25.72400294
3.706135482 -11.88123448 -25.22730956
27.53207621 -1.365850357 -19.22575118
24.48590316 -3.983100216 -21.57791193
28.29277435 -3.642818739 -18.87732913
17.32788836 -8.549514225 -24.54262857
21.0837981 -6.406436525 -23.39633588
29.55207871 -8.442859446 -17.94458117
25.10087127 -6.274730524 -21.24406284
28.97691433 -6.01752923 -18.45507356
26.74165925 -4.98890293 -20.13299204
10.43755505 -23.24535588 -16.88831882
12.20280824 -19.82416977 -19.74455848
9.17652549 -22.09233982 -18.21223641
12.91830558 -22.91992206 -16.73858314
14.94936785 -11.77832312 -24.1885853
13.75103096 -16.02842673 -22.24963548
12.89354536 -12.54527831 -24.2399403
6.681068911 -19.62346938 -20.54764348
10.84733948 -18.57485871 -20.91031064
7.914789165 -20.87580425 -19.43669857
7.426945603 -17.78086382 -21.81214305
10.03977574 -20.36542153 -19.60301993
18.19986975 -22.06091952 -16.35566927
14.74293566 -19.38651172 -19.67050385
15.51697872 -22.52901482 -16.56471036
13.8600182 -21.19714744 -18.25438853
8.856411179 -13.88293249 -24.0555056
11.62233555 -16.63037588 -22.17032177
10.84639945 -13.24516279 -24.18722296
8.157414567 -15.86290636 -22.99260236
12.3001466 -14.6486279 -23.27484204
9.510967565 -17.23304277 -22.00554771
1.863001039 -1.151397963 -27.82772014
5.612553322 -3.468748717 -27.48244854
1.86270263 -3.082241356 -27.68942817
13.35362202 -8.25299228 -25.61701042
9.430490149 -5.828363443 -26.76446903
11.41861262 -9.103363662 -25.73438266
1.857327279 -6.900803119 -26.97096832
5.615158039 -5.429510941 -27.2123372
1.859299402 -5.013521812 -27.39865757
3.723737986 -8.143792121 -26.62324925
3.740930547 -4.254459593 -27.49560901
7.551274248 -10.59459616 -25.63684517
7.568242184 -6.660113692 -26.81891883
9.468984949 -9.887116122 -25.73255805
5.628567119 -9.379866186 -26.17804994
9.475450949 -7.867707577 -26.33446379
5.643883363 -7.41438266 -26.77260162
29.67687195 -18.34131555 -14.45077431
25.72240708 -15.89732185 -18.53017851
30.1060012 -16.01378086 -15.58123325
26.9373585 -19.67254572 -15.1826445
17.40079976 -10.75428568 -23.95074295
21.55405481 -13.32113847 -21.64096211
19.42933846 -9.789781752 -23.56874456
16.93903584 -13.0730086 -23.19439932
29.98020055 -11.03768043 -17.30219715
25.93858325 -13.59776918 -19.45701977
30.18767507 -13.53721272 -16.53106979
27.80062946 -9.863227145 -19.18002907
28.05195296 -14.82472505 -17.65522705
21.1359329 -21.44555222 -16.07332477
23.07600493 -17.10823995 -19.03729732
24.0209766 -20.68619096 -15.70641398
19.3020729 -20.14871543 -17.93217651
25.03672059 -18.4085291 -17.2441744
23.27651941 -7.568363271 -22.2296083
23.7205183 -12.30515028 -21.07119706
21.40857966 -8.717755934 -22.99368468
25.54496508 -8.697956254 -20.82379271
21.57399428 -11.04921921 -22.41305112
25.84054182 -11.16848162 -20.23631351
15.60030962 -17.35933874 -21.04207227
20.97666024 -15.72189278 -20.67381054
16.32661048 -15.29393885 -22.20518448
17.43801028 -18.77015573 -19.59346689
18.96432296 -14.39905045 -22.02152919
20.25132654 -18.02349949 -19.40037233
1.834519062 14.12481573 -23.98822706
5.484838478 12.87903893 -24.22853934
2.989305921 15.49078221 -23.21711947
1.82871958 12.374444 -24.809921
12.80482273 9.912940327 -23.95329004
9.13694983 11.48572149 -24.2312333
5.384998883 18.23173987 -21.54166833
6.701471743 14.24340941 -23.45679467
4.178579744 16.86288827 -22.39814188
4.852609826 14.88239905 -23.36734129
1.830233848 8.77886031 -26.22198907
5.474163506 11.07447327 -24.98340103
1.829581128 10.58354065 -25.56095049
3.661657731 11.73864644 -24.92455376
27.2443873 1.351578278 -19.02485695
23.73670533 3.861228869 -20.91769022
27.54055557 3.545967273 -18.37543839
25.81877153 0 -20.27844839
16.48012997 8.13123346 -23.34189257
20.13601809 6.118447972 -22.34460035
27.97266176 7.991629079 -16.98552932
23.96794341 5.991520551 -20.28521202
27.78116041 5.76921141 -17.69351122
25.76250073 4.806231886 -19.395813
22.7595419 -2.586578265 -22.49156871
22.29143933 2.533379305 -22.02897762
24.31714092 -1.31881088 -21.44526234
24.05862815 1.304790752 -21.21728019
10.78832745 24.02655696 -17.45588049
12.21998259 19.85207051 -19.77234717
9.363362845 22.5421478 -18.58304409
13.35982116 23.70326803 -17.3106663
14.2618575 11.23664676 -23.07617017
13.3556725 15.56759043 -21.60993204
12.38940609 12.05475632 -23.29215554
6.697455221 19.67159884 -20.59803962
10.77553387 18.4518996 -20.77189165
7.993837563 21.08429987 -19.63082122
7.377407943 17.66226562 -21.66665626
10.11105315 20.5100059 -19.74219162
18.55898669 22.49622208 -16.67839674
14.64940516 19.26352196 -19.54571242
15.97879845 23.19952831 -17.05771291
14.04886954 21.48597171 -18.50311589
8.64248624 13.54759288 -23.4744494
11.38838638 16.2956185 -21.72404931
10.50405048 12.82710075 -23.42379256
8.027599744 15.61046848 -22.62670449
11.91609922 14.1912539 -22.54813182
9.391863685 17.01723694 -21.72997679
1.860650322 1.14994514 -27.79260738
5.553792585 3.432432584 -27.1947205
1.856679412 3.07227465 -27.5998919
3.736965209 0 -27.7367276
12.81692719 7.921296635 -24.58743829
9.194253347 5.68236107 -26.0940105
11.00111376 8.770517278 -24.79345615
1.846312266 6.85987741 -26.81101506
5.531028166 5.348162551 -26.80462463
1.850292987 4.989236396 -27.26593893
3.676959775 8.04148846 -26.2888036
3.709305532 4.218493315 -27.2631671
7.560084346 -2.320572785 -27.35264212
7.488006948 2.298448581 -27.09186365
5.647652334 -1.162715851 -27.59034097
5.626470509 1.158355023 -27.48686191
7.360381387 10.32676947 -24.98875711
7.398364232 6.510619735 -26.21693716
9.171977544 9.576993472 -24.92542187
5.520297633 9.199437799 -25.67449656
9.193858678 7.633894362 -25.55185391
5.541894872 7.280400144 -26.28880402
28.17021401 17.41014973 -13.71712644
24.17426948 14.94052019 -17.41491485
28.21592783 15.0084258 -14.60303379
25.97825187 18.97210328 -14.64206533
16.49024061 10.19152918 -22.69743457
20.27192335 12.52873765 -20.35366101
18.35780037 9.24987021 -22.26891607
16.10720933 12.43103138 -22.0553902
28.10579656 10.34758924 -16.22043962
24.2283353 12.70120685 -18.17413058
28.19201035 12.64228664 -15.43822402
26.10874264 9.262972248 -18.01277355
26.20594757 13.84915938 -16.49339549
21.20769288 21.51836341 -16.12789635
21.96860008 16.28722488 -18.12370784
23.63861983 20.35691605 -15.45640525
19.13164983 19.97081713 -17.77384862
23.95145991 17.61057904 -16.49669534
22.07267315 7.176932503 -21.07990758
22.2054478 11.51919906 -19.72534328
20.23087435 8.238184307 -21.72878132
24.08764679 8.201745329 -19.63581324
20.27486558 10.38386454 -21.06339664
24.17360666 10.44801938 -18.93089883
15.20665624 16.92129856 -20.51110315
19.92026716 14.9301319 -19.63266908
15.67937427 14.68764087 -21.32490382
17.11685255 18.42446373 -19.23261188
18.00435976 13.67017874 -20.90681196
19.5809692 17.42688745 -18.75818319
15.63136098 -7.13816942 -25.29207336
15.77020486 -2.360792448 -25.51672747
17.49848067 -6.11501287 -24.84460135
13.58960923 -5.930127477 -25.98291103
14.97878754 6.840167232 -24.23618735
15.50432381 2.320990177 -25.08652289
16.79383855 5.868768882 -23.84414005
13.13121943 5.730098922 -25.10648398
21.04018666 -3.846941744 -23.45401502
17.458414 -1.236164279 -24.84543891
19.31730708 -5.009769458 -24.2257528
20.93929641 -1.276024094 -23.32317841
17.53378513 -3.65565523 -24.93328861
9.59490403 -3.545314136 -26.99775838
13.68954339 -1.217903103 -26.09136373
11.56535806 -4.724500025 -26.55119192
9.593457582 -1.185816571 -27.03468954
13.69728798 -3.559103648 -26.13390261
20.42030209 3.733603404 -22.7630144
17.29276729 1.224435462 -24.60970357
18.62030216 4.829007515 -23.35164189
20.72326938 1.262859578 -23.08255728
17.06890641 3.558731701 -24.27222454
19.10390896 0 -24.03096108
9.430008262 3.4843852 -26.53378125
13.57728798 1.207916195 -25.87741235
11.27256791 4.604893954 -25.87901841
9.534658538 1.178548609 -26.86899183
13.38854628 3.478880198 -25.54483524
11.61496415 0 -26.53671621
24.28447519 34.77637962 1.725236055
27.56575396 31.28070891 5.08840526
22.92462017 34.3587327 4.42383747
26.55650276 33.81206808 0
30.05684243 21.22110143 10.47041075
29.32538789 26.42681147 8.029942681
19.49365766 32.10317923 9.171694237
25.76213886 30.43919312 7.60920735
21.26769895 33.39310941 6.934624219
24.53360092 32.58677074 6.079362337
29.92694986 30.28351104 -3.44166292
29.92694986 30.28351104 3.44166292
28.46906187 32.28154444 -1.750750723
28.46906187 32.28154444 1.750750723
29.26803565 2.238296694 17.23368756
29.76634198 6.738482066 15.82273994
30.22947424 16.15991198 12.51030542
30.09691961 11.34874322 14.2660851
12.58434456 25.84387341 15.97239217
17.97606286 24.95321922 15.42193761
14.18425696 27.4067688 14.57802339
28.0007507 20.34322932 12.57280716
23.21353646 23.12031391 14.28913983
27.73248794 22.86179874 11.51928155
17.63390174 30.5549582 11.24928646
19.81365894 26.41402681 13.8470107
15.88002814 28.99879656 13.00407789
20.76220229 30.09392167 10.67685124
17.01484944 27.03447283 14.28701336
26.68125822 27.93782133 9.083986188
22.63475288 25.48066293 13.21823506
27.30806049 25.42553733 10.35349531
23.81665012 29.21636342 9.948052392
25.24482759 24.29976013 12.44523258
21.80147056 27.8391522 12.03229645
32.20473116 19.90361845 -9.089125428
35.60512977 22.00518037 -3.294165428
32.03212844 22.56077981 -7.884082135
32.20473116 19.90361845 9.089125428
35.60512977 22.00518037 3.294165428
32.03212844 22.56077981 7.884082135
31.00791516 27.81665836 -5.085937019
34.92300069 24.53972362 -1.737565037
31.65698116 25.24287403 -6.546511831
32.05170663 28.77567431 -1.753566739
33.79665625 23.76675288 -4.955179605
31.00791516 27.81665836 5.085937019
34.92300069 24.53972362 1.737565037
31.65698116 25.24287403 6.546511831
32.05170663 28.77567431 1.753566739
33.79665625 23.76675288 4.955179605
33.75794519 26.83657593 0
19.97611297 -28.60662553 1.419158127
23.83051929 -27.04208774 4.398912503
19.0612878 -28.56848609 3.678317834
22.04419624 -28.06694355 0
30.45715987 -21.50373847 10.60986279
27.49189713 -24.77454638 7.527892178
16.91764541 -27.86086697 7.959689949
22.64855583 -26.76034659 6.689567135
18.03086532 -28.31085111 5.87921033
20.87742116 -27.73044769 5.173370525
26.20620295 -26.51843372 -3.013769107
26.20620295 -26.51843372 3.013769107
24.14294822 -27.37609196 -1.48470941
24.14294822 -27.37609196 1.48470941
29.74715927 -2.27493806 17.51580648
31.13459807 -7.048226849 16.55005674
32.01480927 -17.11430691 13.24915673
32.05176275 -12.08586227 15.19269018
11.9458791 -24.53268708 15.16203445
17.12555587 -23.77259988 14.69227473
13.21129852 -25.52682209 13.57805483
28.68415144 -20.83973665 12.87966556
22.76825404 -22.67681969 14.01504533
27.48874584 -22.66086535 11.41803806
15.69926818 -27.20274221 10.01511563
18.536864 -24.71190324 12.9547074
14.47328411 -26.42991673 11.85210203
18.46691648 -26.76700334 9.496512817
15.82653167 -25.14638416 13.28920777
24.42319883 -25.57341785 8.315200093
21.47412531 -24.17410748 12.54045217
26.03372736 -24.23905232 9.870348505
21.38637769 -26.23509938 8.932944165
24.4369104 -23.52208819 12.04694436
19.99787442 -25.5360696 11.03688638
32.96396863 -20.37285302 -9.303404646
34.90418557 -21.57197303 -3.229314488
31.75965368 -22.36887114 -7.817017799
32.96396863 -20.37285302 9.303404646
34.90418557 -21.57197303 3.229314488
31.75965368 -22.36887114 7.817017799
28.30603595 -25.39284978 -4.642773155
33.19397951 -23.32477356 -1.651539018
30.15608922 -24.0460819 -6.236134579
28.68156114 -25.74999426 -1.5691842
32.70077508 -22.99609862 -4.7945043
28.30603595 -25.39284978 4.642773155
33.19397951 -23.32477356 1.651539018
30.15608922 -24.0460819 6.236134579
28.68156114 -25.74999426 1.5691842
32.70077508 -22.99609862 4.7945043
31.07511925 -24.70380802 0
1.843208053 -14.19171631 24.10184457
5.576308046 -13.09382012 24.6325939
3.007043589 -15.58269999 23.35488308
1.83927962 -12.44590089 24.95318723
13.37282286 -10.35266148 25.01581721
9.419492474 -11.84089539 24.9805377
5.39955648 -18.28102685 21.59990324
6.817383592 -14.4897702 23.86251456
4.200935458 -16.95310599 22.51797361
4.906462929 -15.04756036 23.62666645
1.842040998 -8.83549423 26.39115158
5.577338759 -11.28320134 25.45428004
1.841251965 -10.6510527 25.72400294
3.706135482 -11.88123448 25.22730956
27.53207621 -1.365850357 19.22575118
24.48590316 -3.983100216 21.57791193
28.29277435 -3.642818739 18.87732913
17.32788836 -8.549514225 24.54262857
21.0837981 -6.406436525 23.39633588
29.55207871 -8.442859446 17.94458117
25.10087127 -6.274730524 21.24406284
28.97691433 -6.01752923 18.45507356
26.74165925 -4.98890293 20.13299204
10.43755505 -23.24535588 16.88831882
12.20280824 -19.82416977 19.74455848
9.17652549 -22.09233982 18.21223641
12.91830558 -22.91992206 16.73858314
14.94936785 -11.77832312 24.1885853
13.75103096 -16.02842673 22.24963548
12.89354536 -12.54527831 24.2399403
6.681068911 -19.62346938 20.54764348
10.84733948 -18.57485871 20.91031064
7.914789165 -20.87580425 19.43669857
7.426945603 -17.78086382 21.81214305
10.03977574 -20.36542153 19.60301993
18.19986975 -22.06091952 16.35566927
14.74293566 -19.38651172 19.67050385
15.51697872 -22.52901482 16.56471036
13.8600182 -21.19714744 18.25438853
8.856411179 -13.88293249 24.0555056
11.62233555 -16.63037588 22.17032177
10.84639945 -13.24516279 24.18722296
8.157414567 -15.86290636 22.99260236
12.3001466 -14.6486279 23.27484204
9.510967565 -17.23304277 22.00554771
1.863001039 -1.151397963 27.82772014
5.612553322 -3.468748717 27.48244854
1.86270263 -3.082241356 27.68942817
13.35362202 -8.25299228 25.61701042
9.430490149 -5.828363443 26.76446903
11.41861262 -9.103363662 25.73438266
1.857327279 -6.900803119 26.97096832
5.615158039 -5.429510941 27.2123372
1.859299402 -5.013521812 27.39865757
3.723737986 -8.143792121 26.62324925
3.740930547 -4.254459593 27.49560901
7.551274248 -10.59459616 25.63684517
7.568242184 -6.660113692 26.81891883
9.468984949 -9.887116122 25.73255805
5.628567119 -9.379866186 26.17804994
9.475450949 -7.867707577 26.33446379
5.643883363 -7.41438266 26.77260162
29.67687195 -18.34131555 14.45077431
25.72240708 -15.89732185 18.53017851
30.1060012 -16.01378086 15.58123325
26.9373585 -19.67254572 15.1826445
17.40079976 -10.75428568 23.95074295
21.55405481 -13.32113847 21.64096211
19.42933846 -9.789781752 23.56874456
16.93903584 -13.0730086 23.19439932
29.98020055 -11.03768043 17.30219715
25.93858325 -13.59776918 19.45701977
30.18767507 -13.53721272 16.53106979
27.80062946 -9.863227145 19.18002907
28.05195296 -14.82472505 17.65522705
21.1359329 -21.44555222 16.07332477
23.07600493 -17.10823995 19.03729732
24.0209766 -20.68619096 15.70641398
19.3020729 -20.14871543 17.93217651
25.03672059 -18.4085291 17.2441744
23.27651941 -7.568363271 22.2296083
23.7205183 -12.30515028 21.07119706
21.40857966 -8.717755934 22.99368468
25.54496508 -8.697956254 20.82379271
21.57399428 -11.04921921 22.41305112
25.84054182 -11.16848162 20.23631351
15.60030962 -17.35933874 21.04207227
20.97666024 -15.72189278 20.67381054
16.32661048 -15.29393885 22.20518448
17.43801028 -18.77015573 19.59346689
18.96432296 -14.39905045 22.02152919
20.25132654 -18.02349949 19.40037233
1.834519062 14.12481573 23.98822706
5.484838478 12.87903893 24.22853934
2.989305921 15.49078221 23.21711947
1.82871958 12.374444 24.809921
12.80482273 9.912940327 23.95329004
9.13694983 11.48572149 24.2312333
5.384998883 18.23173987 21.54166833
6.701471743 14.24340941 23.45679467
4.178579744 16.86288827 22.39814188
4.852609826 14.88239905 23.36734129
1.830233848 8.77886031 26.22198907
5.474163506 11.07447327 24.98340103
1.829581128 10.58354065 25.56095049
3.661657731 11.73864644 24.92455376
27.2443873 1.351578278 19.02485695
23.73670533 3.861228869 20.91769022
27.54055557 3.545967273 18.37543839
25.81877153 0 20.27844839
16.48012997 8.13123346 23.34189257
20.13601809 6.118447972 22.34460035
27.97266176 7.991629079 16.98552932
23.96794341 5.991520551 20.28521202
27.78116041 5.76921141 17.69351122
25.76250073 4.806231886 19.395813
22.7595419 -2.586578265 22.49156871
22.29143933 2.533379305 22.02897762
24.31714092 -1.31881088 21.44526234
24.05862815 1.304790752 21.21728019
10.78832745 24.02655696 17.45588049
12.21998259 19.85207051 19.77234717
9.363362845 22.5421478 18.58304409
13.35982116 23.70326803 17.3106663
14.2618575 11.23664676 23.07617017
13.3556725 15.56759043 21.60993204
12.38940609 12.05475632 23.29215554
6.697455221 19.67159884 20.59803962
10.77553387 18.4518996 20.77189165
7.993837563 21.08429987 19.63082122
7.377407943 17.66226562 21.66665626
10.11105315 20.5100059 19.74219162
18.55898669 22.49622208 16.67839674
14.64940516 19.26352196 19.54571242
15.97879845 23.19952831 17.05771291
14.04886954 21.48597171 18.50311589
8.64248624 13.54759288 23.4744494
11.38838638 16.2956185 21.72404931
10.50405048 12.82710075 23.42379256
8.027599744 15.61046848 22.62670449
11.91609922 14.1912539 22.54813182
9.391863685 17.01723694 21.72997679
1.860650322 1.14994514 27.79260738
5.553792585 3.432432584 27.1947205
1.856679412 3.07227465 27.5998919
3.736965209 0 27.7367276
12.81692719 7.921296635 24.58743829
9.194253347 5.68236107 26.0940105
11.00111376 8.770517278 24.79345615
1.846312266 6.85987741 26.81101506
5.531028166 5.348162551 26.80462463
1.850292987 4.989236396 27.26593893
3.676959775 8.04148846 26.2888036
3.709305532 4.218493315 27.2631671
7.560084346 -2.320572785 27.35264212
7.488006948 2.298448581 27.09186365
5.647652334 -1.162715851 27.59034097
5.626470509 1.158355023 27.48686191
7.360381387 10.32676947 24.98875711
7.398364232 6.510619735 26.21693716
9.171977544 9.576993472 24.92542187
5.520297633 9.199437799 25.67449656
9.193858678 7.633894362 25.55185391
5.541894872 7.280400144 26.28880402
28.17021401 17.41014973 13.71712644
24.17426948 14.94052019 17.41491485
28.21592783 15.0084258 14.60303379
25.97825187 18.97210328 14.64206533
16.49024061 10.19152918 22.69743457
20.27192335 12.52873765 20.35366101
18.35780037 9.24987021 22.26891607
16.10720933 12.43103138 22.0553902
28.10579656 10.34758924 16.22043962
24.2283353 12.70120685 18.17413058
28.19201035 12.64228664 15.43822402
26.10874264 9.262972248 18.01277355
26.20594757 13.84915938 16.49339549
21.20769288 21.51836341 16.12789635
21.96860008 16.28722488 18.12370784
23.63861983 20.35691605 15.45640525
19.13164983 19.97081713 17.77384862
23.95145991 17.61057904 16.49669534
22.07267315 7.176932503 21.07990758
22.2054478 11.51919906 19.72534328
20.23087435 8.238184307 21.72878132
24.08764679 8.201745329 19.63581324
20.27486558 10.38386454 21.06339664
24.17360666 10.44801938 18.93089883
15.20665624 16.92129856 20.51110315
19.92026716 14.9301319 19.63266908
15.67937427 14.68764087 21.32490382
17.11685255 18.42446373 19.23261188
18.00435976 13.67017874 20.90681196
19.5809692 17.42688745 18.75818319
15.63136098 -7.13816942 25.29207336
15.77020486 -2.360792448 25.51672747
17.49848067 -6.11501287 24.84460135
13.58960923 -5.930127477 25.98291103
14.97878754 6.840167232 24.23618735
15.50432381 2.320990177 25.08652289
16.79383855 5.868768882 23.84414005
13.13121943 5.730098922 25.10648398
21.04018666 -3.846941744 23.45401502
17.458414 -1.236164279 24.84543891
19.31730708 -5.009769458 24.2257528
20.93929641 -1.276024094 23.32317841
17.53378513 -3.65565523 24.93328861
9.59490403 -3.545314136 26.99775838
13.68954339 -1.217903103 26.09136373
11.56535806 -4.724500025 26.55119192
9.593457582 -1.185816571 27.03468954
13.69728798 -3.559103648 26.13390261
20.42030209 3.733603404 22.7630144
17.29276729 1.224435462 24.60970357
18.62030216 4.829007515 23.35164189
20.72326938 1.262859578 23.08255728
17.06890641 3.558731701 24.27222454
19.10390896 0 24.03096108
9.430008262 3.4843852 26.53378125
13.57728798 1.207916195 25.87741235
11.27256791 4.604893954 25.87901841
9.534658538 1.178548609 26.86899183
13.38854628 3.478880198 25.54483524
11.61496415 0 26.53671621
30.82298943 0 -16.21867573
34.37235213 0 -12.39068258
31.13448927 2.294898487 -15.52894884
31.61144273 -2.330054348 -15.76683891
39.35789492 0 -2.727795311
37.42438398 0 -7.882497744
31.65212633 6.935361389 -14.03054078
34.69245149 2.421452424 -11.61468661
31.41290064 4.614858568 -14.79444477
32.96068683 2.359233496 -13.6474099
32.9910191 -7.228728889 -14.62403612
35.09813436 -2.449768145 -11.75050519
32.34610283 -4.751954985 -15.23395236
33.41529662 -2.39177319 -13.8356416
30.82298943 0 16.21867573
34.37235213 0 12.39068258
31.13448927 2.294898487 15.52894884
31.61144273 -2.330054348 15.76683891
39.35789492 0 2.727795311
37.42438398 0 7.882497744
31.65212633 6.935361389 14.03054078
34.69245149 2.421452424 11.61468661
31.41290064 4.614858568 14.79444477
32.96068683 2.359233496 13.6474099
32.9910191 -7.228728889 14.62403612
35.09813436 -2.449768145 11.75050519
32.34610283 -4.751954985 15.23395236
33.41529662 -2.39177319 13.8356416
32.23994465 16.80602177 -10.38669267
35.78953021 12.6104804 -7.7937055
32.17490316 14.27633839 -11.38165419
34.21394522 17.89461331 -7.808711517
39.48585754 2.643486181 -1.633764309
38.29145327 7.820002755 -4.833027495
38.86301047 2.614363553 -4.326025709
31.87965672 9.390080146 -13.1744794
35.57294703 10.03861043 -8.834057521
32.04789645 11.79288311 -12.31363291
33.52560805 7.208372494 -12.01257229
33.97517577 12.22466932 -10.15045341
37.10312659 19.46716418 -1.73191457
37.44193334 13.30672539 -4.916831007
35.98114399 18.85841921 -4.900172115
35.99621186 15.67948739 -6.405140092
36.36804045 2.504446737 -9.305141885
36.98133957 7.630953001 -7.378660141
37.77039403 2.56313547 -6.911385853
35.0391157 4.900847559 -10.71812353
38.06709243 5.179239669 -5.890209834
35.33794521 7.449527838 -9.786461993
33.80409266 -17.62138004 -10.89061179
37.00985533 -13.0404633 -8.059449546
34.03442317 -15.10142672 -12.03944681
35.24277936 -18.43271522 -8.043524222
39.5278904 -2.646300183 -1.635503458
38.71059567 -7.905601354 -4.885930338
38.97863418 -2.622141705 -4.338896331
33.55607821 -9.88386627 -13.86727169
36.78127841 -10.37959899 -9.134130184
33.9169378 -12.480647 -13.03176707
34.76550005 -7.474962838 -12.45683843
35.60079357 -12.80958579 -10.63612442
36.85036544 -19.33454617 -1.720116084
38.11089922 -13.54447341 -5.004678826
36.29589508 -19.02338639 -4.943037191
36.95133644 -16.09552738 -6.575094273
36.69425824 -2.526911381 -9.388608102
37.72025421 -7.78342511 -7.526091252
37.99334138 -2.578264893 -6.952181698
35.79741536 -5.006909341 -10.95008
38.42945043 -5.228540491 -5.946278332
36.37407195 -7.667951826 -10.07340609
32.23994465 16.80602177 10.38669267
35.78953021 12.6104804 7.7937055
32.17490316 14.27633839 11.38165419
34.21394522 17.89461331 7.808711517
39.48585754 2.643486181 1.633764309
38.29145327 7.820002755 4.833027495
38.86301047 2.614363553 4.326025709
39.49565566 5.321243849 0
31.87965672 9.390080146 13.1744794
35.57294703 10.03861043 8.834057521
32.04789645 11.79288311 12.31363291
33.52560805 7.208372494 12.01257229
33.97517577 12.22466932 10.15045341
37.10312659 19.46716418 1.73191457
37.44193334 13.30672539 4.916831007
35.98114399 18.85841921 4.900172115
38.07708816 16.66611688 0
35.99621186 15.67948739 6.405140092
