1.365171 -22.199135 -25.171970
1.978928 -47.828001 -3.201973
5.491385 -43.507534 -8.885248
5.120617 -46.001248 -3.094562
0.000000 -47.852280 -6.447131
10.392758 -32.258773 -16.815836
8.270811 -37.980452 -13.382454
11.848683 -33.495152 -14.862147
10.746686 -42.002144 -2.892433
8.312435 -41.661356 -8.596656
8.053541 -44.012219 -2.986712
12.247444 -40.038688 -5.600127
6.811107 -44.018643 -5.988981
-3.879227 -45.724536 -12.637951
3.623235 -42.707152 -11.803967
-1.985786 -47.121164 -9.645548
1.916250 -45.471126 -9.307790
14.616290 -35.368557 -10.417728
9.679071 -38.975646 -10.998845
13.274952 -34.549859 -12.713547
13.539143 -37.786079 -8.124420
10.833406 -36.261125 -13.047181
10.998110 -39.713087 -8.371844
-10.055127 -35.627485 -22.018996
-3.199944 -34.586733 -21.375776
-8.100806 -32.912654 -23.180949
-8.796582 -38.542308 -20.158438
8.634327 -30.593284 -18.907689
3.029249 -32.741766 -20.235524
7.154540 -29.068082 -20.473151
7.649144 -33.514798 -17.528944
-4.520880 -27.562879 -24.726177
-1.581068 -31.777592 -22.329505
-6.241116 -30.180179 -24.065291
-1.478641 -27.026609 -24.264197
-4.757299 -32.447015 -22.817647
-5.734146 -43.665831 -15.518676
-1.731204 -37.087904 -19.459177
-7.343679 -41.270699 -17.976986
-1.871584 -42.669063 -15.141429
-5.170676 -37.967406 -19.899458
4.226226 -25.766431 -23.114615
1.539311 -30.938337 -21.739777
5.674679 -27.441056 -21.881149
1.445274 -26.416722 -23.716646
4.403715 -30.035412 -21.121741
0.000000 -29.040979 -23.086726
5.198186 -39.584463 -14.068173
1.678300 -35.954522 -18.864518
6.503278 -36.547734 -15.919723
1.808870 -41.239292 -14.634065
4.734642 -34.765685 -18.221374
0.000000 -39.319313 -17.209831
-20.149463 34.219908 -2.616995
-18.132634 34.111804 -7.722204
-17.992075 36.072890 -2.658904
-12.732815 30.767139 -16.447334
-15.583383 32.876001 -12.396660
-13.367526 39.928091 -2.786888
-15.924105 35.923902 -7.871359
-15.727361 37.984102 -2.718796
-17.031342 36.162482 -5.312618
-1.301565 18.320866 -26.236244
-4.009158 21.719074 -24.646089
-9.776809 28.065757 -19.815331
-6.845166 24.998579 -22.527673
-1.978928 47.828001 -3.201973
-5.491385 43.507534 -8.885248
-5.120617 46.001248 -3.094562
-10.392758 32.258773 -16.815836
-8.270811 37.980452 -13.382454
-11.848683 33.495152 -14.862147
-10.746686 42.002144 -2.892433
-8.312435 41.661356 -8.596656
-8.053541 44.012219 -2.986712
-12.247444 40.038688 -5.600127
-6.811107 44.018643 -5.988981
-14.616290 35.368557 -10.417728
-9.679071 38.975646 -10.998845
-13.274952 34.549859 -12.713547
-13.539143 37.786079 -8.124420
-10.833406 36.261125 -13.047181
-10.998110 39.713087 -8.371844
27.791841 47.198987 -3.609581
24.016735 45.181198 -10.228085
24.143508 48.406096 -3.567975
15.729582 38.008425 -20.318342
19.913866 42.011947 -15.841581
16.825226 50.256056 -3.507756
20.599020 46.470253 -10.182191
20.469488 49.437101 -3.538569
22.448710 47.665127 -7.002468
1.321715 18.604495 -26.642412
4.240271 22.971097 -26.066844
0.000000 20.400829 -25.974588
11.527923 33.092587 -23.364435
7.628767 27.860291 -25.106528
-2.754929 23.955465 -24.240879
2.870601 24.961282 -25.258680
-1.365171 22.199135 -25.171970
1.391265 22.623449 -25.653107
2.052064 49.595586 -3.320309
6.082683 48.192314 -9.841988
5.627279 50.552871 -3.400755
0.000000 47.852280 -6.447131
12.470590 38.708290 -20.177838
9.628391 44.214603 -15.579064
14.520452 41.047999 -18.213423
13.000756 50.811909 -3.499109
9.672422 48.477519 -10.003144
9.322138 50.945042 -3.457180
15.146144 49.514963 -6.925554
7.719273 49.887914 -6.787528
-3.623235 42.707152 -11.803967
3.879227 45.724536 -12.637951
-1.916250 45.471126 -9.307790
1.985786 47.121164 -9.645548
18.556594 44.903318 -13.226170
11.517704 46.379442 -13.088181
16.568512 43.121795 -15.867821
17.013618 47.482910 -10.209345
13.111363 43.885808 -15.790632
13.346291 48.192134 -10.159296
-8.634327 30.593284 -18.907689
-3.029249 32.741766 -20.235524
-7.154540 29.068082 -20.473151
-7.649144 33.514798 -17.528944
10.055127 35.627485 -22.018996
3.199944 34.586733 -21.375776
8.100806 32.912654 -23.180949
8.796582 38.542308 -20.158438
-4.226226 25.766431 -23.114615
-1.539311 30.938337 -21.739777
-5.674679 27.441056 -21.881149
-1.445274 26.416722 -23.716646
-4.403715 30.035412 -21.121741
-5.198186 39.584463 -14.068173
-1.678300 35.954522 -18.864518
-6.503278 36.547734 -15.919723
-1.808870 41.239292 -14.634065
-4.734642 34.765685 -18.221374
4.520880 27.562879 -24.726177
1.581068 31.777592 -22.329505
6.241116 30.180179 -24.065291
1.478641 27.026609 -24.264197
4.757299 32.447015 -22.817647
0.000000 29.040979 -23.086726
5.734146 43.665831 -15.518676
1.731204 37.087904 -19.459177
7.343679 41.270699 -17.976986
1.871584 42.669063 -15.141429
5.170676 37.967406 -19.899458
0.000000 39.319313 -17.209831
0.000000 -14.350621 -27.272820
0.000000 -10.055749 -27.895133
0.000000 -1.972418 -28.458963
0.000000 -5.955870 -28.277173
0.000000 14.350621 -27.272820
0.000000 10.055749 -27.895133
0.000000 1.972418 -28.458963
0.000000 5.955870 -28.277173
32.068881 45.923972 -2.278262
36.526449 41.449010 -6.742474
30.248262 45.335187 -5.837104
40.028068 28.261109 -13.943924
38.980853 35.127912 -10.673823
25.937195 42.714735 -12.203355
33.953453 40.117621 -10.028626
28.124364 44.158984 -9.170334
32.320179 42.929297 -8.008856
35.376170 2.705421 -20.830297
37.908210 8.581632 -20.150671
40.196524 21.488044 -16.635115
39.541774 14.910145 -18.742992
17.171872 35.265061 -21.795006
24.106090 33.462530 -20.680981
19.348769 37.385620 -19.885907
37.152823 26.992434 -16.682241
30.756557 30.633043 -18.932261
36.751356 30.296673 -15.265461
23.681515 41.033897 -15.107272
26.412536 35.211135 -18.458714
21.524245 39.305799 -17.626099
27.519019 39.887637 -14.151508
22.924576 36.424290 -19.249287
35.219602 36.878282 -11.990978
29.970340 33.738568 -17.502069
36.118741 33.628840 -13.693950
31.385025 38.500641 -13.109311
33.372091 32.122771 -16.451823
28.860313 36.852864 -15.928092
22.541548 -32.280435 -1.601414
25.514472 -28.952982 -4.709756
21.687988 -32.505305 -4.185201
30.207808 -21.327688 -10.523000
28.069912 -25.295429 -7.686165
19.473628 -32.070194 -9.162270
24.420747 -28.854275 -7.213009
20.652652 -32.427404 -6.734080
23.117030 -30.705209 -5.728340
34.048530 -2.603889 -20.048552
33.885917 -7.671068 -18.012561
31.913284 -17.060034 -13.207141
33.155012 -12.501868 -15.715636
13.798077 -28.336459 -17.512895
18.723732 -25.991085 -16.063374
15.279265 -29.522540 -15.703430
28.559250 -20.748993 -12.823583
23.592712 -23.497967 -14.522542
27.700995 -22.835837 -11.506200
18.128008 -31.411116 -11.564495
20.239190 -26.981312 -14.144398
16.738360 -30.566211 -13.706962
20.665429 -29.953653 -10.627086
17.784980 -28.258114 -14.933676
25.650448 -26.858465 -8.733033
22.764369 -25.626575 -13.293928
26.727041 -24.884572 -10.133209
23.177947 -28.432853 -9.681270
25.212635 -24.268772 -12.429362
21.763741 -27.790974 -12.011473
2.040871 -15.713612 -26.686485
5.954865 -13.982717 -26.304820
3.353493 -17.378024 -26.045662
1.999205 -13.528071 -27.122866
13.557894 -10.495935 -25.362019
9.753032 -12.260176 -25.865086
6.100999 -20.655869 -24.405892
7.315718 -15.548938 -25.606808
4.716847 -19.035094 -25.283376
5.364681 -16.452862 -25.833176
1.939229 -9.301664 -27.783576
5.866996 -11.869192 -26.776242
1.967474 -11.381207 -27.487443
3.960117 -12.695455 -26.956136
31.246207 -1.550106 -21.819342
26.236966 -4.267944 -23.121016
31.384354 -4.040873 -20.940074
17.490649 -8.629820 -24.773157
21.676340 -6.586484 -24.053870
31.246922 -8.927066 -18.973722
26.359614 -6.589392 -22.309397
31.379775 -6.516522 -19.985429
28.803227 -5.373507 -21.685085
12.019660 -26.768843 -19.448218
13.292677 -21.594725 -21.508003
10.529613 -25.349877 -20.897648
14.495222 -25.717720 -18.781835
15.142634 -11.930594 -24.501296
14.311837 -16.682111 -23.157038
13.193550 -12.837180 -24.803951
7.593184 -22.302512 -23.352857
11.782134 -20.175590 -22.712305
9.041648 -23.847973 -22.203976
8.210162 -19.655963 -24.112365
11.196271 -22.711342 -21.861118
19.374993 -23.485341 -17.411716
15.686933 -20.627840 -20.930016
16.955506 -24.617604 -18.100369
15.125514 -23.132563 -19.921115
9.332272 -14.628872 -25.348024
12.319000 -17.627231 -23.499252
11.250035 -13.738065 -25.087321
8.789697 -17.092442 -24.774762
12.779957 -15.220050 -24.182760
10.289765 -18.644156 -23.807454
1.903381 -1.176354 -28.430875
5.723358 -3.537230 -28.025017
1.906808 -3.155223 -28.345059
13.508006 -8.348407 -25.913173
9.583163 -5.922720 -27.197766
11.603137 -9.250474 -26.150250
1.930195 -7.171538 -28.029101
5.737590 -5.547895 -27.805670
1.914446 -5.162223 -28.211302
3.869085 -8.461665 -27.662423
3.826821 -4.352140 -28.126898
7.828617 -10.983713 -26.578433
7.721112 -6.794640 -27.360629
9.704349 -10.132873 -26.372174
5.843492 -9.738033 -27.177650
9.648997 -8.011807 -26.816788
5.801690 -7.621694 -27.521181
29.439086 -18.194356 -14.334988
25.637797 -15.845030 -18.469226
30.057780 -15.988131 -15.556277
26.886095 -19.635108 -15.153751
17.513728 -10.824079 -24.106179
21.586027 -13.340898 -21.673063
19.568636 -9.859969 -23.737719
17.116899 -13.210278 -23.437945
30.955253 -11.396661 -17.864920
25.977544 -13.618193 -19.486245
30.568992 -13.708209 -16.739883
28.669142 -10.171362 -19.779227
28.050277 -14.823839 -17.654172
21.918758 -22.239844 -16.668642
23.145975 -17.160115 -19.095021
24.368130 -20.985150 -15.933405
20.045641 -20.924899 -18.622973
25.051408 -18.419328 -17.254290
23.936333 -7.782902 -22.859746
23.797404 -12.345035 -21.139495
21.716256 -8.843044 -23.324142
26.304356 -8.956526 -21.442834
21.684068 -11.105594 -22.527406
26.174133 -11.312662 -20.497557
16.220861 -18.049861 -21.879087
21.093933 -15.809788 -20.789390
16.685517 -15.630144 -22.693320
18.125155 -19.509794 -20.365547
19.116676 -14.514728 -22.198443
20.619868 -18.351498 -19.753428
2.084461 16.049235 -27.256475
6.301399 14.796417 -27.835585
3.484981 18.059404 -27.066893
2.035520 13.773806 -27.615546
14.918112 11.548958 -27.906506
10.584177 13.304977 -28.069286
6.628721 22.442553 -26.516945
7.903575 16.798377 -27.664450
5.004829 20.197261 -26.827024
5.692420 17.458002 -27.411379
1.962966 9.415520 -28.123658
6.152263 12.446298 -28.078161
1.997248 11.553438 -27.903408
4.096925 13.134040 -27.887379
31.959711 1.585503 -22.317585
27.865815 4.532908 -24.556419
33.310185 4.288832 -22.225014
29.370026 0.000000 -23.067657
19.272881 9.509166 -27.297449
23.607219 7.173193 -26.196533
35.595727 10.169495 -21.614398
28.956365 7.238529 -24.507151
34.545413 7.173919 -22.001588
31.152429 5.811773 -23.453728
24.471162 -2.781101 -24.183036
25.410106 2.887810 -25.110925
26.853058 -1.456343 -23.681686
27.404897 1.486272 -24.168351
14.576126 32.462319 -23.584668
15.979407 25.959473 -25.855223
12.441966 29.953836 -24.693009
18.026542 31.983060 -23.357458
17.074829 13.452933 -27.627653
16.766634 19.543463 -27.128983
14.792328 14.392773 -27.809662
8.481218 24.910824 -26.084007
13.784782 23.604902 -26.572790
10.385928 27.393604 -25.505184
9.144523 21.892918 -26.856482
13.193234 26.762129 -25.760260
24.772133 30.027469 -22.261962
19.210149 25.260761 -25.630805
21.455753 31.151487 -22.904480
18.709125 28.613244 -24.640923
10.244008 16.058071 -27.824453
14.249421 20.389466 -27.181649
12.499430 15.263773 -27.873442
9.731725 18.924310 -27.429976
14.573208 17.355688 -27.576022
11.705579 21.209486 -27.083224
1.906273 1.178141 -28.474075
5.802408 3.586085 -28.412089
1.914611 3.168134 -28.461052
3.825927 0.000000 -28.397021
14.564221 9.001184 -27.939372
9.957572 6.154118 -28.260369
12.477904 9.947873 -28.121732
1.948371 7.239070 -28.293046
5.863215 5.669367 -28.414478
1.927326 5.196952 -28.401095
3.956206 8.652198 -28.285302
3.870391 4.401691 -28.447133
7.719425 -2.369483 -27.929143
7.814713 2.398731 -28.273898
5.775488 -1.189034 -28.214852
5.802233 1.194540 -28.345512
8.303086 11.649404 -28.189274
8.001765 7.041617 -28.355156
10.378243 10.836525 -28.203524
6.074991 10.123820 -28.254333
10.169572 8.444054 -28.263586
5.979375 7.855119 -28.364058
37.356967 23.087875 -18.190499
31.629486 19.548097 -22.785582
37.291940 19.836077 -19.300286
34.397673 25.120867 -19.387485
19.796391 12.234842 -27.248073
25.636057 15.843955 -25.739424
22.081185 11.125957 -26.785565
19.823680 15.299285 -27.144305
36.430506 13.412461 -21.024803
31.312069 16.414709 -23.487772
36.989050 16.587188 -20.255570
33.193822 11.776647 -22.900865
34.331270 18.143180 -21.607279
28.161272 28.573805 -21.415911
28.762579 21.324190 -23.728621
31.306629 26.960391 -20.470229
25.349645 26.461551 -23.550544
31.605102 23.238005 -21.768182
26.636018 8.660705 -25.438006
28.127879 14.591493 -24.986304
24.375892 9.926071 -26.180698
29.882397 10.174834 -24.359588
25.065112 12.837211 -26.039945
30.684700 13.262164 -24.029884
19.563316 21.769198 -26.387470
25.688288 19.253232 -25.317414
19.754042 18.504583 -26.866700
22.445535 24.160221 -25.219955
22.735795 17.262618 -26.400994
25.655096 22.832806 -24.577077
15.824502 -7.226368 -25.604581
16.375584 -2.451417 -26.496252
17.831329 -6.231330 -25.317184
13.788874 -6.017081 -26.363898
17.047449 7.784836 -27.583352
16.792894 2.513889 -27.171473
19.129900 6.685128 -27.160915
14.563660 6.355176 -27.845265
22.094859 -4.039776 -24.629684
18.439008 -1.305596 -26.240943
19.929227 -5.168465 -24.993159
22.562486 -1.374940 -25.131164
18.149421 -3.784010 -25.808732
9.778095 -3.613003 -27.513214
14.229774 -1.265965 -27.121008
11.761498 -4.804624 -27.001480
9.863224 -1.219162 -27.794900
14.030423 -3.645665 -26.769512
23.277630 4.256031 -25.948148
18.709363 1.324739 -26.625691
21.222105 5.503762 -26.614552
22.962714 1.399329 -25.576956
18.938477 3.948522 -26.930780
20.627125 0.000000 -25.947027
10.011575 3.699274 -28.170170
14.393658 1.280545 -27.433359
12.211381 4.988403 -28.034301
9.941709 1.228863 -28.016074
14.503291 3.768536 -27.671726
12.094141 0.000000 -27.631492
32.068881 45.923972 2.278262
36.526449 41.449010 6.742474
30.248262 45.335187 5.837104
35.204047 44.822229 0.000000
40.028068 28.261109 13.943924
38.980853 35.127912 10.673823
25.937195 42.714735 12.203355
33.953453 40.117621 10.028626
28.124364 44.158984 9.170334
32.320179 42.929297 8.008856
40.094283 40.571981 -4.610928
40.094283 40.571981 4.610928
37.968145 43.052713 -2.334912
37.968145 43.052713 2.334912
35.376170 2.705421 20.830297
37.908210 8.581632 20.150671
40.196524 21.488044 16.635115
39.541774 14.910145 18.742992
17.171872 35.265061 21.795006
24.106090 33.462530 20.680981
19.348769 37.385620 19.885907
37.152823 26.992434 16.682241
30.756557 30.633043 18.932261
36.751356 30.296673 15.265461
23.681515 41.033897 15.107272
26.412536 35.211135 18.458714
21.524245 39.305799 17.626099
27.519019 39.887637 14.151508
22.924576 36.424290 19.249287
35.219602 36.878282 11.990978
29.970340 33.738568 17.502069
36.118741 33.628840 13.693950
31.385025 38.500641 13.109311
33.372091 32.122771 16.451823
28.860313 36.852864 15.928092
43.136694 26.659943 -12.174448
48.622309 30.050240 -4.498507
42.951467 30.251458 -10.571664
43.136694 26.659943 12.174448
48.622309 30.050240 4.498507
42.951467 30.251458 10.571664
41.621131 37.337589 -6.826723
47.852142 33.624783 -2.380844
42.484349 33.876480 -8.785560
43.479191 39.035146 -2.378771
45.814378 32.217950 -6.717187
41.621131 37.337589 6.826723
47.852142 33.624783 2.380844
42.484349 33.876480 8.785560
43.479191 39.035146 2.378771
45.814378 32.217950 6.717187
46.186294 36.716748 0.000000
22.541548 -32.280435 1.601414
25.514472 -28.952982 4.709756
21.687988 -32.505305 4.185201
24.244794 -30.868772 0.000000
30.207808 -21.327688 10.523000
28.069912 -25.295429 7.686165
19.473628 -32.070194 9.162270
24.420747 -28.854275 7.213009
20.652652 -32.427404 6.734080
23.117030 -30.705209 5.728340
27.385613 -27.711895 -3.149404
27.385613 -27.711895 3.149404
25.870279 -29.334741 -1.590934
25.870279 -29.334741 1.590934
34.048530 -2.603889 20.048552
33.885917 -7.671068 18.012561
31.913284 -17.060034 13.207141
33.155012 -12.501868 15.715636
13.798077 -28.336459 17.512895
18.723732 -25.991085 16.063374
15.279265 -29.522540 15.703430
28.559250 -20.748993 12.823583
23.592712 -23.497967 14.522542
27.700995 -22.835837 11.506200
18.128008 -31.411116 11.564495
20.239190 -26.981312 14.144398
16.738360 -30.566211 13.706962
20.665429 -29.953653 10.627086
17.784980 -28.258114 14.933676
25.650448 -26.858465 8.733033
22.764369 -25.626575 13.293928
26.727041 -24.884572 10.133209
23.177947 -28.432853 9.681270
25.212635 -24.268772 12.429362
21.763741 -27.790974 12.011473
32.547174 -20.115260 -9.185773
34.348451 -21.228510 -3.177898
31.430862 -22.137298 -7.736092
32.547174 -20.115260 9.185773
34.348451 -21.228510 3.177898
31.430862 -22.137298 7.736092
28.877358 -25.905373 -4.736482
32.763774 -23.022476 -1.630135
30.197779 -24.079325 -6.244756
29.263582 -26.272526 -1.601027
32.307249 -22.719360 -4.736807
28.877358 -25.905373 4.736482
32.763774 -23.022476 1.630135
30.197779 -24.079325 6.244756
29.263582 -26.272526 1.601027
32.307249 -22.719360 4.736807
31.072760 -24.701933 0.000000
2.040871 -15.713612 26.686485
5.954865 -13.982717 26.304820
3.353493 -17.378024 26.045662
1.999205 -13.528071 27.122866
13.557894 -10.495935 25.362019
9.753032 -12.260176 25.865086
6.100999 -20.655869 24.405892
7.315718 -15.548938 25.606808
4.716847 -19.035094 25.283376
5.364681 -16.452862 25.833176
1.939229 -9.301664 27.783576
5.866996 -11.869192 26.776242
1.967474 -11.381207 27.487443
3.960117 -12.695455 26.956136
31.246207 -1.550106 21.819342
26.236966 -4.267944 23.121016
31.384354 -4.040873 20.940074
17.490649 -8.629820 24.773157
21.676340 -6.586484 24.053870
31.246922 -8.927066 18.973722
26.359614 -6.589392 22.309397
31.379775 -6.516522 19.985429
28.803227 -5.373507 21.685085
12.019660 -26.768843 19.448218
13.292677 -21.594725 21.508003
10.529613 -25.349877 20.897648
14.495222 -25.717720 18.781835
15.142634 -11.930594 24.501296
14.311837 -16.682111 23.157038
13.193550 -12.837180 24.803951
7.593184 -22.302512 23.352857
11.782134 -20.175590 22.712305
9.041648 -23.847973 22.203976
8.210162 -19.655963 24.112365
11.196271 -22.711342 21.861118
19.374993 -23.485341 17.411716
15.686933 -20.627840 20.930016
16.955506 -24.617604 18.100369
15.125514 -23.132563 19.921115
9.332272 -14.628872 25.348024
12.319000 -17.627231 23.499252
11.250035 -13.738065 25.087321
8.789697 -17.092442 24.774762
12.779957 -15.220050 24.182760
10.289765 -18.644156 23.807454
1.903381 -1.176354 28.430875
5.723358 -3.537230 28.025017
1.906808 -3.155223 28.345059
13.508006 -8.348407 25.913173
9.583163 -5.922720 27.197766
11.603137 -9.250474 26.150250
1.930195 -7.171538 28.029101
5.737590 -5.547895 27.805670
1.914446 -5.162223 28.211302
3.869085 -8.461665 27.662423
3.826821 -4.352140 28.126898
7.828617 -10.983713 26.578433
7.721112 -6.794640 27.360629
9.704349 -10.132873 26.372174
5.843492 -9.738033 27.177650
9.648997 -8.011807 26.816788
5.801690 -7.621694 27.521181
29.439086 -18.194356 14.334988
25.637797 -15.845030 18.469226
30.057780 -15.988131 15.556277
26.886095 -19.635108 15.153751
17.513728 -10.824079 24.106179
21.586027 -13.340898 21.673063
19.568636 -9.859969 23.737719
17.116899 -13.210278 23.437945
30.955253 -11.396661 17.864920
25.977544 -13.618193 19.486245
30.568992 -13.708209 16.739883
28.669142 -10.171362 19.779227
28.050277 -14.823839 17.654172
21.918758 -22.239844 16.668642
23.145975 -17.160115 19.095021
24.368130 -20.985150 15.933405
20.045641 -20.924899 18.622973
25.051408 -18.419328 17.254290
23.936333 -7.782902 22.859746
23.797404 -12.345035 21.139495
21.716256 -8.843044 23.324142
26.304356 -8.956526 21.442834
21.684068 -11.105594 22.527406
26.174133 -11.312662 20.497557
16.220861 -18.049861 21.879087
21.093933 -15.809788 20.789390
16.685517 -15.630144 22.693320
18.125155 -19.509794 20.365547
19.116676 -14.514728 22.198443
20.619868 -18.351498 19.753428
2.084461 16.049235 27.256475
6.301399 14.796417 27.835585
3.484981 18.059404 27.066893
2.035520 13.773806 27.615546
14.918112 11.548958 27.906506
10.584177 13.304977 28.069286
6.628721 22.442553 26.516945
7.903575 16.798377 27.664450
5.004829 20.197261 26.827024
5.692420 17.458002 27.411379
1.962966 9.415520 28.123658
6.152263 12.446298 28.078161
1.997248 11.553438 27.903408
4.096925 13.134040 27.887379
31.959711 1.585503 22.317585
27.865815 4.532908 24.556419
33.310185 4.288832 22.225014
29.370026 0.000000 23.067657
19.272881 9.509166 27.297449
23.607219 7.173193 26.196533
35.595727 10.169495 21.614398
28.956365 7.238529 24.507151
34.545413 7.173919 22.001588
31.152429 5.811773 23.453728
24.471162 -2.781101 24.183036
25.410106 2.887810 25.110925
26.853058 -1.456343 23.681686
27.404897 1.486272 24.168351
14.576126 32.462319 23.584668
15.979407 25.959473 25.855223
12.441966 29.953836 24.693009
18.026542 31.983060 23.357458
17.074829 13.452933 27.627653
16.766634 19.543463 27.128983
14.792328 14.392773 27.809662
8.481218 24.910824 26.084007
13.784782 23.604902 26.572790
10.385928 27.393604 25.505184
9.144523 21.892918 26.856482
13.193234 26.762129 25.760260
24.772133 30.027469 22.261962
19.210149 25.260761 25.630805
21.455753 31.151487 22.904480
18.709125 28.613244 24.640923
10.244008 16.058071 27.824453
14.249421 20.389466 27.181649
12.499430 15.263773 27.873442
9.731725 18.924310 27.429976
14.573208 17.355688 27.576022
11.705579 21.209486 27.083224
1.906273 1.178141 28.474075
5.802408 3.586085 28.412089
1.914611 3.168134 28.461052
3.825927 0.000000 28.397021
14.564221 9.001184 27.939372
9.957572 6.154118 28.260369
12.477904 9.947873 28.121732
1.948371 7.239070 28.293046
5.863215 5.669367 28.414478
1.927326 5.196952 28.401095
3.956206 8.652198 28.285302
3.870391 4.401691 28.447133
7.719425 -2.369483 27.929143
7.814713 2.398731 28.273898
5.775488 -1.189034 28.214852
5.802233 1.194540 28.345512
8.303086 11.649404 28.189274
8.001765 7.041617 28.355156
10.378243 10.836525 28.203524
6.074991 10.123820 28.254333
10.169572 8.444054 28.263586
5.979375 7.855119 28.364058
37.356967 23.087875 18.190499
31.629486 19.548097 22.785582
37.291940 19.836077 19.300286
34.397673 25.120867 19.387485
19.796391 12.234842 27.248073
25.636057 15.843955 25.739424
22.081185 11.125957 26.785565
19.823680 15.299285 27.144305
36.430506 13.412461 21.024803
31.312069 16.414709 23.487772
36.989050 16.587188 20.255570
33.193822 11.776647 22.900865
34.331270 18.143180 21.607279
28.161272 28.573805 21.415911
28.762579 21.324190 23.728621
31.306629 26.960391 20.470229
25.349645 26.461551 23.550544
31.605102 23.238005 21.768182
26.636018 8.660705 25.438006
28.127879 14.591493 24.986304
24.375892 9.926071 26.180698
29.882397 10.174834 24.359588
25.065112 12.837211 26.039945
30.684700 13.262164 24.029884
19.563316 21.769198 26.387470
25.688288 19.253232 25.317414
19.754042 18.504583 26.866700
22.445535 24.160221 25.219955
22.735795 17.262618 26.400994
25.655096 22.832806 24.577077
15.824502 -7.226368 25.604581
16.375584 -2.451417 26.496252
17.831329 -6.231330 25.317184
13.788874 -6.017081 26.363898
17.047449 7.784836 27.583352
16.792894 2.513889 27.171473
19.129900 6.685128 27.160915
14.563660 6.355176 27.845265
22.094859 -4.039776 24.629684
18.439008 -1.305596 26.240943
19.929227 -5.168465 24.993159
22.562486 -1.374940 25.131164
18.149421 -3.784010 25.808732
9.778095 -3.613003 27.513214
14.229774 -1.265965 27.121008
11.761498 -4.804624 27.001480
9.863224 -1.219162 27.794900
14.030423 -3.645665 26.769512
23.277630 4.256031 25.948148
18.709363 1.324739 26.625691
21.222105 5.503762 26.614552
22.962714 1.399329 25.576956
18.938477 3.948522 26.930780
20.627125 0.000000 25.947027
10.011575 3.699274 28.170170
14.393658 1.280545 27.433359
12.211381 4.988403 28.034301
9.941709 1.228863 28.016074
14.503291 3.768536 27.671726
12.094141 0.000000 27.631492
36.729738 0.000000 -19.326734
42.212622 0.000000 -15.216974
38.272959 2.821069 -19.089403
36.793587 -2.712026 -18.351537
49.675078 0.000000 -3.442853
46.859690 0.000000 -9.869806
40.830687 8.946494 -18.099151
43.824857 3.058873 -14.672125
39.670382 5.827962 -18.683447
41.131928 2.944108 -17.030722
36.393774 -7.974313 -16.132386
42.058747 -2.935603 -14.080849
36.680913 -5.388781 -17.275506
39.505718 -2.827708 -16.357387
36.729738 0.000000 19.326734
42.212622 0.000000 15.216974
38.272959 2.821069 19.089403
36.793587 -2.712026 18.351537
49.675078 0.000000 3.442853
46.859690 0.000000 9.869806
40.830687 8.946494 18.099151
43.824857 3.058873 14.672125
39.670382 5.827962 18.683447
41.131928 2.944108 17.030722
36.393774 -7.974313 16.132386
42.058747 -2.935603 14.080849
36.680913 -5.388781 17.275506
39.505718 -2.827708 16.357387
43.096012 22.465067 -13.884175
47.950663 16.895469 -10.441974
42.866290 19.020218 -15.163660
46.050689 24.085479 -10.510233
50.942355 3.410472 -2.107788
50.761546 10.366685 -6.406964
50.058461 3.367496 -5.572244
41.791080 12.309467 -17.270441
47.291899 13.345674 -11.744300
42.437292 15.615940 -16.305508
43.716190 9.399459 -15.663963
45.277177 16.291263 -13.527049
50.747718 26.626170 -2.368822
50.451513 17.930282 -6.625234
48.847639 25.602000 -6.652424
48.562380 21.153149 -8.641155
46.389754 3.194581 -11.869302
48.859672 10.082000 -9.748671
48.475089 3.289566 -8.870176
45.286039 6.334063 -13.852557
49.780528 6.772918 -7.702657
46.444776 9.790938 -12.862379
33.731512 -17.583545 -10.867229
39.093834 -13.774755 -8.513267
34.597460 -15.351252 -12.238617
35.117773 -18.367334 -8.014994
48.597336 -3.253478 -2.010760
44.319795 -9.051130 -5.593906
47.814021 -3.216509 -5.322405
35.942028 -10.586642 -14.853281
40.131581 -11.325047 -9.966132
35.340392 -13.004445 -13.578695
38.812357 -8.345081 -13.906869
37.361167 -13.442989 -11.162055
36.649543 -19.229179 -1.710742
40.295105 -14.320732 -5.291506
36.123739 -18.933156 -4.919592
37.730717 -16.435016 -6.713777
44.456810 -3.061471 -11.374738
42.949930 -8.862548 -8.569536
46.384265 -3.147681 -8.487588
41.703442 -5.832973 -12.756676
45.518851 -6.193093 -7.043238
41.048023 -8.653259 -11.367806
43.096012 22.465067 13.884175
47.950663 16.895469 10.441974
42.866290 19.020218 15.163660
46.050689 24.085479 10.510233
50.942355 3.410472 2.107788
50.761546 10.366685 6.406964
50.058461 3.367496 5.572244
51.819312 6.981608 0.000000
41.791080 12.309467 17.270441
47.291899 13.345674 11.744300
42.437292 15.615940 16.305508
43.716190 9.399459 15.663963
45.277177 16.291263 13.527049
50.747718 26.626170 2.368822
50.451513 17.930282 6.625234
48.847639 25.602000 6.652424
51.882487 22.708658 0.000000
48.562380 21.153149 8.641155
46.389754 3.194581 11.869302
48.859672 10.082000 9.748671
48.475089 3.289566 8.870176
45.286039 6.334063 13.852557
49.780528 6.772918 7.702657
46.444776 9.790938 12.862379
51.670728 14.281438 -4.383697
51.670728 14.281438 4.383697
52.086011 10.661836 -2.195016
52.095146 18.486344 -2.285038
52.086011 10.661836 2.195016
52.095146 18.486344 2.285038
33.731512 -17.583545 10.867229
39.093834 -13.774755 8.513267
34.597460 -15.351252 12.238617
35.117773 -18.367334 8.014994
48.597336 -3.253478 2.010760
44.319795 -9.051130 5.593906
47.814021 -3.216509 5.322405
47.114255 -6.347697 0.000000
35.942028 -10.586642 14.853281
40.131581 -11.325047 9.966132
35.340392 -13.004445 13.578695
38.812357 -8.345081 13.906869
37.361167 -13.442989 11.162055
36.649543 -19.229179 1.710742
40.295105 -14.320732 5.291506
36.123739 -18.933156 4.919592
38.892376 -17.022964 0.000000
37.730717 -16.435016 6.713777
44.456810 -3.061471 11.374738
42.949930 -8.862548 8.569536
46.384265 -3.147681 8.487588
41.703442 -5.832973 12.756676
45.518851 -6.193093 7.043238
41.048023 -8.653259 11.367806
42.885901 -11.853372 -3.638400
42.885901 -11.853372 3.638400
45.153663 -9.242807 -1.902872
41.009857 -14.552648 -1.798806
45.153663 -9.242807 1.902872
41.009857 -14.552648 1.798806
-22.541548 32.280435 -1.601414
-25.514472 28.952982 -4.709756
-21.687988 32.505305 -4.185201
-30.207808 21.327688 -10.523000
-28.069912 25.295429 -7.686165
-19.473628 32.070194 -9.162270
-24.420747 28.854275 -7.213009
-20.652652 32.427404 -6.734080
-23.117030 30.705209 -5.728340
-34.048530 2.603889 -20.048552
-33.885917 7.671068 -18.012561
-31.913284 17.060034 -13.207141
-33.155012 12.501868 -15.715636
-13.798077 28.336459 -17.512895
-18.723732 25.991085 -16.063374
-15.279265 29.522540 -15.703430
-28.559250 20.748993 -12.823583
-23.592712 23.497967 -14.522542
-27.700995 22.835837 -11.506200
-18.128008 31.411116 -11.564495
-20.239190 26.981312 -14.144398
-16.738360 30.566211 -13.706962
-20.665429 29.953653 -10.627086
-17.784980 28.258114 -14.933676
-25.650448 26.858465 -8.733033
-22.764369 25.626575 -13.293928
-26.727041 24.884572 -10.133209
-23.177947 28.432853 -9.681270
-25.212635 24.268772 -12.429362
-21.763741 27.790974 -12.011473
-32.068881 -45.923972 -2.278262
-36.526449 -41.449010 -6.742474
-30.248262 -45.335187 -5.837104
-40.028068 -28.261109 -13.943924
-38.980853 -35.127912 -10.673823
-25.937195 -42.714735 -12.203355
-33.953453 -40.117621 -10.028626
-28.124364 -44.158984 -9.170334
-32.320179 -42.929297 -8.008856
-35.376170 -2.705421 -20.830297
-37.908210 -8.581632 -20.150671
-40.196524 -21.488044 -16.635115
-39.541774 -14.910145 -18.742992
-17.171872 -35.265061 -21.795006
-24.106090 -33.462530 -20.680981
-19.348769 -37.385620 -19.885907
-37.152823 -26.992434 -16.682241
-30.756557 -30.633043 -18.932261
-36.751356 -30.296673 -15.265461
-23.681515 -41.033897 -15.107272
-26.412536 -35.211135 -18.458714
-21.524245 -39.305799 -17.626099
-27.519019 -39.887637 -14.151508
-22.924576 -36.424290 -19.249287
-35.219602 -36.878282 -11.990978
-29.970340 -33.738568 -17.502069
-36.118741 -33.628840 -13.693950
-31.385025 -38.500641 -13.109311
-33.372091 -32.122771 -16.451823
-28.860313 -36.852864 -15.928092
-2.084461 -16.049235 -27.256475
-6.301399 -14.796417 -27.835585
-3.484981 -18.059404 -27.066893
-2.035520 -13.773806 -27.615546
-14.918112 -11.548958 -27.906506
-10.584177 -13.304977 -28.069286
-6.628721 -22.442553 -26.516945
-7.903575 -16.798377 -27.664450
-5.004829 -20.197261 -26.827024
-5.692420 -17.458002 -27.411379
-1.962966 -9.415520 -28.123658
-6.152263 -12.446298 -28.078161
-1.997248 -11.553438 -27.903408
-4.096925 -13.134040 -27.887379
-31.959711 -1.585503 -22.317585
-27.865815 -4.532908 -24.556419
-33.310185 -4.288832 -22.225014
-19.272881 -9.509166 -27.297449
-23.607219 -7.173193 -26.196533
-35.595727 -10.169495 -21.614398
-28.956365 -7.238529 -24.507151
-34.545413 -7.173919 -22.001588
-31.152429 -5.811773 -23.453728
-14.576126 -32.462319 -23.584668
-15.979407 -25.959473 -25.855223
-12.441966 -29.953836 -24.693009
-18.026542 -31.983060 -23.357458
-17.074829 -13.452933 -27.627653
-16.766634 -19.543463 -27.128983
-14.792328 -14.392773 -27.809662
-8.481218 -24.910824 -26.084007
-13.784782 -23.604902 -26.572790
-10.385928 -27.393604 -25.505184
-9.144523 -21.892918 -26.856482
-13.193234 -26.762129 -25.760260
-24.772133 -30.027469 -22.261962
-19.210149 -25.260761 -25.630805
-21.455753 -31.151487 -22.904480
-18.709125 -28.613244 -24.640923
-10.244008 -16.058071 -27.824453
-14.249421 -20.389466 -27.181649
-12.499430 -15.263773 -27.873442
-9.731725 -18.924310 -27.429976
-14.573208 -17.355688 -27.576022
-11.705579 -21.209486 -27.083224
-1.906273 -1.178141 -28.474075
-5.802408 -3.586085 -28.412089
-1.914611 -3.168134 -28.461052
-14.564221 -9.001184 -27.939372
-9.957572 -6.154118 -28.260369
-12.477904 -9.947873 -28.121732
-1.948371 -7.239070 -28.293046
-5.863215 -5.669367 -28.414478
-1.927326 -5.196952 -28.401095
-3.956206 -8.652198 -28.285302
-3.870391 -4.401691 -28.447133
-8.303086 -11.649404 -28.189274
-8.001765 -7.041617 -28.355156
-10.378243 -10.836525 -28.203524
-6.074991 -10.123820 -28.254333
-10.169572 -8.444054 -28.263586
-5.979375 -7.855119 -28.364058
-37.356967 -23.087875 -18.190499
-31.629486 -19.548097 -22.785582
-37.291940 -19.836077 -19.300286
-34.397673 -25.120867 -19.387485
-19.796391 -12.234842 -27.248073
-25.636057 -15.843955 -25.739424
-22.081185 -11.125957 -26.785565
-19.823680 -15.299285 -27.144305
-36.430506 -13.412461 -21.024803
-31.312069 -16.414709 -23.487772
-36.989050 -16.587188 -20.255570
-33.193822 -11.776647 -22.900865
-34.331270 -18.143180 -21.607279
-28.161272 -28.573805 -21.415911
-28.762579 -21.324190 -23.728621
-31.306629 -26.960391 -20.470229
-25.349645 -26.461551 -23.550544
-31.605102 -23.238005 -21.768182
-26.636018 -8.660705 -25.438006
-28.127879 -14.591493 -24.986304
-24.375892 -9.926071 -26.180698
-29.882397 -10.174834 -24.359588
-25.065112 -12.837211 -26.039945
-30.684700 -13.262164 -24.029884
-19.563316 -21.769198 -26.387470
-25.688288 -19.253232 -25.317414
-19.754042 -18.504583 -26.866700
-22.445535 -24.160221 -25.219955
-22.735795 -17.262618 -26.400994
-25.655096 -22.832806 -24.577077
-2.040871 15.713612 -26.686485
-5.954865 13.982717 -26.304820
-3.353493 17.378024 -26.045662
-1.999205 13.528071 -27.122866
-13.557894 10.495935 -25.362019
-9.753032 12.260176 -25.865086
-6.100999 20.655869 -24.405892
-7.315718 15.548938 -25.606808
-4.716847 19.035094 -25.283376
-5.364681 16.452862 -25.833176
-1.939229 9.301664 -27.783576
-5.866996 11.869192 -26.776242
-1.967474 11.381207 -27.487443
-3.960117 12.695455 -26.956136
-31.246207 1.550106 -21.819342
-26.236966 4.267944 -23.121016
-31.384354 4.040873 -20.940074
-29.370026 0.000000 -23.067657
-17.490649 8.629820 -24.773157
-21.676340 6.586484 -24.053870
-31.246922 8.927066 -18.973722
-26.359614 6.589392 -22.309397
-31.379775 6.516522 -19.985429
-28.803227 5.373507 -21.685085
-25.410106 -2.887810 -25.110925
-24.471162 2.781101 -24.183036
-27.404897 -1.486272 -24.168351
-26.853058 1.456343 -23.681686
-12.019660 26.768843 -19.448218
-13.292677 21.594725 -21.508003
-10.529613 25.349877 -20.897648
-14.495222 25.717720 -18.781835
-15.142634 11.930594 -24.501296
-14.311837 16.682111 -23.157038
-13.193550 12.837180 -24.803951
-7.593184 22.302512 -23.352857
-11.782134 20.175590 -22.712305
-9.041648 23.847973 -22.203976
-8.210162 19.655963 -24.112365
-11.196271 22.711342 -21.861118
-19.374993 23.485341 -17.411716
-15.686933 20.627840 -20.930016
-16.955506 24.617604 -18.100369
-15.125514 23.132563 -19.921115
-9.332272 14.628872 -25.348024
-12.319000 17.627231 -23.499252
-11.250035 13.738065 -25.087321
-8.789697 17.092442 -24.774762
-12.779957 15.220050 -24.182760
-10.289765 18.644156 -23.807454
-1.903381 1.176354 -28.430875
-5.723358 3.537230 -28.025017
-1.906808 3.155223 -28.345059
-3.825927 0.000000 -28.397021
-13.508006 8.348407 -25.913173
-9.583163 5.922720 -27.197766
-11.603137 9.250474 -26.150250
-1.930195 7.171538 -28.029101
-5.737590 5.547895 -27.805670
-1.914446 5.162223 -28.211302
-3.869085 8.461665 -27.662423
-3.826821 4.352140 -28.126898
-7.814713 -2.398731 -28.273898
-7.719425 2.369483 -27.929143
-5.802233 -1.194540 -28.345512
-5.775488 1.189034 -28.214852
-7.828617 10.983713 -26.578433
-7.721112 6.794640 -27.360629
-9.704349 10.132873 -26.372174
-5.843492 9.738033 -27.177650
-9.648997 8.011807 -26.816788
-5.801690 7.621694 -27.521181
-29.439086 18.194356 -14.334988
-25.637797 15.845030 -18.469226
-30.057780 15.988131 -15.556277
-26.886095 19.635108 -15.153751
-17.513728 10.824079 -24.106179
-21.586027 13.340898 -21.673063
-19.568636 9.859969 -23.737719
-17.116899 13.210278 -23.437945
-30.955253 11.396661 -17.864920
-25.977544 13.618193 -19.486245
-30.568992 13.708209 -16.739883
-28.669142 10.171362 -19.779227
-28.050277 14.823839 -17.654172
-21.918758 22.239844 -16.668642
-23.145975 17.160115 -19.095021
-24.368130 20.985150 -15.933405
-20.045641 20.924899 -18.622973
-25.051408 18.419328 -17.254290
-23.936333 7.782902 -22.859746
-23.797404 12.345035 -21.139495
-21.716256 8.843044 -23.324142
-26.304356 8.956526 -21.442834
-21.684068 11.105594 -22.527406
-26.174133 11.312662 -20.497557
-16.220861 18.049861 -21.879087
-21.093933 15.809788 -20.789390
-16.685517 15.630144 -22.693320
-18.125155 19.509794 -20.365547
-19.116676 14.514728 -22.198443
-20.619868 18.351498 -19.753428
-17.047449 -7.784836 -27.583352
-16.792894 -2.513889 -27.171473
-19.129900 -6.685128 -27.160915
-14.563660 -6.355176 -27.845265
-15.824502 7.226368 -25.604581
-16.375584 2.451417 -26.496252
-17.831329 6.231330 -25.317184
-13.788874 6.017081 -26.363898
-23.277630 -4.256031 -25.948148
-18.709363 -1.324739 -26.625691
-21.222105 -5.503762 -26.614552
-22.962714 -1.399329 -25.576956
-18.938477 -3.948522 -26.930780
-10.011575 -3.699274 -28.170170
-14.393658 -1.280545 -27.433359
-12.211381 -4.988403 -28.034301
-9.941709 -1.228863 -28.016074
-14.503291 -3.768536 -27.671726
-22.094859 4.039776 -24.629684
-18.439008 1.305596 -26.240943
-19.929227 5.168465 -24.993159
-22.562486 1.374940 -25.131164
-18.149421 3.784010 -25.808732
-20.627125 0.000000 -25.947027
-9.778095 3.613003 -27.513214
-14.229774 1.265965 -27.121008
-11.761498 4.804624 -27.001480
-9.863224 1.219162 -27.794900
-14.030423 3.645665 -26.769512
-12.094141 0.000000 -27.631492
-22.541548 32.280435 1.601414
-25.514472 28.952982 4.709756
-21.687988 32.505305 4.185201
-24.244794 30.868772 0.000000
-30.207808 21.327688 10.523000
-28.069912 25.295429 7.686165
-19.473628 32.070194 9.162270
-24.420747 28.854275 7.213009
-20.652652 32.427404 6.734080
-23.117030 30.705209 5.728340
-27.385613 27.711895 -3.149404
-27.385613 27.711895 3.149404
-25.870279 29.334741 -1.590934
-25.870279 29.334741 1.590934
-34.048530 2.603889 20.048552
-33.885917 7.671068 18.012561
-31.913284 17.060034 13.207141
-33.155012 12.501868 15.715636
-13.798077 28.336459 17.512895
-18.723732 25.991085 16.063374
-15.279265 29.522540 15.703430
-28.559250 20.748993 12.823583
-23.592712 23.497967 14.522542
-27.700995 22.835837 11.506200
-18.128008 31.411116 11.564495
-20.239190 26.981312 14.144398
-16.738360 30.566211 13.706962
-20.665429 29.953653 10.627086
-17.784980 28.258114 14.933676
-25.650448 26.858465 8.733033
-22.764369 25.626575 13.293928
-26.727041 24.884572 10.133209
-23.177947 28.432853 9.681270
-25.212635 24.268772 12.429362
-21.763741 27.790974 12.011473
-32.547174 20.115260 -9.185773
-34.348451 21.228510 -3.177898
-31.430862 22.137298 -7.736092
-32.547174 20.115260 9.185773
-34.348451 21.228510 3.177898
-31.430862 22.137298 7.736092
-28.877358 25.905373 -4.736482
-32.763774 23.022476 -1.630135
-30.197779 24.079325 -6.244756
-29.263582 26.272526 -1.601027
-32.307249 22.719360 -4.736807
-28.877358 25.905373 4.736482
-32.763774 23.022476 1.630135
-30.197779 24.079325 6.244756
-29.263582 26.272526 1.601027
-32.307249 22.719360 4.736807
-31.072760 24.701933 0.000000
-32.068881 -45.923972 2.278262
-36.526449 -41.449010 6.742474
-30.248262 -45.335187 5.837104
-35.204047 -44.822229 0.000000
-40.028068 -28.261109 13.943924
-38.980853 -35.127912 10.673823
-25.937195 -42.714735 12.203355
-33.953453 -40.117621 10.028626
-28.124364 -44.158984 9.170334
-32.320179 -42.929297 8.008856
-40.094283 -40.571981 -4.610928
-40.094283 -40.571981 4.610928
-37.968145 -43.052713 -2.334912
-37.968145 -43.052713 2.334912
-35.376170 -2.705421 20.830297
-37.908210 -8.581632 20.150671
-40.196524 -21.488044 16.635115
-39.541774 -14.910145 18.742992
-17.171872 -35.265061 21.795006
-24.106090 -33.462530 20.680981
-19.348769 -37.385620 19.885907
-37.152823 -26.992434 16.682241
-30.756557 -30.633043 18.932261
-36.751356 -30.296673 15.265461
-23.681515 -41.033897 15.107272
-26.412536 -35.211135 18.458714
-21.524245 -39.305799 17.626099
-27.519019 -39.887637 14.151508
-22.924576 -36.424290 19.249287
-35.219602 -36.878282 11.990978
-29.970340 -33.738568 17.502069
-36.118741 -33.628840 13.693950
-31.385025 -38.500641 13.109311
-33.372091 -32.122771 16.451823
-28.860313 -36.852864 15.928092
-43.136694 -26.659943 -12.174448
-48.622309 -30.050240 -4.498507
-42.951467 -30.251458 -10.571664
-43.136694 -26.659943 12.174448
-48.622309 -30.050240 4.498507
-42.951467 -30.251458 10.571664
-41.621131 -37.337589 -6.826723
-47.852142 -33.624783 -2.380844
-42.484349 -33.876480 -8.785560
-43.479191 -39.035146 -2.378771
-45.814378 -32.217950 -6.717187
-41.621131 -37.337589 6.826723
-47.852142 -33.624783 2.380844
-42.484349 -33.876480 8.785560
-43.479191 -39.035146 2.378771
-45.814378 -32.217950 6.717187
-46.186294 -36.716748 0.000000
-2.084461 -16.049235 27.256475
-6.301399 -14.796417 27.835585
-3.484981 -18.059404 27.066893
-2.035520 -13.773806 27.615546
-14.918112 -11.548958 27.906506
-10.584177 -13.304977 28.069286
-6.628721 -22.442553 26.516945
-7.903575 -16.798377 27.664450
-5.004829 -20.197261 26.827024
-5.692420 -17.458002 27.411379
-1.962966 -9.415520 28.123658
-6.152263 -12.446298 28.078161
-1.997248 -11.553438 27.903408
-4.096925 -13.134040 27.887379
-31.959711 -1.585503 22.317585
-27.865815 -4.532908 24.556419
-33.310185 -4.288832 22.225014
-19.272881 -9.509166 27.297449
-23.607219 -7.173193 26.196533
-35.595727 -10.169495 21.614398
-28.956365 -7.238529 24.507151
-34.545413 -7.173919 22.001588
-31.152429 -5.811773 23.453728
-14.576126 -32.462319 23.584668
-15.979407 -25.959473 25.855223
-12.441966 -29.953836 24.693009
-18.026542 -31.983060 23.357458
-17.074829 -13.452933 27.627653
-16.766634 -19.543463 27.128983
-14.792328 -14.392773 27.809662
-8.481218 -24.910824 26.084007
-13.784782 -23.604902 26.572790
-10.385928 -27.393604 25.505184
-9.144523 -21.892918 26.856482
-13.193234 -26.762129 25.760260
-24.772133 -30.027469 22.261962
-19.210149 -25.260761 25.630805
-21.455753 -31.151487 22.904480
-18.709125 -28.613244 24.640923
-10.244008 -16.058071 27.824453
-14.249421 -20.389466 27.181649
-12.499430 -15.263773 27.873442
-9.731725 -18.924310 27.429976
-14.573208 -17.355688 27.576022
-11.705579 -21.209486 27.083224
-1.906273 -1.178141 28.474075
-5.802408 -3.586085 28.412089
-1.914611 -3.168134 28.461052
-14.564221 -9.001184 27.939372
-9.957572 -6.154118 28.260369
-12.477904 -9.947873 28.121732
-1.948371 -7.239070 28.293046
-5.863215 -5.669367 28.414478
-1.927326 -5.196952 28.401095
-3.956206 -8.652198 28.285302
-3.870391 -4.401691 28.447133
-8.303086 -11.649404 28.189274
-8.001765 -7.041617 28.355156
-10.378243 -10.836525 28.203524
-6.074991 -10.123820 28.254333
-10.169572 -8.444054 28.263586
-5.979375 -7.855119 28.364058
-37.356967 -23.087875 18.190499
-31.629486 -19.548097 22.785582
-37.291940 -19.836077 19.300286
-34.397673 -25.120867 19.387485
-19.796391 -12.234842 27.248073
-25.636057 -15.843955 25.739424
-22.081185 -11.125957 26.785565
-19.823680 -15.299285 27.144305
-36.430506 -13.412461 21.024803
-31.312069 -16.414709 23.487772
-36.989050 -16.587188 20.255570
-33.193822 -11.776647 22.900865
-34.331270 -18.143180 21.607279
-28.161272 -28.573805 21.415911
-28.762579 -21.324190 23.728621
-31.306629 -26.960391 20.470229
-25.349645 -26.461551 23.550544
-31.605102 -23.238005 21.768182
-26.636018 -8.660705 25.438006
-28.127879 -14.591493 24.986304
-24.375892 -9.926071 26.180698
-29.882397 -10.174834 24.359588
-25.065112 -12.837211 26.039945
-30.684700 -13.262164 24.029884
-19.563316 -21.769198 26.387470
-25.688288 -19.253232 25.317414
-19.754042 -18.504583 26.866700
-22.445535 -24.160221 25.219955
-22.735795 -17.262618 26.400994
-25.655096 -22.832806 24.577077
-2.040871 15.713612 26.686485
-5.954865 13.982717 26.304820
-3.353493 17.378024 26.045662
-1.999205 13.528071 27.122866
-13.557894 10.495935 25.362019
-9.753032 12.260176 25.865086
-6.100999 20.655869 24.405892
-7.315718 15.548938 25.606808
-4.716847 19.035094 25.283376
-5.364681 16.452862 25.833176
-1.939229 9.301664 27.783576
-5.866996 11.869192 26.776242
-1.967474 11.381207 27.487443
-3.960117 12.695455 26.956136
-31.246207 1.550106 21.819342
-26.236966 4.267944 23.121016
-31.384354 4.040873 20.940074
-29.370026 0.000000 23.067657
-17.490649 8.629820 24.773157
-21.676340 6.586484 24.053870
-31.246922 8.927066 18.973722
-26.359614 6.589392 22.309397
-31.379775 6.516522 19.985429
-28.803227 5.373507 21.685085
-25.410106 -2.887810 25.110925
-24.471162 2.781101 24.183036
-27.404897 -1.486272 24.168351
-26.853058 1.456343 23.681686
-12.019660 26.768843 19.448218
-13.292677 21.594725 21.508003
-10.529613 25.349877 20.897648
-14.495222 25.717720 18.781835
-15.142634 11.930594 24.501296
-14.311837 16.682111 23.157038
-13.193550 12.837180 24.803951
-7.593184 22.302512 23.352857
-11.782134 20.175590 22.712305
-9.041648 23.847973 22.203976
-8.210162 19.655963 24.112365
-11.196271 22.711342 21.861118
-19.374993 23.485341 17.411716
-15.686933 20.627840 20.930016
-16.955506 24.617604 18.100369
-15.125514 23.132563 19.921115
-9.332272 14.628872 25.348024
-12.319000 17.627231 23.499252
-11.250035 13.738065 25.087321
-8.789697 17.092442 24.774762
-12.779957 15.220050 24.182760
-10.289765 18.644156 23.807454
-1.903381 1.176354 28.430875
-5.723358 3.537230 28.025017
-1.906808 3.155223 28.345059
-3.825927 0.000000 28.397021
-13.508006 8.348407 25.913173
-9.583163 5.922720 27.197766
-11.603137 9.250474 26.150250
-1.930195 7.171538 28.029101
-5.737590 5.547895 27.805670
-1.914446 5.162223 28.211302
-3.869085 8.461665 27.662423
-3.826821 4.352140 28.126898
-7.814713 -2.398731 28.273898
-7.719425 2.369483 27.929143
-5.802233 -1.194540 28.345512
-5.775488 1.189034 28.214852
-7.828617 10.983713 26.578433
-7.721112 6.794640 27.360629
-9.704349 10.132873 26.372174
-5.843492 9.738033 27.177650
-9.648997 8.011807 26.816788
-5.801690 7.621694 27.521181
-29.439086 18.194356 14.334988
-25.637797 15.845030 18.469226
-30.057780 15.988131 15.556277
-26.886095 19.635108 15.153751
-17.513728 10.824079 24.106179
-21.586027 13.340898 21.673063
-19.568636 9.859969 23.737719
-17.116899 13.210278 23.437945
-30.955253 11.396661 17.864920
-25.977544 13.618193 19.486245
-30.568992 13.708209 16.739883
-28.669142 10.171362 19.779227
-28.050277 14.823839 17.654172
-21.918758 22.239844 16.668642
-23.145975 17.160115 19.095021
-24.368130 20.985150 15.933405
-20.045641 20.924899 18.622973
-25.051408 18.419328 17.254290
-23.936333 7.782902 22.859746
-23.797404 12.345035 21.139495
-21.716256 8.843044 23.324142
-26.304356 8.956526 21.442834
-21.684068 11.105594 22.527406
-26.174133 11.312662 20.497557
-16.220861 18.049861 21.879087
-21.093933 15.809788 20.789390
-16.685517 15.630144 22.693320
-18.125155 19.509794 20.365547
-19.116676 14.514728 22.198443
-20.619868 18.351498 19.753428
-17.047449 -7.784836 27.583352
-16.792894 -2.513889 27.171473
-19.129900 -6.685128 27.160915
-14.563660 -6.355176 27.845265
-15.824502 7.226368 25.604581
-16.375584 2.451417 26.496252
-17.831329 6.231330 25.317184
-13.788874 6.017081 26.363898
-23.277630 -4.256031 25.948148
-18.709363 -1.324739 26.625691
-21.222105 -5.503762 26.614552
-22.962714 -1.399329 25.576956
-18.938477 -3.948522 26.930780
-10.011575 -3.699274 28.170170
-14.393658 -1.280545 27.433359
-12.211381 -4.988403 28.034301
-9.941709 -1.228863 28.016074
-14.503291 -3.768536 27.671726
-22.094859 4.039776 24.629684
-18.439008 1.305596 26.240943
-19.929227 5.168465 24.993159
-22.562486 1.374940 25.131164
-18.149421 3.784010 25.808732
-20.627125 0.000000 25.947027
-9.778095 3.613003 27.513214
-14.229774 1.265965 27.121008
-11.761498 4.804624 27.001480
-9.863224 1.219162 27.794900
-14.030423 3.645665 26.769512
-12.094141 0.000000 27.631492
-36.729738 0.000000 -19.326734
-42.212622 0.000000 -15.216974
-36.793587 2.712026 -18.351537
-38.272959 -2.821069 -19.089403
-49.675078 0.000000 -3.442853
-46.859690 0.000000 -9.869806
-36.393774 7.974313 -16.132386
-42.058747 2.935603 -14.080849
-36.680913 5.388781 -17.275506
-39.505718 2.827708 -16.357387
-40.830687 -8.946494 -18.099151
-43.824857 -3.058873 -14.672125
-39.670382 -5.827962 -18.683447
-41.131928 -2.944108 -17.030722
-36.729738 0.000000 19.326734
-42.212622 0.000000 15.216974
-36.793587 2.712026 18.351537
-38.272959 -2.821069 19.089403
-49.675078 0.000000 3.442853
-46.859690 0.000000 9.869806
-36.393774 7.974313 16.132386
-42.058747 2.935603 14.080849
-36.680913 5.388781 17.275506
-39.505718 2.827708 16.357387
-40.830687 -8.946494 18.099151
-43.824857 -3.058873 14.672125
-39.670382 -5.827962 18.683447
-41.131928 -2.944108 17.030722
-33.731512 17.583545 -10.867229
-39.093834 13.774755 -8.513267
-34.597460 15.351252 -12.238617
-35.117773 18.367334 -8.014994
-48.597336 3.253478 -2.010760
-44.319795 9.051130 -5.593906
-47.814021 3.216509 -5.322405
-35.942028 10.586642 -14.853281
-40.131581 11.325047 -9.966132
-35.340392 13.004445 -13.578695
-38.812357 8.345081 -13.906869
-37.361167 13.442989 -11.162055
-36.649543 19.229179 -1.710742
-40.295105 14.320732 -5.291506
-36.123739 18.933156 -4.919592
-37.730717 16.435016 -6.713777
