38.10410821 38.5580952 -8.821752161
36.8362914 11.09748931 -18.52721638
28.26498571 33.09322168 -20.4527358
22.56084103 -22.82963956 -5.223220209
29.9230407 -9.014768091 -15.05012119
19.14599266 -22.41651865 -13.85417044
8.494220455 -14.18106888 -28.1951684
24.03376833 -5.498714254 -23.75079226
13.8921174 -19.19843408 -22.47791814
8.562348216 -5.291822221 -30.97886687
22.64108469 -13.99295988 -19.33779495
9.223508232 15.39861206 -30.61591928
26.32716786 6.023423843 -26.01718907
17.05217964 23.56553268 -27.59100624
8.817946616 5.449790719 -31.90363057
29.21672215 18.05692733 -24.95405984
17.94239304 0 -29.03140179
38.10410821 38.5580952 8.821752161
36.8362914 11.09748931 18.52721638
28.26498571 33.09322168 20.4527358
45.56659078 28.16170185 0
22.56084103 -22.82963956 5.223220209
29.9230407 -9.014768091 15.05012119
19.14599266 -22.41651865 13.85417044
28.16170185 -17.40488893 0
8.494220455 -14.18106888 28.1951684
24.03376833 -5.498714254 23.75079226
13.8921174 -19.19843408 22.47791814
8.562348216 -5.291822221 30.97886687
22.64108469 -13.99295988 19.33779495
9.223508232 15.39861206 30.61591928
26.32716786 6.023423843 26.01718907
17.05217964 23.56553268 27.59100624
8.817946616 5.449790719 31.90363057
29.21672215 18.05692733 24.95405984
17.94239304 0 29.03140179
37.61500642 0 -10.68563506
37.61500642 0 10.68563506
43.35727769 11.98365682 -7.406307224
33.70115192 -9.314769299 -5.756844024
43.35727769 11.98365682 7.406307224
33.70115192 -9.314769299 5.756844024
-22.56084103 22.82963956 -5.223220209
-29.9230407 9.014768091 -15.05012119
-19.14599266 22.41651865 -13.85417044
-38.10410821 -38.5580952 -8.821752161
-36.8362914 -11.09748931 -18.52721638
-28.26498571 -33.09322168 -20.4527358
-9.223508232 -15.39861206 -30.61591928
-26.32716786 -6.023423843 -26.01718907
-17.05217964 -23.56553268 -27.59100624
-8.817946616 -5.449790719 -31.90363057
-29.21672215 -18.05692733 -24.95405984
-8.494220455 14.18106888 -28.1951684
-24.03376833 5.498714254 -23.75079226
-13.8921174 19.19843408 -22.47791814
-8.562348216 5.291822221 -30.97886687
-22.64108469 13.99295988 -19.33779495
-17.94239304 0 -29.03140179
-22.56084103 22.82963956 5.223220209
-29.9230407 9.014768091 15.05012119
-19.14599266 22.41651865 13.85417044
-28.16170185 17.40488893 0
-38.10410821 -38.5580952 8.821752161
-36.8362914 -11.09748931 18.52721638
-28.26498571 -33.09322168 20.4527358
-45.56659078 -28.16170185 0
-9.223508232 -15.39861206 30.61591928
-26.32716786 -6.023423843 26.01718907
-17.05217964 -23.56553268 27.59100624
-8.817946616 -5.449790719 31.90363057
-29.21672215 -18.05692733 24.95405984
-8.494220455 14.18106888 28.1951684
-24.03376833 5.498714254 23.75079226
-13.8921174 19.19843408 22.47791814
-8.562348216 5.291822221 30.97886687
-22.64108469 13.99295988 19.33779495
-17.94239304 0 29.03140179
-37.61500642 0 -10.68563506
-37.61500642 0 10.68563506
-33.70115192 9.314769299 -5.756844024
-43.35727769 -11.98365682 -7.406307224
-33.70115192 9.314769299 5.756844024
-43.35727769 -11.98365682 7.406307224
-13.72922703 31.14583435 0
-5.153383667 36.99911997 0
20.22447249 45.88081096 0
5.912960825 42.45256343 0
-20.22447249 -45.88081096 0
-5.912960825 -42.45256343 0
13.72922703 -31.14583435 0
5.153383667 -36.99911997 0
-25.12678937 -44.86174465 6.805039034
-17.16638406 -38.62778322 17.55888923
-17.33254805 -44.72156955 6.370015732
-2.880079696 -21.86680398 27.84108553
-9.422344595 -30.15055124 24.11659828
-3.400822912 -40.84207747 5.502647061
-10.23891579 -38.22296841 16.56691375
-9.825268236 -43.13644701 5.927400163
-13.7732915 -41.8898794 12.07363154
16.14767046 -28.83029177 4.373241888
12.66864215 -28.50696809 12.95830755
12.32587578 -31.80331649 4.529975767
2.772116026 -21.04709735 26.79742491
8.084919263 -25.87092523 20.69344291
0 -25.00938603 25.30735747
3.137184459 -37.67591963 5.076071084
8.37829691 -31.27707901 13.55636917
7.931847019 -34.82364963 4.785134633
0 -37.72388058 10.42662415
10.47923407 -31.87138319 9.186069355
-6.21975391 -33.4050408 20.64545061
5.53664962 -29.73622576 18.37799822
-3.041332379 -29.24336538 23.24761744
-3.271023281 -36.27620407 15.87788054
2.883921967 -27.72981486 22.04438919
3.050749917 -33.83333503 14.80865117
-16.14767046 28.83029177 4.373241888
-12.66864215 28.50696809 12.95830755
-12.32587578 31.80331649 4.529975767
-2.772116026 21.04709735 26.79742491
-8.084919263 25.87092523 20.69344291
-3.137184459 37.67591963 5.076071084
-8.37829691 31.27707901 13.55636917
-7.931847019 34.82364963 4.785134633
-10.47923407 31.87138319 9.186069355
25.12678937 44.86174465 6.805039034
17.16638406 38.62778322 17.55888923
17.33254805 44.72156955 6.370015732
2.880079696 21.86680398 27.84108553
9.422344595 30.15055124 24.11659828
0 25.00938603 25.30735747
3.400822912 40.84207747 5.502647061
10.23891579 38.22296841 16.56691375
9.825268236 43.13644701 5.927400163
0 37.72388058 10.42662415
13.7732915 41.8898794 12.07363154
-5.53664962 29.73622576 18.37799822
6.21975391 33.4050408 20.64545061
-2.883921967 27.72981486 22.04438919
-3.050749917 33.83333503 14.80865117
3.041332379 29.24336538 23.24761744
3.271023281 36.27620407 15.87788054
0 -13.48726037 30.5969139
0 -4.500273543 32.3100649
0 13.48726037 30.5969139
0 4.500273543 32.3100649
-25.12678937 -44.86174465 -6.805039034
-17.16638406 -38.62778322 -17.55888923
-17.33254805 -44.72156955 -6.370015732
-2.880079696 -21.86680398 -27.84108553
-9.422344595 -30.15055124 -24.11659828
-3.400822912 -40.84207747 -5.502647061
-10.23891579 -38.22296841 -16.56691375
-9.825268236 -43.13644701 -5.927400163
-13.7732915 -41.8898794 -12.07363154
16.14767046 -28.83029177 -4.373241888
12.66864215 -28.50696809 -12.95830755
12.32587578 -31.80331649 -4.529975767
2.772116026 -21.04709735 -26.79742491
8.084919263 -25.87092523 -20.69344291
0 -25.00938603 -25.30735747
3.137184459 -37.67591963 -5.076071084
8.37829691 -31.27707901 -13.55636917
7.931847019 -34.82364963 -4.785134633
0 -37.72388058 -10.42662415
10.47923407 -31.87138319 -9.186069355
-6.21975391 -33.4050408 -20.64545061
5.53664962 -29.73622576 -18.37799822
-3.041332379 -29.24336538 -23.24761744
-3.271023281 -36.27620407 -15.87788054
2.883921967 -27.72981486 -22.04438919
3.050749917 -33.83333503 -14.80865117
-16.14767046 28.83029177 -4.373241888
-12.66864215 28.50696809 -12.95830755
-12.32587578 31.80331649 -4.529975767
-2.772116026 21.04709735 -26.79742491
-8.084919263 25.87092523 -20.69344291
-3.137184459 37.67591963 -5.076071084
-8.37829691 31.27707901 -13.55636917
-7.931847019 34.82364963 -4.785134633
-10.47923407 31.87138319 -9.186069355
25.12678937 44.86174465 -6.805039034
17.16638406 38.62778322 -17.55888923
17.33254805 44.72156955 -6.370015732
2.880079696 21.86680398 -27.84108553
9.422344595 30.15055124 -24.11659828
0 25.00938603 -25.30735747
3.400822912 40.84207747 -5.502647061
10.23891579 38.22296841 -16.56691375
9.825268236 43.13644701 -5.927400163
0 37.72388058 -10.42662415
13.7732915 41.8898794 -12.07363154
-5.53664962 29.73622576 -18.37799822
6.21975391 33.4050408 -20.64545061
-2.883921967 27.72981486 -22.04438919
-3.050749917 33.83333503 -14.80865117
3.041332379 29.24336538 -23.24761744
3.271023281 36.27620407 -15.87788054
0 -13.48726037 -30.5969139
0 -4.500273543 -32.3100649
0 13.48726037 -30.5969139
0 4.500273543 -32.3100649
33.97814734 43.26139783 -4.47526636
40.09992713 32.07483094 -12.53162268
30.1374792 41.81773353 -11.2384307
34.38090798 5.215210034 -19.25653672
38.89819334 17.68180857 -17.28655569
20.66401237 34.49849039 -21.32123962
35.09882292 29.85684209 -18.45254321
25.38759217 38.53733583 -17.02697819
33.59314126 36.44170599 -15.35919279
20.11472271 -25.61031397 -2.649312836
24.76543775 -19.80919383 -7.739443525
18.72979414 -25.98882061 -6.984442596
31.04967716 -4.709898527 -17.39073467
28.46620592 -12.93977845 -12.65052723
14.99570958 -25.03528036 -15.47265418
23.03679313 -19.5962667 -12.11115887
16.98696382 -25.78552252 -11.39283555
21.06333782 -22.84942506 -9.630414251
4.358011727 -16.09143492 -28.729888
12.47463172 -12.19577823 -27.44293009
7.080235249 -18.98667601 -26.34526109
4.318319734 -11.74996852 -30.31735626
27.8879086 -2.884923407 -21.90357952
20.19852017 -7.89155316 -25.25217322
27.35269424 -7.350980858 -19.71271956
12.32179506 -23.43744697 -19.93708321
15.23308689 -14.76352696 -24.64765235
9.830014934 -21.49989813 -23.32300395
16.74370015 -21.08808448 -18.4031073
11.31091127 -16.86481296 -25.60010247
4.329114866 -2.675540128 -32.13181634
12.60396189 -7.789676839 -29.0796973
4.323688487 -7.166953131 -31.46549148
8.589509409 -9.798693668 -29.80159796
24.99847096 -15.44990472 -14.97366137
19.73419463 -12.19640302 -23.19893714
26.32952596 -11.63319297 -17.34534193
21.04942085 -18.36936641 -16.71300168
23.49349065 -9.901870465 -21.65705827
18.35652743 -16.70132039 -21.03470869
4.564484339 16.85381024 -30.09104428
13.87639707 13.56620901 -30.52667231
7.769244722 20.83435468 -28.9090367
4.463462299 12.1448954 -31.33634956
29.42007091 3.043421162 -23.10696265
22.59655128 8.828462886 -28.25018974
31.65874064 8.508222056 -22.8160294
25.36737373 0 -25.06869566
15.45228413 29.39199103 -25.00232093
17.99703788 17.44227915 -29.11981899
11.4775629 25.10336298 -27.23202829
22.47964664 28.31230152 -24.70752256
12.97899395 19.35196025 -29.37549124
4.361078128 2.695294511 -32.36905598
13.46494597 8.321794266 -31.0661486
4.410715894 7.311209903 -32.09883038
8.767362733 0 -31.72061636
9.085106575 10.3640583 -31.52108935
34.90207134 21.57066637 -20.90575053
23.64576297 14.61388521 -27.79726151
33.60727851 14.8487275 -22.13977335
29.40445632 25.66062202 -23.34680518
27.94713243 11.77895994 -25.76256907
23.4372456 21.32391048 -26.85669365
17.26854575 -5.202410301 -27.94109396
18.3384165 5.524725028 -29.67218119
21.22334923 -2.776510726 -26.69702208
13.21822442 -2.723103987 -30.19968599
22.05865642 2.885788453 -27.74776172
13.52879654 2.787085363 -30.90925032
33.97814734 43.26139783 4.47526636
40.09992713 32.07483094 12.53162268
30.1374792 41.81773353 11.2384307
39.58872818 40.0604035 0
34.38090798 5.215210034 19.25653672
38.89819334 17.68180857 17.28655569
20.66401237 34.49849039 21.32123962
35.09882292 29.85684209 18.45254321
25.38759217 38.53733583 17.02697819
33.59314126 36.44170599 15.35919279
44.09065765 27.24952501 -8.209331099
44.09065765 27.24952501 8.209331099
43.11618681 34.27610343 -4.484116423
43.11618681 34.27610343 4.484116423
20.11472271 -25.61031397 2.649312836
24.76543775 -19.80919383 7.739443525
18.72979414 -25.98882061 6.984442596
22.85763158 -23.12996619 0
31.04967716 -4.709898527 17.39073467
28.46620592 -12.93977845 12.65052723
14.99570958 -25.03528036 15.47265418
23.03679313 -19.5962667 12.11115887
16.98696382 -25.78552252 11.39283555
21.06333782 -22.84942506 9.630414251
27.80257912 -17.18293887 -5.176619937
27.80257912 -17.18293887 5.176619937
25.47984385 -20.25572825 -2.649923259
25.47984385 -20.25572825 2.649923259
4.358011727 -16.09143492 28.729888
12.47463172 -12.19577823 27.44293009
7.080235249 -18.98667601 26.34526109
4.318319734 -11.74996852 30.31735626
27.8879086 -2.884923407 21.90357952
20.19852017 -7.89155316 25.25217322
27.35269424 -7.350980858 19.71271956
12.32179506 -23.43744697 19.93708321
15.23308689 -14.76352696 24.64765235
9.830014934 -21.49989813 23.32300395
16.74370015 -21.08808448 18.4031073
11.31091127 -16.86481296 25.60010247
4.329114866 -2.675540128 32.13181634
12.60396189 -7.789676839 29.0796973
4.323688487 -7.166953131 31.46549148
8.589509409 -9.798693668 29.80159796
24.99847096 -15.44990472 14.97366137
19.73419463 -12.19640302 23.19893714
26.32952596 -11.63319297 17.34534193
21.04942085 -18.36936641 16.71300168
23.49349065 -9.901870465 21.65705827
18.35652743 -16.70132039 21.03470869
4.564484339 16.85381024 30.09104428
13.87639707 13.56620901 30.52667231
7.769244722 20.83435468 28.9090367
4.463462299 12.1448954 31.33634956
29.42007091 3.043421162 23.10696265
22.59655128 8.828462886 28.25018974
31.65874064 8.508222056 22.8160294
25.36737373 0 25.06869566
15.45228413 29.39199103 25.00232093
17.99703788 17.44227915 29.11981899
11.4775629 25.10336298 27.23202829
22.47964664 28.31230152 24.70752256
12.97899395 19.35196025 29.37549124
4.361078128 2.695294511 32.36905598
13.46494597 8.321794266 31.0661486
4.410715894 7.311209903 32.09883038
8.767362733 0 31.72061636
9.085106575 10.3640583 31.52108935
34.90207134 21.57066637 20.90575053
23.64576297 14.61388521 27.79726151
33.60727851 14.8487275 22.13977335
29.40445632 25.66062202 23.34680518
27.94713243 11.77895994 25.76256907
23.4372456 21.32391048 26.85669365
17.26854575 -5.202410301 27.94109396
18.3384165 5.524725028 29.67218119
21.22334923 -2.776510726 26.69702208
13.21822442 -2.723103987 30.19968599
22.05865642 2.885788453 27.74776172
13.52879654 2.787085363 30.90925032
35.04555184 0 -15.44824044
39.25953026 0 -5.468222545
37.91877144 5.401044127 -14.69601659
33.80441859 -4.815007173 -13.10143439
35.04555184 0 15.44824044
39.25953026 0 5.468222545
37.91877144 5.401044127 14.69601659
33.80441859 -4.815007173 13.10143439
42.89469954 18.59177393 -11.4903482
42.1258082 5.675603912 -3.507716124
40.71133802 11.73394868 -13.38578994
45.50272566 19.91627461 -4.102978214
40.66293002 5.587512991 -9.261870701
30.28908346 -13.128144 -8.113639201
36.9259219 -4.975024 -3.074733927
32.16162821 -9.269724679 -10.57466593
31.08550505 -13.6059422 -2.802978242
35.85061252 -4.926250103 -8.165760254
42.89469954 18.59177393 11.4903482
42.1258082 5.675603912 3.507716124
40.71133802 11.73394868 13.38578994
45.50272566 19.91627461 4.102978214
40.66293002 5.587512991 9.261870701
44.52756032 12.30711499 0
30.28908346 -13.128144 8.113639201
36.9259219 -4.975024 3.074733927
32.16162821 -9.269724679 10.57466593
31.08550505 -13.6059422 2.802978242
35.85061252 -4.926250103 8.165760254
34.24201232 -9.464259437 0
-20.11472271 25.61031397 -2.649312836
-24.76543775 19.80919383 -7.739443525
-18.72979414 25.98882061 -6.984442596
-31.04967716 4.709898527 -17.39073467
-28.46620592 12.93977845 -12.65052723
-14.99570958 25.03528036 -15.47265418
-23.03679313 19.5962667 -12.11115887
-16.98696382 25.78552252 -11.39283555
-21.06333782 22.84942506 -9.630414251
-33.97814734 -43.26139783 -4.47526636
-40.09992713 -32.07483094 -12.53162268
-30.1374792 -41.81773353 -11.2384307
-34.38090798 -5.215210034 -19.25653672
-38.89819334 -17.68180857 -17.28655569
-20.66401237 -34.49849039 -21.32123962
-35.09882292 -29.85684209 -18.45254321
-25.38759217 -38.53733583 -17.02697819
-33.59314126 -36.44170599 -15.35919279
-4.564484339 -16.85381024 -30.09104428
-13.87639707 -13.56620901 -30.52667231
-7.769244722 -20.83435468 -28.9090367
-4.463462299 -12.1448954 -31.33634956
-29.42007091 -3.043421162 -23.10696265
-22.59655128 -8.828462886 -28.25018974
-31.65874064 -8.508222056 -22.8160294
-15.45228413 -29.39199103 -25.00232093
-17.99703788 -17.44227915 -29.11981899
-11.4775629 -25.10336298 -27.23202829
-22.47964664 -28.31230152 -24.70752256
-12.97899395 -19.35196025 -29.37549124
-4.361078128 -2.695294511 -32.36905598
-13.46494597 -8.321794266 -31.0661486
-4.410715894 -7.311209903 -32.09883038
-9.085106575 -10.3640583 -31.52108935
-34.90207134 -21.57066637 -20.90575053
-23.64576297 -14.61388521 -27.79726151
-33.60727851 -14.8487275 -22.13977335
-29.40445632 -25.66062202 -23.34680518
-27.94713243 -11.77895994 -25.76256907
-23.4372456 -21.32391048 -26.85669365
-4.358011727 16.09143492 -28.729888
-12.47463172 12.19577823 -27.44293009
-7.080235249 18.98667601 -26.34526109
-4.318319734 11.74996852 -30.31735626
-27.8879086 2.884923407 -21.90357952
-20.19852017 7.89155316 -25.25217322
-27.35269424 7.350980858 -19.71271956
-25.36737373 0 -25.06869566
-12.32179506 23.43744697 -19.93708321
-15.23308689 14.76352696 -24.64765235
-9.830014934 21.49989813 -23.32300395
-16.74370015 21.08808448 -18.4031073
-11.31091127 16.86481296 -25.60010247
-4.329114866 2.675540128 -32.13181634
-12.60396189 7.789676839 -29.0796973
-4.323688487 7.166953131 -31.46549148
-8.767362733 0 -31.72061636
-8.589509409 9.798693668 -29.80159796
-24.99847096 15.44990472 -14.97366137
-19.73419463 12.19640302 -23.19893714
-26.32952596 11.63319297 -17.34534193
-21.04942085 18.36936641 -16.71300168
-23.49349065 9.901870465 -21.65705827
-18.35652743 16.70132039 -21.03470869
-18.3384165 -5.524725028 -29.67218119
-17.26854575 5.202410301 -27.94109396
-22.05865642 -2.885788453 -27.74776172
-13.52879654 -2.787085363 -30.90925032
-21.22334923 2.776510726 -26.69702208
-13.21822442 2.723103987 -30.19968599
-20.11472271 25.61031397 2.649312836
-24.76543775 19.80919383 7.739443525
-18.72979414 25.98882061 6.984442596
-22.85763158 23.12996619 0
-31.04967716 4.709898527 17.39073467
-28.46620592 12.93977845 12.65052723
-14.99570958 25.03528036 15.47265418
-23.03679313 19.5962667 12.11115887
-16.98696382 25.78552252 11.39283555
-21.06333782 22.84942506 9.630414251
-27.80257912 17.18293887 -5.176619937
-27.80257912 17.18293887 5.176619937
-25.47984385 20.25572825 -2.649923259
-25.47984385 20.25572825 2.649923259
-33.97814734 -43.26139783 4.47526636
-40.09992713 -32.07483094 12.53162268
-30.1374792 -41.81773353 11.2384307
-39.58872818 -40.0604035 0
-34.38090798 -5.215210034 19.25653672
-38.89819334 -17.68180857 17.28655569
-20.66401237 -34.49849039 21.32123962
-35.09882292 -29.85684209 18.45254321
-25.38759217 -38.53733583 17.02697819
-33.59314126 -36.44170599 15.35919279
-44.09065765 -27.24952501 -8.209331099
-44.09065765 -27.24952501 8.209331099
-43.11618681 -34.27610343 -4.484116423
-43.11618681 -34.27610343 4.484116423
-4.564484339 -16.85381024 30.09104428
-13.87639707 -13.56620901 30.52667231
-7.769244722 -20.83435468 28.9090367
-4.463462299 -12.1448954 31.33634956
-29.42007091 -3.043421162 23.10696265
-22.59655128 -8.828462886 28.25018974
-31.65874064 -8.508222056 22.8160294
-15.45228413 -29.39199103 25.00232093
-17.99703788 -17.44227915 29.11981899
-11.4775629 -25.10336298 27.23202829
-22.47964664 -28.31230152 24.70752256
-12.97899395 -19.35196025 29.37549124
-4.361078128 -2.695294511 32.36905598
-13.46494597 -8.321794266 31.0661486
-4.410715894 -7.311209903 32.09883038
-9.085106575 -10.3640583 31.52108935
-34.90207134 -21.57066637 20.90575053
-23.64576297 -14.61388521 27.79726151
-33.60727851 -14.8487275 22.13977335
-29.40445632 -25.66062202 23.34680518
-27.94713243 -11.77895994 25.76256907
-23.4372456 -21.32391048 26.85669365
-4.358011727 16.09143492 28.729888
-12.47463172 12.19577823 27.44293009
-7.080235249 18.98667601 26.34526109
-4.318319734 11.74996852 30.31735626
-27.8879086 2.884923407 21.90357952
-20.19852017 7.89155316 25.25217322
-27.35269424 7.350980858 19.71271956
-25.36737373 0 25.06869566
-12.32179506 23.43744697 19.93708321
-15.23308689 14.76352696 24.64765235
-9.830014934 21.49989813 23.32300395
-16.74370015 21.08808448 18.4031073
-11.31091127 16.86481296 25.60010247
-4.329114866 2.675540128 32.13181634
-12.60396189 7.789676839 29.0796973
-4.323688487 7.166953131 31.46549148
-8.767362733 0 31.72061636
-8.589509409 9.798693668 29.80159796
-24.99847096 15.44990472 14.97366137
-19.73419463 12.19640302 23.19893714
-26.32952596 11.63319297 17.34534193
-21.04942085 18.36936641 16.71300168
-23.49349065 9.901870465 21.65705827
-18.35652743 16.70132039 21.03470869
-18.3384165 -5.524725028 29.67218119
-17.26854575 5.202410301 27.94109396
-22.05865642 -2.885788453 27.74776172
-13.52879654 -2.787085363 30.90925032
-21.22334923 2.776510726 26.69702208
-13.21822442 2.723103987 30.19968599
-35.04555184 0 -15.44824044
-39.25953026 0 -5.468222545
-33.80441859 4.815007173 -13.10143439
-37.91877144 -5.401044127 -14.69601659
-35.04555184 0 15.44824044
-39.25953026 0 5.468222545
-33.80441859 4.815007173 13.10143439
-37.91877144 -5.401044127 14.69601659
-30.28908346 13.128144 -8.113639201
-36.9259219 4.975024 -3.074733927
-32.16162821 9.269724679 -10.57466593
-31.08550505 13.6059422 -2.802978242
-35.85061252 4.926250103 -8.165760254
-42.89469954 -18.59177393 -11.4903482
-42.1258082 -5.675603912 -3.507716124
-40.71133802 -11.73394868 -13.38578994
-45.50272566 -19.91627461 -4.102978214
-40.66293002 -5.587512991 -9.261870701
-30.28908346 13.128144 8.113639201
-36.9259219 4.975024 3.074733927
-32.16162821 9.269724679 10.57466593
-31.08550505 13.6059422 2.802978242
-35.85061252 4.926250103 8.165760254
-34.24201232 9.464259437 0
-42.89469954 -18.59177393 11.4903482
-42.1258082 -5.675603912 3.507716124
-40.71133802 -11.73394868 13.38578994
-45.50272566 -19.91627461 4.102978214
-40.66293002 -5.587512991 9.261870701
-44.52756032 -12.30711499 0
-15.60663638 29.65983142 0
-11.75990163 32.62253531 0
-2.663356084 38.42813588 0
-7.487958133 35.55119576 0
24.18719075 45.96685556 0
16.36686567 45.40247613 0
2.853861065 41.17683003 0
9.186884712 43.61732946 0
-24.18719075 -45.96685556 0
-16.36686567 -45.40247613 0
-2.853861065 -41.17683003 0
-9.186884712 -43.61732946 0
15.60663638 -29.65983142 0
11.75990163 -32.62253531 0
2.663356084 -38.42813588 0
7.487958133 -35.55119576 0
-26.78283061 -45.4853808 3.478531278
-23.26749627 -43.77170157 9.909004817
-22.81373158 -45.73998461 3.371457953
-15.1340305 -36.5693538 19.54905116
-19.22777048 -40.56450374 15.29578916
-15.05295351 -44.96237193 3.138268984
-19.4337723 -43.8415187 9.606203792
-18.85283562 -45.53262598 3.259097632
-21.19452017 -45.00211845 6.611245944
-1.412911815 -19.88818968 28.48071572
-4.408421607 -23.88203359 27.10054447
-11.2504468 -32.29604977 22.80205413
-7.674387586 -28.02689903 25.25666769
-1.675696006 -40.49928953 2.711333092
-5.151221618 -40.81246425 8.334851661
-4.652818 -41.79876099 2.81185518
-11.7659047 -36.52097239 19.03763371
-8.604782947 -39.51408469 13.92283127
-13.64077272 -38.56122617 17.11001618
-11.27563635 -44.06948375 3.034798505
-8.356945591 -41.88443928 8.642688213
-7.870350762 -43.01109152 2.918774271
-13.4779033 -44.06123997 6.162753142
-6.506754726 -42.05168246 5.721365306
-17.46907537 -42.27173682 12.45104363
-10.24053832 -41.23655822 11.63686953
-15.5652637 -40.51070572 14.90700077
-15.57555232 -43.46944597 9.34640643
-11.99076748 -40.13499853 14.44104627
-11.8493634 -42.78687794 9.019823772
16.81806415 -28.56218088 2.184315879
15.39517616 -28.96199267 6.556394077
14.991675 -30.05729165 2.215499105
11.61466228 -28.06527277 15.00298464
13.65265313 -28.80277252 10.86075497
11.05699276 -33.02664959 2.305183326
13.49340325 -30.44037368 6.669851815
13.0646029 -31.55311433 2.258483405
14.28074877 -30.3221749 4.454620421
1.388526969 -19.54494785 27.98917912
4.142055975 -22.43903346 25.46307549
0 -21.49934707 27.37323484
9.316861941 -26.74541219 18.88312474
6.806683882 -24.85804109 22.40102562
-2.935644591 -25.5268719 25.83100886
2.806064746 -24.40011149 24.6908238
-1.445484072 -23.50510266 26.65282823
1.415481838 -23.01723455 26.09962644
1.608296761 -38.87034161 2.602278824
4.579840679 -36.2854868 7.410337882
4.169581344 -37.45758679 2.519818935
0 -39.29528361 5.294247752
9.475658414 -29.41212497 15.33193738
7.198902825 -33.05813264 11.64806945
10.57696951 -29.90013261 13.2669991
8.841099808 -34.55438718 2.379551418
6.960860766 -34.8873577 7.198868132
6.588820854 -36.0075917 2.443509999
10.19185517 -33.31866735 4.66021206
5.610504214 -36.25941834 4.933295554
-3.318113464 -39.1106759 10.80992496
3.075979013 -36.25663185 10.02108658
-1.659823688 -39.3863225 8.062251078
1.595371702 -37.8569271 7.749188854
12.57089261 -30.41909505 8.959875037
8.272335525 -33.31100717 9.400295786
11.61756456 -30.23628434 11.12625184
11.43991237 -31.92738482 6.864737016
9.45942576 -31.66219673 11.39243216
9.254843749 -33.41832437 7.044856066
-9.601894182 -34.02158141 21.02649366
-3.019679952 -32.6383416 20.17160445
-7.851989679 -31.90174045 22.46894529
-8.182011426 -35.84956239 18.75007551
8.080805985 -28.63203796 17.69557263
2.84790392 -30.78169291 19.02413245
6.845057126 -27.81068808 19.58754665
6.990745693 -30.63002003 16.02014502
-4.540307588 -27.6813244 24.83243197
-1.522749706 -30.60546677 21.50587524
-6.156348148 -29.77026581 23.73843121
-1.483500435 -27.1154326 24.34394107
-4.59249188 -31.32295533 22.02717728
-5.043346389 -38.4053548 13.64912184
-1.589200181 -34.04572979 17.86301782
-6.642202955 -37.32848015 16.25980634
-1.631166884 -37.18795248 13.1964173
-4.767317333 -35.00561355 18.34712468
4.218347771 -25.71840141 23.07152809
1.479888468 -29.74400662 20.9005437
5.548525913 -26.83101853 21.39471283
1.44725149 -26.4528741 23.74910323
4.225258535 -28.81825114 20.26579932
0 -28.53533913 22.68475734
4.521359856 -34.43039919 12.23643724
1.53761596 -32.94063148 17.28319795
5.797496586 -32.58131944 14.19200413
1.572150688 -35.84247917 12.71896624
4.333166851 -31.8177192 16.67628709
0 -35.10129846 15.36363128
-16.81806415 28.56218088 2.184315879
-15.39517616 28.96199267 6.556394077
-14.991675 30.05729165 2.215499105
-11.61466228 28.06527277 15.00298464
-13.65265313 28.80277252 10.86075497
-11.05699276 33.02664959 2.305183326
-13.49340325 30.44037368 6.669851815
-13.0646029 31.55311433 2.258483405
-14.28074877 30.3221749 4.454620421
-1.388526969 19.54494785 27.98917912
-4.142055975 22.43903346 25.46307549
-9.316861941 26.74541219 18.88312474
-6.806683882 24.85804109 22.40102562
-1.608296761 38.87034161 2.602278824
-4.579840679 36.2854868 7.410337882
-4.169581344 37.45758679 2.519818935
-9.475658414 29.41212497 15.33193738
-7.198902825 33.05813264 11.64806945
-10.57696951 29.90013261 13.2669991
-8.841099808 34.55438718 2.379551418
-6.960860766 34.8873577 7.198868132
-6.588820854 36.0075917 2.443509999
-10.19185517 33.31866735 4.66021206
-5.610504214 36.25941834 4.933295554
-12.57089261 30.41909505 8.959875037
-8.272335525 33.31100717 9.400295786
-11.61756456 30.23628434 11.12625184
-11.43991237 31.92738482 6.864737016
-9.45942576 31.66219673 11.39243216
-9.254843749 33.41832437 7.044856066
26.78283061 45.4853808 3.478531278
23.26749627 43.77170157 9.909004817
22.81373158 45.73998461 3.371457953
15.1340305 36.5693538 19.54905116
19.22777048 40.56450374 15.29578916
15.05295351 44.96237193 3.138268984
19.4337723 43.8415187 9.606203792
18.85283562 45.53262598 3.259097632
21.19452017 45.00211845 6.611245944
1.412911815 19.88818968 28.48071572
4.408421607 23.88203359 27.10054447
0 21.49934707 27.37323484
11.2504468 32.29604977 22.80205413
7.674387586 28.02689903 25.25666769
-2.806064746 24.40011149 24.6908238
2.935644591 25.5268719 25.83100886
-1.415481838 23.01723455 26.09962644
1.445484072 23.50510266 26.65282823
1.675696006 40.49928953 2.711333092
5.151221618 40.81246425 8.334851661
4.652818 41.79876099 2.81185518
0 39.29528361 5.294247752
11.7659047 36.52097239 19.03763371
8.604782947 39.51408469 13.92283127
13.64077272 38.56122617 17.11001618
11.27563635 44.06948375 3.034798505
8.356945591 41.88443928 8.642688213
7.870350762 43.01109152 2.918774271
13.4779033 44.06123997 6.162753142
6.506754726 42.05168246 5.721365306
-3.075979013 36.25663185 10.02108658
3.318113464 39.1106759 10.80992496
-1.595371702 37.8569271 7.749188854
1.659823688 39.3863225 8.062251078
17.46907537 42.27173682 12.45104363
10.24053832 41.23655822 11.63686953
15.5652637 40.51070572 14.90700077
15.57555232 43.46944597 9.34640643
11.99076748 40.13499853 14.44104627
11.8493634 42.78687794 9.019823772
-8.080805985 28.63203796 17.69557263
-2.84790392 30.78169291 19.02413245
-6.845057126 27.81068808 19.58754665
-6.990745693 30.63002003 16.02014502
9.601894182 34.02158141 21.02649366
3.019679952 32.6383416 20.17160445
7.851989679 31.90174045 22.46894529
8.182011426 35.84956239 18.75007551
-4.218347771 25.71840141 23.07152809
-1.479888468 29.74400662 20.9005437
-5.548525913 26.83101853 21.39471283
-1.44725149 26.4528741 23.74910323
-4.225258535 28.81825114 20.26579932
-4.521359856 34.43039919 12.23643724
-1.53761596 32.94063148 17.28319795
-5.797496586 32.58131944 14.19200413
-1.572150688 35.84247917 12.71896624
-4.333166851 31.8177192 16.67628709
4.540307588 27.6813244 24.83243197
1.522749706 30.60546677 21.50587524
6.156348148 29.77026581 23.73843121
1.483500435 27.1154326 24.34394107
4.59249188 31.32295533 22.02717728
0 28.53533913 22.68475734
5.043346389 38.4053548 13.64912184
1.589200181 34.04572979 17.86301782
6.642202955 37.32848015 16.25980634
1.631166884 37.18795248 13.1964173
4.767317333 35.00561355 18.34712468
0 35.10129846 15.36363128
0 -15.72122134 29.87759587
0 -11.24534813 31.19513902
0 -2.250162648 32.4663895
0 -6.750072399 32.04787487
0 15.72122134 29.87759587
0 11.24534813 31.19513902
0 2.250162648 32.4663895
0 6.750072399 32.04787487
-26.78283061 -45.4853808 -3.478531278
-23.26749627 -43.77170157 -9.909004817
-22.81373158 -45.73998461 -3.371457953
-15.1340305 -36.5693538 -19.54905116
-19.22777048 -40.56450374 -15.29578916
-15.05295351 -44.96237193 -3.138268984
-19.4337723 -43.8415187 -9.606203792
-18.85283562 -45.53262598 -3.259097632
-21.19452017 -45.00211845 -6.611245944
-1.412911815 -19.88818968 -28.48071572
-4.408421607 -23.88203359 -27.10054447
-11.2504468 -32.29604977 -22.80205413
-7.674387586 -28.02689903 -25.25666769
-1.675696006 -40.49928953 -2.711333092
-5.151221618 -40.81246425 -8.334851661
-4.652818 -41.79876099 -2.81185518
-11.7659047 -36.52097239 -19.03763371
-8.604782947 -39.51408469 -13.92283127
-13.64077272 -38.56122617 -17.11001618
-11.27563635 -44.06948375 -3.034798505
-8.356945591 -41.88443928 -8.642688213
-7.870350762 -43.01109152 -2.918774271
-13.4779033 -44.06123997 -6.162753142
-6.506754726 -42.05168246 -5.721365306
-17.46907537 -42.27173682 -12.45104363
-10.24053832 -41.23655822 -11.63686953
-15.5652637 -40.51070572 -14.90700077
-15.57555232 -43.46944597 -9.34640643
-11.99076748 -40.13499853 -14.44104627
-11.8493634 -42.78687794 -9.019823772
16.81806415 -28.56218088 -2.184315879
15.39517616 -28.96199267 -6.556394077
14.991675 -30.05729165 -2.215499105
11.61466228 -28.06527277 -15.00298464
13.65265313 -28.80277252 -10.86075497
11.05699276 -33.02664959 -2.305183326
13.49340325 -30.44037368 -6.669851815
13.0646029 -31.55311433 -2.258483405
14.28074877 -30.3221749 -4.454620421
1.388526969 -19.54494785 -27.98917912
4.142055975 -22.43903346 -25.46307549
0 -21.49934707 -27.37323484
9.316861941 -26.74541219 -18.88312474
6.806683882 -24.85804109 -22.40102562
-2.935644591 -25.5268719 -25.83100886
2.806064746 -24.40011149 -24.6908238
-1.445484072 -23.50510266 -26.65282823
1.415481838 -23.01723455 -26.09962644
1.608296761 -38.87034161 -2.602278824
4.579840679 -36.2854868 -7.410337882
4.169581344 -37.45758679 -2.519818935
0 -39.29528361 -5.294247752
9.475658414 -29.41212497 -15.33193738
7.198902825 -33.05813264 -11.64806945
10.57696951 -29.90013261 -13.2669991
8.841099808 -34.55438718 -2.379551418
6.960860766 -34.8873577 -7.198868132
6.588820854 -36.0075917 -2.443509999
10.19185517 -33.31866735 -4.66021206
5.610504214 -36.25941834 -4.933295554
-3.318113464 -39.1106759 -10.80992496
3.075979013 -36.25663185 -10.02108658
-1.659823688 -39.3863225 -8.062251078
1.595371702 -37.8569271 -7.749188854
12.57089261 -30.41909505 -8.959875037
8.272335525 -33.31100717 -9.400295786
11.61756456 -30.23628434 -11.12625184
11.43991237 -31.92738482 -6.864737016
9.45942576 -31.66219673 -11.39243216
9.254843749 -33.41832437 -7.044856066
-9.601894182 -34.02158141 -21.02649366
-3.019679952 -32.6383416 -20.17160445
-7.851989679 -31.90174045 -22.46894529
-8.182011426 -35.84956239 -18.75007551
8.080805985 -28.63203796 -17.69557263
2.84790392 -30.78169291 -19.02413245
6.845057126 -27.81068808 -19.58754665
6.990745693 -30.63002003 -16.02014502
-4.540307588 -27.6813244 -24.83243197
-1.522749706 -30.60546677 -21.50587524
-6.156348148 -29.77026581 -23.73843121
-1.483500435 -27.1154326 -24.34394107
-4.59249188 -31.32295533 -22.02717728
-5.043346389 -38.4053548 -13.64912184
-1.589200181 -34.04572979 -17.86301782
-6.642202955 -37.32848015 -16.25980634
-1.631166884 -37.18795248 -13.1964173
-4.767317333 -35.00561355 -18.34712468
4.218347771 -25.71840141 -23.07152809
1.479888468 -29.74400662 -20.9005437
5.548525913 -26.83101853 -21.39471283
1.44725149 -26.4528741 -23.74910323
4.225258535 -28.81825114 -20.26579932
0 -28.53533913 -22.68475734
4.521359856 -34.43039919 -12.23643724
1.53761596 -32.94063148 -17.28319795
5.797496586 -32.58131944 -14.19200413
1.572150688 -35.84247917 -12.71896624
4.333166851 -31.8177192 -16.67628709
0 -35.10129846 -15.36363128
-16.81806415 28.56218088 -2.184315879
-15.39517616 28.96199267 -6.556394077
-14.991675 30.05729165 -2.215499105
-11.61466228 28.06527277 -15.00298464
-13.65265313 28.80277252 -10.86075497
-11.05699276 33.02664959 -2.305183326
-13.49340325 30.44037368 -6.669851815
-13.0646029 31.55311433 -2.258483405
-14.28074877 30.3221749 -4.454620421
-1.388526969 19.54494785 -27.98917912
-4.142055975 22.43903346 -25.46307549
-9.316861941 26.74541219 -18.88312474
-6.806683882 24.85804109 -22.40102562
-1.608296761 38.87034161 -2.602278824
-4.579840679 36.2854868 -7.410337882
-4.169581344 37.45758679 -2.519818935
-9.475658414 29.41212497 -15.33193738
-7.198902825 33.05813264 -11.64806945
-10.57696951 29.90013261 -13.2669991
-8.841099808 34.55438718 -2.379551418
-6.960860766 34.8873577 -7.198868132
-6.588820854 36.0075917 -2.443509999
-10.19185517 33.31866735 -4.66021206
-5.610504214 36.25941834 -4.933295554
-12.57089261 30.41909505 -8.959875037
-8.272335525 33.31100717 -9.400295786
-11.61756456 30.23628434 -11.12625184
-11.43991237 31.92738482 -6.864737016
-9.45942576 31.66219673 -11.39243216
-9.254843749 33.41832437 -7.044856066
26.78283061 45.4853808 -3.478531278
23.26749627 43.77170157 -9.909004817
22.81373158 45.73998461 -3.371457953
15.1340305 36.5693538 -19.54905116
19.22777048 40.56450374 -15.29578916
15.05295351 44.96237193 -3.138268984
19.4337723 43.8415187 -9.606203792
18.85283562 45.53262598 -3.259097632
21.19452017 45.00211845 -6.611245944
1.412911815 19.88818968 -28.48071572
4.408421607 23.88203359 -27.10054447
0 21.49934707 -27.37323484
11.2504468 32.29604977 -22.80205413
7.674387586 28.02689903 -25.25666769
-2.806064746 24.40011149 -24.6908238
2.935644591 25.5268719 -25.83100886
-1.415481838 23.01723455 -26.09962644
1.445484072 23.50510266 -26.65282823
1.675696006 40.49928953 -2.711333092
5.151221618 40.81246425 -8.334851661
4.652818 41.79876099 -2.81185518
0 39.29528361 -5.294247752
11.7659047 36.52097239 -19.03763371
8.604782947 39.51408469 -13.92283127
13.64077272 38.56122617 -17.11001618
11.27563635 44.06948375 -3.034798505
8.356945591 41.88443928 -8.642688213
7.870350762 43.01109152 -2.918774271
13.4779033 44.06123997 -6.162753142
6.506754726 42.05168246 -5.721365306
-3.075979013 36.25663185 -10.02108658
3.318113464 39.1106759 -10.80992496
-1.595371702 37.8569271 -7.749188854
1.659823688 39.3863225 -8.062251078
17.46907537 42.27173682 -12.45104363
10.24053832 41.23655822 -11.63686953
15.5652637 40.51070572 -14.90700077
15.57555232 43.46944597 -9.34640643
11.99076748 40.13499853 -14.44104627
11.8493634 42.78687794 -9.019823772
-8.080805985 28.63203796 -17.69557263
-2.84790392 30.78169291 -19.02413245
-6.845057126 27.81068808 -19.58754665
-6.990745693 30.63002003 -16.02014502
9.601894182 34.02158141 -21.02649366
3.019679952 32.6383416 -20.17160445
7.851989679 31.90174045 -22.46894529
8.182011426 35.84956239 -18.75007551
-4.218347771 25.71840141 -23.07152809
-1.479888468 29.74400662 -20.9005437
-5.548525913 26.83101853 -21.39471283
-1.44725149 26.4528741 -23.74910323
-4.225258535 28.81825114 -20.26579932
-4.521359856 34.43039919 -12.23643724
-1.53761596 32.94063148 -17.28319795
-5.797496586 32.58131944 -14.19200413
-1.572150688 35.84247917 -12.71896624
-4.333166851 31.8177192 -16.67628709
4.540307588 27.6813244 -24.83243197
1.522749706 30.60546677 -21.50587524
6.156348148 29.77026581 -23.73843121
1.483500435 27.1154326 -24.34394107
4.59249188 31.32295533 -22.02717728
0 28.53533913 -22.68475734
5.043346389 38.4053548 -13.64912184
1.589200181 34.04572979 -17.86301782
6.642202955 37.32848015 -16.25980634
1.631166884 37.18795248 -13.1964173
4.767317333 35.00561355 -18.34712468
0 35.10129846 -15.36363128
0 -15.72122134 -29.87759587
0 -11.24534813 -31.19513902
0 -2.250162648 -32.4663895
0 -6.750072399 -32.04787487
0 15.72122134 -29.87759587
0 11.24534813 -31.19513902
0 2.250162648 -32.4663895
0 6.750072399 -32.04787487
31.23038023 44.72320486 -2.218692295
36.29555081 41.1869946 -6.699851995
29.6570483 44.44909393 -5.723015717
40.34489683 28.48480009 -14.05429204
39.36879211 35.47750676 -10.78004988
25.72235986 42.36093313 -12.10227571
34.3363021 40.56997503 -10.14170615
27.78458299 43.62548209 -9.059543423
32.21791107 42.7934605 -7.983514355
33.08061609 2.529866866 -19.47862196
35.64044292 8.068256611 -18.9452053
39.6664055 21.20465663 -16.4157287
37.93648756 14.30483456 -17.98207813
16.85960245 34.6237684 -21.39866569
24.49856571 34.00733995 -21.01769196
19.01770754 36.74594411 -19.54565446
37.90888482 27.54173077 -17.02172572
31.84241483 31.71453983 -19.60066355
37.73360814 31.10641053 -15.67346056
23.46772369 40.66345197 -14.97088678
26.99443084 35.98687259 -18.86537836
21.24437156 38.79471772 -17.39691265
27.82877321 40.3366131 -14.31079746
23.0198808 36.57571842 -19.32931265
36.01037361 37.70629465 -12.26020654
30.97603391 34.87070893 -18.08937343
37.11543574 34.55682609 -14.07183384
32.09507708 39.37167617 -13.4058949
34.55343568 33.2598904 -17.03420401
29.59859183 37.79560193 -16.33555087
18.79461923 -26.9146773 -1.335221555
21.36906875 -24.24891481 -3.944549531
18.17652172 -27.24242524 -3.507581686
25.78039692 -18.20179279 -8.980695349
23.69244859 -21.35064247 -6.487518762
16.69469973 -27.49370831 -7.854794824
20.6812589 -24.43589164 -6.108498524
17.47367388 -27.43598661 -5.697530437
19.46913357 -25.85988883 -4.824400534
31.46222233 -2.406098894 -18.52567477
30.53246961 -6.911917462 -16.22998643
27.63312128 -14.77196739 -11.4358187
29.23158372 -11.0224482 -13.85591171
12.79578534 -26.27809934 -16.24075855
17.10845955 -23.74886787 -14.67760754
13.86584898 -26.79154208 -14.25077615
24.90730165 -18.09576302 -11.1837966
21.11899139 -21.03418026 -12.99983833
23.9608861 -19.75260773 -9.952666119
15.81024698 -27.39503956 -10.08591292
18.09751591 -24.1261986 -12.64766378
14.87695643 -27.1670698 -12.18266733
17.90608138 -25.95409691 -9.208106371
16.03232214 -25.47335954 -13.46200572
21.86635999 -22.8961638 -7.444690594
20.15525333 -22.68941124 -11.77025778
22.94214289 -21.36059098 -8.698214539
19.93011934 -24.44867799 -8.32467498
22.07949773 -21.25292782 -10.88478357
19.06387629 -24.34341078 -10.52141003
2.211040004 -17.02382562 -28.91162634
6.449591785 -15.14439195 -28.49020785
3.583497801 -18.56992408 -27.83204489
2.193570796 -14.84329214 -29.75979409
14.42535805 -11.16748873 -26.98473791
10.50000068 -13.19916227 -27.84605048
6.308827725 -21.35950414 -25.23727067
7.80759142 -16.5943729 -27.32848482
4.962103127 -20.02483996 -26.59800618
5.733272208 -17.5832898 -27.60809815
2.170451437 -10.41074068 -31.09632899
6.430417568 -13.00901725 -29.34762557
2.182397321 -12.62446928 -30.49012094
4.345856686 -13.93207089 -29.58183057
29.82193357 -1.479448855 -20.82476709
25.95795881 -4.222558209 -22.87514353
29.57765928 -3.808253307 -19.73462207
18.28147404 -9.020009771 -25.89325471
22.11473356 -6.71969235 -24.54034761
28.73951513 -8.21071469 -17.45117719
25.77830126 -6.444074869 -21.8174041
29.20834947 -6.065590514 -18.60247202
27.67086213 -5.16225429 -20.83256098
11.44271322 -25.4839318 -18.51469891
13.137033 -21.3418721 -21.25616591
10.24510843 -24.66493632 -20.33300479
13.70854699 -24.32198453 -17.76251939
15.82256856 -12.46630138 -25.60145372
14.59005834 -17.00641078 -23.6072103
13.89001985 -13.51483706 -26.11331813
7.700054072 -22.61640724 -23.68153479
11.8905967 -20.3613203 -22.9213874
8.986677624 -23.70298425 -22.06898257
8.478780684 -20.29906408 -24.90126993
11.10512574 -22.52645605 -21.68315377
18.00497727 -21.82468116 -16.18052533
15.36989733 -20.21094723 -20.50701647
15.90612991 -23.09402127 -16.98013767
14.57151721 -22.28529533 -19.19147096
9.928424567 -15.56337496 -26.96727466
12.6344399 -18.07859389 -24.10097323
11.91561834 -14.55084752 -26.57155664
9.223943592 -17.93687843 -25.99873592
13.29024567 -15.82776774 -25.14834812
10.59700732 -19.20085197 -24.5183204
2.170550665 -1.341474085 -32.42160105
6.463707274 -3.994790788 -31.650212
2.169967848 -3.590677619 -32.25698396
14.52315487 -8.975803335 -27.86059162
10.61307483 -6.559240972 -30.12073691
12.56184922 -10.0147965 -28.31092056
2.176528157 -8.086777418 -31.60620783
6.449646911 -6.236410129 -31.2564607
2.17048725 -5.852626617 -31.98432531
4.328852494 -9.467173836 -30.94957791
4.333516982 -4.928392191 -31.85108279
8.557280201 -12.00604361 -29.05227123
8.591195134 -7.560320475 -30.44386785
10.56438253 -11.03088424 -28.7093694
6.470084609 -10.78223402 -30.09188563
10.60407328 -8.804831362 -29.47116557
6.47842175 -8.510717674 -30.7313588
25.94880858 -16.03724567 -12.6354414
23.89313229 -14.76676785 -17.21238627
26.7502438 -14.22880905 -13.84447523
24.05941852 -17.57076555 -13.56055748
18.09969517 -11.1862268 -24.91271392
21.25148024 -13.1341371 -21.33716754
20.00107867 -10.07786216 -24.26229359
17.49914418 -13.50528239 -23.96134831
28.13839719 -10.35959167 -16.23925413
24.49740642 -12.84226185 -18.37596589
27.48730033 -12.32626994 -15.05231784
26.88397741 -9.53801338 -18.54761847
25.69766913 -13.58054749 -16.17349722
20.13697966 -20.43196536 -15.31364693
21.88431848 -16.22473964 -18.05417701
22.11195981 -19.04219928 -14.45817963
18.92616274 -19.75631681 -17.58294525
23.04219559 -16.94203227 -15.8704347
23.80533659 -7.740308243 -22.73464079
23.10390984 -11.98528122 -20.52345699
21.91266182 -8.923022484 -23.53508941
25.42763872 -8.658007109 -20.72815039
21.62002778 -11.07279548 -22.46087496
24.99472062 -10.80291117 -19.57393177
16.15188176 -17.97310397 -21.78604603
20.51657173 -15.37705894 -20.22036453
16.84654533 -15.7809874 -22.91232754
17.58603628 -18.92948991 -19.75978991
19.07707936 -14.48466305 -22.15246285
19.7688913 -17.59413643 -18.93820886
2.265453719 17.44278213 -29.62314174
6.887661764 16.17303123 -30.42532331
3.744013609 19.40172768 -29.07872716
2.240034793 15.15770127 -30.39016307
16.15963778 12.51009315 -30.22896131
11.55837117 14.52960065 -30.65285393
6.924467716 23.44384778 -27.70002188
8.535897126 18.14232486 -29.87773341
5.30559122 21.41100504 -28.43918081
6.136534503 18.82004911 -29.54997438
2.202047842 10.56229531 -31.54901462
6.798982092 13.75463947 -31.02970819
2.221322692 12.84964008 -31.03394459
4.521892206 14.49641057 -30.7800875
30.68774449 1.522401234 -21.42936607
27.96204471 4.548561089 -24.64122047
31.93206964 4.111393962 -21.30551712
28.70271698 0 -22.54354218
20.54126721 10.13498313 -29.09394849
24.5322179 7.454259238 -27.22298929
34.29004491 9.796469225 -20.82156387
28.99291202 7.247665152 -24.53808228
33.14403076 6.882898972 -21.10906353
30.55945509 5.701147921 -23.00729585
24.74016037 -2.811671753 -24.44886718
25.90216492 2.94373134 -25.59719016
26.70709362 -1.44842709 -23.55295925
27.38326385 1.485098369 -24.1492731
14.39006574 32.04794588 -23.28361547
16.33876414 26.54327003 -26.43667571
12.41146961 29.88041656 -24.63248415
18.00656359 31.94761351 -23.33157082
18.25466101 14.38250085 -29.53666197
17.60089843 20.51589526 -28.47885189
15.89845301 15.46902051 -29.88918416
8.716267269 25.60120336 -26.80690092
14.26583861 24.42865709 -27.5001181
10.5079432 27.71542751 -25.80482188
9.582017063 22.94032428 -28.1413569
13.42188541 27.22594222 -26.20670959
25.34846683 30.7260708 -22.77989599
19.70641561 25.9133368 -26.29294008
21.70944243 31.51981833 -23.17529929
18.96173167 28.9995739 -24.97361925
11.0646535 17.34447899 -30.05346396
14.97331954 21.42529193 -28.56253038
13.47984957 16.46102034 -30.05975655
10.36866289 20.1628993 -29.22525769
15.50456228 18.4648664 -29.33836886
12.29022273 22.26881046 -28.43591683
2.174546175 1.343943447 -32.48128215
6.571571155 4.061454333 -32.17837866
2.1807065 3.608447024 -32.41661607
4.354918988 0 -32.32334124
15.88741946 9.818965219 -30.47773774
11.11195666 6.867566896 -31.53660257
13.69491579 10.9181214 -30.86453804
2.201089929 8.178035406 -31.96287882
6.619696344 6.400837425 -32.08055905
2.188081607 5.900069051 -32.24359595
4.445228065 9.721686495 -31.78161707
4.393072242 4.996122786 -32.28881028
8.683362539 -2.665363753 -31.4167008
8.812907212 2.705127574 -31.88539783
6.54329534 -1.347107216 -31.96580434
6.579963249 1.354656257 -32.1449372
9.171964898 12.86845914 -31.13914768
8.966196182 7.890324399 -31.77272631
11.43810392 11.94318739 -31.08376184
6.774913804 11.29022424 -31.5096237
11.2894093 9.373883265 -31.37587245
6.716081987 8.822932479 -31.85873555
37.63948243 23.26247946 -18.32806594
32.06851083 19.81942966 -23.10185157
37.09344095 19.73049263 -19.19755306
35.20823624 25.71282694 -19.84434125
20.97385353 12.96255436 -28.8687521
26.39871256 16.31530162 -26.50515382
23.1595461 11.6693063 -28.09367016
20.8855238 16.11878236 -28.59827345
35.38250005 13.02662161 -20.41997652
31.53896281 16.53365307 -23.65796995
36.31918332 16.28679617 -19.88874442
32.68150975 11.59488689 -22.54741419
34.34121434 18.14843556 -21.61353747
29.02848435 29.4537213 -22.07540394
29.44746311 21.83195343 -24.29363801
32.28511538 27.80303537 -21.11002379
26.03312327 27.17500836 -24.18551438
32.33642706 23.77572001 -22.27188604
27.16992747 8.8343054 -25.94790202
28.63822289 14.85623677 -25.43964808
25.24441743 10.27974174 -27.11353036
29.91676372 10.18653583 -24.38760375
25.87514909 13.25207519 -26.88148665
30.77719669 13.30214196 -24.10231974
20.28580105 22.57314762 -27.36197564
26.43826377 19.81533492 -26.05656238
20.66194518 19.35506005 -28.10150369
23.08659072 24.85024931 -25.94025027
23.63348987 17.94421101 -27.44340455
26.38347452 23.48105634 -25.27484942
16.84150344 -7.690789367 -27.25012499
17.63699347 -2.640249849 -28.53725489
18.78408641 -6.564280198 -26.66992338
14.93592225 -6.517621031 -28.55701974
18.41198611 8.407961172 -29.79121933
18.17875222 2.721350885 -29.41383896
20.44013287 7.143001608 -29.0212026
15.94663619 6.958668483 -30.48947342
22.69266788 -4.149077798 -25.29607659
19.6361332 -1.390360341 -27.94459725
20.74492935 -5.380010424 -26.01612783
23.28432837 -1.418928479 -25.93518588
19.2393784 -4.011257909 -27.35866618
10.88717048 -4.022806198 -30.63388619
15.5666074 -1.384897868 -29.66892351
12.93435109 -5.283739745 -29.69406017
11.02438443 -1.362688856 -31.06709003
15.28650758 -3.972046508 -29.16607294
24.1728743 4.419715505 -26.9460992
19.98309777 1.414927591 -28.43836988
22.37929316 5.803867945 -28.06577654
23.7850259 1.449440589 -26.49288646
20.24983666 4.221930447 -28.79555201
21.68371043 0 -27.27611415
11.20083895 4.138706604 -31.51647403
15.78259268 1.404113202 -30.08057716
13.5304585 5.527252266 -31.06257486
11.13030535 1.375781402 -31.36557878
15.90757773 4.133425393 -30.35105109
13.40290114 0 -30.62161702
31.23038023 44.72320486 2.218692295
36.29555081 41.1869946 6.699851995
29.6570483 44.44909393 5.723015717
34.30456551 43.67699749 0
40.34489683 28.48480009 14.05429204
39.36879211 35.47750676 10.78004988
25.72235986 42.36093313 12.10227571
34.3363021 40.56997503 10.14170615
27.78458299 43.62548209 9.059543423
32.21791107 42.7934605 7.983514355
39.20633355 39.67345288 -4.508811791
39.20633355 39.67345288 4.508811791
37.01766808 41.9749517 -2.276461003
37.01766808 41.9749517 2.276461003
33.08061609 2.529866866 19.47862196
35.64044292 8.068256611 18.9452053
39.6664055 21.20465663 16.4157287
37.93648756 14.30483456 17.98207813
16.85960245 34.6237684 21.39866569
24.49856571 34.00733995 21.01769196
19.01770754 36.74594411 19.54565446
37.90888482 27.54173077 17.02172572
31.84241483 31.71453983 19.60066355
37.73360814 31.10641053 15.67346056
23.46772369 40.66345197 14.97088678
26.99443084 35.98687259 18.86537836
21.24437156 38.79471772 17.39691265
27.82877321 40.3366131 14.31079746
23.0198808 36.57571842 19.32931265
36.01037361 37.70629465 12.26020654
30.97603391 34.87070893 18.08937343
37.11543574 34.55682609 14.07183384
32.09507708 39.37167617 13.4058949
34.55343568 33.2598904 17.03420401
29.59859183 37.79560193 16.33555087
42.37328966 26.18813322 -11.95899269
45.18842177 27.92798055 -4.180805905
42.39240341 29.85769992 -10.43406126
42.37328966 26.18813322 11.95899269
45.18842177 27.92798055 4.180805905
42.39240341 29.85769992 10.43406126
40.90375337 36.69404175 -6.709058394
44.67318821 31.39099363 -2.222677559
41.92081328 33.42712319 -8.669023074
41.68729024 37.42639669 -2.280734891
