-5.9087623 28.573014 22.783758
-1.4434509 26.383408 23.686737
-4.5409432 30.971369 21.779932
-5.5620912 42.355625 15.053033
-1.7001194 36.421973 19.109779
-6.9967443 39.320965 17.127707
-1.8693764 42.618743 15.123573
-4.9510156 36.354479 19.054092
4.3152123 26.308964 23.601312
1.5425052 31.00253 21.784884
5.8934094 28.498773 22.724559
1.4418347 26.353866 23.660215
4.5369667 30.944247 21.760859
0 28.66403 22.787063
5.628734 42.863113 15.233393
1.7019222 36.460594 19.130042
7.0660027 39.71019 17.297249
1.8766259 42.784018 15.182222
4.967834 36.477974 19.118817
0 39.548882 17.310312
0 -14.293336 27.163952
0 -10.061582 27.911315
0 -1.9839533 28.625397
0 -5.9798135 28.390853
0 14.293336 27.163952
0 10.061582 27.911315
0 1.9839533 28.625397
0 5.9798135 28.390853
-30.968192 -52.593396 -4.0221225
-25.515202 -48.000172 -10.866243
-26.394028 -52.918237 -3.9005612
-14.844911 -35.870735 -19.175587
-19.808924 -41.790554 -15.7581
-17.760416 -53.049419 -3.702726
-21.492875 -48.48674 -10.624028
-21.961312 -53.040097 -3.7964613
-24.05858 -51.083349 -7.5046374
-1.2997026 -18.294653 -26.198705
-4.0722032 -22.060615 -25.033659
-10.687692 -30.680579 -21.66148
-7.1567101 -26.136338 -23.552974
-2.1547395 -52.077119 -3.4864418
-6.1627061 -48.826326 -9.971468
-5.8416907 -52.479042 -3.5303311
-11.746847 -36.461817 -19.006797
-9.3710785 -43.032996 -15.162723
-13.902729 -39.301752 -17.438595
-13.54834 -52.952074 -3.6464887
-9.7591219 -48.912051 -10.092808
-9.6560388 -52.769791 -3.5810091
-15.703155 -51.335912 -7.1802463
-7.9129072 -51.139328 -6.95779
-18.756382 -45.386767 -13.368569
-11.411333 -45.951109 -12.967306
-16.259742 -42.318178 -15.572109
-17.452186 -48.7069 -10.472516
-12.763145 -42.720268 -15.371257
-13.526148 -48.841582 -10.296205
25.511889 -43.326936 -3.3134625
22.565872 -42.45178 -9.610202
22.464428 -45.039654 -3.3198371
14.57919 -35.228656 -18.832348
18.723669 -39.50101 -14.894774
16.007258 -47.812829 -3.3372243
19.475121 -43.9348 -9.6266429
19.265463 -46.529187 -3.3304287
21.086905 -44.773621 -6.5776774
1.3017986 -18.324157 -26.240956
4.0896288 -22.155016 -25.140782
0 -20.192596 -25.709463
10.675973 -30.64694 -21.637729
7.188505 -26.252453 -23.657612
-2.774528 -24.125884 -24.413329
2.7818191 -24.189283 -24.477484
-1.36117 -22.134067 -25.098188
1.363205 -22.167158 -25.13571
2.1282949 -51.437987 -3.4436534
6.0099288 -47.615891 -9.7242691
5.6500481 -50.757414 -3.414515
0 -50.436497 -6.7953018
11.60591 -36.024356 -18.778758
9.1730745 -42.12374 -14.842346
13.572945 -38.369483 -17.024938
12.529988 -48.971969 -3.372403
9.3737114 -46.9804 -9.6942195
9.1369096 -49.932775 -3.3884864
14.478397 -47.332 -6.6202275
7.6047075 -49.147503 -6.6867911
-3.9002157 -45.971928 -12.706328
3.8542949 -45.430658 -12.556725
-2.0450235 -48.526813 -9.9332795
2.028233 -48.128388 -9.8517233
17.551593 -42.471412 -12.509858
11.003321 -44.30813 -12.503661
15.592869 -40.582553 -14.933439
16.171567 -45.13285 -9.7040564
12.380089 -41.438119 -14.909924
12.777004 -46.136498 -9.725951
-9.4004041 -33.307659 -20.585265
-3.0928904 -33.42964 -20.660654
-7.59053 -30.83946 -21.720763
-8.325589 -36.478649 -19.079101
9.3684846 -33.194561 -20.515367
3.0916725 -33.416476 -20.652518
7.5952521 -30.858645 -21.734275
8.2694759 -36.232789 -18.950511
-4.3152123 -26.308964 -23.601312
-1.5425052 -31.00253 -21.784884
-5.8934094 -28.498773 -22.724559
-1.4418347 -26.353866 -23.660215
-4.5369667 -30.944247 -21.760859
-5.628734 -42.863113 -15.233393
-1.7019222 -36.460594 -19.130042
-7.0660027 -39.71019 -17.297249
-1.8766259 -42.784018 -15.182222
-4.967834 -36.477974 -19.118817
4.3286886 -26.391127 -23.675018
1.5430871 -31.014225 -21.793102
5.9087623 -28.573014 -22.783758
1.4434509 -26.383408 -23.686737
4.5409432 -30.971369 -21.779932
0 -28.66403 -22.787063
5.5620912 -42.355625 -15.053033
1.7001194 -36.421973 -19.109779
6.9967443 -39.320965 -17.127707
1.8693764 -42.618743 -15.123573
4.9510156 -36.354479 -19.054092
0 -39.548882 -17.310312
-25.511889 43.326936 -3.3134625
-22.565872 42.45178 -9.610202
-22.464428 45.039654 -3.3198371
-14.57919 35.228656 -18.832348
-18.723669 39.50101 -14.894774
-16.007258 47.812829 -3.3372243
-19.475121 43.9348 -9.6266429
-19.265463 46.529187 -3.3304287
-21.086905 44.773621 -6.5776774
-1.3017986 18.324157 -26.240956
-4.0896288 22.155016 -25.140782
-10.675973 30.64694 -21.637729
-7.188505 26.252453 -23.657612
-2.1282949 51.437987 -3.4436534
-6.0099288 47.615891 -9.7242691
-5.6500481 50.757414 -3.414515
-11.60591 36.024356 -18.778758
-9.1730745 42.12374 -14.842346
-13.572945 38.369483 -17.024938
-12.529988 48.971969 -3.372403
-9.3737114 46.9804 -9.6942195
-9.1369096 49.932775 -3.3884864
-14.478397 47.332 -6.6202275
-7.6047075 49.147503 -6.6867911
-17.551593 42.471412 -12.509858
-11.003321 44.30813 -12.503661
-15.592869 40.582553 -14.933439
-16.171567 45.13285 -9.7040564
-12.380089 41.438119 -14.909924
-12.777004 46.136498 -9.725951
30.968192 52.593396 -4.0221225
25.515202 48.000172 -10.866243
26.394028 52.918237 -3.9005612
14.844911 35.870735 -19.175587
19.808924 41.790554 -15.7581
17.760416 53.049419 -3.702726
21.492875 48.48674 -10.624028
21.961312 53.040097 -3.7964613
24.05858 51.083349 -7.5046374
1.2997026 18.294653 -26.198705
4.0722032 22.060615 -25.033659
0 20.192596 -25.709463
10.687692 30.680579 -21.66148
7.1567101 26.136338 -23.552974
-2.7818191 24.189283 -24.477484
2.774528 24.125884 -24.413329
-1.363205 22.167158 -25.13571
1.36117 22.134067 -25.098188
2.1547395 52.077119 -3.4864418
6.1627061 48.826326 -9.971468
5.8416907 52.479042 -3.5303311
0 50.436497 -6.7953018
11.746847 36.461817 -19.006797
9.3710785 43.032996 -15.162723
13.902729 39.301752 -17.438595
13.54834 52.952074 -3.6464887
9.7591219 48.912051 -10.092808
9.6560388 52.769791 -3.5810091
15.703155 51.335912 -7.1802463
7.9129072 51.139328 -6.95779
-3.8542949 45.430658 -12.556725
3.9002157 45.971928 -12.706328
-2.028233 48.128388 -9.8517233
2.0450235 48.526813 -9.9332795
18.756382 45.386767 -13.368569
11.411333 45.951109 -12.967306
16.259742 42.318178 -15.572109
17.452186 48.7069 -10.472516
12.763145 42.720268 -15.371257
13.526148 48.841582 -10.296205
-9.3684846 33.194561 -20.515367
-3.0916725 33.416476 -20.652518
-7.5952521 30.858645 -21.734275
-8.2694759 36.232789 -18.950511
9.4004041 33.307659 -20.585265
3.0928904 33.42964 -20.660654
7.59053 30.83946 -21.720763
8.325589 36.478649 -19.079101
-4.3286886 26.391127 -23.675018
-1.5430871 31.014225 -21.793102
-5.9087623 28.573014 -22.783758
-1.4434509 26.383408 -23.686737
-4.5409432 30.971369 -21.779932
-5.5620912 42.355625 -15.053033
-1.7001194 36.421973 -19.109779
-6.9967443 39.320965 -17.127707
-1.8693764 42.618743 -15.123573
-4.9510156 36.354479 -19.054092
4.3152123 26.308964 -23.601312
1.5425052 31.00253 -21.784884
5.8934094 28.498773 -22.724559
1.4418347 26.353866 -23.660215
4.5369667 30.944247 -21.760859
0 28.66403 -22.787063
5.628734 42.863113 -15.233393
1.7019222 36.460594 -19.130042
7.0660027 39.71019 -17.297249
1.8766259 42.784018 -15.182222
4.967834 36.477974 -19.118817
0 39.548882 -17.310312
0 -14.293336 -27.163952
0 -10.061582 -27.911315
0 -1.9839533 -28.625397
0 -5.9798135 -28.390853
0 14.293336 -27.163952
0 10.061582 -27.911315
0 1.9839533 -28.625397
0 5.9798135 -28.390853
36.450104 52.198067 -2.5895159
40.401915 45.846761 -7.457852
33.864657 50.755331 -6.5349714
38.055425 26.868359 -13.256746
39.901435 35.957502 -10.925899
27.43023 45.173543 -12.905822
36.969389 43.681093 -10.919425
30.707324 48.214573 -10.012543
35.93376 47.729039 -8.904292
31.532942 2.4115073 -18.567316
32.978151 7.465569 -17.530025
36.195579 19.34924 -14.979346
34.512519 13.013747 -16.3591
16.065812 32.9936 -20.391166
23.181219 32.178684 -19.88752
18.496504 35.738877 -19.009982
35.31832 25.659622 -15.858519
30.11683 29.995885 -18.538476
36.063338 29.729492 -14.979678
24.140463 41.829133 -15.400051
26.19414 34.919988 -18.306086
21.199513 38.712801 -17.360178
28.757914 41.683363 -14.788603
22.321415 35.465943 -18.742825
37.104051 38.85148 -12.632564
30.071781 33.852762 -17.561308
36.716438 34.185334 -13.920559
33.278884 40.823876 -13.900363
33.390161 32.140165 -16.460731
29.616377 37.818312 -16.345366
28.793919 -41.234091 -2.0455994
32.135182 -36.465946 -5.9318831
27.582213 -41.339393 -5.3226281
33.755432 -23.832425 -11.758828
33.620158 -30.297079 -9.2059462
24.289819 -40.00175 -11.428271
30.545399 -36.090843 -9.0220101
26.062881 -40.922182 -8.4981591
29.293732 -38.909418 -7.2589105
31.240833 -2.3891679 -18.395315
32.000405 -7.2442276 -17.010289
33.318055 -17.810989 -13.788498
32.694541 -12.328237 -15.49737
15.821905 -32.492697 -20.081591
22.145319 -30.740714 -18.998806
17.941057 -34.665644 -18.439115
31.815333 -23.114616 -14.285618
27.590456 -27.479657 -16.983362
31.872698 -26.274859 -13.239006
22.231215 -38.520905 -14.182075
24.357008 -32.470865 -17.022184
20.113581 -36.729761 -16.470913
25.615944 -37.129212 -13.172862
21.254042 -33.77002 -17.846574
31.35345 -32.830052 -10.674696
27.257761 -30.684931 -15.917978
31.751577 -29.562733 -12.038197
28.691895 -35.196924 -11.984409
29.716799 -28.604318 -14.649832
26.595503 -33.96084 -14.678137
2.0540188 -15.814847 -26.858413
6.1352172 -14.406204 -27.1015
3.4022706 -17.630793 -26.424503
2.0137045 -13.626187 -27.31958
14.347873 -11.107503 -26.83979
10.230813 -12.860777 -27.132164
6.3298874 -21.430805 -25.321516
7.6159909 -16.187142 -26.657836
4.8343776 -19.509396 -25.913368
5.5169701 -16.919916 -26.566513
1.9557517 -9.3809164 -28.020298
6.0289724 -12.196876 -27.51548
1.9832122 -11.472247 -27.70732
4.031186 -12.923291 -27.439897
29.228001 -1.4499842 -20.410022
25.898607 -4.2129035 -22.82284
29.663076 -3.8192511 -19.791613
18.413999 -9.0853972 -26.080959
22.297872 -6.7753402 -24.743574
30.427153 -8.6928631 -18.475943
26.342238 -6.585048 -22.29469
30.060819 -6.2426197 -19.1454
28.028402 -5.2289566 -21.101742
13.410456 -29.866268 -21.698573
14.707161 -23.892636 -23.796686
11.501003 -27.688482 -22.825522
16.524326 -29.317798 -21.410997
16.194284 -12.759169 -26.202902
15.605215 -18.189694 -25.249768
14.082893 -13.7025 -26.47592
7.9989977 -23.494457 -24.600937
12.810912 -21.937257 -24.69547
9.6867735 -25.549536 -23.788239
8.6584829 -20.729289 -25.429036
12.211516 -24.77074 -23.843421
22.528207 -27.3075 -20.245414
17.570851 -23.105135 -23.443601
19.615644 -28.479843 -20.940124
17.105477 -26.160667 -22.528833
9.8237358 -15.399269 -26.682922
13.330005 -19.073877 -25.427807
11.941807 -14.582828 -26.629957
9.2677193 -18.022005 -26.122123
13.744075 -16.368248 -26.007103
11.009068 -19.947469 -25.471706
1.9168451 -1.1846754 -28.631991
5.8084303 -3.5898074 -28.441581
1.9222154 -3.180718 -28.574096
14.160612 -8.7517398 -27.165106
9.8658297 -6.0974181 -27.999997
12.148405 -9.6851824 -27.379131
1.947174 -7.234624 -28.275668
5.843622 -5.6504214 -28.319525
1.9309951 -5.2068462 -28.455166
3.9300275 -8.5949459 -28.098137
3.8740147 -4.4058126 -28.473769
8.1123607 -11.381812 -27.541754
7.9273538 -6.9761348 -28.091471
10.119271 -10.566117 -27.499751
5.9895212 -9.9813871 -27.856821
9.9986407 -8.3021253 -27.788529
5.9289388 -7.7888606 -28.124804
31.608515 -19.535137 -15.391363
27.536059 -17.018221 -19.836716
31.365646 -16.683802 -16.233157
29.772872 -21.743342 -16.780819
18.666854 -11.53675 -25.69336
23.204048 -14.34089 -23.297608
20.685866 -10.422903 -25.092975
18.488768 -14.269042 -25.316427
30.768896 -11.328051 -17.75737
27.324917 -14.324526 -20.496935
31.081803 -13.938171 -17.020703
28.780462 -10.210856 -19.856029
29.365613 -15.51896 -18.482013
25.321476 -25.692409 -19.256321
25.469521 -18.88276 -21.011906
27.680095 -23.837321 -18.098974
22.866973 -23.869982 -21.244071
27.645141 -20.3264 -19.040738
24.503919 -7.9674525 -23.401803
25.138368 -13.040668 -22.330688
22.646361 -9.221791 -24.323112
26.689337 -9.0876103 -21.756664
22.948506 -11.753182 -23.84102
27.016653 -11.676806 -21.157352
17.961549 -19.986822 -24.226968
23.11494 -17.324522 -22.781219
18.256249 -17.101526 -24.82961
20.381939 -21.938981 -22.901285
20.821651 -15.809265 -24.178274
23.051252 -20.515408 -22.082646
2.0488009 15.774672 -26.790183
6.0938646 14.309103 -26.918831
3.3882745 17.558264 -26.315799
2.0088724 13.593489 -27.254023
14.252127 11.033381 -26.660683
10.143209 12.750652 -26.899837
6.2900897 21.296064 -25.162313
7.5552679 16.058081 -26.445291
4.8079913 19.402913 -25.771931
5.4821024 16.812981 -26.398611
1.9520586 9.3632021 -27.967387
5.991399 12.120863 -27.343999
1.9788904 11.447247 -27.64694
4.0128849 12.864621 -27.315324
29.369486 1.4570032 -20.508821
26.140736 4.2522904 -23.036214
30.062979 3.8707404 -20.058434
27.719597 0 -21.771385
18.398858 9.0779268 -26.059514
22.438509 6.8180735 -24.899636
31.451361 8.9854735 -19.097861
26.762465 6.6900966 -22.650348
30.756475 6.3870841 -19.588456
28.471737 5.3116648 -21.435515
24.254141 -2.7564366 -23.968571
24.360062 2.7684743 -24.073244
26.007239 -1.4104713 -22.935758
26.088637 1.4148858 -23.007543
13.461595 29.98016 -21.781319
14.682874 23.853181 -23.75739
11.479509 27.636737 -22.782865
16.706422 29.640875 -21.646943
16.119356 12.700134 -26.081666
15.538465 18.111889 -25.141764
13.979563 13.601962 -26.28166
7.9487359 23.346829 -24.446356
12.734066 21.805668 -24.547336
9.6383681 25.421863 -23.669368
8.5916379 20.569256 -25.232719
12.15939 24.665003 -23.741642
23.428495 28.398783 -21.054476
17.658396 23.220254 -23.560406
20.068953 29.138001 -21.424041
17.235 26.358755 -22.69942
9.7364458 15.262437 -26.445828
13.235486 18.93863 -25.247506
11.837569 14.455538 -26.397509
9.1879632 17.866911 -25.897321
13.640953 16.245436 -25.811971
10.919645 19.785443 -25.264807
1.9163294 1.1843567 -28.624287
5.7954433 3.5817809 -28.377988
1.9208429 3.1784469 -28.553694
3.851801 0 -28.589069
14.076365 8.699672 -27.003489
9.8159396 6.0665843 -27.858405
12.060052 9.6147443 -27.180009
1.9441824 7.2235089 -28.232226
5.8236077 5.6310689 -28.222532
1.9287894 5.2008986 -28.422663
3.9164894 8.5653383 -28.001346
3.8666331 4.3974178 -28.419515
7.8372534 -2.40565 -28.355449
7.822463 2.4011101 -28.301937
5.834216 -1.2011248 -28.501756
5.8297459 1.2002045 -28.479918
8.0525527 11.2979 -27.338703
7.8867773 6.9404271 -27.947684
10.040959 10.484348 -27.286934
5.9565035 9.9263639 -27.703258
9.9332665 8.2478434 -27.606839
5.9019421 7.753395 -27.996742
34.402636 21.261998 -16.751925
28.960986 17.898874 -20.86322
33.642854 17.895079 -17.411716
32.366665 23.637607 -18.242753
18.670172 11.538801 -25.697927
23.650811 14.617005 -23.746173
20.790365 10.475557 -25.219737
18.502376 14.279545 -25.33506
32.174961 11.845716 -18.568839
28.466345 14.922896 -21.353142
32.897073 14.752202 -18.014763
29.775677 10.563943 -20.542641
31.050545 16.409403 -19.542469
26.848737 27.242043 -20.417763
26.552413 19.685602 -21.905272
29.818102 25.678513 -19.496936
23.65445 24.692 -21.975659
29.411341 21.625018 -20.257217
24.842535 8.0775533 -23.725189
25.807121 13.387587 -22.92475
22.871262 9.3133725 -24.564665
27.318176 9.3017273 -22.269282
23.276154 11.920988 -24.181412
27.886454 12.05274 -21.838513
18.015275 20.046606 -24.299436
23.661299 17.734015 -23.31969
18.286399 17.129769 -24.870616
20.696316 22.277374 -23.254522
21.030466 15.967812 -24.420751
23.718566 21.109311 -22.721919
16.541768 -7.553913 -26.765142
16.6929 -2.4989195 -27.00968
18.516245 -6.4706804 -26.289638
14.310443 -6.2446793 -27.361123
16.485713 7.528315 -26.674443
16.672363 2.4958451 -26.97645
18.502618 6.4659183 -26.27029
14.245825 6.2164817 -27.237575
22.348544 -4.086159 -24.912474
18.612085 -1.3178514 -26.487253
20.468398 -5.3082945 -25.669331
22.435943 -1.3672285 -24.990214
18.581985 -3.8741966 -26.423844
9.9947575 -3.6930599 -28.12285
14.442133 -1.284858 -27.525751
12.11155 -4.9476219 -27.805113
9.9983929 -1.2358693 -28.175811
14.40312 -3.742507 -27.480603
22.432813 4.1015665 -25.00641
18.608728 1.3176137 -26.482475
20.506856 5.3182682 -25.717561
22.46458 1.3689737 -25.022111
18.572689 3.8722584 -26.410624
20.534382 0 -25.830365
9.9627264 3.6812244 -28.032722
14.427862 1.2835883 -27.49855
12.060322 4.9266948 -27.687505
9.9874241 1.2345135 -28.1449
14.362518 3.7319569 -27.403135
12.208911 0 -27.893706
36.450104 52.198067 2.5895159
40.401915 45.846761 7.457852
33.864657 50.755331 6.5349714
40.181092 51.159063 0
38.055425 26.868359 13.256746
39.901435 35.957502 10.925899
27.43023 45.173543 12.905822
36.969389 43.681093 10.919425
30.707324 48.214573 10.012543
35.93376 47.729039 8.904292
43.373591 43.89036 -4.9880552
43.373591 43.89036 4.9880552
42.615252 48.322146 -2.6206934
42.615252 48.322146 2.6206934
31.532942 2.4115073 18.567316
32.978151 7.465569 17.530025
36.195579 19.34924 14.979346
34.512519 13.013747 16.3591
16.065812 32.9936 20.391166
23.181219 32.178684 19.88752
18.496504 35.738877 19.009982
35.31832 25.659622 15.858519
30.11683 29.995885 18.538476
36.063338 29.729492 14.979678
24.140463 41.829133 15.400051
26.19414 34.919988 18.306086
21.199513 38.712801 17.360178
28.757914 41.683363 14.788603
22.321415 35.465943 18.742825
37.104051 38.85148 12.632564
30.071781 33.852762 17.561308
36.716438 34.185334 13.920559
33.278884 40.823876 13.900363
33.390161 32.140165 16.460731
29.616377 37.818312 16.345366
39.755095 24.57 -11.220061
44.182928 27.306551 -4.0877782
40.859551 28.778086 -10.05678
39.755095 24.57 11.220061
44.182928 27.306551 4.0877782
40.859551 28.778086 10.05678
42.938354 38.519247 -7.0427749
44.993543 31.616101 -2.2386166
41.975763 33.470939 -8.6803864
45.002406 40.402672 -2.4621067
43.371758 30.500232 -6.3590566
42.938354 38.519247 7.0427749
44.993543 31.616101 2.2386166
41.975763 33.470939 8.6803864
45.002406 40.402672 2.4621067
43.371758 30.500232 6.3590566
45.407107 36.097318 0
28.793919 -41.234091 2.0455994
32.135182 -36.465946 5.9318831
27.582213 -41.339393 5.3226281
30.988882 -39.455429 0
33.755432 -23.832425 11.758828
33.620158 -30.297079 9.2059462
24.289819 -40.00175 11.428271
30.545399 -36.090843 9.0220101
26.062881 -40.922182 8.4981591
29.293732 -38.909418 7.2589105
34.200016 -34.607488 -3.9330746
34.200016 -34.607488 3.9330746
32.835313 -37.232509 -2.0192603
32.835313 -37.232509 2.0192603
31.240833 -2.3891679 18.395315
32.000405 -7.2442276 17.010289
33.318055 -17.810989 13.788498
32.694541 -12.328237 15.49737
15.821905 -32.492697 20.081591
22.145319 -30.740714 18.998806
17.941057 -34.665644 18.439115
31.815333 -23.114616 14.285618
27.590456 -27.479657 16.983362
31.872698 -26.274859 13.239006
22.231215 -38.520905 14.182075
24.357008 -32.470865 17.022184
20.113581 -36.729761 16.470913
25.615944 -37.129212 13.172862
21.254042 -33.77002 17.846574
31.35345 -32.830052 10.674696
27.257761 -30.684931 15.917978
31.751577 -29.562733 12.038197
28.691895 -35.196924 11.984409
29.716799 -28.604318 14.649832
26.595503 -33.96084 14.678137
35.474004 -21.92414 -10.011811
38.479476 -23.781624 -3.5600982
35.599191 -25.073123 -8.7620448
35.474004 -21.92414 10.011811
38.479476 -23.781624 3.5600982
35.599191 -25.073123 8.7620448
35.106283 -31.493233 -5.7581539
38.087024 -26.763022 -1.8949884
35.514012 -28.318421 -7.3441273
35.959312 -32.28388 -1.967354
37.154398 -26.128011 -5.4474831
35.106283 -31.493233 5.7581539
38.087024 -26.763022 1.8949884
35.514012 -28.318421 7.3441273
35.959312 -32.28388 1.967354
37.154398 -26.128011 5.4474831
37.274621 -29.63223 0
2.0540188 -15.814847 26.858413
6.1352172 -14.406204 27.1015
3.4022706 -17.630793 26.424503
2.0137045 -13.626187 27.31958
14.347873 -11.107503 26.83979
10.230813 -12.860777 27.132164
6.3298874 -21.430805 25.321516
7.6159909 -16.187142 26.657836
4.8343776 -19.509396 25.913368
5.5169701 -16.919916 26.566513
1.9557517 -9.3809164 28.020298
6.0289724 -12.196876 27.51548
1.9832122 -11.472247 27.70732
4.031186 -12.923291 27.439897
29.228001 -1.4499842 20.410022
25.898607 -4.2129035 22.82284
29.663076 -3.8192511 19.791613
18.413999 -9.0853972 26.080959
22.297872 -6.7753402 24.743574
30.427153 -8.6928631 18.475943
26.342238 -6.585048 22.29469
30.060819 -6.2426197 19.1454
28.028402 -5.2289566 21.101742
13.410456 -29.866268 21.698573
14.707161 -23.892636 23.796686
11.501003 -27.688482 22.825522
16.524326 -29.317798 21.410997
16.194284 -12.759169 26.202902
15.605215 -18.189694 25.249768
14.082893 -13.7025 26.47592
7.9989977 -23.494457 24.600937
12.810912 -21.937257 24.69547
9.6867735 -25.549536 23.788239
8.6584829 -20.729289 25.429036
12.211516 -24.77074 23.843421
22.528207 -27.3075 20.245414
17.570851 -23.105135 23.443601
19.615644 -28.479843 20.940124
17.105477 -26.160667 22.528833
9.8237358 -15.399269 26.682922
13.330005 -19.073877 25.427807
11.941807 -14.582828 26.629957
9.2677193 -18.022005 26.122123
13.744075 -16.368248 26.007103
11.009068 -19.947469 25.471706
1.9168451 -1.1846754 28.631991
5.8084303 -3.5898074 28.441581
1.9222154 -3.180718 28.574096
14.160612 -8.7517398 27.165106
9.8658297 -6.0974181 27.999997
12.148405 -9.6851824 27.379131
1.947174 -7.234624 28.275668
5.843622 -5.6504214 28.319525
1.9309951 -5.2068462 28.455166
3.9300275 -8.5949459 28.098137
3.8740147 -4.4058126 28.473769
8.1123607 -11.381812 27.541754
7.9273538 -6.9761348 28.091471
10.119271 -10.566117 27.499751
5.9895212 -9.9813871 27.856821
9.9986407 -8.3021253 27.788529
5.9289388 -7.7888606 28.124804
31.608515 -19.535137 15.391363
27.536059 -17.018221 19.836716
31.365646 -16.683802 16.233157
29.772872 -21.743342 16.780819
18.666854 -11.53675 25.69336
23.204048 -14.34089 23.297608
20.685866 -10.422903 25.092975
18.488768 -14.269042 25.316427
30.768896 -11.328051 17.75737
27.324917 -14.324526 20.496935
31.081803 -13.938171 17.020703
28.780462 -10.210856 19.856029
29.365613 -15.51896 18.482013
25.321476 -25.692409 19.256321
25.469521 -18.88276 21.011906
27.680095 -23.837321 18.098974
22.866973 -23.869982 21.244071
27.645141 -20.3264 19.040738
24.503919 -7.9674525 23.401803
25.138368 -13.040668 22.330688
22.646361 -9.221791 24.323112
26.689337 -9.0876103 21.756664
22.948506 -11.753182 23.84102
27.016653 -11.676806 21.157352
17.961549 -19.986822 24.226968
23.11494 -17.324522 22.781219
18.256249 -17.101526 24.82961
20.381939 -21.938981 22.901285
20.821651 -15.809265 24.178274
23.051252 -20.515408 22.082646
2.0488009 15.774672 26.790183
6.0938646 14.309103 26.918831
3.3882745 17.558264 26.315799
2.0088724 13.593489 27.254023
14.252127 11.033381 26.660683
10.143209 12.750652 26.899837
6.2900897 21.296064 25.162313
7.5552679 16.058081 26.445291
4.8079913 19.402913 25.771931
5.4821024 16.812981 26.398611
1.9520586 9.3632021 27.967387
5.991399 12.120863 27.343999
1.9788904 11.447247 27.64694
4.0128849 12.864621 27.315324
29.369486 1.4570032 20.508821
26.140736 4.2522904 23.036214
30.062979 3.8707404 20.058434
27.719597 0 21.771385
18.398858 9.0779268 26.059514
22.438509 6.8180735 24.899636
31.451361 8.9854735 19.097861
26.762465 6.6900966 22.650348
30.756475 6.3870841 19.588456
28.471737 5.3116648 21.435515
24.254141 -2.7564366 23.968571
24.360062 2.7684743 24.073244
26.007239 -1.4104713 22.935758
26.088637 1.4148858 23.007543
13.461595 29.98016 21.781319
14.682874 23.853181 23.75739
11.479509 27.636737 22.782865
16.706422 29.640875 21.646943
16.119356 12.700134 26.081666
15.538465 18.111889 25.141764
13.979563 13.601962 26.28166
7.9487359 23.346829 24.446356
12.734066 21.805668 24.547336
9.6383681 25.421863 23.669368
8.5916379 20.569256 25.232719
12.15939 24.665003 23.741642
23.428495 28.398783 21.054476
17.658396 23.220254 23.560406
20.068953 29.138001 21.424041
17.235 26.358755 22.69942
9.7364458 15.262437 26.445828
13.235486 18.93863 25.247506
11.837569 14.455538 26.397509
9.1879632 17.866911 25.897321
13.640953 16.245436 25.811971
10.919645 19.785443 25.264807
1.9163294 1.1843567 28.624287
5.7954433 3.5817809 28.377988
1.9208429 3.1784469 28.553694
3.851801 0 28.589069
14.076365 8.699672 27.003489
9.8159396 6.0665843 27.858405
12.060052 9.6147443 27.180009
1.9441824 7.2235089 28.232226
5.8236077 5.6310689 28.222532
1.9287894 5.2008986 28.422663
3.9164894 8.5653383 28.001346
3.8666331 4.3974178 28.419515
7.8372534 -2.40565 28.355449
7.822463 2.4011101 28.301937
5.834216 -1.2011248 28.501756
5.8297459 1.2002045 28.479918
8.0525527 11.2979 27.338703
7.8867773 6.9404271 27.947684
10.040959 10.484348 27.286934
5.9565035 9.9263639 27.703258
9.9332665 8.2478434 27.606839
5.9019421 7.753395 27.996742
34.402636 21.261998 16.751925
28.960986 17.898874 20.86322
33.642854 17.895079 17.411716
32.366665 23.637607 18.242753
18.670172 11.538801 25.697927
23.650811 14.617005 23.746173
20.790365 10.475557 25.219737
18.502376 14.279545 25.33506
32.174961 11.845716 18.568839
28.466345 14.922896 21.353142
32.897073 14.752202 18.014763
29.775677 10.563943 20.542641
31.050545 16.409403 19.542469
26.848737 27.242043 20.417763
26.552413 19.685602 21.905272
29.818102 25.678513 19.496936
23.65445 24.692 21.975659
29.411341 21.625018 20.257217
24.842535 8.0775533 23.725189
25.807121 13.387587 22.92475
22.871262 9.3133725 24.564665
27.318176 9.3017273 22.269282
23.276154 11.920988 24.181412
27.886454 12.05274 21.838513
18.015275 20.046606 24.299436
23.661299 17.734015 23.31969
18.286399 17.129769 24.870616
20.696316 22.277374 23.254522
21.030466 15.967812 24.420751
23.718566 21.109311 22.721919
16.541768 -7.553913 26.765142
16.6929 -2.4989195 27.00968
18.516245 -6.4706804 26.289638
14.310443 -6.2446793 27.361123
16.485713 7.528315 26.674443
16.672363 2.4958451 26.97645
18.502618 6.4659183 26.27029
14.245825 6.2164817 27.237575
22.348544 -4.086159 24.912474
18.612085 -1.3178514 26.487253
20.468398 -5.3082945 25.669331
22.435943 -1.3672285 24.990214
18.581985 -3.8741966 26.423844
9.9947575 -3.6930599 28.12285
14.442133 -1.284858 27.525751
12.11155 -4.9476219 27.805113
9.9983929 -1.2358693 28.175811
14.40312 -3.742507 27.480603
22.432813 4.1015665 25.00641
18.608728 1.3176137 26.482475
20.506856 5.3182682 25.717561
22.46458 1.3689737 25.022111
18.572689 3.8722584 26.410624
20.534382 0 25.830365
9.9627264 3.6812244 28.032722
14.427862 1.2835883 27.49855
12.060322 4.9266948 27.687505
9.9874241 1.2345135 28.1449
14.362518 3.7319569 27.403135
12.208911 0 27.893706
32.642906 0 -17.176293
36.164118 0 -13.036586
33.371242 2.4597677 -16.644574
33.028097 -2.4344748 -16.473424
42.004648 0 -2.911235
39.520209 0 -8.32393
34.901646 7.6473702 -15.470966
36.951186 2.5791068 -12.370888
34.127442 5.0136509 -16.072905
35.18345 2.5183327 -14.567748
33.771064 -7.3996461 -14.969809
36.519986 -2.5490101 -12.226527
33.406432 -4.9077275 -15.733332
34.793778 -2.490441 -14.406403
32.642906 0 17.176293
36.164118 0 13.036586
33.371242 2.4597677 16.644574
33.028097 -2.4344748 16.473424
42.004648 0 2.911235
39.520209 0 8.32393
34.901646 7.6473702 15.470966
36.951186 2.5791068 12.370888
34.127442 5.0136509 16.072905
35.18345 2.5183327 14.567748
33.771064 -7.3996461 14.969809
36.519986 -2.5490101 12.226527
33.406432 -4.9077275 15.733332
34.793778 -2.490441 14.406403
38.512017 20.075524 -12.407356
40.619166 14.312208 -8.845431
37.538551 16.656245 -13.279008
40.919981 21.402011 -9.3392424
42.534929 2.8476144 -1.7599225
42.011747 8.579773 -5.3025913
41.715705 2.8062679 -4.6435727
35.760421 10.533151 -14.778231
39.653806 11.19022 -9.8474834
36.61737 13.474343 -14.069343
36.835644 7.9200664 -13.198592
38.677926 13.916774 -11.555451
44.403178 23.297335 -2.0726693
42.513095 15.108998 -5.5827701
43.055464 22.566208 -5.8636042
41.836525 18.223453 -7.4443613
38.753687 2.6687318 -9.9155343
40.51841 8.3608135 -8.0843902
40.364616 2.7391819 -7.3860874
37.832875 5.2916048 -11.572707
41.204226 5.6060641 -6.3756258
38.738882 8.1664731 -10.728315
35.174542 -18.335767 -11.332127
38.009616 -13.39273 -8.2771624
34.858862 -15.467239 -12.331087
37.004202 -19.353976 -8.4455368
41.961516 -2.8092258 -1.736197
40.351115 -8.2406334 -5.0929915
41.165599 -2.7692616 -4.5823378
34.158351 -10.061264 -14.116165
37.664718 -10.628904 -9.3535204
34.512056 -12.699637 -13.260427
35.552646 -7.6442078 -12.738881
36.309193 -13.064476 -10.847767
39.540818 -20.746165 -1.8457021
39.578402 -14.066019 -5.1973896
38.581735 -20.22144 -5.2543394
38.385892 -16.720401 -6.8303581
38.277864 -2.6359647 -9.7937901
38.975443 -8.0424284 -7.7765314
39.850241 -2.7042759 -7.291965
36.930379 -5.1653745 -11.296642
40.13614 -5.4607451 -6.2103584
37.317777 -7.8668926 -10.334755
38.512017 20.075524 12.407356
40.619166 14.312208 8.845431
37.538551 16.656245 13.279008
40.919981 21.402011 9.3392424
42.534929 2.8476144 1.7599225
42.011747 8.579773 5.3025913
41.715705 2.8062679 4.6435727
42.966357 5.788851 0
35.760421 10.533151 14.778231
39.653806 11.19022 9.8474834
36.61737 13.474343 14.069343
36.835644 7.9200664 13.198592
38.677926 13.916774 11.555451
44.403178 23.297335 2.0726693
42.513095 15.108998 5.5827701
43.055464 22.566208 5.8636042
44.247416 19.366833 0
41.836525 18.223453 7.4443613
38.753687 2.6687318 9.9155343
40.51841 8.3608135 8.0843902
40.364616 2.7391819 7.3860874
37.832875 5.2916048 11.572707
41.204226 5.6060641 6.3756258
38.738882 8.1664731 10.728315
42.961581 11.874289 -3.6448207
42.961581 11.874289 3.6448207
43.110878 8.8246555 -1.8167844
43.728502 15.517379 -1.9180535
43.110878 8.8246555 1.8167844
43.728502 15.517379 1.9180535
35.174542 -18.335767 11.332127
38.009616 -13.39273 8.2771624
34.858862 -15.467239 12.331087
37.004202 -19.353976 8.4455368
41.961516 -2.8092258 1.736197
40.351115 -8.2406334 5.0929915
41.165599 -2.7692616 4.5823378
41.798727 -5.6315362 0
34.158351 -10.061264 14.116165
37.664718 -10.628904 9.3535204
34.512056 -12.699637 13.260427
35.552646 -7.6442078 12.738881
36.309193 -13.064476 10.847767
39.540818 -20.746165 1.8457021
39.578402 -14.066019 5.1973896
38.581735 -20.22144 5.2543394
40.250103 -17.617233 0
38.385892 -16.720401 6.8303581
38.277864 -2.6359647 9.7937901
38.975443 -8.0424284 7.7765314
39.850241 -2.7042759 7.291965
36.930379 -5.1653745 11.296642
40.13614 -5.4607451 6.2103584
37.317777 -7.8668926 10.334755
40.608851 -11.22401 -3.4452173
40.608851 -11.22401 3.4452173
41.340581 -8.4622814 -1.7421803
40.585861 -14.40219 -1.7802086
41.340581 -8.4622814 1.7421803
40.585861 -14.40219 1.7802086
-28.793919 41.234091 -2.0455994
-32.135182 36.465946 -5.9318831
-27.582213 41.339393 -5.3226281
-33.755432 23.832425 -11.758828
-33.620158 30.297079 -9.2059462
-24.289819 40.00175 -11.428271
-30.545399 36.090843 -9.0220101
-26.062881 40.922182 -8.4981591
-29.293732 38.909418 -7.2589105
-31.240833 2.3891679 -18.395315
-32.000405 7.2442276 -17.010289
-33.318055 17.810989 -13.788498
-32.694541 12.328237 -15.49737
-15.821905 32.492697 -20.081591
-22.145319 30.740714 -18.998806
-17.941057 34.665644 -18.439115
-31.815333 23.114616 -14.285618
-27.590456 27.479657 -16.983362
-31.872698 26.274859 -13.239006
-22.231215 38.520905 -14.182075
-24.357008 32.470865 -17.022184
-20.113581 36.729761 -16.470913
-25.615944 37.129212 -13.172862
-21.254042 33.77002 -17.846574
-31.35345 32.830052 -10.674696
-27.257761 30.684931 -15.917978
-31.751577 29.562733 -12.038197
-28.691895 35.196924 -11.984409
-29.716799 28.604318 -14.649832
-26.595503 33.96084 -14.678137
-36.450104 -52.198067 -2.5895159
-40.401915 -45.846761 -7.457852
-33.864657 -50.755331 -6.5349714
-38.055425 -26.868359 -13.256746
-39.901435 -35.957502 -10.925899
-27.43023 -45.173543 -12.905822
-36.969389 -43.681093 -10.919425
-30.707324 -48.214573 -10.012543
-35.93376 -47.729039 -8.904292
-31.532942 -2.4115073 -18.567316
-32.978151 -7.465569 -17.530025
-36.195579 -19.34924 -14.979346
-34.512519 -13.013747 -16.3591
-16.065812 -32.9936 -20.391166
-23.181219 -32.178684 -19.88752
-18.496504 -35.738877 -19.009982
-35.31832 -25.659622 -15.858519
-30.11683 -29.995885 -18.538476
-36.063338 -29.729492 -14.979678
-24.140463 -41.829133 -15.400051
-26.19414 -34.919988 -18.306086
-21.199513 -38.712801 -17.360178
-28.757914 -41.683363 -14.788603
-22.321415 -35.465943 -18.742825
-37.104051 -38.85148 -12.632564
-30.071781 -33.852762 -17.561308
-36.716438 -34.185334 -13.920559
-33.278884 -40.823876 -13.900363
-33.390161 -32.140165 -16.460731
-29.616377 -37.818312 -16.345366
-2.0488009 -15.774672 -26.790183
-6.0938646 -14.309103 -26.918831
-3.3882745 -17.558264 -26.315799
-2.0088724 -13.593489 -27.254023
-14.252127 -11.033381 -26.660683
-10.143209 -12.750652 -26.899837
-6.2900897 -21.296064 -25.162313
-7.5552679 -16.058081 -26.445291
-4.8079913 -19.402913 -25.771931
-5.4821024 -16.812981 -26.398611
-1.9520586 -9.3632021 -27.967387
-5.991399 -12.120863 -27.343999
-1.9788904 -11.447247 -27.64694
-4.0128849 -12.864621 -27.315324
-29.369486 -1.4570032 -20.508821
-26.140736 -4.2522904 -23.036214
-30.062979 -3.8707404 -20.058434
-18.398858 -9.0779268 -26.059514
-22.438509 -6.8180735 -24.899636
-31.451361 -8.9854735 -19.097861
-26.762465 -6.6900966 -22.650348
-30.756475 -6.3870841 -19.588456
-28.471737 -5.3116648 -21.435515
-13.461595 -29.98016 -21.781319
-14.682874 -23.853181 -23.75739
-11.479509 -27.636737 -22.782865
-16.706422 -29.640875 -21.646943
-16.119356 -12.700134 -26.081666
-15.538465 -18.111889 -25.141764
-13.979563 -13.601962 -26.28166
-7.9487359 -23.346829 -24.446356
-12.734066 -21.805668 -24.547336
-9.6383681 -25.421863 -23.669368
-8.5916379 -20.569256 -25.232719
-12.15939 -24.665003 -23.741642
-23.428495 -28.398783 -21.054476
-17.658396 -23.220254 -23.560406
-20.068953 -29.138001 -21.424041
-17.235 -26.358755 -22.69942
-9.7364458 -15.262437 -26.445828
-13.235486 -18.93863 -25.247506
-11.837569 -14.455538 -26.397509
-9.1879632 -17.866911 -25.897321
-13.640953 -16.245436 -25.811971
-10.919645 -19.785443 -25.264807
-1.9163294 -1.1843567 -28.624287
-5.7954433 -3.5817809 -28.377988
-1.9208429 -3.1784469 -28.553694
-14.076365 -8.699672 -27.003489
-9.8159396 -6.0665843 -27.858405
-12.060052 -9.6147443 -27.180009
-1.9441824 -7.2235089 -28.232226
-5.8236077 -5.6310689 -28.222532
-1.9287894 -5.2008986 -28.422663
-3.9164894 -8.5653383 -28.001346
-3.8666331 -4.3974178 -28.419515
-8.0525527 -11.2979 -27.338703
-7.8867773 -6.9404271 -27.947684
-10.040959 -10.484348 -27.286934
-5.9565035 -9.9263639 -27.703258
-9.9332665 -8.2478434 -27.606839
-5.9019421 -7.753395 -27.996742
-34.402636 -21.261998 -16.751925
-28.960986 -17.898874 -20.86322
-33.642854 -17.895079 -17.411716
-32.366665 -23.637607 -18.242753
-18.670172 -11.538801 -25.697927
-23.650811 -14.617005 -23.746173
-20.790365 -10.475557 -25.219737
-18.502376 -14.279545 -25.33506
-32.174961 -11.845716 -18.568839
-28.466345 -14.922896 -21.353142
-32.897073 -14.752202 -18.014763
-29.775677 -10.563943 -20.542641
-31.050545 -16.409403 -19.542469
-26.848737 -27.242043 -20.417763
-26.552413 -19.685602 -21.905272
-29.818102 -25.678513 -19.496936
-23.65445 -24.692 -21.975659
-29.411341 -21.625018 -20.257217
-24.842535 -8.0775533 -23.725189
-25.807121 -13.387587 -22.92475
-22.871262 -9.3133725 -24.564665
-27.318176 -9.3017273 -22.269282
-23.276154 -11.920988 -24.181412
-27.886454 -12.05274 -21.838513
-18.015275 -20.046606 -24.299436
-23.661299 -17.734015 -23.31969
-18.286399 -17.129769 -24.870616
-20.696316 -22.277374 -23.254522
-21.030466 -15.967812 -24.420751
-23.718566 -21.109311 -22.721919
-2.0540188 15.814847 -26.858413
-6.1352172 14.406204 -27.1015
-3.4022706 17.630793 -26.424503
-2.0137045 13.626187 -27.31958
-14.347873 11.107503 -26.83979
-10.230813 12.860777 -27.132164
-6.3298874 21.430805 -25.321516
-7.6159909 16.187142 -26.657836
-4.8343776 19.509396 -25.913368
-5.5169701 16.919916 -26.566513
-1.9557517 9.3809164 -28.020298
-6.0289724 12.196876 -27.51548
-1.9832122 11.472247 -27.70732
-4.031186 12.923291 -27.439897
-29.228001 1.4499842 -20.410022
-25.898607 4.2129035 -22.82284
-29.663076 3.8192511 -19.791613
-27.719597 0 -21.771385
-18.413999 9.0853972 -26.080959
-22.297872 6.7753402 -24.743574
-30.427153 8.6928631 -18.475943
-26.342238 6.585048 -22.29469
-30.060819 6.2426197 -19.1454
-28.028402 5.2289566 -21.101742
-24.360062 -2.7684743 -24.073244
-24.254141 2.7564366 -23.968571
-26.088637 -1.4148858 -23.007543
-26.007239 1.4104713 -22.935758
-13.410456 29.866268 -21.698573
-14.707161 23.892636 -23.796686
-11.501003 27.688482 -22.825522
-16.524326 29.317798 -21.410997
-16.194284 12.759169 -26.202902
-15.605215 18.189694 -25.249768
-14.082893 13.7025 -26.47592
-7.9989977 23.494457 -24.600937
-12.810912 21.937257 -24.69547
-9.6867735 25.549536 -23.788239
-8.6584829 20.729289 -25.429036
-12.211516 24.77074 -23.843421
-22.528207 27.3075 -20.245414
-17.570851 23.105135 -23.443601
-19.615644 28.479843 -20.940124
-17.105477 26.160667 -22.528833
-9.8237358 15.399269 -26.682922
-13.330005 19.073877 -25.427807
-11.941807 14.582828 -26.629957
-9.2677193 18.022005 -26.122123
-13.744075 16.368248 -26.007103
-11.009068 19.947469 -25.471706
-1.9168451 1.1846754 -28.631991
-5.8084303 3.5898074 -28.441581
-1.9222154 3.180718 -28.574096
-3.851801 0 -28.589069
-14.160612 8.7517398 -27.165106
-9.8658297 6.0974181 -27.999997
-12.148405 9.6851824 -27.379131
-1.947174 7.234624 -28.275668
-5.843622 5.6504214 -28.319525
-1.9309951 5.2068462 -28.455166
-3.9300275 8.5949459 -28.098137
-3.8740147 4.4058126 -28.473769
-7.822463 -2.4011101 -28.301937
-7.8372534 2.40565 -28.355449
-5.8297459 -1.2002045 -28.479918
-5.834216 1.2011248 -28.501756
-8.1123607 11.381812 -27.541754
-7.9273538 6.9761348 -28.091471
-10.119271 10.566117 -27.499751
-5.9895212 9.9813871 -27.856821
-9.9986407 8.3021253 -27.788529
-5.9289388 7.7888606 -28.124804
-31.608515 19.535137 -15.391363
-27.536059 17.018221 -19.836716
-31.365646 16.683802 -16.233157
-29.772872 21.743342 -16.780819
-18.666854 11.53675 -25.69336
-23.204048 14.34089 -23.297608
-20.685866 10.422903 -25.092975
-18.488768 14.269042 -25.316427
-30.768896 11.328051 -17.75737
-27.324917 14.324526 -20.496935
-31.081803 13.938171 -17.020703
-28.780462 10.210856 -19.856029
-29.365613 15.51896 -18.482013
-25.321476 25.692409 -19.256321
-25.469521 18.88276 -21.011906
-27.680095 23.837321 -18.098974
-22.866973 23.869982 -21.244071
-27.645141 20.3264 -19.040738
-24.503919 7.9674525 -23.401803
-25.138368 13.040668 -22.330688
-22.646361 9.221791 -24.323112
-26.689337 9.0876103 -21.756664
-22.948506 11.753182 -23.84102
-27.016653 11.676806 -21.157352
-17.961549 19.986822 -24.226968
-23.11494 17.324522 -22.781219
-18.256249 17.101526 -24.82961
-20.381939 21.938981 -22.901285
-20.821651 15.809265 -24.178274
-23.051252 20.515408 -22.082646
-16.485713 -7.528315 -26.674443
-16.672363 -2.4958451 -26.97645
-18.502618 -6.4659183 -26.27029
-14.245825 -6.2164817 -27.237575
-16.541768 7.553913 -26.765142
-16.6929 2.4989195 -27.00968
-18.516245 6.4706804 -26.289638
-14.310443 6.2446793 -27.361123
-22.432813 -4.1015665 -25.00641
-18.608728 -1.3176137 -26.482475
-20.506856 -5.3182682 -25.717561
-22.46458 -1.3689737 -25.022111
-18.572689 -3.8722584 -26.410624
-9.9627264 -3.6812244 -28.032722
-14.427862 -1.2835883 -27.49855
-12.060322 -4.9266948 -27.687505
-9.9874241 -1.2345135 -28.1449
-14.362518 -3.7319569 -27.403135
-22.348544 4.086159 -24.912474
-18.612085 1.3178514 -26.487253
-20.468398 5.3082945 -25.669331
-22.435943 1.3672285 -24.990214
-18.581985 3.8741966 -26.423844
-20.534382 0 -25.830365
-9.9947575 3.6930599 -28.12285
-14.442133 1.284858 -27.525751
-12.11155 4.9476219 -27.805113
-9.9983929 1.2358693 -28.175811
-14.40312 3.742507 -27.480603
-12.208911 0 -27.893706
-28.793919 41.234091 2.0455994
-32.135182 36.465946 5.9318831
-27.582213 41.339393 5.3226281
-30.988882 39.455429 0
-33.755432 23.832425 11.758828
-33.620158 30.297079 9.2059462
-24.289819 40.00175 11.428271
-30.545399 36.090843 9.0220101
-26.062881 40.922182 8.4981591
-29.293732 38.909418 7.2589105
-34.200016 34.607488 -3.9330746
-34.200016 34.607488 3.9330746
-32.835313 37.232509 -2.0192603
-32.835313 37.232509 2.0192603
-31.240833 2.3891679 18.395315
-32.000405 7.2442276 17.010289
-33.318055 17.810989 13.788498
-32.694541 12.328237 15.49737
-15.821905 32.492697 20.081591
-22.145319 30.740714 18.998806
-17.941057 34.665644 18.439115
-31.815333 23.114616 14.285618
-27.590456 27.479657 16.983362
-31.872698 26.274859 13.239006
-22.231215 38.520905 14.182075
-24.357008 32.470865 17.022184
-20.113581 36.729761 16.470913
-25.615944 37.129212 13.172862
-21.254042 33.77002 17.846574
-31.35345 32.830052 10.674696
-27.257761 30.684931 15.917978
-31.751577 29.562733 12.038197
-28.691895 35.196924 11.984409
-29.716799 28.604318 14.649832
-26.595503 33.96084 14.678137
-35.474004 21.92414 -10.011811
-38.479476 23.781624 -3.5600982
-35.599191 25.073123 -8.7620448
-35.474004 21.92414 10.011811
-38.479476 23.781624 3.5600982
-35.599191 25.073123 8.7620448
-35.106283 31.493233 -5.7581539
-38.087024 26.763022 -1.8949884
-35.514012 28.318421 -7.3441273
-35.959312 32.28388 -1.967354
-37.154398 26.128011 -5.4474831
-35.106283 31.493233 5.7581539
-38.087024 26.763022 1.8949884
-35.514012 28.318421 7.3441273
-35.959312 32.28388 1.967354
-37.154398 26.128011 5.4474831
-37.274621 29.63223 0
-36.450104 -52.198067 2.5895159
-40.401915 -45.846761 7.457852
-33.864657 -50.755331 6.5349714
-40.181092 -51.159063 0
-38.055425 -26.868359 13.256746
-39.901435 -35.957502 10.925899
-27.43023 -45.173543 12.905822
-36.969389 -43.681093 10.919425
-30.707324 -48.214573 10.012543
-35.93376 -47.729039 8.904292
-43.373591 -43.89036 -4.9880552
-43.373591 -43.89036 4.9880552
-42.615252 -48.322146 -2.6206934
-42.615252 -48.322146 2.6206934
-31.532942 -2.4115073 18.567316
-32.978151 -7.465569 17.530025
-36.195579 -19.34924 14.979346
-34.512519 -13.013747 16.3591
-16.065812 -32.9936 20.391166
-23.181219 -32.178684 19.88752
-18.496504 -35.738877 19.009982
-35.31832 -25.659622 15.858519
-30.11683 -29.995885 18.538476
-36.063338 -29.729492 14.979678
-24.140463 -41.829133 15.400051
-26.19414 -34.919988 18.306086
-21.199513 -38.712801 17.360178
-28.757914 -41.683363 14.788603
-22.321415 -35.465943 18.742825
-37.104051 -38.85148 12.632564
-30.071781 -33.852762 17.561308
-36.716438 -34.185334 13.920559
-33.278884 -40.823876 13.900363
-33.390161 -32.140165 16.460731
-29.616377 -37.818312 16.345366
-39.755095 -24.57 -11.220061
-44.182928 -27.306551 -4.0877782
-40.859551 -28.778086 -10.05678
-39.755095 -24.57 11.220061
-44.182928 -27.306551 4.0877782
-40.859551 -28.778086 10.05678
-42.938354 -38.519247 -7.0427749
-44.993543 -31.616101 -2.2386166
-41.975763 -33.470939 -8.6803864
-45.002406 -40.402672 -2.4621067
-43.371758 -30.500232 -6.3590566
-42.938354 -38.519247 7.0427749
-44.993543 -31.616101 2.2386166
-41.975763 -33.470939 8.6803864
-45.002406 -40.402672 2.4621067
-43.371758 -30.500232 6.3590566
-45.407107 -36.097318 0
-2.0488009 -15.774672 26.790183
-6.0938646 -14.309103 26.918831
-3.3882745 -17.558264 26.315799
-2.0088724 -13.593489 27.254023
-14.252127 -11.033381 26.660683
-10.143209 -12.750652 26.899837
-6.2900897 -21.296064 25.162313
-7.5552679 -16.058081 26.445291
-4.8079913 -19.402913 25.771931
-5.4821024 -16.812981 26.398611
-1.9520586 -9.3632021 27.967387
-5.991399 -12.120863 27.343999
-1.9788904 -11.447247 27.64694
-4.0128849 -12.864621 27.315324
-29.369486 -1.4570032 20.508821
-26.140736 -4.2522904 23.036214
-30.062979 -3.8707404 20.058434
-18.398858 -9.0779268 26.059514
-22.438509 -6.8180735 24.899636
-31.451361 -8.9854735 19.097861
-26.762465 -6.6900966 22.650348
-30.756475 -6.3870841 19.588456
-28.471737 -5.3116648 21.435515
-13.461595 -29.98016 21.781319
-14.682874 -23.853181 23.75739
-11.479509 -27.636737 22.782865
-16.706422 -29.640875 21.646943
-16.119356 -12.700134 26.081666
-15.538465 -18.111889 25.141764
-13.979563 -13.601962 26.28166
-7.9487359 -23.346829 24.446356
-12.734066 -21.805668 24.547336
-9.6383681 -25.421863 23.669368
-8.5916379 -20.569256 25.232719
-12.15939 -24.665003 23.741642
-23.428495 -28.398783 21.054476
-17.658396 -23.220254 23.560406
-20.068953 -29.138001 21.424041
-17.235 -26.358755 22.69942
-9.7364458 -15.262437 26.445828
-13.235486 -18.93863 25.247506
-11.837569 -14.455538 26.397509
-9.1879632 -17.866911 25.897321
-13.640953 -16.245436 25.811971
-10.919645 -19.785443 25.264807
-1.9163294 -1.1843567 28.624287
-5.7954433 -3.5817809 28.377988
-1.9208429 -3.1784469 28.553694
-14.076365 -8.699672 27.003489
-9.8159396 -6.0665843 27.858405
-12.060052 -9.6147443 27.180009
-1.9441824 -7.2235089 28.232226
-5.8236077 -5.6310689 28.222532
-1.9287894 -5.2008986 28.422663
-3.9164894 -8.5653383 28.001346
-3.8666331 -4.3974178 28.419515
-8.0525527 -11.2979 27.338703
-7.8867773 -6.9404271 27.947684
-10.040959 -10.484348 27.286934
-5.9565035 -9.9263639 27.703258
-9.9332665 -8.2478434 27.606839
-5.9019421 -7.753395 27.996742
-34.402636 -21.261998 16.751925
-28.960986 -17.898874 20.86322
-33.642854 -17.895079 17.411716
-32.366665 -23.637607 18.242753
-18.670172 -11.538801 25.697927
-23.650811 -14.617005 23.746173
-20.790365 -10.475557 25.219737
-18.502376 -14.279545 25.33506
-32.174961 -11.845716 18.568839
-28.466345 -14.922896 21.353142
-32.897073 -14.752202 18.014763
-29.775677 -10.563943 20.542641
-31.050545 -16.409403 19.542469
-26.848737 -27.242043 20.417763
-26.552413 -19.685602 21.905272
-29.818102 -25.678513 19.496936
-23.65445 -24.692 21.975659
-29.411341 -21.625018 20.257217
-24.842535 -8.0775533 23.725189
-25.807121 -13.387587 22.92475
-22.871262 -9.3133725 24.564665
-27.318176 -9.3017273 22.269282
-23.276154 -11.920988 24.181412
-27.886454 -12.05274 21.838513
-18.015275 -20.046606 24.299436
-23.661299 -17.734015 23.31969
-18.286399 -17.129769 24.870616
-20.696316 -22.277374 23.254522
-21.030466 -15.967812 24.420751
-23.718566 -21.109311 22.721919
-2.0540188 15.814847 26.858413
-6.1352172 14.406204 27.1015
-3.4022706 17.630793 26.424503
-2.0137045 13.626187 27.31958
-14.347873 11.107503 26.83979
-10.230813 12.860777 27.132164
-6.3298874 21.430805 25.321516
-7.6159909 16.187142 26.657836
-4.8343776 19.509396 25.913368
-5.5169701 16.919916 26.566513
-1.9557517 9.3809164 28.020298
-6.0289724 12.196876 27.51548
-1.9832122 11.472247 27.70732
-4.031186 12.923291 27.439897
-29.228001 1.4499842 20.410022
-25.898607 4.2129035 22.82284
-29.663076 3.8192511 19.791613
-27.719597 0 21.771385
-18.413999 9.0853972 26.080959
-22.297872 6.7753402 24.743574
-30.427153 8.6928631 18.475943
-26.342238 6.585048 22.29469
-30.060819 6.2426197 19.1454
-28.028402 5.2289566 21.101742
-24.360062 -2.7684743 24.073244
-24.254141 2.7564366 23.968571
-26.088637 -1.4148858 23.007543
-26.007239 1.4104713 22.935758
-13.410456 29.866268 21.698573
-14.707161 23.892636 23.796686
-11.501003 27.688482 22.825522
-16.524326 29.317798 21.410997
-16.194284 12.759169 26.202902
-15.605215 18.189694 25.249768
-14.082893 13.7025 26.47592
-7.9989977 23.494457 24.600937
-12.810912 21.937257 24.69547
-9.6867735 25.549536 23.788239
-8.6584829 20.729289 25.429036
-12.211516 24.77074 23.843421
-22.528207 27.3075 20.245414
-17.570851 23.105135 23.443601
-19.615644 28.479843 20.940124
-17.105477 26.160667 22.528833
-9.8237358 15.399269 26.682922
-13.330005 19.073877 25.427807
-11.941807 14.582828 26.629957
-9.2677193 18.022005 26.122123
-13.744075 16.368248 26.007103
-11.009068 19.947469 25.471706
-1.9168451 1.1846754 28.631991
-5.8084303 3.5898074 28.441581
-1.9222154 3.180718 28.574096
-3.851801 0 28.589069
-14.160612 8.7517398 27.165106
-9.8658297 6.0974181 27.999997
-12.148405 9.6851824 27.379131
-1.947174 7.234624 28.275668
-5.843622 5.6504214 28.319525
-1.9309951 5.2068462 28.455166
-3.9300275 8.5949459 28.098137
-3.8740147 4.4058126 28.473769
-7.822463 -2.4011101 28.301937
-7.8372534 2.40565 28.355449
-5.8297459 -1.2002045 28.479918
-5.834216 1.2011248 28.501756
-8.1123607 11.381812 27.541754
-7.9273538 6.9761348 28.091471
-10.119271 10.566117 27.499751
-5.9895212 9.9813871 27.856821
-9.9986407 8.3021253 27.788529
-5.9289388 7.7888606 28.124804
-31.608515 19.535137 15.391363
-27.536059 17.018221 19.836716
-31.365646 16.683802 16.233157
-29.772872 21.743342 16.780819
-18.666854 11.53675 25.69336
-23.204048 14.34089 23.297608
-20.685866 10.422903 25.092975
-18.488768 14.269042 25.316427
-30.768896 11.328051 17.75737
-27.324917 14.324526 20.496935
-31.081803 13.938171 17.020703
-28.780462 10.210856 19.856029
-29.365613 15.51896 18.482013
-25.321476 25.692409 19.256321
-25.469521 18.88276 21.011906
-27.680095 23.837321 18.098974
-22.866973 23.869982 21.244071
-27.645141 20.3264 19.040738
-24.503919 7.9674525 23.401803
-25.138368 13.040668 22.330688
-22.646361 9.221791 24.323112
-26.689337 9.0876103 21.756664
-22.948506 11.753182 23.84102
-27.016653 11.676806 21.157352
-17.961549 19.986822 24.226968
