-2.870028968 -24.95631182 25.25365091
2.661910541 -23.14661986 23.42239759
-1.38981911 -22.5999314 25.62643943
1.342803196 -21.83540282 24.75952771
1.661558305 -40.15760056 2.688457812
4.558557504 -36.11686294 7.375900981
4.190760473 -37.64785027 2.532618199
0 -41.24954595 5.557545229
8.936695745 -27.73920297 14.45987746
6.949769536 -31.91408589 11.24496332
9.955233494 -28.14254135 12.48713761
8.529481408 -33.33646373 2.295680404
6.786769158 -34.01482248 7.018823944
6.474005438 -35.38013092 2.400929904
9.725143412 -31.79291824 4.446808735
5.55028914 -35.87026196 4.880348663
-3.425543722 -40.3769587 11.15991691
3.089499026 -36.41599253 10.06513279
-1.732550605 -41.11207556 8.415507071
1.636108404 -38.82357729 7.947058978
11.77800229 -28.50045594 8.394744265
7.956833559 -32.04054513 9.041774086
10.91026984 -28.39545409 10.44886897
10.8094868 -30.16794479 6.48643816
8.993890868 -30.10397769 10.83176655
8.868536771 -32.02340813 6.750796314
-9.821986829 -34.80141712 21.50845863
-3.083508873 -33.32823926 20.59798465
-8.273779683 -33.61542523 23.675923
-8.343862048 -36.55871246 19.12097592
7.637179127 -27.06017235 16.72410625
2.776779277 -30.01293914 18.54901649
6.478688731 -26.32217499 18.53916123
6.684422232 -29.28786082 15.31816751
-4.53323244 -27.63818867 24.79373567
-1.519516375 -30.54048067 21.46021075
-6.298425583 -30.45730996 24.28627148
-1.4513632 -26.52802797 23.81657556
-4.698105462 -32.04328965 22.5337365
-5.165801798 -39.33785934 13.98053052
-1.622528891 -34.75973691 18.23764107
-6.776687651 -38.08426996 16.58901867
-1.705694048 -38.88705064 13.79935472
-5.024211359 -36.89194341 19.33578694
4.000263257 -24.38878485 21.87875233
1.445342157 -29.04966667 20.41264431
5.257514591 -25.42377447 20.27259432
1.391852887 -25.440298 22.8400234
4.056271129 -27.66567752 19.45527735
0 -27.90800278 22.18604336
4.454410553 -33.92057664 12.05524817
1.527740576 -32.72906929 17.17219609
5.621014969 -31.58951136 13.75998527
1.590245228 -36.25500526 12.86535415
4.215528683 -30.95392181 16.22355403
0 -35.70490002 15.62782412
-15.52630503 26.36838157 2.016543303
-14.26582338 26.83741115 6.075432913
-13.94056147 27.94988031 2.060163488
-10.83905943 26.19113258 14.00111672
-12.69807279 26.78891044 10.10138146
-10.50359789 31.37368854 2.189810489
-12.60956076 28.44647375 6.232964372
-12.26427159 29.62018566 2.120129794
-13.31254852 28.26640474 4.152607924
-1.302147229 18.329064 26.24798283
-3.88603571 21.05207796 23.88920411
-8.71851218 25.02776186 17.67040814
-6.381225089 23.3042636 21.00082642
-1.661558305 40.15760056 2.688457812
-4.558557504 36.11686294 7.375900981
-4.190760473 37.64785027 2.532618199
-8.936695745 27.73920297 14.45987746
-6.949769536 31.91408589 11.24496332
-9.955233494 28.14254135 12.48713761
-8.529481408 33.33646373 2.295680404
-6.786769158 34.01482248 7.018823944
-6.474005438 35.38013092 2.400929904
-9.725143412 31.79291824 4.446808735
-5.55028914 35.87026196 4.880348663
-11.77800229 28.50045594 8.394744265
-7.956833559 32.04054513 9.041774086
-10.91026984 28.39545409 10.44886897
-10.8094868 30.16794479 6.48643816
-8.993890868 30.10397769 10.83176655
-8.868536771 32.02340813 6.750796314
24.55392883 41.70002862 3.189043409
21.26898739 40.01203042 9.057893296
20.83245792 41.76766529 3.07866145
14.66212729 35.42906302 18.93948057
17.90730213 37.7787339 14.24534987
14.00736869 41.83926566 2.920283431
17.89418246 40.36828892 8.845177393
17.31155934 41.81019622 2.992656552
19.39523845 41.18172108 6.049992662
1.33889689 18.84635336 26.98876273
4.306090327 23.32766759 26.4714682
0 20.3877989 25.95799795
11.51504884 33.05562856 23.33834129
7.838991707 28.62803405 25.79838539
-2.661910541 23.14661986 23.42239759
2.870028968 24.95631182 25.25365091
-1.342803196 21.83540282 24.75952771
1.38981911 22.5999314 25.62643943
1.733400946 41.89393931 2.804701646
5.179640467 41.03762313 8.380834324
4.662450647 41.88529623 2.817676514
0 41.24954595 5.557545229
11.64419043 36.1431754 18.84069589
8.525240342 39.14881654 13.79412864
13.17729072 37.25100461 16.52865728
10.71001644 41.85882557 2.882563861
8.167877033 40.93684061 8.44715498
7.662286589 41.87403073 2.841612226
12.66977241 41.41934171 5.793236379
6.427967501 41.54249846 5.652087991
-3.089499026 36.41599253 10.06513279
3.425543722 40.3769587 11.15991691
-1.636108404 38.82357729 7.947058978
1.732550605 41.11207556 8.415507071
16.2725864 39.37646812 11.59824884
9.934427197 40.00391118 11.28901915
14.73149547 38.34071106 14.10849303
14.54849176 40.60304659 8.730099207
11.58842647 38.78829943 13.95648803
11.29562763 40.78739291 8.598315976
-7.637179127 27.06017235 16.72410625
-2.776779277 30.01293914 18.54901649
-6.478688731 26.32217499 18.53916123
-6.684422232 29.28786082 15.31816751
9.821986829 34.80141712 21.50845863
3.083508873 33.32823926 20.59798465
8.273779683 33.61542523 23.675923
8.343862048 36.55871246 19.12097592
-4.000263257 24.38878485 21.87875233
-1.445342157 29.04966667 20.41264431
-5.257514591 25.42377447 20.27259432
-1.391852887 25.440298 22.8400234
-4.056271129 27.66567752 19.45527735
-4.454410553 33.92057664 12.05524817
-1.527740576 32.72906929 17.17219609
-5.621014969 31.58951136 13.75998527
-1.590245228 36.25500526 12.86535415
-4.215528683 30.95392181 16.22355403
4.53323244 27.63818867 24.79373567
1.519516375 30.54048067 21.46021075
6.298425583 30.45730996 24.28627148
1.4513632 26.52802797 23.81657556
4.698105462 32.04328965 22.5337365
0 27.90800278 22.18604336
5.165801798 39.33785934 13.98053052
1.622528891 34.75973691 18.23764107
6.776687651 38.08426996 16.58901867
1.705694048 38.88705064 13.79935472
5.024211359 36.89194341 19.33578694
0 35.70490002 15.62782412
0 -14.64313294 27.82872901
0 -10.37204094 28.77254269
0 -2.05544956 29.65697883
0 -6.185759508 29.36864006
0 14.64313294 27.82872901
0 10.37204094 28.77254269
0 2.05544956 29.65697883
0 6.185759508 29.36864006
-24.55392883 -41.70002862 -3.189043409
-21.26898739 -40.01203042 -9.057893296
-20.83245792 -41.76766529 -3.07866145
-14.66212729 -35.42906302 -18.93948057
-17.90730213 -37.7787339 -14.24534987
-14.00736869 -41.83926566 -2.920283431
-17.89418246 -40.36828892 -8.845177393
-17.31155934 -41.81019622 -2.992656552
-19.39523845 -41.18172108 -6.049992662
-1.33889689 -18.84635336 -26.98876273
-4.306090327 -23.32766759 -26.4714682
-11.51504884 -33.05562856 -23.33834129
-7.838991707 -28.62803405 -25.79838539
-1.733400946 -41.89393931 -2.804701646
-5.179640467 -41.03762313 -8.380834324
-4.662450647 -41.88529623 -2.817676514
-11.64419043 -36.1431754 -18.84069589
-8.525240342 -39.14881654 -13.79412864
-13.17729072 -37.25100461 -16.52865728
-10.71001644 -41.85882557 -2.882563861
-8.167877033 -40.93684061 -8.44715498
-7.662286589 -41.87403073 -2.841612226
-12.66977241 -41.41934171 -5.793236379
-6.427967501 -41.54249846 -5.652087991
-16.2725864 -39.37646812 -11.59824884
-9.934427197 -40.00391118 -11.28901915
-14.73149547 -38.34071106 -14.10849303
-14.54849176 -40.60304659 -8.730099207
-11.58842647 -38.78829943 -13.95648803
-11.29562763 -40.78739291 -8.598315976
15.52630503 -26.36838157 -2.016543303
14.26582338 -26.83741115 -6.075432913
13.94056147 -27.94988031 -2.060163488
10.83905943 -26.19113258 -14.00111672
12.69807279 -26.78891044 -10.10138146
10.50359789 -31.37368854 -2.189810489
12.60956076 -28.44647375 -6.232964372
12.26427159 -29.62018566 -2.120129794
13.31254852 -28.26640474 -4.152607924
1.302147229 -18.329064 -26.24798283
3.88603571 -21.05207796 -23.88920411
0 -20.3877989 -25.95799795
8.71851218 -25.02776186 -17.67040814
6.381225089 -23.3042636 -21.00082642
-2.870028968 -24.95631182 -25.25365091
2.661910541 -23.14661986 -23.42239759
-1.38981911 -22.5999314 -25.62643943
1.342803196 -21.83540282 -24.75952771
1.661558305 -40.15760056 -2.688457812
4.558557504 -36.11686294 -7.375900981
4.190760473 -37.64785027 -2.532618199
0 -41.24954595 -5.557545229
8.936695745 -27.73920297 -14.45987746
6.949769536 -31.91408589 -11.24496332
9.955233494 -28.14254135 -12.48713761
8.529481408 -33.33646373 -2.295680404
6.786769158 -34.01482248 -7.018823944
6.474005438 -35.38013092 -2.400929904
9.725143412 -31.79291824 -4.446808735
5.55028914 -35.87026196 -4.880348663
-3.425543722 -40.3769587 -11.15991691
3.089499026 -36.41599253 -10.06513279
-1.732550605 -41.11207556 -8.415507071
1.636108404 -38.82357729 -7.947058978
11.77800229 -28.50045594 -8.394744265
7.956833559 -32.04054513 -9.041774086
10.91026984 -28.39545409 -10.44886897
10.8094868 -30.16794479 -6.48643816
8.993890868 -30.10397769 -10.83176655
8.868536771 -32.02340813 -6.750796314
-9.821986829 -34.80141712 -21.50845863
-3.083508873 -33.32823926 -20.59798465
-8.273779683 -33.61542523 -23.675923
-8.343862048 -36.55871246 -19.12097592
7.637179127 -27.06017235 -16.72410625
2.776779277 -30.01293914 -18.54901649
6.478688731 -26.32217499 -18.53916123
6.684422232 -29.28786082 -15.31816751
-4.53323244 -27.63818867 -24.79373567
-1.519516375 -30.54048067 -21.46021075
-6.298425583 -30.45730996 -24.28627148
-1.4513632 -26.52802797 -23.81657556
-4.698105462 -32.04328965 -22.5337365
-5.165801798 -39.33785934 -13.98053052
-1.622528891 -34.75973691 -18.23764107
-6.776687651 -38.08426996 -16.58901867
-1.705694048 -38.88705064 -13.79935472
-5.024211359 -36.89194341 -19.33578694
4.000263257 -24.38878485 -21.87875233
1.445342157 -29.04966667 -20.41264431
5.257514591 -25.42377447 -20.27259432
1.391852887 -25.440298 -22.8400234
4.056271129 -27.66567752 -19.45527735
0 -27.90800278 -22.18604336
4.454410553 -33.92057664 -12.05524817
1.527740576 -32.72906929 -17.17219609
5.621014969 -31.58951136 -13.75998527
1.590245228 -36.25500526 -12.86535415
4.215528683 -30.95392181 -16.22355403
0 -35.70490002 -15.62782412
-15.52630503 26.36838157 -2.016543303
-14.26582338 26.83741115 -6.075432913
-13.94056147 27.94988031 -2.060163488
-10.83905943 26.19113258 -14.00111672
-12.69807279 26.78891044 -10.10138146
-10.50359789 31.37368854 -2.189810489
-12.60956076 28.44647375 -6.232964372
-12.26427159 29.62018566 -2.120129794
-13.31254852 28.26640474 -4.152607924
-1.302147229 18.329064 -26.24798283
-3.88603571 21.05207796 -23.88920411
-8.71851218 25.02776186 -17.67040814
-6.381225089 23.3042636 -21.00082642
-1.661558305 40.15760056 -2.688457812
-4.558557504 36.11686294 -7.375900981
-4.190760473 37.64785027 -2.532618199
-8.936695745 27.73920297 -14.45987746
-6.949769536 31.91408589 -11.24496332
-9.955233494 28.14254135 -12.48713761
-8.529481408 33.33646373 -2.295680404
-6.786769158 34.01482248 -7.018823944
-6.474005438 35.38013092 -2.400929904
-9.725143412 31.79291824 -4.446808735
-5.55028914 35.87026196 -4.880348663
-11.77800229 28.50045594 -8.394744265
-7.956833559 32.04054513 -9.041774086
-10.91026984 28.39545409 -10.44886897
-10.8094868 30.16794479 -6.48643816
-8.993890868 30.10397769 -10.83176655
-8.868536771 32.02340813 -6.750796314
24.55392883 41.70002862 -3.189043409
21.26898739 40.01203042 -9.057893296
20.83245792 41.76766529 -3.07866145
14.66212729 35.42906302 -18.93948057
17.90730213 37.7787339 -14.24534987
14.00736869 41.83926566 -2.920283431
17.89418246 40.36828892 -8.845177393
17.31155934 41.81019622 -2.992656552
19.39523845 41.18172108 -6.049992662
1.33889689 18.84635336 -26.98876273
4.306090327 23.32766759 -26.4714682
0 20.3877989 -25.95799795
11.51504884 33.05562856 -23.33834129
7.838991707 28.62803405 -25.79838539
-2.661910541 23.14661986 -23.42239759
2.870028968 24.95631182 -25.25365091
-1.342803196 21.83540282 -24.75952771
1.38981911 22.5999314 -25.62643943
1.733400946 41.89393931 -2.804701646
5.179640467 41.03762313 -8.380834324
4.662450647 41.88529623 -2.817676514
0 41.24954595 -5.557545229
11.64419043 36.1431754 -18.84069589
8.525240342 39.14881654 -13.79412864
13.17729072 37.25100461 -16.52865728
10.71001644 41.85882557 -2.882563861
8.167877033 40.93684061 -8.44715498
7.662286589 41.87403073 -2.841612226
12.66977241 41.41934171 -5.793236379
6.427967501 41.54249846 -5.652087991
-3.089499026 36.41599253 -10.06513279
3.425543722 40.3769587 -11.15991691
-1.636108404 38.82357729 -7.947058978
1.732550605 41.11207556 -8.415507071
16.2725864 39.37646812 -11.59824884
9.934427197 40.00391118 -11.28901915
14.73149547 38.34071106 -14.10849303
14.54849176 40.60304659 -8.730099207
11.58842647 38.78829943 -13.95648803
11.29562763 40.78739291 -8.598315976
-7.637179127 27.06017235 -16.72410625
-2.776779277 30.01293914 -18.54901649
-6.478688731 26.32217499 -18.53916123
-6.684422232 29.28786082 -15.31816751
9.821986829 34.80141712 -21.50845863
3.083508873 33.32823926 -20.59798465
8.273779683 33.61542523 -23.675923
8.343862048 36.55871246 -19.12097592
-4.000263257 24.38878485 -21.87875233
-1.445342157 29.04966667 -20.41264431
-5.257514591 25.42377447 -20.27259432
-1.391852887 25.440298 -22.8400234
-4.056271129 27.66567752 -19.45527735
-4.454410553 33.92057664 -12.05524817
-1.527740576 32.72906929 -17.17219609
-5.621014969 31.58951136 -13.75998527
-1.590245228 36.25500526 -12.86535415
-4.215528683 30.95392181 -16.22355403
4.53323244 27.63818867 -24.79373567
1.519516375 30.54048067 -21.46021075
6.298425583 30.45730996 -24.28627148
1.4513632 26.52802797 -23.81657556
4.698105462 32.04328965 -22.5337365
0 27.90800278 -22.18604336
5.165801798 39.33785934 -13.98053052
1.622528891 34.75973691 -18.23764107
6.776687651 38.08426996 -16.58901867
1.705694048 38.88705064 -13.79935472
5.024211359 36.89194341 -19.33578694
0 35.70490002 -15.62782412
0 -14.64313294 -27.82872901
0 -10.37204094 -28.77254269
0 -2.05544956 -29.65697883
0 -6.185759508 -29.36864006
0 14.64313294 -27.82872901
0 10.37204094 -28.77254269
0 2.05544956 -29.65697883
0 6.185759508 -29.36864006
29.20536352 41.82329661 -2.074829526
34.58161031 39.24207142 -6.383473061
27.38002005 41.03635233 -5.283610274
36.83929485 26.00973188 -12.8331028
36.5015076 32.89363003 -9.994923678
23.49290875 38.68935596 -11.05332717
31.84800649 37.62993535 -9.406753311
25.42325558 39.91788473 -8.289600313
29.90417951 39.72024511 -7.410177708
33.76858844 2.582480107 -19.88371578
36.43387859 8.247873981 -19.36696779
36.79697774 19.67073316 -15.22823144
36.63922816 13.81567275 -17.36717091
16.35502793 33.58754757 -20.75824599
22.93382409 31.83526585 -19.67527634
18.02634028 34.83042795 -18.52676604
34.7337574 25.23492314 -15.5960402
29.29803715 29.18038004 -18.03446667
34.4548706 28.40352149 -14.31156685
21.56186348 37.36109269 -13.75507148
24.87588499 33.16259228 -17.38480745
19.76696847 36.09680613 -16.18707443
25.41568258 36.83894176 -13.06987854
21.45520295 34.08964054 -18.01548537
33.18341859 34.7462032 -11.29773242
28.36199874 31.9280062 -16.56283009
33.97852471 31.63616284 -12.8825149
29.37051057 36.02939568 -12.26786204
31.56376786 30.38214403 -15.56035313
27.04667892 34.53696432 -14.92714255
17.25128879 -24.70456385 -1.225579107
19.52491638 -22.15623148 -3.604134585
16.70558565 -25.0378304 -3.223730435
23.64742404 -16.69584506 -8.237666463
21.64299077 -19.50375691 -5.926331682
15.38603095 -25.33852383 -7.239070976
18.90512458 -22.33730441 -5.583892459
16.08153138 -25.25013816 -5.243603329
17.83481115 -23.68909905 -4.419419699
30.85431907 -2.359609001 -18.16772745
29.19235284 -6.608542839 -15.51762752
25.56735328 -13.66766009 -10.58091172
27.41746727 -10.33839342 -12.99601176
11.85491855 -24.3458857 -15.04658485
15.67634786 -21.76090213 -13.44897714
12.83100835 -24.79202683 -13.1872075
22.82653641 -16.58403625 -10.24949807
19.2838157 -19.2063744 -11.87019218
21.90934483 -18.06138104 -9.100514609
14.59152775 -25.2833166 -9.308449032
16.57242315 -22.09306371 -11.5818346
13.74883156 -25.10698128 -11.25885136
16.4341894 -23.82065262 -8.451193808
14.74307992 -23.42491451 -12.37945598
19.96789781 -20.90829289 -6.798334112
18.4131342 -20.7282522 -10.75289566
20.95265963 -19.50825581 -7.943927884
18.22759492 -22.36015707 -7.613542137
20.16193115 -19.40714742 -9.939458745
17.44563744 -22.27701817 -9.628299194
2.054748805 -15.82046697 -26.86795787
5.924541313 -13.91151235 -26.17086772
3.33159954 -17.26457053 -25.87562016
2.028700894 -13.72766272 -27.52303276
13.18286229 -10.20560222 -24.66046823
9.593086726 -12.0591143 -25.44091046
5.866280228 -19.8611917 -23.46694321
7.172908437 -15.24540809 -25.10693872
4.614161735 -18.62070334 -24.73296084
5.293977679 -16.23602375 -25.49271168
1.99253577 -9.557354216 -28.54730898
5.891759386 -11.91928808 -26.88925666
2.010099821 -11.62778345 -28.08296458
3.997266452 -12.81455041 -27.20901021
29.13743031 -1.445491045 -20.34677592
24.63727528 -4.007723786 -21.71130682
28.54240393 -3.674959641 -19.04388542
16.80685481 -8.29243825 -23.80465445
20.5810859 -6.253684455 -22.83848462
27.15963625 -7.759352354 -16.49184486
24.26386865 -6.065496117 -20.53566765
27.87259257 -5.788198792 -17.75174335
26.33986595 -4.913944689 -19.83049394
10.61459275 -23.63963447 -17.17477185
12.0596076 -19.59153203 -19.51285498
9.511999999 -22.89998939 -18.87803754
12.62992923 -22.40827884 -16.36492643
14.46047014 -11.3931299 -23.39753218
13.32835362 -15.5357471 -21.56572917
12.68315316 -12.340569 -23.84440174
7.157561564 -21.02301174 -22.01309778
10.91925387 -18.69800407 -21.0489393
8.349497212 -22.02237681 -20.50423039
7.82867589 -18.74264703 -22.99198184
10.24599504 -20.78373197 -20.00567046
16.45932636 -19.95112487 -14.79149587
14.0602842 -18.48884582 -18.75968808
14.58342697 -21.17359625 -15.56812368
13.36812259 -20.44485522 -17.60653559
9.088440424 -14.24665164 -24.68573614
11.56358026 -16.54630306 -22.05824244
10.88614067 -13.29369309 -24.27584498
8.473251125 -16.47708205 -23.88282368
12.14151976 -14.45971425 -22.97468181
9.73310136 -17.63552981 -22.51949919
1.982042704 -1.224969758 -29.60585018
5.904864754 -3.649407117 -28.91378173
1.981718409 -3.279178512 -29.45862032
13.29340699 -8.215777345 -25.50149651
9.703400391 -5.997031248 -27.53900966
11.47612522 -9.149214952 -25.8640001
1.992886979 -7.40446815 -28.9394832
5.889210109 -5.694502363 -28.54045606
1.983998409 -5.349767384 -29.23622358
3.960936249 -8.662543267 -28.31912273
3.957055738 -4.500252954 -29.08411584
7.821008572 -10.97303907 -26.55260281
7.845299192 -6.903926077 -27.80070155
9.64653001 -10.07250121 -26.21504784
5.916527033 -9.859744174 -27.51733023
9.685077449 -8.041765783 -26.91706418
5.917389742 -7.773688625 -28.07001988
23.87951675 -14.75835299 -11.62782614
21.96150789 -13.57295832 -15.82086234
24.7332258 -13.15593045 -12.80057612
22.04197241 -16.09741022 -12.42346874
16.58948246 -10.25286402 -22.83403266
19.50633484 -12.05557793 -19.5849856
18.40643006 -9.274373055 -22.32790628
15.99863662 -12.34723842 -21.90672302
26.35820309 -9.704185328 -15.21186709
22.61202165 -11.85388764 -16.96170328
25.56610616 -11.46473906 -14.00025288
25.15145021 -8.923339912 -17.35232459
23.74091494 -12.54645396 -14.94196301
18.38725346 -18.6566075 -13.98302586
20.03325961 -14.85238947 -16.52708607
20.20549751 -17.40040744 -13.21161557
17.28246599 -18.04052295 -16.05590407
21.10186065 -15.51537928 -14.5340187
22.19277369 -7.215983211 -21.19460635
21.30481936 -11.05199307 -18.92530514
20.2799891 -8.258184251 -21.78153255
23.75036306 -8.086901599 -19.36086566
19.91667932 -10.20041782 -20.69127979
23.19384986 -10.02456093 -18.1636291
14.7521809 -16.41557838 -19.89809589
18.77285298 -14.07015122 -18.50182065
15.384 -14.41094927 -20.92317683
16.06013896 -17.2870244 -18.04528131
17.44835392 -13.24801992 -20.26117336
18.05775669 -16.07124194 -17.29897557
2.134974294 16.43816033 -27.91698881
6.57053103 15.42837137 -29.02444077
3.572834747 18.51466743 -27.74922788
2.095988573 14.18297999 -28.43591301
15.815372 12.24357746 -29.58496191
11.17006754 14.04147852 -29.62307089
6.839327181 23.15559144 -27.35943329
8.27190744 17.58123719 -28.95370476
5.142440574 20.75260164 -27.56465609
5.900373541 18.09577047 -28.4127608
2.037020583 9.770729114 -29.18464846
6.425779163 12.99963355 -29.32645647
2.065605965 11.94886871 -28.85843704
4.251926533 13.63094694 -28.94245701
30.63778743 1.519922893 -21.39448088
27.96781042 4.549498993 -24.64630144
32.69621871 4.209781506 -21.81536792
28.09604709 0 -22.06705459
20.32395871 10.02776394 -28.78616015
24.45921609 7.432077207 -27.14198041
34.95396598 9.986147668 -21.2247093
29.72873122 7.431605667 -25.16084112
34.88736122 7.244929997 -22.21937126
31.33955424 5.846682607 -23.59460908
23.4983105 -2.670537898 -23.22163897
25.37363047 2.883664414 -25.07487873
25.71339378 -1.394534974 -22.67661635
26.82766277 1.454966013 -23.65928907
14.4212244 32.11733897 -23.33403124
16.8083985 27.3062183 -27.19656008
12.82707484 30.88097959 -25.45731713
17.63058594 31.28054628 -22.84440684
18.27267645 14.39669487 -29.56581156
18.30314143 21.33444119 -29.61510494
15.79305738 15.36647171 -29.69103976
8.819344621 25.90395959 -27.12391556
14.90276575 25.51932376 -28.72791635
10.93628908 28.8452194 -26.85672983
9.584684579 22.94671058 -28.14919111
14.05556598 28.51134662 -27.44399349
23.99081754 29.08040014 -21.55981788
19.86374995 26.12022667 -26.50286067
20.85101193 30.27346787 -22.25890617
18.80614588 28.76162508 -24.76870441
10.81437777 16.95215743 -29.37367291
15.37087691 21.99415594 -29.32089557
13.28257051 16.22011152 -29.61982876
10.25057513 19.93326587 -28.89241388
15.65196085 18.64040795 -29.61728248
12.45563536 22.5685237 -28.81863242
1.987523634 1.228357159 -29.68771906
6.054708072 3.74201538 -29.64750505
1.996488653 3.303619052 -29.67818281
3.982444189 0 -29.55873642
15.32696392 9.472584645 -29.40258409
10.41515321 6.436918681 -29.55901985
13.14832323 10.48235647 -29.63267015
2.027103652 7.531598421 -29.43635674
6.126873374 5.924308058 -29.69222648
2.00832338 5.415358633 -29.59467663
4.124712179 9.020720221 -29.49005565
4.039487327 4.594000181 -29.68998295
7.951527217 -2.440726427 -28.76889573
8.132562121 2.496295208 -29.42388617
5.987453344 -1.232672711 -29.25036272
6.038214577 1.243123228 -29.49834536
8.715229883 12.22765033 -29.58851603
8.376780161 7.371633583 -29.68406424
10.92545714 11.40790317 -29.6906122
6.35170346 10.58495479 -29.54130365
10.67379666 8.862724453 -29.66494292
6.252604576 8.214061129 -29.66016139
34.91292053 21.57737154 -17.00040139
31.03514168 19.1807724 -22.35742221
34.98264372 18.60773162 -18.1051189
32.65562212 23.84863457 -18.40561693
21.16867573 13.0829611 -29.13690854
27.192887 16.80612842 -27.30253042
23.51402502 11.84791615 -28.52367055
21.5356379 16.62051974 -29.48846616
34.98830385 12.8814921 -20.1924777
31.25701286 16.3858466 -23.44647398
35.0045223 15.69725603 -19.16882302
33.26712353 11.80265348 -22.95143704
33.11995723 17.50303305 -20.84490751
27.17710837 27.57522459 -20.66748087
28.60069777 21.20417299 -23.59507154
30.03439867 25.8647813 -19.63836471
25.00663648 26.10349701 -23.23187886
30.59896454 22.49823124 -21.07519949
27.8123272 9.043181756 -26.56140846
29.32336464 15.21165786 -26.04826703
25.75385032 10.48718715 -27.66068198
31.470343 10.71552323 -25.65405343
27.12478192 13.89208032 -28.17972026
31.37478653 13.5604249 -24.57030587
20.87261358 23.22612681 -28.15348248
26.5297774 19.88392388 -26.14675478
21.75053286 20.37479365 -29.58204922
22.90089621 24.650369 -25.73160265
24.56357022 18.65039355 -28.52342157
25.84706137 23.00365343 -24.76097618
15.48051345 -7.06928385 -25.04799693
16.39763374 -2.454718264 -26.53192872
17.35726804 -6.065664753 -24.64410557
13.71483895 -5.984774245 -26.22234638
17.85457901 8.153417351 -28.88931569
17.20177448 2.575097765 -27.83305577
19.89488179 6.952458357 -28.24704706
15.20306274 6.634193715 -29.06778408
21.30614599 -3.895569166 -23.75048644
18.4195576 -1.304219224 -26.21326274
19.30481279 -5.006529175 -24.21008376
22.11034666 -1.347386966 -24.62754954
17.89764751 -3.731517653 -25.45070602
9.9782245 -3.686950934 -28.07633024
14.44469573 -1.285085941 -27.5306341
11.86524643 -4.847005757 -27.23966121
10.1412738 -1.25353038 -28.57845427
14.1011343 -3.664039086 -26.90442597
23.6484385 4.32382881 -26.36149768
18.94294491 1.3412783 -26.95810631
21.84787444 5.66604929 -27.39932658
22.89759707 1.395361381 -25.50442628
19.42988861 4.050977779 -27.62957438
20.57655944 0 -25.88341999
10.42261017 3.851151303 -29.32672491
14.75877635 1.313028419 -28.12925098
12.72425977 5.19791651 -29.21174264
10.29074028 1.272005452 -28.99965587
15.0080502 3.899692135 -28.63478689
12.41524313 0 -28.36511411
29.20536352 41.82329661 2.074829526
34.58161031 39.24207142 6.383473061
27.38002005 41.03635233 5.283610274
32.980859 41.99163797 0
36.83929485 26.00973188 12.8331028
36.5015076 32.89363003 9.994923678
23.49290875 38.68935596 11.05332717
31.84800649 37.62993535 9.406753311
25.42325558 39.91788473 8.289600313
29.90417951 39.72024511 7.410177708
38.61321742 39.07327014 -4.440602175
38.61321742 39.07327014 4.440602175
36.61642745 41.51997826 -2.251786066
36.61642745 41.51997826 2.251786066
33.76858844 2.582480107 19.88371578
36.43387859 8.247873981 19.36696779
36.79697774 19.67073316 15.22823144
36.63922816 13.81567275 17.36717091
16.35502793 33.58754757 20.75824599
22.93382409 31.83526585 19.67527634
18.02634028 34.83042795 18.52676604
34.7337574 25.23492314 15.5960402
29.29803715 29.18038004 18.03446667
34.4548706 28.40352149 14.31156685
21.56186348 37.36109269 13.75507148
24.87588499 33.16259228 17.38480745
19.76696847 36.09680613 16.18707443
25.41568258 36.83894176 13.06987854
21.45520295 34.08964054 18.01548537
33.18341859 34.7462032 11.29773242
28.36199874 31.9280062 16.56283009
33.97852471 31.63616284 12.8825149
29.37051057 36.02939568 12.26786204
31.56376786 30.38214403 15.56035313
27.04667892 34.53696432 14.92714255
38.69327557 23.91375944 -10.92038413
41.53910039 25.6725759 -3.843172861
38.86257243 27.37157916 -9.565262376
38.69327557 23.91375944 10.92038413
41.53910039 25.6725759 3.843172861
38.86257243 27.37157916 9.565262376
39.04656651 35.02799189 -6.40444148
41.81991347 29.38605212 -2.080715233
39.00450326 31.10169468 -8.065944153
41.45310922 37.21615151 -2.267922716
40.66475279 28.59659024 -5.962162415
39.04656651 35.02799189 6.40444148
41.81991347 29.38605212 2.080715233
39.00450326 31.10169468 8.065944153
41.45310922 37.21615151 2.267922716
40.66475279 28.59659024 5.962162415
41.99163797 33.3821201 0
17.25128879 -24.70456385 1.225579107
19.52491638 -22.15623148 3.604134585
16.70558565 -25.0378304 3.223730435
18.47237783 -23.51926014 0
23.64742404 -16.69584506 8.237666463
21.64299077 -19.50375691 5.926331682
15.38603095 -25.33852383 7.239070976
18.90512458 -22.33730441 5.583892459
16.08153138 -25.25013816 5.243603329
17.83481115 -23.68909905 4.419419699
20.80362197 -21.05148431 -2.392460797
20.80362197 -21.05148431 2.392460797
19.66187661 -22.29493007 -1.209138708
19.66187661 -22.29493007 1.209138708
30.85431907 -2.359609001 18.16772745
29.19235284 -6.608542839 15.51762752
25.56735328 -13.66766009 10.58091172
27.41746727 -10.33839342 12.99601176
11.85491855 -24.3458857 15.04658485
15.67634786 -21.76090213 13.44897714
12.83100835 -24.79202683 13.1872075
22.82653641 -16.58403625 10.24949807
19.2838157 -19.2063744 11.87019218
21.90934483 -18.06138104 9.100514609
14.59152775 -25.2833166 9.308449032
16.57242315 -22.09306371 11.5818346
13.74883156 -25.10698128 11.25885136
16.4341894 -23.82065262 8.451193808
14.74307992 -23.42491451 12.37945598
19.96789781 -20.90829289 6.798334112
18.4131342 -20.7282522 10.75289566
20.95265963 -19.50825581 7.943927884
18.22759492 -22.36015707 7.613542137
20.16193115 -19.40714742 9.939458745
17.44563744 -22.27701817 9.628299194
25.19696394 -15.57258013 -7.111326734
25.86782072 -15.98719242 -2.393275387
24.14007265 -17.00226897 -5.941606904
25.19696394 -15.57258013 7.111326734
25.86782072 -15.98719242 2.393275387
24.14007265 -17.00226897 5.941606904
21.97122008 -19.70999726 -3.60373282
24.64104092 -17.31478744 -1.225994626
23.05935057 -18.38723278 -4.768563072
22.10824254 -19.84854018 -1.209554275
24.47346597 -17.210425 -3.588237207
21.97122008 -19.70999726 3.60373282
24.64104092 -17.31478744 1.225994626
23.05935057 -18.38723278 4.768563072
22.10824254 -19.84854018 1.209554275
24.47346597 -17.210425 3.588237207
23.39405258 -18.59758539 0
2.054748805 -15.82046697 26.86795787
5.924541313 -13.91151235 26.17086772
3.33159954 -17.26457053 25.87562016
2.028700894 -13.72766272 27.52303276
13.18286229 -10.20560222 24.66046823
9.593086726 -12.0591143 25.44091046
5.866280228 -19.8611917 23.46694321
7.172908437 -15.24540809 25.10693872
4.614161735 -18.62070334 24.73296084
5.293977679 -16.23602375 25.49271168
1.99253577 -9.557354216 28.54730898
5.891759386 -11.91928808 26.88925666
2.010099821 -11.62778345 28.08296458
3.997266452 -12.81455041 27.20901021
29.13743031 -1.445491045 20.34677592
24.63727528 -4.007723786 21.71130682
28.54240393 -3.674959641 19.04388542
16.80685481 -8.29243825 23.80465445
20.5810859 -6.253684455 22.83848462
27.15963625 -7.759352354 16.49184486
24.26386865 -6.065496117 20.53566765
27.87259257 -5.788198792 17.75174335
26.33986595 -4.913944689 19.83049394
10.61459275 -23.63963447 17.17477185
12.0596076 -19.59153203 19.51285498
9.511999999 -22.89998939 18.87803754
12.62992923 -22.40827884 16.36492643
14.46047014 -11.3931299 23.39753218
13.32835362 -15.5357471 21.56572917
12.68315316 -12.340569 23.84440174
7.157561564 -21.02301174 22.01309778
10.91925387 -18.69800407 21.0489393
8.349497212 -22.02237681 20.50423039
7.82867589 -18.74264703 22.99198184
10.24599504 -20.78373197 20.00567046
16.45932636 -19.95112487 14.79149587
14.0602842 -18.48884582 18.75968808
14.58342697 -21.17359625 15.56812368
13.36812259 -20.44485522 17.60653559
9.088440424 -14.24665164 24.68573614
11.56358026 -16.54630306 22.05824244
10.88614067 -13.29369309 24.27584498
8.473251125 -16.47708205 23.88282368
12.14151976 -14.45971425 22.97468181
9.73310136 -17.63552981 22.51949919
1.982042704 -1.224969758 29.60585018
5.904864754 -3.649407117 28.91378173
1.981718409 -3.279178512 29.45862032
13.29340699 -8.215777345 25.50149651
9.703400391 -5.997031248 27.53900966
11.47612522 -9.149214952 25.8640001
1.992886979 -7.40446815 28.9394832
5.889210109 -5.694502363 28.54045606
1.983998409 -5.349767384 29.23622358
3.960936249 -8.662543267 28.31912273
3.957055738 -4.500252954 29.08411584
7.821008572 -10.97303907 26.55260281
7.845299192 -6.903926077 27.80070155
9.64653001 -10.07250121 26.21504784
5.916527033 -9.859744174 27.51733023
9.685077449 -8.041765783 26.91706418
5.917389742 -7.773688625 28.07001988
23.87951675 -14.75835299 11.62782614
21.96150789 -13.57295832 15.82086234
24.7332258 -13.15593045 12.80057612
22.04197241 -16.09741022 12.42346874
16.58948246 -10.25286402 22.83403266
19.50633484 -12.05557793 19.5849856
18.40643006 -9.274373055 22.32790628
15.99863662 -12.34723842 21.90672302
26.35820309 -9.704185328 15.21186709
22.61202165 -11.85388764 16.96170328
25.56610616 -11.46473906 14.00025288
25.15145021 -8.923339912 17.35232459
23.74091494 -12.54645396 14.94196301
18.38725346 -18.6566075 13.98302586
20.03325961 -14.85238947 16.52708607
20.20549751 -17.40040744 13.21161557
17.28246599 -18.04052295 16.05590407
21.10186065 -15.51537928 14.5340187
22.19277369 -7.215983211 21.19460635
21.30481936 -11.05199307 18.92530514
20.2799891 -8.258184251 21.78153255
23.75036306 -8.086901599 19.36086566
19.91667932 -10.20041782 20.69127979
23.19384986 -10.02456093 18.1636291
14.7521809 -16.41557838 19.89809589
18.77285298 -14.07015122 18.50182065
15.384 -14.41094927 20.92317683
16.06013896 -17.2870244 18.04528131
17.44835392 -13.24801992 20.26117336
18.05775669 -16.07124194 17.29897557
2.134974294 16.43816033 27.91698881
6.57053103 15.42837137 29.02444077
3.572834747 18.51466743 27.74922788
2.095988573 14.18297999 28.43591301
15.815372 12.24357746 29.58496191
11.17006754 14.04147852 29.62307089
6.839327181 23.15559144 27.35943329
8.27190744 17.58123719 28.95370476
5.142440574 20.75260164 27.56465609
5.900373541 18.09577047 28.4127608
2.037020583 9.770729114 29.18464846
6.425779163 12.99963355 29.32645647
2.065605965 11.94886871 28.85843704
4.251926533 13.63094694 28.94245701
30.63778743 1.519922893 21.39448088
27.96781042 4.549498993 24.64630144
32.69621871 4.209781506 21.81536792
28.09604709 0 22.06705459
20.32395871 10.02776394 28.78616015
24.45921609 7.432077207 27.14198041
34.95396598 9.986147668 21.2247093
29.72873122 7.431605667 25.16084112
34.88736122 7.244929997 22.21937126
31.33955424 5.846682607 23.59460908
23.4983105 -2.670537898 23.22163897
25.37363047 2.883664414 25.07487873
25.71339378 -1.394534974 22.67661635
26.82766277 1.454966013 23.65928907
14.4212244 32.11733897 23.33403124
16.8083985 27.3062183 27.19656008
12.82707484 30.88097959 25.45731713
17.63058594 31.28054628 22.84440684
18.27267645 14.39669487 29.56581156
18.30314143 21.33444119 29.61510494
15.79305738 15.36647171 29.69103976
8.819344621 25.90395959 27.12391556
14.90276575 25.51932376 28.72791635
10.93628908 28.8452194 26.85672983
9.584684579 22.94671058 28.14919111
14.05556598 28.51134662 27.44399349
23.99081754 29.08040014 21.55981788
19.86374995 26.12022667 26.50286067
20.85101193 30.27346787 22.25890617
18.80614588 28.76162508 24.76870441
10.81437777 16.95215743 29.37367291
15.37087691 21.99415594 29.32089557
13.28257051 16.22011152 29.61982876
10.25057513 19.93326587 28.89241388
15.65196085 18.64040795 29.61728248
12.45563536 22.5685237 28.81863242
1.987523634 1.228357159 29.68771906
6.054708072 3.74201538 29.64750505
1.996488653 3.303619052 29.67818281
3.982444189 0 29.55873642
15.32696392 9.472584645 29.40258409
10.41515321 6.436918681 29.55901985
13.14832323 10.48235647 29.63267015
2.027103652 7.531598421 29.43635674
6.126873374 5.924308058 29.69222648
2.00832338 5.415358633 29.59467663
4.124712179 9.020720221 29.49005565
4.039487327 4.594000181 29.68998295
7.951527217 -2.440726427 28.76889573
8.132562121 2.496295208 29.42388617
5.987453344 -1.232672711 29.25036272
6.038214577 1.243123228 29.49834536
8.715229883 12.22765033 29.58851603
8.376780161 7.371633583 29.68406424
10.92545714 11.40790317 29.6906122
6.35170346 10.58495479 29.54130365
10.67379666 8.862724453 29.66494292
6.252604576 8.214061129 29.66016139
34.91292053 21.57737154 17.00040139
31.03514168 19.1807724 22.35742221
34.98264372 18.60773162 18.1051189
32.65562212 23.84863457 18.40561693
21.16867573 13.0829611 29.13690854
27.192887 16.80612842 27.30253042
23.51402502 11.84791615 28.52367055
21.5356379 16.62051974 29.48846616
34.98830385 12.8814921 20.1924777
31.25701286 16.3858466 23.44647398
35.0045223 15.69725603 19.16882302
33.26712353 11.80265348 22.95143704
33.11995723 17.50303305 20.84490751
27.17710837 27.57522459 20.66748087
28.60069777 21.20417299 23.59507154
30.03439867 25.8647813 19.63836471
25.00663648 26.10349701 23.23187886
30.59896454 22.49823124 21.07519949
27.8123272 9.043181756 26.56140846
29.32336464 15.21165786 26.04826703
25.75385032 10.48718715 27.66068198
31.470343 10.71552323 25.65405343
27.12478192 13.89208032 28.17972026
31.37478653 13.5604249 24.57030587
20.87261358 23.22612681 28.15348248
26.5297774 19.88392388 26.14675478
21.75053286 20.37479365 29.58204922
22.90089621 24.650369 25.73160265
24.56357022 18.65039355 28.52342157
25.84706137 23.00365343 24.76097618
15.48051345 -7.06928385 25.04799693
16.39763374 -2.454718264 26.53192872
17.35726804 -6.065664753 24.64410557
13.71483895 -5.984774245 26.22234638
17.85457901 8.153417351 28.88931569
17.20177448 2.575097765 27.83305577
19.89488179 6.952458357 28.24704706
15.20306274 6.634193715 29.06778408
21.30614599 -3.895569166 23.75048644
18.4195576 -1.304219224 26.21326274
19.30481279 -5.006529175 24.21008376
22.11034666 -1.347386966 24.62754954
17.89764751 -3.731517653 25.45070602
9.9782245 -3.686950934 28.07633024
14.44469573 -1.285085941 27.5306341
11.86524643 -4.847005757 27.23966121
10.1412738 -1.25353038 28.57845427
14.1011343 -3.664039086 26.90442597
23.6484385 4.32382881 26.36149768
18.94294491 1.3412783 26.95810631
21.84787444 5.66604929 27.39932658
22.89759707 1.395361381 25.50442628
19.42988861 4.050977779 27.62957438
20.57655944 0 25.88341999
10.42261017 3.851151303 29.32672491
14.75877635 1.313028419 28.12925098
12.72425977 5.19791651 29.21174264
10.29074028 1.272005452 28.99965587
15.0080502 3.899692135 28.63478689
12.41524313 0 28.36511411
33.68780278 0 -17.72610508
37.41064738 0 -13.48593937
36.06648525 2.658431995 -17.98888041
32.68653891 -2.409298834 -16.30306462
41.79137201 0 -2.896453402
40.24422986 0 -8.476426792
37.82186691 8.287225721 -16.76542171
39.73541096 2.773439266 -13.30301913
37.67393608 5.534665159 -17.74318689
38.25578502 2.73824177 -15.83985133
30.63193356 -6.711824888 -13.57831662
35.89375304 -2.505300478 -12.01687039
31.66118685 -4.651334212 -14.91137943
34.38757195 -2.46136593 -14.23821331
33.68780278 0 17.72610508
37.41064738 0 13.48593937
36.06648525 2.658431995 17.98888041
32.68653891 -2.409298834 16.30306462
41.79137201 0 2.896453402
40.24422986 0 8.476426792
37.82186691 8.287225721 16.76542171
39.73541096 2.773439266 13.30301913
37.67393608 5.534665159 17.74318689
38.25578502 2.73824177 15.83985133
30.63193356 -6.711824888 13.57831662
35.89375304 -2.505300478 12.01687039
31.66118685 -4.651334212 14.91137943
34.38757195 -2.46136593 14.23821331
38.48636821 20.06215423 -12.3990932
40.5815739 14.29896227 -8.837244688
38.31599912 17.00120639 -13.55402531
40.01213646 20.92718934 -9.132043346
41.9531878 2.808668194 -1.735852407
41.5805438 8.491711318 -5.248166217
41.71648927 2.806320658 -4.643659945
37.99048119 11.19000955 -15.69981811
40.35114164 11.38700685 -10.02065716
38.14870988 14.03784105 -14.65772364
39.0738898 8.401313767 -14.00057906
39.48705008 14.20790676 -11.79718583
41.89607109 21.98191283 -1.955641549
41.4482702 14.73056278 -5.442938489
41.21885209 21.60360416 -5.61348104
40.89649279 17.8139868 -7.277092561
40.61410611 2.796847569 -10.391542
40.9940893 8.45896802 -8.179299513
41.26426906 2.800233209 -7.550709827
39.94148036 5.586531013 -12.21770904
41.42654297 5.636311602 -6.410025437
40.14806946 8.463541365 -11.11857392
26.44240343 -13.78388246 -8.51890786
30.27572282 -10.66768429 -6.592991473
27.48270859 -12.19436298 -9.721822125
26.97223136 -14.10704457 -6.15592187
39.2977382 -2.630892029 -1.625980695
34.49344187 -7.044360749 -4.353654372
38.92371941 -2.61844752 -4.332783508
29.56412968 -8.708046939 -12.21757251
31.58629335 -8.913585193 -7.844026308
28.52800943 -10.49764627 -10.96120104
31.89778324 -6.858372352 -11.42930582
29.48975855 -10.61076325 -8.810386216
27.51555213 -14.43678256 -1.284381938
30.69429311 -10.90863887 -4.030738763
27.3340302 -14.32629825 -3.722545692
28.81121082 -12.54979325 -5.126646165
37.21178671 -2.562550433 -9.521023152
33.89410274 -6.993913904 -6.762682688
38.21698185 -2.593441351 -6.993104373
34.44210081 -4.81734434 -10.53550251
36.29548341 -4.938202407 -5.616084645
32.99737829 -6.95611719 -9.138267282
38.48636821 20.06215423 12.3990932
40.5815739 14.29896227 8.837244688
38.31599912 17.00120639 13.55402531
40.01213646 20.92718934 9.132043346
41.9531878 2.808668194 1.735852407
41.5805438 8.491711318 5.248166217
41.71648927 2.806320658 4.643659945
41.99163797 5.657527177 0
37.99048119 11.19000955 15.69981811
40.35114164 11.38700685 10.02065716
38.14870988 14.03784105 14.65772364
39.0738898 8.401313767 14.00057906
39.48705008 14.20790676 11.79718583
41.89607109 21.98191283 1.955641549
41.4482702 14.73056278 5.442938489
41.21885209 21.60360416 5.61348104
41.99163797 18.37949224 0
40.89649279 17.8139868 7.277092561
40.61410611 2.796847569 10.391542
40.9940893 8.45896802 8.179299513
41.26426906 2.800233209 7.550709827
39.94148036 5.586531013 12.21770904
41.42654297 5.636311602 6.410025437
40.14806946 8.463541365 11.11857392
41.78522959 11.54915341 -3.545020118
41.78522959 11.54915341 3.545020118
41.94487084 8.585977533 -1.767646375
41.92926112 14.8789054 -1.83913385
41.94487084 8.585977533 1.767646375
41.92926112 14.8789054 1.83913385
26.44240343 -13.78388246 8.51890786
30.27572282 -10.66768429 6.592991473
27.48270859 -12.19436298 9.721822125
26.97223136 -14.10704457 6.15592187
39.2977382 -2.630892029 1.625980695
34.49344187 -7.044360749 4.353654372
38.92371941 -2.61844752 4.332783508
37.00584583 -4.985792139 0
29.56412968 -8.708046939 12.21757251
31.58629335 -8.913585193 7.844026308
28.52800943 -10.49764627 10.96120104
31.89778324 -6.858372352 11.42930582
29.48975855 -10.61076325 8.810386216
27.51555213 -14.43678256 1.284381938
30.69429311 -10.90863887 4.030738763
27.3340302 -14.32629825 3.722545692
29.20763042 -12.78400755 0
28.81121082 -12.54979325 5.126646165
37.21178671 -2.562550433 9.521023152
33.89410274 -6.993913904 6.762682688
38.21698185 -2.593441351 6.993104373
34.44210081 -4.81734434 10.53550251
36.29548341 -4.938202407 5.616084645
32.99737829 -6.95611719 9.138267282
32.75428018 -9.053060386 -2.778842747
32.75428018 -9.053060386 2.778842747
34.81402902 -7.126317594 -1.467137483
30.96096882 -10.98672654 -1.358034086
34.81402902 -7.126317594 1.467137483
30.96096882 -10.98672654 1.358034086
-17.25128879 24.70456385 -1.225579107
-19.52491638 22.15623148 -3.604134585
-16.70558565 25.0378304 -3.223730435
-23.64742404 16.69584506 -8.237666463
-21.64299077 19.50375691 -5.926331682
-15.38603095 25.33852383 -7.239070976
-18.90512458 22.33730441 -5.583892459
-16.08153138 25.25013816 -5.243603329
-17.83481115 23.68909905 -4.419419699
-30.85431907 2.359609001 -18.16772745
-29.19235284 6.608542839 -15.51762752
-25.56735328 13.66766009 -10.58091172
-27.41746727 10.33839342 -12.99601176
-11.85491855 24.3458857 -15.04658485
-15.67634786 21.76090213 -13.44897714
-12.83100835 24.79202683 -13.1872075
-22.82653641 16.58403625 -10.24949807
-19.2838157 19.2063744 -11.87019218
-21.90934483 18.06138104 -9.100514609
-14.59152775 25.2833166 -9.308449032
-16.57242315 22.09306371 -11.5818346
-13.74883156 25.10698128 -11.25885136
-16.4341894 23.82065262 -8.451193808
-14.74307992 23.42491451 -12.37945598
-19.96789781 20.90829289 -6.798334112
-18.4131342 20.7282522 -10.75289566
-20.95265963 19.50825581 -7.943927884
-18.22759492 22.36015707 -7.613542137
-20.16193115 19.40714742 -9.939458745
-17.44563744 22.27701817 -9.628299194
-29.20536352 -41.82329661 -2.074829526
-34.58161031 -39.24207142 -6.383473061
-27.38002005 -41.03635233 -5.283610274
-36.83929485 -26.00973188 -12.8331028
-36.5015076 -32.89363003 -9.994923678
-23.49290875 -38.68935596 -11.05332717
-31.84800649 -37.62993535 -9.406753311
-25.42325558 -39.91788473 -8.289600313
-29.90417951 -39.72024511 -7.410177708
-33.76858844 -2.582480107 -19.88371578
-36.43387859 -8.247873981 -19.36696779
-36.79697774 -19.67073316 -15.22823144
-36.63922816 -13.81567275 -17.36717091
-16.35502793 -33.58754757 -20.75824599
-22.93382409 -31.83526585 -19.67527634
-18.02634028 -34.83042795 -18.52676604
-34.7337574 -25.23492314 -15.5960402
-29.29803715 -29.18038004 -18.03446667
-34.4548706 -28.40352149 -14.31156685
-21.56186348 -37.36109269 -13.75507148
-24.87588499 -33.16259228 -17.38480745
-19.76696847 -36.09680613 -16.18707443
-25.41568258 -36.83894176 -13.06987854
-21.45520295 -34.08964054 -18.01548537
-33.18341859 -34.7462032 -11.29773242
-28.36199874 -31.9280062 -16.56283009
-33.97852471 -31.63616284 -12.8825149
-29.37051057 -36.02939568 -12.26786204
-31.56376786 -30.38214403 -15.56035313
-27.04667892 -34.53696432 -14.92714255
-2.134974294 -16.43816033 -27.91698881
-6.57053103 -15.42837137 -29.02444077
-3.572834747 -18.51466743 -27.74922788
-2.095988573 -14.18297999 -28.43591301
-15.815372 -12.24357746 -29.58496191
-11.17006754 -14.04147852 -29.62307089
-6.839327181 -23.15559144 -27.35943329
-8.27190744 -17.58123719 -28.95370476
-5.142440574 -20.75260164 -27.56465609
-5.900373541 -18.09577047 -28.4127608
-2.037020583 -9.770729114 -29.18464846
-6.425779163 -12.99963355 -29.32645647
-2.065605965 -11.94886871 -28.85843704
-4.251926533 -13.63094694 -28.94245701
-30.63778743 -1.519922893 -21.39448088
-27.96781042 -4.549498993 -24.64630144
-32.69621871 -4.209781506 -21.81536792
-20.32395871 -10.02776394 -28.78616015
-24.45921609 -7.432077207 -27.14198041
-34.95396598 -9.986147668 -21.2247093
-29.72873122 -7.431605667 -25.16084112
-34.88736122 -7.244929997 -22.21937126
-31.33955424 -5.846682607 -23.59460908
-14.4212244 -32.11733897 -23.33403124
-16.8083985 -27.3062183 -27.19656008
-12.82707484 -30.88097959 -25.45731713
-17.63058594 -31.28054628 -22.84440684
-18.27267645 -14.39669487 -29.56581156
-18.30314143 -21.33444119 -29.61510494
-15.79305738 -15.36647171 -29.69103976
-8.819344621 -25.90395959 -27.12391556
-14.90276575 -25.51932376 -28.72791635
-10.93628908 -28.8452194 -26.85672983
-9.584684579 -22.94671058 -28.14919111
-14.05556598 -28.51134662 -27.44399349
-23.99081754 -29.08040014 -21.55981788
-19.86374995 -26.12022667 -26.50286067
-20.85101193 -30.27346787 -22.25890617
-18.80614588 -28.76162508 -24.76870441
-10.81437777 -16.95215743 -29.37367291
-15.37087691 -21.99415594 -29.32089557
-13.28257051 -16.22011152 -29.61982876
-10.25057513 -19.93326587 -28.89241388
-15.65196085 -18.64040795 -29.61728248
-12.45563536 -22.5685237 -28.81863242
-1.987523634 -1.228357159 -29.68771906
-6.054708072 -3.74201538 -29.64750505
-1.996488653 -3.303619052 -29.67818281
-15.32696392 -9.472584645 -29.40258409
-10.41515321 -6.436918681 -29.55901985
-13.14832323 -10.48235647 -29.63267015
-2.027103652 -7.531598421 -29.43635674
-6.126873374 -5.924308058 -29.69222648
-2.00832338 -5.415358633 -29.59467663
-4.124712179 -9.020720221 -29.49005565
-4.039487327 -4.594000181 -29.68998295
-8.715229883 -12.22765033 -29.58851603
-8.376780161 -7.371633583 -29.68406424
-10.92545714 -11.40790317 -29.6906122
-6.35170346 -10.58495479 -29.54130365
-10.67379666 -8.862724453 -29.66494292
-6.252604576 -8.214061129 -29.66016139
-34.91292053 -21.57737154 -17.00040139
-31.03514168 -19.1807724 -22.35742221
-34.98264372 -18.60773162 -18.1051189
-32.65562212 -23.84863457 -18.40561693
-21.16867573 -13.0829611 -29.13690854
-27.192887 -16.80612842 -27.30253042
-23.51402502 -11.84791615 -28.52367055
-21.5356379 -16.62051974 -29.48846616
-34.98830385 -12.8814921 -20.1924777
-31.25701286 -16.3858466 -23.44647398
-35.0045223 -15.69725603 -19.16882302
-33.26712353 -11.80265348 -22.95143704
-33.11995723 -17.50303305 -20.84490751
-27.17710837 -27.57522459 -20.66748087
-28.60069777 -21.20417299 -23.59507154
-30.03439867 -25.8647813 -19.63836471
-25.00663648 -26.10349701 -23.23187886
-30.59896454 -22.49823124 -21.07519949
-27.8123272 -9.043181756 -26.56140846
-29.32336464 -15.21165786 -26.04826703
-25.75385032 -10.48718715 -27.66068198
-31.470343 -10.71552323 -25.65405343
-27.12478192 -13.89208032 -28.17972026
-31.37478653 -13.5604249 -24.57030587
-20.87261358 -23.22612681 -28.15348248
-26.5297774 -19.88392388 -26.14675478
-21.75053286 -20.37479365 -29.58204922
-22.90089621 -24.650369 -25.73160265
-24.56357022 -18.65039355 -28.52342157
-25.84706137 -23.00365343 -24.76097618
-2.054748805 15.82046697 -26.86795787
-5.924541313 13.91151235 -26.17086772
-3.33159954 17.26457053 -25.87562016
-2.028700894 13.72766272 -27.52303276
-13.18286229 10.20560222 -24.66046823
-9.593086726 12.0591143 -25.44091046
-5.866280228 19.8611917 -23.46694321
-7.172908437 15.24540809 -25.10693872
-4.614161735 18.62070334 -24.73296084
-5.293977679 16.23602375 -25.49271168
-1.99253577 9.557354216 -28.54730898
-5.891759386 11.91928808 -26.88925666
-2.010099821 11.62778345 -28.08296458
-3.997266452 12.81455041 -27.20901021
-29.13743031 1.445491045 -20.34677592
-24.63727528 4.007723786 -21.71130682
-28.54240393 3.674959641 -19.04388542
-28.09604709 0 -22.06705459
-16.80685481 8.29243825 -23.80465445
-20.5810859 6.253684455 -22.83848462
-27.15963625 7.759352354 -16.49184486
-24.26386865 6.065496117 -20.53566765
-27.87259257 5.788198792 -17.75174335
-26.33986595 4.913944689 -19.83049394
-25.37363047 -2.883664414 -25.07487873
-23.4983105 2.670537898 -23.22163897
-26.82766277 -1.454966013 -23.65928907
-25.71339378 1.394534974 -22.67661635
-10.61459275 23.63963447 -17.17477185
-12.0596076 19.59153203 -19.51285498
-9.511999999 22.89998939 -18.87803754
-12.62992923 22.40827884 -16.36492643
-14.46047014 11.3931299 -23.39753218
-13.32835362 15.5357471 -21.56572917
-12.68315316 12.340569 -23.84440174
-7.157561564 21.02301174 -22.01309778
-10.91925387 18.69800407 -21.0489393
-8.349497212 22.02237681 -20.50423039
-7.82867589 18.74264703 -22.99198184
-10.24599504 20.78373197 -20.00567046
-16.45932636 19.95112487 -14.79149587
-14.0602842 18.48884582 -18.75968808
-14.58342697 21.17359625 -15.56812368
