28.253829 24.656495 22.43322
29.489804 12.429154 27.184653
23.072974 20.992485 26.439275
17.915623 -5.397352 28.988086
18.739601 5.6455878 30.321311
22.567968 -2.9524183 28.388429
13.287741 -2.7374251 30.35851
23.242201 3.0406238 29.236552
13.522151 2.7857162 30.894066
42.198446 0 -18.601269
47.931714 0 -6.6761186
44.097594 6.2811383 -17.090716
41.914155 -5.9701355 -16.244491
42.198446 0 18.601269
47.931714 0 6.6761186
44.097594 6.2811383 17.090716
41.914155 -5.9701355 16.244491
45.362864 19.661546 -12.151504
48.910976 6.5897685 -4.0727009
44.999325 12.969846 -14.79567
48.621455 21.281324 -4.3841939
47.321155 6.5024229 -10.778427
38.604076 -16.732096 -10.341004
46.938014 -6.3239517 -3.9084171
40.631362 -11.710898 -13.359494
40.370486 -17.669924 -3.6402045
45.288915 -6.2231718 -10.31554
45.362864 19.661546 12.151504
48.910976 6.5897685 4.0727009
44.999325 12.969846 14.79567
48.621455 21.281324 4.3841939
47.321155 6.5024229 10.778427
49.299792 13.626127 0
38.604076 -16.732096 10.341004
46.938014 -6.3239517 3.9084171
40.631362 -11.710898 13.359494
40.370486 -17.669924 3.6402045
45.288915 -6.2231718 10.31554
44.528278 -12.307313 0
-25.096637 31.953349 -3.3054815
-30.94368 24.751 -9.670205
-22.974028 31.877975 -8.5671407
-37.242495 5.6492817 -20.859294
-35.127752 15.967893 -15.610952
-17.306038 28.892365 -17.856464
-27.914145 23.74519 -14.675335
-20.265496 30.762201 -13.591685
-25.731693 27.913638 -11.764843
-32.031306 -40.782655 -4.2188476
-39.079363 -31.25851 -12.212686
-27.486775 -38.139707 -10.249969
-39.481111 -5.9888553 -22.113129
-40.692321 -18.497359 -18.083875
-19.096541 -31.881603 -19.703914
-33.311695 -28.33662 -17.512994
-23.018761 -34.941546 -15.438248
-31.018686 -33.648947 -14.18212
-4.5306143 -16.728749 -29.867759
-13.82002 -13.511093 -30.402649
-7.7171396 -20.694627 -28.715156
-4.3907043 -11.946924 -30.825542
-33.0326 -3.4171268 -25.944297
-23.497962 -9.1806437 -29.377133
-34.853461 -9.3667966 -25.118421
-14.795649 -28.142997 -23.939863
-17.938273 -17.385326 -29.024736
-11.268057 -24.645138 -26.734948
-21.288918 -26.812622 -23.398786
-12.842996 -19.149184 -29.067685
-4.2437926 -2.6228081 -31.498532
-13.419818 -8.2939035 -30.962029
-4.3067944 -7.1389495 -31.342545
-8.954866 -10.215483 -31.069215
-34.913042 -21.577447 -20.912322
-24.142203 -14.920702 -28.380862
-35.411307 -15.645803 -23.32823
-28.253829 -24.656495 -22.43322
-29.489804 -12.429154 -27.184653
-23.072974 -20.992485 -26.439275
-4.4009157 16.249853 -29.012729
-12.869202 12.581528 -28.310945
-7.3328563 19.664116 -27.285253
-4.2918412 11.677922 -30.13146
-31.810164 3.2906694 -24.984178
-21.694348 8.4759725 -27.122256
-31.794354 8.5446678 -22.913764
-27.783667 0 -27.456539
-13.63471 25.93476 -22.061424
-16.240146 15.739543 -26.277108
-10.509296 22.985601 -24.934688
-18.97806 23.90218 -20.858906
-11.867312 17.694419 -26.859411
-4.2208073 2.6086024 -31.327929
-12.792158 7.9059883 -29.5139
-4.24513 7.0367344 -30.893785
-8.6209536 0 -31.190903
-8.6069864 9.8186309 -29.862235
-29.904499 18.481997 -17.912289
-21.577255 13.335477 -25.365585
-31.089202 13.736164 -20.480917
-24.487185 21.369427 -19.442547
-26.408727 11.130564 -24.344418
-20.403756 18.563951 -23.380624
-18.739601 -5.6455878 -30.321311
-17.915623 5.397352 -28.988086
-23.242201 -3.0406238 -29.236552
-13.522151 -2.7857162 -30.894066
-22.567968 2.9524183 -28.388429
-13.287741 2.7374251 -30.35851
-25.096637 31.953349 3.3054815
-30.94368 24.751 9.670205
-22.974028 31.877975 8.5671407
-28.867088 29.211022 0
-37.242495 5.6492817 20.859294
-35.127752 15.967893 15.610952
-17.306038 28.892365 17.856464
-27.914145 23.74519 14.675335
-20.265496 30.762201 13.591685
-25.731693 27.913638 11.764843
-35.505527 21.943623 -6.6108479
-35.505527 21.943623 6.6108479
-32.428877 25.780006 -3.372628
-32.428877 25.780006 3.372628
-32.031306 -40.782655 4.2188476
-39.079363 -31.25851 12.212686
-27.486775 -38.139707 10.249969
-39.733392 -40.206791 0
-39.481111 -5.9888553 22.113129
-40.692321 -18.497359 18.083875
-19.096541 -31.881603 19.703914
-33.311695 -28.33662 17.512994
-23.018761 -34.941546 15.438248
-31.018686 -33.648947 14.18212
-45.465015 -28.098925 -8.4652256
-45.465015 -28.098925 8.4652256
-44.533674 -35.402964 -4.6315362
-44.533674 -35.402964 4.6315362
-4.5306143 -16.728749 29.867759
-13.82002 -13.511093 30.402649
-7.7171396 -20.694627 28.715156
-4.3907043 -11.946924 30.825542
-33.0326 -3.4171268 25.944297
-23.497962 -9.1806437 29.377133
-34.853461 -9.3667966 25.118421
-14.795649 -28.142997 23.939863
-17.938273 -17.385326 29.024736
-11.268057 -24.645138 26.734948
-21.288918 -26.812622 23.398786
-12.842996 -19.149184 29.067685
-4.2437926 -2.6228081 31.498532
-13.419818 -8.2939035 30.962029
-4.3067944 -7.1389495 31.342545
-8.954866 -10.215483 31.069215
-34.913042 -21.577447 20.912322
-24.142203 -14.920702 28.380862
-35.411307 -15.645803 23.32823
-28.253829 -24.656495 22.43322
-29.489804 -12.429154 27.184653
-23.072974 -20.992485 26.439275
-4.4009157 16.249853 29.012729
-12.869202 12.581528 28.310945
-7.3328563 19.664116 27.285253
-4.2918412 11.677922 30.13146
-31.810164 3.2906694 24.984178
-21.694348 8.4759725 27.122256
-31.794354 8.5446678 22.913764
-27.783667 0 27.456539
-13.63471 25.93476 22.061424
-16.240146 15.739543 26.277108
-10.509296 22.985601 24.934688
-18.97806 23.90218 20.858906
-11.867312 17.694419 26.859411
-4.2208073 2.6086024 31.327929
-12.792158 7.9059883 29.5139
-4.24513 7.0367344 30.893785
-8.6209536 0 31.190903
-8.6069864 9.8186309 29.862235
-29.904499 18.481997 17.912289
-21.577255 13.335477 25.365585
-31.089202 13.736164 20.480917
-24.487185 21.369427 19.442547
-26.408727 11.130564 24.344418
-20.403756 18.563951 23.380624
-18.739601 -5.6455878 30.321311
-17.915623 5.397352 28.988086
-23.242201 -3.0406238 29.236552
-13.522151 -2.7857162 30.894066
-22.567968 2.9524183 28.388429
-13.287741 2.7374251 30.35851
-42.198446 0 -18.601269
-47.931714 0 -6.6761186
-41.914155 5.9701355 -16.244491
-44.097594 -6.2811383 -17.090716
-42.198446 0 18.601269
-47.931714 0 6.6761186
-41.914155 5.9701355 16.244491
-44.097594 -6.2811383 17.090716
-38.604076 16.732096 -10.341004
-46.938014 6.3239517 -3.9084171
-40.631362 11.710898 -13.359494
-40.370486 17.669924 -3.6402045
-45.288915 6.2231718 -10.31554
-45.362864 -19.661546 -12.151504
-48.910976 -6.5897685 -4.0727009
-44.999325 -12.969846 -14.79567
-48.621455 -21.281324 -4.3841939
-47.321155 -6.5024229 -10.778427
-38.604076 16.732096 10.341004
-46.938014 6.3239517 3.9084171
-40.631362 11.710898 13.359494
-40.370486 17.669924 3.6402045
-45.288915 6.2231718 10.31554
-44.528278 12.307313 0
-45.362864 -19.661546 12.151504
-48.910976 -6.5897685 4.0727009
-44.999325 -12.969846 14.79567
-48.621455 -21.281324 4.3841939
-47.321155 -6.5024229 10.778427
-49.299792 -13.626127 0
-19.105692 36.309657 0
-14.001392 38.840537 0
-2.8802784 41.557992 0
-8.5469848 40.579224 0
22.129433 42.056163 0
15.201271 42.169059 0
2.9115079 42.008585 0
8.8811728 42.165876 0
-22.129433 -42.056163 0
-15.201271 -42.169059 0
-2.9115079 -42.008585 0
-8.8811728 -42.165876 0
19.105692 -36.309657 0
14.001392 -38.840537 0
2.8802784 -41.557992 0
8.5469848 -40.579224 0
-24.527339 -41.65487 3.1855899
-21.127687 -39.746211 8.9977173
-20.854225 -41.811307 3.0818782
-14.168528 -34.236345 18.301884
-17.586405 -37.101743 13.990075
-14.051139 -41.970005 2.9294087
-17.781094 -40.113168 8.7892774
-17.35321 -41.910789 2.9998567
-19.361387 -41.109844 6.0394333
-1.4206924 -19.997709 28.637552
-4.4260079 -23.977305 27.208655
-10.856943 -31.166439 22.004512
-7.6006545 -27.757625 25.01401
-1.7292459 -41.793518 2.7979787
-5.1349336 -40.683416 8.3084971
-4.6659497 -41.91673 2.8197911
-11.207424 -34.787466 18.133992
-8.3339006 -38.270164 13.484534
-12.811588 -36.217197 16.069946
-10.744127 -41.992141 2.8917445
-8.112153 -40.657555 8.3895256
-7.6813447 -41.978182 2.8486801
-12.664115 -41.400847 5.7906496
-6.4160527 -41.465496 5.6416113
-16.069589 -38.885255 11.453563
-9.7991524 -39.459187 11.135299
-14.444401 -37.593508 13.83354
-14.459711 -40.355272 8.6768249
-11.347227 -37.980966 13.666
-11.22595 -40.535792 8.5452765
20.700174 -35.155182 2.688521
18.631485 -35.050259 7.9346513
18.263673 -36.617426 2.6990414
13.262063 -32.045995 17.130978
16.095328 -33.956042 12.803915
13.07151 -39.043907 2.7251739
16.140412 -36.411879 7.9782803
15.705371 -37.930994 2.7149941
17.26107 -36.650263 5.3842777
1.40678 -19.801878 28.357113
4.2976843 -23.282129 26.419792
0 -21.818705 27.779846
10.283195 -29.519412 20.841658
7.2708072 -26.553022 23.928471
-2.9706188 -25.83099 26.13875
2.9147602 -25.345272 25.647245
-1.4667647 -23.851148 27.045214
1.4522961 -23.615874 26.778434
1.7184804 -41.533331 2.7805597
5.0421607 -39.948389 8.1583874
4.5844066 -41.184185 2.7705119
0 -41.230565 5.5549879
10.67532 -33.135834 17.27303
8.0785015 -37.097344 13.07129
12.112897 -34.24206 15.193557
10.230155 -39.983346 2.7534109
7.8604851 -39.396213 8.1292527
7.4428877 -40.675026 2.7602466
11.923717 -38.980378 5.4521037
6.2603081 -40.458953 5.5046657
-3.3610754 -39.617069 10.949888
3.3240537 -39.180693 10.829277
-1.7102083 -40.58191 8.306984
1.7004651 -40.350711 8.2596583
14.838358 -35.905916 10.576006
9.4241115 -37.948974 10.70912
13.516577 -35.178721 12.944954
13.473931 -37.604079 8.0852884
10.826116 -36.236725 13.038401
10.691828 -38.607131 8.138699
-9.3110428 -32.991032 20.389579
-3.0657361 -33.136141 20.479262
-7.724365 -31.383216 22.103739
-7.9792879 -34.961327 18.28551
8.9255446 -31.625129 19.545405
3.0259327 -32.705924 20.213373
7.4377741 -30.21883 21.283642
7.7259404 -33.851283 17.704933
-4.5658048 -27.836775 24.971884
-1.561995 -31.39425 22.060138
-6.1325057 -29.654971 23.646497
-1.5157601 -27.705075 24.873316
-4.6129221 -31.462299 22.125168
-5.0277541 -38.286619 13.606923
-1.6326387 -34.976321 18.351278
-6.5389539 -36.748231 16.007057
-1.6776835 -38.248456 13.572745
-4.7707793 -35.031034 18.360448
4.4447068 -27.098466 24.30956
1.5503511 -31.160222 21.895691
5.9338267 -28.694218 22.880405
1.5021473 -27.45626 24.649932
4.5115343 -30.770787 21.638877
0 -29.497477 23.449629
4.9427822 -37.639553 13.376959
1.6227844 -34.765211 18.240513
6.3850842 -35.8835 15.630392
1.6686876 -38.043364 13.499966
4.6846183 -34.398368 18.028856
0 -36.619925 16.028325
-20.700174 35.155182 2.688521
-18.631485 35.050259 7.9346513
-18.263673 36.617426 2.6990414
-13.262063 32.045995 17.130978
-16.095328 33.956042 12.803915
-13.07151 39.043907 2.7251739
-16.140412 36.411879 7.9782803
-15.705371 37.930994 2.7149941
-17.26107 36.650263 5.3842777
-1.40678 19.801878 28.357113
-4.2976843 23.282129 26.419792
-10.283195 29.519412 20.841658
-7.2708072 26.553022 23.928471
-1.7184804 41.533331 2.7805597
-5.0421607 39.948389 8.1583874
-4.5844066 41.184185 2.7705119
-10.67532 33.135834 17.27303
-8.0785015 37.097344 13.07129
-12.112897 34.24206 15.193557
-10.230155 39.983346 2.7534109
-7.8604851 39.396213 8.1292527
-7.4428877 40.675026 2.7602466
-11.923717 38.980378 5.4521037
-6.2603081 40.458953 5.5046657
-14.838358 35.905916 10.576006
-9.4241115 37.948974 10.70912
-13.516577 35.178721 12.944954
-13.473931 37.604079 8.0852884
-10.826116 36.236725 13.038401
-10.691828 38.607131 8.138699
24.527339 41.65487 3.1855899
21.127687 39.746211 8.9977173
20.854225 41.811307 3.0818782
14.168528 34.236345 18.301884
17.586405 37.101743 13.990075
14.051139 41.970005 2.9294087
17.781094 40.113168 8.7892774
17.35321 41.910789 2.9998567
19.361387 41.109844 6.0394333
1.4206924 19.997709 28.637552
4.4260079 23.977305 27.208655
0 21.818705 27.779846
10.856943 31.166439 22.004512
7.6006545 27.757625 25.01401
-2.9147602 25.345272 25.647245
2.9706188 25.83099 26.13875
-1.4522961 23.615874 26.778434
1.4667647 23.851148 27.045214
1.7292459 41.793518 2.7979787
5.1349336 40.683416 8.3084971
4.6659497 41.91673 2.8197911
0 41.230565 5.5549879
11.207424 34.787466 18.133992
8.3339006 38.270164 13.484534
12.811588 36.217197 16.069946
10.744127 41.992141 2.8917445
8.112153 40.657555 8.3895256
7.6813447 41.978182 2.8486801
12.664115 41.400847 5.7906496
6.4160527 41.465496 5.6416113
-3.3240537 39.180693 10.829277
3.3610754 39.617069 10.949888
-1.7004651 40.350711 8.2596583
1.7102083 40.58191 8.306984
16.069589 38.885255 11.453563
9.7991524 39.459187 11.135299
14.444401 37.593508 13.83354
14.459711 40.355272 8.6768249
11.347227 37.980966 13.666
11.22595 40.535792 8.5452765
-8.9255446 31.625129 19.545405
-3.0259327 32.705924 20.213373
-7.4377741 30.21883 21.283642
-7.7259404 33.851283 17.704933
9.3110428 32.991032 20.389579
3.0657361 33.136141 20.479262
7.724365 31.383216 22.103739
7.9792879 34.961327 18.28551
-4.4447068 27.098466 24.30956
-1.5503511 31.160222 21.895691
-5.9338267 28.694218 22.880405
-1.5021473 27.45626 24.649932
-4.5115343 30.770787 21.638877
-4.9427822 37.639553 13.376959
-1.6227844 34.765211 18.240513
-6.3850842 35.8835 15.630392
-1.6686876 38.043364 13.499966
-4.6846183 34.398368 18.028856
4.5658048 27.836775 24.971884
1.561995 31.39425 22.060138
6.1325057 29.654971 23.646497
1.5157601 27.705075 24.873316
4.6129221 31.462299 22.125168
0 29.497477 23.449629
5.0277541 38.286619 13.606923
1.6326387 34.976321 18.351278
6.5389539 36.748231 16.007057
1.6776835 38.248456 13.572745
4.7707793 35.031034 18.360448
0 36.619925 16.028325
0 -15.666058 29.772759
0 -11.06711 30.700697
0 -2.1839766 31.511427
0 -6.5828122 31.25376
0 15.666058 29.772759
0 11.06711 30.700697
0 2.1839766 31.511427
0 6.5828122 31.25376
-24.527339 -41.65487 -3.1855899
-21.127687 -39.746211 -8.9977173
-20.854225 -41.811307 -3.0818782
-14.168528 -34.236345 -18.301884
-17.586405 -37.101743 -13.990075
-14.051139 -41.970005 -2.9294087
-17.781094 -40.113168 -8.7892774
-17.35321 -41.910789 -2.9998567
-19.361387 -41.109844 -6.0394333
-1.4206924 -19.997709 -28.637552
-4.4260079 -23.977305 -27.208655
-10.856943 -31.166439 -22.004512
-7.6006545 -27.757625 -25.01401
-1.7292459 -41.793518 -2.7979787
-5.1349336 -40.683416 -8.3084971
-4.6659497 -41.91673 -2.8197911
-11.207424 -34.787466 -18.133992
-8.3339006 -38.270164 -13.484534
-12.811588 -36.217197 -16.069946
-10.744127 -41.992141 -2.8917445
-8.112153 -40.657555 -8.3895256
-7.6813447 -41.978182 -2.8486801
-12.664115 -41.400847 -5.7906496
-6.4160527 -41.465496 -5.6416113
-16.069589 -38.885255 -11.453563
-9.7991524 -39.459187 -11.135299
-14.444401 -37.593508 -13.83354
-14.459711 -40.355272 -8.6768249
-11.347227 -37.980966 -13.666
-11.22595 -40.535792 -8.5452765
20.700174 -35.155182 -2.688521
18.631485 -35.050259 -7.9346513
18.263673 -36.617426 -2.6990414
13.262063 -32.045995 -17.130978
16.095328 -33.956042 -12.803915
13.07151 -39.043907 -2.7251739
16.140412 -36.411879 -7.9782803
15.705371 -37.930994 -2.7149941
17.26107 -36.650263 -5.3842777
1.40678 -19.801878 -28.357113
4.2976843 -23.282129 -26.419792
0 -21.818705 -27.779846
10.283195 -29.519412 -20.841658
7.2708072 -26.553022 -23.928471
-2.9706188 -25.83099 -26.13875
2.9147602 -25.345272 -25.647245
-1.4667647 -23.851148 -27.045214
1.4522961 -23.615874 -26.778434
1.7184804 -41.533331 -2.7805597
5.0421607 -39.948389 -8.1583874
4.5844066 -41.184185 -2.7705119
0 -41.230565 -5.5549879
10.67532 -33.135834 -17.27303
8.0785015 -37.097344 -13.07129
12.112897 -34.24206 -15.193557
10.230155 -39.983346 -2.7534109
7.8604851 -39.396213 -8.1292527
7.4428877 -40.675026 -2.7602466
11.923717 -38.980378 -5.4521037
6.2603081 -40.458953 -5.5046657
-3.3610754 -39.617069 -10.949888
3.3240537 -39.180693 -10.829277
-1.7102083 -40.58191 -8.306984
1.7004651 -40.350711 -8.2596583
14.838358 -35.905916 -10.576006
9.4241115 -37.948974 -10.70912
13.516577 -35.178721 -12.944954
13.473931 -37.604079 -8.0852884
10.826116 -36.236725 -13.038401
10.691828 -38.607131 -8.138699
-9.3110428 -32.991032 -20.389579
-3.0657361 -33.136141 -20.479262
-7.724365 -31.383216 -22.103739
-7.9792879 -34.961327 -18.28551
8.9255446 -31.625129 -19.545405
3.0259327 -32.705924 -20.213373
7.4377741 -30.21883 -21.283642
7.7259404 -33.851283 -17.704933
-4.5658048 -27.836775 -24.971884
-1.561995 -31.39425 -22.060138
-6.1325057 -29.654971 -23.646497
-1.5157601 -27.705075 -24.873316
-4.6129221 -31.462299 -22.125168
-5.0277541 -38.286619 -13.606923
-1.6326387 -34.976321 -18.351278
-6.5389539 -36.748231 -16.007057
-1.6776835 -38.248456 -13.572745
-4.7707793 -35.031034 -18.360448
4.4447068 -27.098466 -24.30956
1.5503511 -31.160222 -21.895691
5.9338267 -28.694218 -22.880405
1.5021473 -27.45626 -24.649932
4.5115343 -30.770787 -21.638877
0 -29.497477 -23.449629
4.9427822 -37.639553 -13.376959
1.6227844 -34.765211 -18.240513
6.3850842 -35.8835 -15.630392
1.6686876 -38.043364 -13.499966
4.6846183 -34.398368 -18.028856
0 -36.619925 -16.028325
-20.700174 35.155182 -2.688521
-18.631485 35.050259 -7.9346513
-18.263673 36.617426 -2.6990414
-13.262063 32.045995 -17.130978
-16.095328 33.956042 -12.803915
-13.07151 39.043907 -2.7251739
-16.140412 36.411879 -7.9782803
-15.705371 37.930994 -2.7149941
-17.26107 36.650263 -5.3842777
-1.40678 19.801878 -28.357113
-4.2976843 23.282129 -26.419792
-10.283195 29.519412 -20.841658
-7.2708072 26.553022 -23.928471
-1.7184804 41.533331 -2.7805597
-5.0421607 39.948389 -8.1583874
-4.5844066 41.184185 -2.7705119
-10.67532 33.135834 -17.27303
-8.0785015 37.097344 -13.07129
-12.112897 34.24206 -15.193557
-10.230155 39.983346 -2.7534109
-7.8604851 39.396213 -8.1292527
-7.4428877 40.675026 -2.7602466
-11.923717 38.980378 -5.4521037
-6.2603081 40.458953 -5.5046657
-14.838358 35.905916 -10.576006
-9.4241115 37.948974 -10.70912
-13.516577 35.178721 -12.944954
-13.473931 37.604079 -8.0852884
-10.826116 36.236725 -13.038401
-10.691828 38.607131 -8.138699
24.527339 41.65487 -3.1855899
21.127687 39.746211 -8.9977173
20.854225 41.811307 -3.0818782
14.168528 34.236345 -18.301884
17.586405 37.101743 -13.990075
14.051139 41.970005 -2.9294087
17.781094 40.113168 -8.7892774
17.35321 41.910789 -2.9998567
19.361387 41.109844 -6.0394333
1.4206924 19.997709 -28.637552
4.4260079 23.977305 -27.208655
0 21.818705 -27.779846
10.856943 31.166439 -22.004512
7.6006545 27.757625 -25.01401
-2.9147602 25.345272 -25.647245
2.9706188 25.83099 -26.13875
-1.4522961 23.615874 -26.778434
1.4667647 23.851148 -27.045214
1.7292459 41.793518 -2.7979787
5.1349336 40.683416 -8.3084971
4.6659497 41.91673 -2.8197911
0 41.230565 -5.5549879
11.207424 34.787466 -18.133992
8.3339006 38.270164 -13.484534
12.811588 36.217197 -16.069946
10.744127 41.992141 -2.8917445
8.112153 40.657555 -8.3895256
7.6813447 41.978182 -2.8486801
12.664115 41.400847 -5.7906496
6.4160527 41.465496 -5.6416113
-3.3240537 39.180693 -10.829277
3.3610754 39.617069 -10.949888
-1.7004651 40.350711 -8.2596583
1.7102083 40.58191 -8.306984
16.069589 38.885255 -11.453563
9.7991524 39.459187 -11.135299
14.444401 37.593508 -13.83354
14.459711 40.355272 -8.6768249
11.347227 37.980966 -13.666
11.22595 40.535792 -8.5452765
-8.9255446 31.625129 -19.545405
-3.0259327 32.705924 -20.213373
-7.4377741 30.21883 -21.283642
-7.7259404 33.851283 -17.704933
9.3110428 32.991032 -20.389579
3.0657361 33.136141 -20.479262
7.724365 31.383216 -22.103739
7.9792879 34.961327 -18.28551
-4.4447068 27.098466 -24.30956
-1.5503511 31.160222 -21.895691
-5.9338267 28.694218 -22.880405
-1.5021473 27.45626 -24.649932
-4.5115343 30.770787 -21.638877
-4.9427822 37.639553 -13.376959
-1.6227844 34.765211 -18.240513
-6.3850842 35.8835 -15.630392
-1.6686876 38.043364 -13.499966
-4.6846183 34.398368 -18.028856
4.5658048 27.836775 -24.971884
1.561995 31.39425 -22.060138
6.1325057 29.654971 -23.646497
1.5157601 27.705075 -24.873316
4.6129221 31.462299 -22.125168
0 29.497477 -23.449629
5.0277541 38.286619 -13.606923
1.6326387 34.976321 -18.351278
6.5389539 36.748231 -16.007057
1.6776835 38.248456 -13.572745
4.7707793 35.031034 -18.360448
0 36.619925 -16.028325
0 -15.666058 -29.772759
0 -11.06711 -30.700697
0 -2.1839766 -31.511427
0 -6.5828122 -31.25376
0 15.666058 -29.772759
0 11.06711 -30.700697
0 2.1839766 -31.511427
0 6.5828122 -31.25376
29.059326 41.614164 -2.0644546
34.611316 39.27578 -6.3889565
27.277219 40.882277 -5.2637723
39.756376 28.069285 -13.849279
38.084021 34.319725 -10.428251
23.287356 38.35084 -10.956615
31.96126 37.76375 -9.4402043
25.291603 39.711172 -8.2466731
29.80572 39.589467 -7.3857798
38.471437 2.9421342 -22.65286
40.169572 9.0935575 -21.352731
40.522422 21.662262 -16.769987
40.718185 15.353738 -19.300616
15.760175 32.365927 -20.003243
22.526253 31.269502 -19.325615
17.530889 33.87312 -18.017561
36.886344 26.79883 -16.562588
29.665811 29.546677 -18.260851
36.117911 29.77448 -15.002346
21.260352 36.838652 -13.562727
24.616044 32.816193 -17.203215
19.369348 35.370704 -15.861465
25.207318 36.536927 -12.962728
21.024018 33.404542 -17.653429
33.750734 35.340236 -11.490882
28.461778 32.040331 -16.621099
35.092314 32.673171 -13.304794
29.402247 36.068327 -12.281118
32.275398 31.067134 -15.911174
26.93891 34.399349 -14.867664
23.362201 -33.455644 -1.6597151
26.717825 -30.318507 -4.9318848
22.469093 -33.676003 -4.335933
32.148569 -22.697928 -11.199071
29.637837 -26.708377 -8.1154981
20.239005 -33.330657 -9.5223775
25.631475 -30.284807 -7.5706139
21.417824 -33.628826 -6.9835745
24.11905 -32.036143 -5.9766377
37.319678 -2.8540526 -21.974679
36.961504 -8.3673175 -19.647435
34.246447 -18.307284 -14.172708
35.88418 -13.530964 -17.009274
14.574564 -29.931094 -18.498433
19.988804 -27.747178 -17.148699
16.065596 -31.041885 -16.51159
30.571136 -22.210677 -13.726953
25.274768 -25.173268 -15.557935
29.516066 -24.332125 -12.260129
18.904046 -32.755788 -12.059556
21.506293 -28.670515 -15.029928
17.522779 -31.998652 -14.349318
21.684564 -31.430846 -11.151171
18.822165 -29.906071 -15.804578
27.070831 -28.345741 -9.2166213
24.244044 -27.292293 -14.158028
28.344434 -26.390467 -10.746423
24.413476 -29.948502 -10.197343
26.87229 -25.866297 -13.247541
23.02172 -29.397336 -12.705756
2.225273 -17.133412 -29.097738
6.5391537 -15.354694 -28.885836
3.6457787 -18.892668 -28.315763
2.1905039 -14.822539 -29.718186
15.001569 -11.613567 -28.062625
10.758468 -13.524071 -28.531506
6.5886669 -22.306942 -26.356714
8.0180018 -17.041582 -28.064973
5.1115415 -20.627907 -27.39903
5.8589846 -17.968835 -28.213456
2.1383916 -10.256963 -30.637004
6.4629724 -13.074877 -29.496202
2.1637102 -12.51637 -30.229044
4.3519991 -13.951763 -29.623642
34.51427 -1.7122329 -24.101443
29.143315 -4.7407173 -25.682201
34.618902 -4.4573354 -23.098209
19.397355 -9.5705812 -27.47375
24.078346 -7.3163477 -26.719336
34.249245 -9.784813 -20.796789
29.211039 -7.3021926 -24.722693
34.519577 -7.1685536 -21.985134
31.875963 -5.9467547 -23.998455
12.765768 -28.430491 -20.655446
14.403342 -23.399065 -23.305097
11.233466 -27.044392 -22.294554
15.49281 -27.48766 -20.074435
16.730796 -13.181877 -27.070997
15.694471 -18.293732 -25.394188
14.557174 -14.163971 -27.367572
8.1685794 -23.992548 -25.122486
12.81016 -21.935969 -24.69402
9.6877002 -25.55198 -23.790515
8.9163702 -21.346698 -26.186423
12.074789 -24.493393 -23.576456
20.852326 -25.276087 -18.739351
17.047594 -22.417068 -22.745454
18.200655 -26.425429 -19.429593
16.318163 -24.95657 -21.491898
10.257173 -16.078707 -27.860211
13.479137 -19.28727 -25.712286
12.391488 -15.13196 -27.632736
9.6123237 -18.692122 -27.09343
14.049252 -16.731693 -26.584572
11.222881 -20.33488 -25.966405
2.1081359 -1.3028996 -31.489309
6.3422925 -3.9197523 -31.055692
2.1112312 -3.4934852 -31.383852
14.975191 -9.2551773 -28.727759
10.625767 -6.5670853 -30.156759
12.847301 -10.24237 -28.954249
2.1326952 -7.9239183 -30.969692
6.3539929 -6.1439186 -30.792899
2.1180208 -5.711153 -31.211178
4.2737097 -9.3465769 -30.555329
4.2373863 -4.8190653 -31.144528
8.6415634 -12.124295 -29.338416
8.5515756 -7.525455 -30.303472
10.729599 -11.203397 -29.158356
6.4527241 -10.753303 -30.011143
10.686594 -8.8733501 -29.700509
6.4176918 -8.4309367 -30.443277
31.686849 -19.583549 -15.429507
27.958011 -17.279001 -20.140687
32.503666 -17.28913 -16.822134
28.973993 -21.159914 -16.330548
19.376299 -11.975212 -26.669853
23.758298 -14.683436 -23.854093
21.669081 -10.918312 -26.285662
18.876727 -14.568457 -25.847655
33.782555 -12.437577 -19.496615
28.456837 -14.917912 -21.346009
33.21113 -14.893036 -18.186743
31.504041 -11.177139 -21.735063
30.546332 -16.142939 -19.225129
23.623071 -23.969125 -17.964729
25.24237 -18.714354 -20.82451
26.272115 -22.624808 -17.178349
21.723842 -22.67671 -20.18207
27.169171 -19.976437 -18.712911
26.532293 -8.6269783 -25.338946
26.195597 -13.589111 -23.269837
24.063438 -9.7988369 -25.845111
29.055498 -9.8932784 -23.685516
23.952978 -12.267626 -24.884558
28.798111 -12.446766 -22.552453
17.735388 -19.73516 -23.921917
23.115863 -17.325213 -22.782128
18.329227 -17.169888 -24.928865
19.738221 -21.246087 -22.177999
21.024891 -15.963579 -24.414277
22.479998 -20.006997 -21.535396
2.258849 17.391929 -29.536778
6.8192272 16.012339 -30.123023
3.7395251 19.378468 -29.043866
2.2206661 15.026639 -30.127391
16.205817 12.545843 -30.315346
11.461188 14.407435 -30.395124
6.8949649 23.343962 -27.582002
8.4616694 17.98456 -29.617918
5.2982995 21.381579 -28.400095
6.0996273 18.706859 -29.372251
2.1602029 10.361583 -30.949496
6.7094415 13.573495 -30.621056
2.1899159 12.667962 -30.595162
4.4679482 14.323475 -30.412896
35.188806 1.7456963 -24.572474
30.745109 5.0012796 -27.093763
36.376682 4.6836572 -24.271023
32.540148 0 -25.557518
21.050957 10.386462 -29.815856
25.944632 7.8834297 -28.790322
37.849163 10.813289 -22.982728
31.652571 7.9125284 -26.789079
37.275694 7.7409062 -23.740474
34.074355 6.3568849 -25.653559
27.229705 -3.0946037 -26.909099
28.180803 3.2026941 -27.848999
29.845432 -1.6186311 -26.320657
30.401286 1.6487772 -26.810864
13.701219 30.513823 -22.169038
15.779219 25.634257 -25.531313
11.996139 28.880515 -23.808196
16.931389 30.040017 -21.938439
18.354962 14.461526 -29.698952
17.364357 20.240179 -28.09612
15.865001 15.436472 -29.826294
8.6215314 25.322947 -26.51554
13.940205 23.871046 -26.872397
10.290766 27.142609 -25.271491
9.4802635 22.696716 -27.842517
13.031323 26.433696 -25.444122
23.636547 28.650972 -21.241446
18.966079 24.939816 -25.305159
20.262879 29.419561 -21.631062
18.010624 27.544975 -23.72096
10.964231 17.187062 -29.780701
14.742743 21.095361 -28.122692
13.386368 16.346864 -29.851294
10.265966 19.963195 -28.935795
15.375326 18.310955 -29.093823
12.112166 21.946188 -28.023948
2.1110004 1.30467 -31.532097
6.4202053 3.9679051 -31.4372
2.1189065 3.5061857 -31.497948
4.2383717 0 -31.458297
15.96359 9.8660411 -30.62386
10.989293 6.7917565 -31.188473
13.649533 10.881941 -30.762258
2.1499503 7.9880288 -31.220261
6.4757971 6.2616958 -31.383191
2.1305149 5.7448428 -31.395292
4.35489 9.5241178 -31.135736
4.2799871 4.8675141 -31.457642
8.5607452 -2.6277263 -30.973067
8.6555972 2.6568411 -31.316245
6.4012962 -1.317873 -31.272099
6.4279121 1.3233526 -31.402125
9.0599057 12.711238 -30.758703
8.8202948 7.76193 -31.255708
11.335372 11.835919 -30.804582
6.6633034 11.104228 -30.990532
11.176309 9.2799728 -31.061539
6.585546 8.6514471 -31.239519
37.546292 23.204884 -18.282688
32.288867 19.955617 -23.260594
37.91583 20.167932 -19.623177
34.226136 24.995592 -19.290802
21.358521 13.200292 -29.398214
26.913663 16.633559 -27.022181
23.909368 12.047116 -29.003242
21.023396 16.225188 -28.787061
38.107897 14.030019 -21.99286
32.560565 17.069207 -24.424293
38.116038 17.092569 -20.87272
35.281421 12.517294 -24.341128
35.258511 18.633203 -22.190862
27.24989 27.649072 -20.722829
29.05773 21.54301 -23.972115
30.733594 26.466909 -20.095542
24.745946 25.831372 -22.98969
31.61595 23.245981 -21.775654
29.044528 9.443832 -27.738188
29.682599 15.398012 -26.367379
26.492709 10.788057 -28.454246
32.222106 10.971496 -26.266877
26.821756 13.736884 -27.864909
32.519685 14.055259 -25.466901
19.832765 22.069029 -26.75091
26.348737 19.748235 -25.968328
20.509021 19.211809 -27.893518
22.271453 23.972841 -25.024356
23.718032 18.008402 -27.541576
25.66476 22.841407 -24.586335
17.566829 -8.0220141 -28.423726
18.215698 -2.7268816 -29.473618
19.814523 -6.9243762 -28.132953
15.310414 -6.6810388 -29.273036
18.739099 8.5573394 -30.320498
18.64043 2.7904638 -30.160849
21.083557 7.3678523 -29.934745
16.06702 7.0112004 -30.719643
24.5867 -4.4953785 -27.407401
20.521669 -1.4530618 -29.204821
22.164616 -5.7481933 -27.79655
25.121023 -1.5308552 -27.980984
20.1935 -4.2101847 -28.715441
10.850182 -4.0091389 -30.529809
15.815972 -1.4070828 -30.144196
13.056827 -5.3337718 -29.975235
10.945361 -1.352921 -30.844399
15.592692 -4.0516056 -29.750262
25.777936 4.7131815 -28.735301
20.7994 1.4727269 -29.600067
23.450052 6.0815595 -29.40861
25.532568 1.5559344 -28.439381
20.990959 4.3764486 -29.849438
22.957251 0 -28.878112
11.08208 4.0948252 -31.182314
15.982633 1.4219099 -30.46184
13.5011 5.5152593 -30.995176
11.024193 1.3626652 -31.066551
16.067265 4.1749186 -30.655729
13.427408 0 -30.677608
29.059326 41.614164 2.0644546
34.611316 39.27578 6.3889565
27.277219 40.882277 5.2637723
32.598315 41.504578 0
39.756376 28.069285 13.849279
38.084021 34.319725 10.428251
23.287356 38.35084 10.956615
31.96126 37.76375 9.4402043
25.291603 39.711172 8.2466731
29.80572 39.589467 7.3857798
38.781813 39.243874 -4.459991
38.781813 39.243874 4.459991
35.989819 40.809456 -2.2132518
35.989819 40.809456 2.2132518
38.471437 2.9421342 22.65286
40.169572 9.0935575 21.352731
40.522422 21.662262 16.769987
40.718185 15.353738 19.300616
15.760175 32.365927 20.003243
22.526253 31.269502 19.325615
17.530889 33.87312 18.017561
36.886344 26.79883 16.562588
29.665811 29.546677 18.260851
36.117911 29.77448 15.002346
21.260352 36.838652 13.562727
24.616044 32.816193 17.203215
19.369348 35.370704 15.861465
25.207318 36.536927 12.962728
21.024018 33.404542 17.653429
33.750734 35.340236 11.490882
28.461778 32.040331 16.621099
35.092314 32.673171 13.304794
29.402247 36.068327 12.281118
32.275398 31.067134 15.911174
26.93891 34.399349 14.867664
42.905897 26.517303 -12.10931
47.492304 29.351858 -4.3939597
42.575348 29.986551 -10.47909
42.905897 26.517303 12.10931
47.492304 29.351858 4.3939597
42.575348 29.986551 10.47909
40.819863 36.618785 -6.6952986
47.089968 33.089218 -2.3429224
41.949853 33.450279 -8.6750283
42.793311 38.41937 -2.3412459
45.256017 31.825296 -6.6353219
40.819863 36.618785 6.6952986
47.089968 33.089218 2.3429224
41.949853 33.450279 8.6750283
42.793311 38.41937 2.3412459
45.256017 31.825296 6.6353219
45.71034 36.338379 0
23.362201 -33.455644 1.6597151
26.717825 -30.318507 4.9318848
22.469093 -33.676003 4.335933
25.23825 -32.133652 0
32.148569 -22.697928 11.199071
29.637837 -26.708377 8.1154981
20.239005 -33.330657 9.5223775
25.631475 -30.284807 7.5706139
21.417824 -33.628826 6.9835745
24.11905 -32.036143 5.9766377
28.705864 -29.047877 -3.3012355
28.705864 -29.047877 3.3012355
27.030314 -30.650124 -1.6622726
27.030314 -30.650124 1.6622726
37.319678 -2.8540526 21.974679
36.961504 -8.3673175 19.647435
34.246447 -18.307284 14.172708
35.88418 -13.530964 17.009274
14.574564 -29.931094 18.498433
19.988804 -27.747178 17.148699
16.065596 -31.041885 16.51159
30.571136 -22.210677 13.726953
25.274768 -25.173268 15.557935
29.516066 -24.332125 12.260129
18.904046 -32.755788 12.059556
21.506293 -28.670515 15.029928
17.522779 -31.998652 14.349318
21.684564 -31.430846 11.151171
18.822165 -29.906071 15.804578
27.070831 -28.345741 9.2166213
24.244044 -27.292293 14.158028
28.344434 -26.390467 10.746423
24.413476 -29.948502 10.197343
26.87229 -25.866297 13.247541
23.02172 -29.397336 12.705756
34.541066 -21.347553 -9.7485081
36.102411 -22.312517 -3.3401736
33.249702 -23.418338 -8.183764
34.541066 -21.347553 9.7485081
36.102411 -22.312517 3.3401736
33.249702 -23.418338 8.183764
30.364338 -27.239316 -4.980377
34.414316 -24.18228 -1.7122558
31.847068 -25.394447 -6.5858209
30.698901 -27.56114 -1.679554
34.01966 -23.923576 -4.9878759
30.364338 -27.239316 4.980377
34.414316 -24.18228 1.7122558
31.847068 -25.394447 6.5858209
30.698901 -27.56114 1.679554
34.01966 -23.923576 4.9878759
32.617479 -25.929938 0
2.225273 -17.133412 29.097738
6.5391537 -15.354694 28.885836
3.6457787 -18.892668 28.315763
2.1905039 -14.822539 29.718186
15.001569 -11.613567 28.062625
10.758468 -13.524071 28.531506
6.5886669 -22.306942 26.356714
8.0180018 -17.041582 28.064973
5.1115415 -20.627907 27.39903
5.8589846 -17.968835 28.213456
2.1383916 -10.256963 30.637004
6.4629724 -13.074877 29.496202
2.1637102 -12.51637 30.229044
4.3519991 -13.951763 29.623642
34.51427 -1.7122329 24.101443
29.143315 -4.7407173 25.682201
34.618902 -4.4573354 23.098209
19.397355 -9.5705812 27.47375
24.078346 -7.3163477 26.719336
34.249245 -9.784813 20.796789
29.211039 -7.3021926 24.722693
34.519577 -7.1685536 21.985134
31.875963 -5.9467547 23.998455
12.765768 -28.430491 20.655446
14.403342 -23.399065 23.305097
11.233466 -27.044392 22.294554
15.49281 -27.48766 20.074435
16.730796 -13.181877 27.070997
15.694471 -18.293732 25.394188
14.557174 -14.163971 27.367572
8.1685794 -23.992548 25.122486
12.81016 -21.935969 24.69402
9.6877002 -25.55198 23.790515
8.9163702 -21.346698 26.186423
12.074789 -24.493393 23.576456
20.852326 -25.276087 18.739351
17.047594 -22.417068 22.745454
18.200655 -26.425429 19.429593
16.318163 -24.95657 21.491898
10.257173 -16.078707 27.860211
13.479137 -19.28727 25.712286
12.391488 -15.13196 27.632736
9.6123237 -18.692122 27.09343
14.049252 -16.731693 26.584572
11.222881 -20.33488 25.966405
2.1081359 -1.3028996 31.489309
6.3422925 -3.9197523 31.055692
2.1112312 -3.4934852 31.383852
14.975191 -9.2551773 28.727759
10.625767 -6.5670853 30.156759
12.847301 -10.24237 28.954249
2.1326952 -7.9239183 30.969692
6.3539929 -6.1439186 30.792899
2.1180208 -5.711153 31.211178
4.2737097 -9.3465769 30.555329
4.2373863 -4.8190653 31.144528
8.6415634 -12.124295 29.338416
8.5515756 -7.525455 30.303472
10.729599 -11.203397 29.158356
6.4527241 -10.753303 30.011143
10.686594 -8.8733501 29.700509
6.4176918 -8.4309367 30.443277
31.686849 -19.583549 15.429507
27.958011 -17.279001 20.140687
32.503666 -17.28913 16.822134
28.973993 -21.159914 16.330548
19.376299 -11.975212 26.669853
23.758298 -14.683436 23.854093
21.669081 -10.918312 26.285662
18.876727 -14.568457 25.847655
33.782555 -12.437577 19.496615
28.456837 -14.917912 21.346009
33.21113 -14.893036 18.186743
31.504041 -11.177139 21.735063
30.546332 -16.142939 19.225129
23.623071 -23.969125 17.964729
25.24237 -18.714354 20.82451
26.272115 -22.624808 17.178349
21.723842 -22.67671 20.18207
27.169171 -19.976437 18.712911
26.532293 -8.6269783 25.338946
26.195597 -13.589111 23.269837
24.063438 -9.7988369 25.845111
29.055498 -9.8932784 23.685516
23.952978 -12.267626 24.884558
28.798111 -12.446766 22.552453
17.735388 -19.73516 23.921917
23.115863 -17.325213 22.782128
18.329227 -17.169888 24.928865
19.738221 -21.246087 22.177999
21.024891 -15.963579 24.414277
22.479998 -20.006997 21.535396
2.258849 17.391929 29.536778
6.8192272 16.012339 30.123023
3.7395251 19.378468 29.043866
2.2206661 15.026639 30.127391
16.205817 12.545843 30.315346
11.461188 14.407435 30.395124
6.8949649 23.343962 27.582002
8.4616694 17.98456 29.617918
5.2982995 21.381579 28.400095
6.0996273 18.706859 29.372251
2.1602029 10.361583 30.949496
6.7094415 13.573495 30.621056
2.1899159 12.667962 30.595162
4.4679482 14.323475 30.412896
35.188806 1.7456963 24.572474
30.745109 5.0012796 27.093763
36.376682 4.6836572 24.271023
32.540148 0 25.557518
21.050957 10.386462 29.815856
25.944632 7.8834297 28.790322
37.849163 10.813289 22.982728
31.652571 7.9125284 26.789079
37.275694 7.7409062 23.740474
34.074355 6.3568849 25.653559
27.229705 -3.0946037 26.909099
28.180803 3.2026941 27.848999
29.845432 -1.6186311 26.320657
30.401286 1.6487772 26.810864
13.701219 30.513823 22.169038
15.779219 25.634257 25.531313
11.996139 28.880515 23.808196
16.931389 30.040017 21.938439
18.354962 14.461526 29.698952
17.364357 20.240179 28.09612
15.865001 15.436472 29.826294
8.6215314 25.322947 26.51554
13.940205 23.871046 26.872397
10.290766 27.142609 25.271491
9.4802635 22.696716 27.842517
13.031323 26.433696 25.444122
23.636547 28.650972 21.241446
18.966079 24.939816 25.305159
20.262879 29.419561 21.631062
18.010624 27.544975 23.72096
10.964231 17.187062 29.780701
14.742743 21.095361 28.122692
13.386368 16.346864 29.851294
10.265966 19.963195 28.935795
15.375326 18.310955 29.093823
12.112166 21.946188 28.023948
2.1110004 1.30467 31.532097
6.4202053 3.9679051 31.4372
2.1189065 3.5061857 31.497948
4.2383717 0 31.458297
15.96359 9.8660411 30.62386
10.989293 6.7917565 31.188473
13.649533 10.881941 30.762258
2.1499503 7.9880288 31.220261
6.4757971 6.2616958 31.383191
2.1305149 5.7448428 31.395292
4.35489 9.5241178 31.135736
4.2799871 4.8675141 31.457642
8.5607452 -2.6277263 30.973067
8.6555972 2.6568411 31.316245
6.4012962 -1.317873 31.272099
6.4279121 1.3233526 31.402125
9.0599057 12.711238 30.758703
8.8202948 7.76193 31.255708
11.335372 11.835919 30.804582
6.6633034 11.104228 30.990532
11.176309 9.2799728 31.061539
6.585546 8.6514471 31.239519
37.546292 23.204884 18.282688
32.288867 19.955617 23.260594
37.91583 20.167932 19.623177
34.226136 24.995592 19.290802
21.358521 13.200292 29.398214
26.913663 16.633559 27.022181
23.909368 12.047116 29.003242
21.023396 16.225188 28.787061
38.107897 14.030019 21.99286
32.560565 17.069207 24.424293
38.116038 17.092569 20.87272
35.281421 12.517294 24.341128
35.258511 18.633203 22.190862
27.24989 27.649072 20.722829
29.05773 21.54301 23.972115
30.733594 26.466909 20.095542
24.745946 25.831372 22.98969
31.61595 23.245981 21.775654
29.044528 9.443832 27.738188
29.682599 15.398012 26.367379
26.492709 10.788057 28.454246
32.222106 10.971496 26.266877
26.821756 13.736884 27.864909
32.519685 14.055259 25.466901
19.832765 22.069029 26.75091
26.348737 19.748235 25.968328
20.509021 19.211809 27.893518
22.271453 23.972841 25.024356
23.718032 18.008402 27.541576
25.66476 22.841407 24.586335
17.566829 -8.0220141 28.423726
18.215698 -2.7268816 29.473618
19.814523 -6.9243762 28.132953
15.310414 -6.6810388 29.273036
18.739099 8.5573394 30.320498
18.64043 2.7904638 30.160849
21.083557 7.3678523 29.934745
16.06702 7.0112004 30.719643
24.5867 -4.4953785 27.407401
20.521669 -1.4530618 29.204821
22.164616 -5.7481933 27.79655
25.121023 -1.5308552 27.980984
20.1935 -4.2101847 28.715441
10.850182 -4.0091389 30.529809
15.815972 -1.4070828 30.144196
13.056827 -5.3337718 29.975235
10.945361 -1.352921 30.844399
15.592692 -4.0516056 29.750262
25.777936 4.7131815 28.735301
20.7994 1.4727269 29.600067
23.450052 6.0815595 29.40861
25.532568 1.5559344 28.439381
20.990959 4.3764486 29.849438
22.957251 0 28.878112
11.08208 4.0948252 31.182314
15.982633 1.4219099 30.46184
13.5011 5.5152593 30.995176
11.024193 1.3626652 31.066551
16.067265 4.1749186 30.655729
13.427408 0 30.677608
39.821154 0 -20.953399
44.21955 0 -15.94044
41.046263 3.0254875 -20.472644
39.889197 -2.9402011 -19.895535
48.434151 0 -3.3568475
47.076554 0 -9.9154827
42.556769 9.3246996 -18.864277
45.186694 3.1539261 -15.128054
41.960654 6.1644255 -19.76209
43.316386 3.1004654 -17.935199
39.307459 -8.6127368 -17.423945
44.133858 -3.0804406 -14.775575
39.71077 -5.8338958 -18.702469
42.199267 -3.0205052 -17.472655
39.821154 0 20.953399
44.21955 0 15.94044
41.046263 3.0254875 20.472644
39.889197 -2.9402011 19.895535
48.434151 0 3.3568475
47.076554 0 9.9154827
42.556769 9.3246996 18.864277
45.186694 3.1539261 15.128054
41.960654 6.1644255 19.76209
43.316386 3.1004654 17.935199
39.307459 -8.6127368 17.423945
44.133858 -3.0804406 14.775575
39.71077 -5.8338958 18.702469
42.199267 -3.0205052 17.472655
43.097064 22.465615 -13.884514
46.980125 16.553499 -10.230625
43.14656 19.144576 -15.262803
45.483373 23.788761 -10.380754
48.897008 3.2735408 -2.0231595
48.640543 9.9335269 -6.1392573
48.527008 3.2644728 -5.401771
42.93249 12.645667 -17.742136
46.716054 13.183172 -11.601296
43.098808 15.859363 -16.55968
44.655814 9.6014886 -16.00064
45.223812 16.272062 -13.511106
48.694462 25.548873 -2.2729796
48.371791 17.191156 -6.3521271
47.49608 24.893622 -6.4683593
47.28271 20.595741 -8.4134515
46.722608 3.2175031 -11.954466
47.733186 9.8495539 -9.5239101
47.802882 3.2439498 -8.7471728
45.913497 6.4218245 -14.044491
48.300361 6.5715328 -7.4736273
46.398629 9.7812104 -12.849599
35.941899 -18.735774 -11.579345
41.157269 -14.501809 -8.962611
36.993424 -16.414366 -13.086173
37.147047 -19.428687 -8.4781386
47.972033 -3.2116159 -1.9848878
45.437821 -9.2794567 -5.7350197
47.593533 -3.2016768 -5.2978615
38.696098 -11.397847 -15.991419
42.241579 -11.920484 -10.490121
37.9214 -13.954196 -14.570385
41.398911 -8.9012188 -14.833658
39.707776 -14.287327 -11.86313
38.425384 -20.160922 -1.7936354
42.077488 -14.954184 -5.5255666
37.993148 -19.91295 -5.1741814
39.705449 -17.295183 -7.065159
45.725702 -3.1488522 -11.699397
44.535744 -9.1897745 -8.8859442
46.847983 -3.1791494 -8.5724413
43.807444 -6.1272553 -13.40027
46.304943 -6.3000451 -7.1648717
43.166666 -9.0998863 -11.954542
43.097064 22.465615 13.884514
46.980125 16.553499 10.230625
43.14656 19.144576 15.262803
45.483373 23.788761 10.380754
48.897008 3.2735408 2.0231595
48.640543 9.9335269 6.1392573
48.527008 3.2644728 5.401771
49.164531 6.62393 0
42.93249 12.645667 17.742136
46.716054 13.183172 11.601296
43.098808 15.859363 16.55968
44.655814 9.6014886 16.00064
45.223812 16.272062 13.511106
48.694462 25.548873 2.2729796
48.371791 17.191156 6.3521271
47.49608 24.893622 6.4683593
49.136633 21.506814 0
47.28271 20.595741 8.4134515
46.722608 3.2175031 11.954466
47.733186 9.8495539 9.5239101
47.802882 3.2439498 8.7471728
45.913497 6.4218245 14.044491
48.300361 6.5715328 7.4736273
46.398629 9.7812104 12.849599
48.976028 13.536641 -4.1550808
48.976028 13.536641 4.1550808
49.19872 10.070817 -2.0733391
49.158875 17.444387 -2.1562448
49.19872 10.070817 2.0733391
49.158875 17.444387 2.1562448
35.941899 -18.735774 11.579345
41.157269 -14.501809 8.962611
36.993424 -16.414366 13.086173
37.147047 -19.428687 8.4781386
47.972033 -3.2116159 1.9848878
45.437821 -9.2794567 5.7350197
47.593533 -3.2016768 5.2978615
47.189099 -6.3577804 0
38.696098 -11.397847 15.991419
42.241579 -11.920484 10.490121
37.9214 -13.954196 14.570385
41.398911 -8.9012188 14.833658
39.707776 -14.287327 11.86313
38.425384 -20.160922 1.7936354
42.077488 -14.954184 5.5255666
37.993148 -19.91295 5.1741814
40.625116 -17.781374 0
39.705449 -17.295183 7.065159
45.725702 -3.1488522 11.699397
44.535744 -9.1897745 8.8859442
46.847983 -3.1791494 8.5724413
43.807444 -6.1272553 13.40027
46.304943 -6.3000451 7.1648717
43.166666 -9.0998863 11.954542
44.265838 -12.234777 -3.7554726
44.265838 -12.234777 3.7554726
45.948935 -9.4055963 -1.9363862
42.613768 -15.121808 -1.8691582
45.948935 -9.4055963 1.9363862
42.613768 -15.121808 1.8691582
-23.362201 33.455644 -1.6597151
-26.717825 30.318507 -4.9318848
-22.469093 33.676003 -4.335933
-32.148569 22.697928 -11.199071
-29.637837 26.708377 -8.1154981
-20.239005 33.330657 -9.5223775
-25.631475 30.284807 -7.5706139
-21.417824 33.628826 -6.9835745
-24.11905 32.036143 -5.9766377
-37.319678 2.8540526 -21.974679
-36.961504 8.3673175 -19.647435
-34.246447 18.307284 -14.172708
-35.88418 13.530964 -17.009274
-14.574564 29.931094 -18.498433
-19.988804 27.747178 -17.148699
-16.065596 31.041885 -16.51159
-30.571136 22.210677 -13.726953
-25.274768 25.173268 -15.557935
-29.516066 24.332125 -12.260129
-18.904046 32.755788 -12.059556
-21.506293 28.670515 -15.029928
-17.522779 31.998652 -14.349318
-21.684564 31.430846 -11.151171
-18.822165 29.906071 -15.804578
-27.070831 28.345741 -9.2166213
-24.244044 27.292293 -14.158028
-28.344434 26.390467 -10.746423
-24.413476 29.948502 -10.197343
-26.87229 25.866297 -13.247541
-23.02172 29.397336 -12.705756
-29.059326 -41.614164 -2.0644546
-34.611316 -39.27578 -6.3889565
-27.277219 -40.882277 -5.2637723
-39.756376 -28.069285 -13.849279
-38.084021 -34.319725 -10.428251
-23.287356 -38.35084 -10.956615
-31.96126 -37.76375 -9.4402043
-25.291603 -39.711172 -8.2466731
-29.80572 -39.589467 -7.3857798
-38.471437 -2.9421342 -22.65286
-40.169572 -9.0935575 -21.352731
-40.522422 -21.662262 -16.769987
-40.718185 -15.353738 -19.300616
-15.760175 -32.365927 -20.003243
-22.526253 -31.269502 -19.325615
-17.530889 -33.87312 -18.017561
-36.886344 -26.79883 -16.562588
-29.665811 -29.546677 -18.260851
-36.117911 -29.77448 -15.002346
-21.260352 -36.838652 -13.562727
-24.616044 -32.816193 -17.203215
-19.369348 -35.370704 -15.861465
-25.207318 -36.536927 -12.962728
-21.024018 -33.404542 -17.653429
-33.750734 -35.340236 -11.490882
-28.461778 -32.040331 -16.621099
-35.092314 -32.673171 -13.304794
-29.402247 -36.068327 -12.281118
-32.275398 -31.067134 -15.911174
-26.93891 -34.399349 -14.867664
-2.258849 -17.391929 -29.536778
-6.8192272 -16.012339 -30.123023
-3.7395251 -19.378468 -29.043866
-2.2206661 -15.026639 -30.127391
-16.205817 -12.545843 -30.315346
-11.461188 -14.407435 -30.395124
-6.8949649 -23.343962 -27.582002
-8.4616694 -17.98456 -29.617918
-5.2982995 -21.381579 -28.400095
-6.0996273 -18.706859 -29.372251
-2.1602029 -10.361583 -30.949496
-6.7094415 -13.573495 -30.621056
-2.1899159 -12.667962 -30.595162
-4.4679482 -14.323475 -30.412896
-35.188806 -1.7456963 -24.572474
-30.745109 -5.0012796 -27.093763
-36.376682 -4.6836572 -24.271023
-21.050957 -10.386462 -29.815856
-25.944632 -7.8834297 -28.790322
-37.849163 -10.813289 -22.982728
-31.652571 -7.9125284 -26.789079
-37.275694 -7.7409062 -23.740474
-34.074355 -6.3568849 -25.653559
-13.701219 -30.513823 -22.169038
-15.779219 -25.634257 -25.531313
-11.996139 -28.880515 -23.808196
-16.931389 -30.040017 -21.938439
-18.354962 -14.461526 -29.698952
-17.364357 -20.240179 -28.09612
-15.865001 -15.436472 -29.826294
-8.6215314 -25.322947 -26.51554
-13.940205 -23.871046 -26.872397
-10.290766 -27.142609 -25.271491
-9.4802635 -22.696716 -27.842517
-13.031323 -26.433696 -25.444122
-23.636547 -28.650972 -21.241446
-18.966079 -24.939816 -25.305159
-20.262879 -29.419561 -21.631062
-18.010624 -27.544975 -23.72096
-10.964231 -17.187062 -29.780701
-14.742743 -21.095361 -28.122692
-13.386368 -16.346864 -29.851294
-10.265966 -19.963195 -28.935795
-15.375326 -18.310955 -29.093823
-12.112166 -21.946188 -28.023948
-2.1110004 -1.30467 -31.532097
-6.4202053 -3.9679051 -31.4372
-2.1189065 -3.5061857 -31.497948
-15.96359 -9.8660411 -30.62386
-10.989293 -6.7917565 -31.188473
-13.649533 -10.881941 -30.762258
-2.1499503 -7.9880288 -31.220261
-6.4757971 -6.2616958 -31.383191
-2.1305149 -5.7448428 -31.395292
-4.35489 -9.5241178 -31.135736
-4.2799871 -4.8675141 -31.457642
-9.0599057 -12.711238 -30.758703
-8.8202948 -7.76193 -31.255708
-11.335372 -11.835919 -30.804582
-6.6633034 -11.104228 -30.990532
-11.176309 -9.2799728 -31.061539
-6.585546 -8.6514471 -31.239519
-37.546292 -23.204884 -18.282688
-32.288867 -19.955617 -23.260594
-37.91583 -20.167932 -19.623177
-34.226136 -24.995592 -19.290802
-21.358521 -13.200292 -29.398214
-26.913663 -16.633559 -27.022181
-23.909368 -12.047116 -29.003242
-21.023396 -16.225188 -28.787061
-38.107897 -14.030019 -21.99286
-32.560565 -17.069207 -24.424293
-38.116038 -17.092569 -20.87272
-35.281421 -12.517294 -24.341128
-35.258511 -18.633203 -22.190862
-27.24989 -27.649072 -20.722829
-29.05773 -21.54301 -23.972115
-30.733594 -26.466909 -20.095542
-24.745946 -25.831372 -22.98969
-31.61595 -23.245981 -21.775654
-29.044528 -9.443832 -27.738188
-29.682599 -15.398012 -26.367379
-26.492709 -10.788057 -28.454246
-32.222106 -10.971496 -26.266877
-26.821756 -13.736884 -27.864909
-32.519685 -14.055259 -25.466901
-19.832765 -22.069029 -26.75091
-26.348737 -19.748235 -25.968328
-20.509021 -19.211809 -27.893518
-22.271453 -23.972841 -25.024356
-23.718032 -18.008402 -27.541576
-25.66476 -22.841407 -24.586335
-2.225273 17.133412 -29.097738
-6.5391537 15.354694 -28.885836
-3.6457787 18.892668 -28.315763
-2.1905039 14.822539 -29.718186
-15.001569 11.613567 -28.062625
-10.758468 13.524071 -28.531506
-6.5886669 22.306942 -26.356714
-8.0180018 17.041582 -28.064973
-5.1115415 20.627907 -27.39903
-5.8589846 17.968835 -28.213456
-2.1383916 10.256963 -30.637004
-6.4629724 13.074877 -29.496202
-2.1637102 12.51637 -30.229044
-4.3519991 13.951763 -29.623642
-34.51427 1.7122329 -24.101443
-29.143315 4.7407173 -25.682201
-34.618902 4.4573354 -23.098209
-32.540148 0 -25.557518
-19.397355 9.5705812 -27.47375
-24.078346 7.3163477 -26.719336
