12.244408 -32.056278 19.811869
-12.244408 32.056278 19.811869
16.327969 42.747177 26.419208
0.000000 0.000000 37.064613
-16.327969 -42.747177 -26.419208
12.244408 -32.056278 -19.811869
-12.244408 32.056278 -19.811869
16.327969 42.747177 -26.419208
0.000000 0.000000 -37.064613
45.987763 28.422001 -17.565762
30.728450 -18.991227 -11.737224
18.703643 -11.559487 -30.263130
22.594565 13.964209 -36.558775
45.987763 28.422001 17.565762
30.728450 -18.991227 11.737224
18.703643 -11.559487 30.263130
22.594565 13.964209 36.558775
52.417279 0.000000 0.000000
-30.728450 18.991227 -11.737224
-45.987763 -28.422001 -17.565762
-22.594565 -13.964209 -36.558775
-18.703643 11.559487 -30.263130
-30.728450 18.991227 11.737224
-45.987763 -28.422001 17.565762
-22.594565 -13.964209 36.558775
-18.703643 11.559487 30.263130
-52.417279 0.000000 0.000000
-11.596366 40.820913 0.000000
14.890650 52.417279 0.000000
-14.890650 -52.417279 0.000000
11.596366 -40.820913 0.000000
-24.437975 -48.588214 14.637934
-7.470993 -32.269728 32.654202
-8.578572 -50.219836 13.880421
16.876294 -33.553885 10.108615
6.427670 -27.763265 28.094047
7.254003 -42.465674 11.737224
0.000000 -39.466948 24.391915
-16.876294 33.553885 10.108615
-6.427670 27.763265 28.094047
-7.254003 42.465674 11.737224
24.437975 48.588214 14.637934
7.470993 32.269728 32.654202
8.578572 50.219836 13.880421
0.000000 39.466948 24.391915
0.000000 -10.323069 36.338721
0.000000 10.323069 36.338721
-24.437975 -48.588214 -14.637934
-7.470993 -32.269728 -32.654202
-8.578572 -50.219836 -13.880421
16.876294 -33.553885 -10.108615
6.427670 -27.763265 -28.094047
7.254003 -42.465674 -11.737224
0.000000 -39.466948 -24.391915
-16.876294 33.553885 -10.108615
-6.427670 27.763265 -28.094047
-7.254003 42.465674 -11.737224
24.437975 48.588214 -14.637934
7.470993 32.269728 -32.654202
8.578572 50.219836 -13.880421
0.000000 39.466948 -24.391915
0.000000 -10.323069 -36.338721
0.000000 10.323069 -36.338721
44.809792 45.343674 -10.374233
45.613048 13.741620 -22.941582
32.675902 38.257612 -23.644505
25.715144 -26.021524 -5.953495
35.345905 -10.648488 -17.777610
21.841149 -25.572063 -15.804404
9.706539 -16.205031 -32.219262
28.167053 -6.444373 -27.835411
15.869582 -21.931222 -25.677522
9.767659 -6.036745 -35.339722
25.959920 -16.044113 -22.172419
11.054414 18.455302 -36.693310
32.838215 7.513094 -32.451574
22.296342 30.812787 -36.076239
10.215981 6.313823 -36.961766
36.339415 22.458993 -31.037565
20.990319 0.000000 -33.963050
44.809792 45.343674 10.374233
45.613048 13.741620 22.941582
32.675902 38.257612 23.644505
52.417279 32.395660 0.000000
25.715144 -26.021524 5.953495
35.345905 -10.648488 17.777610
21.841149 -25.572063 15.804404
32.395660 -20.021619 0.000000
9.706539 -16.205031 32.219262
28.167053 -6.444373 27.835411
15.869582 -21.931222 25.677522
9.767659 -6.036745 35.339722
25.959920 -16.044113 22.172419
11.054414 18.455302 36.693310
32.838215 7.513094 32.451574
22.296342 30.812787 36.076239
10.215981 6.313823 36.961766
36.339415 22.458993 31.037565
20.990319 0.000000 33.963050
48.638841 0.000000 -13.817276
48.638841 0.000000 13.817276
51.408133 14.208858 -8.781557
40.350376 -11.152570 -6.892667
51.408133 14.208858 8.781557
40.350376 -11.152570 6.892667
-25.715144 26.021524 -5.953495
-35.345905 10.648488 -17.777610
-21.841149 25.572063 -15.804404
-44.809792 -45.343674 -10.374233
-45.613048 -13.741620 -22.941582
-32.675902 -38.257612 -23.644505
-11.054414 -18.455302 -36.693310
-32.838215 -7.513094 -32.451574
-22.296342 -30.812787 -36.076239
-10.215981 -6.313823 -36.961766
-36.339415 -22.458993 -31.037565
-9.706539 16.205031 -32.219262
-28.167053 6.444373 -27.835411
-15.869582 21.931222 -25.677522
-9.767659 6.036745 -35.339722
-25.959920 16.044113 -22.172419
-20.990319 0.000000 -33.963050
-25.715144 26.021524 5.953495
-35.345905 10.648488 17.777610
-21.841149 25.572063 15.804404
-32.395660 20.021619 0.000000
-44.809792 -45.343674 10.374233
-45.613048 -13.741620 22.941582
-32.675902 -38.257612 23.644505
-52.417279 -32.395660 0.000000
-11.054414 -18.455302 36.693310
-32.838215 -7.513094 32.451574
-22.296342 -30.812787 36.076239
-10.215981 -6.313823 36.961766
-36.339415 -22.458993 31.037565
-9.706539 16.205031 32.219262
-28.167053 6.444373 27.835411
-15.869582 21.931222 25.677522
-9.767659 6.036745 35.339722
-25.959920 16.044113 22.172419
-20.990319 0.000000 33.963050
-48.638841 0.000000 -13.817276
-48.638841 0.000000 13.817276
-40.350376 11.152570 -6.892667
-51.408133 -14.208858 -8.781557
-40.350376 11.152570 6.892667
-51.408133 -14.208858 8.781557
-16.036718 36.380560 0.000000
-6.408311 46.008968 0.000000
23.105777 52.417279 0.000000
7.300886 52.417279 0.000000
-23.105777 -52.417279 0.000000
-7.300886 -52.417279 0.000000
16.036718 -36.380560 0.000000
6.408311 -46.008968 0.000000
-28.649262 -51.150819 7.759023
-20.308368 -45.697872 20.772714
-19.992494 -51.584781 7.347592
-3.453642 -26.221534 33.385582
-12.374910 -39.598461 31.673722
-4.322322 -51.908791 6.993664
-12.634252 -47.165015 20.442649
-11.797169 -51.793796 7.117011
-16.304710 -49.588896 14.292666
18.643058 -33.285595 5.049063
14.734015 -33.154468 15.070904
14.488967 -37.384541 5.324950
3.246271 -24.647088 31.380978
9.453944 -30.251665 24.197476
0.000000 -30.024180 30.381900
3.968247 -47.656541 6.420759
9.970530 -37.221056 16.132657
9.604704 -42.168092 5.794338
0.000000 -48.820255 13.493587
12.399855 -37.712730 10.869681
-8.172278 -43.891651 27.126532
6.623803 -35.575105 21.986624
-3.791969 -36.460973 28.985404
-4.295111 -47.633514 20.848908
3.459731 -33.266403 26.445814
3.770180 -41.811940 18.300839
-18.643058 33.285595 5.049063
-14.734015 33.154468 15.070904
-14.488967 37.384541 5.324950
-3.246271 24.647088 31.380978
-9.453944 30.251665 24.197476
-3.968247 47.656541 6.420759
-9.970530 37.221056 16.132657
-9.604704 42.168092 5.794338
-12.399855 37.712730 10.869681
28.649262 51.150819 7.759023
20.308368 45.697872 20.772714
19.992494 51.584781 7.347592
3.453642 26.221534 33.385582
12.374910 39.598461 31.673722
0.000000 30.024180 30.381900
4.322322 51.908791 6.993664
12.634252 47.165015 20.442649
11.797169 51.793796 7.117011
0.000000 48.820255 13.493587
16.304710 49.588896 14.292666
-6.623803 35.575105 21.986624
8.172278 43.891651 27.126532
-3.459731 33.266403 26.445814
-3.770180 41.811940 18.300839
3.791969 36.460973 28.985404
4.295111 47.633514 20.848908
0.000000 -15.598101 35.385522
0.000000 -5.137648 36.886147
0.000000 15.598101 35.385522
0.000000 5.137648 36.886147
-28.649262 -51.150819 -7.759023
-20.308368 -45.697872 -20.772714
-19.992494 -51.584781 -7.347592
-3.453642 -26.221534 -33.385582
-12.374910 -39.598461 -31.673722
-4.322322 -51.908791 -6.993664
-12.634252 -47.165015 -20.442649
-11.797169 -51.793796 -7.117011
-16.304710 -49.588896 -14.292666
18.643058 -33.285595 -5.049063
14.734015 -33.154468 -15.070904
14.488967 -37.384541 -5.324950
3.246271 -24.647088 -31.380978
9.453944 -30.251665 -24.197476
0.000000 -30.024180 -30.381900
3.968247 -47.656541 -6.420759
9.970530 -37.221056 -16.132657
9.604704 -42.168092 -5.794338
0.000000 -48.820255 -13.493587
12.399855 -37.712730 -10.869681
-8.172278 -43.891651 -27.126532
6.623803 -35.575105 -21.986624
-3.791969 -36.460973 -28.985404
-4.295111 -47.633514 -20.848908
3.459731 -33.266403 -26.445814
3.770180 -41.811940 -18.300839
-18.643058 33.285595 -5.049063
-14.734015 33.154468 -15.070904
-14.488967 37.384541 -5.324950
-3.246271 24.647088 -31.380978
-9.453944 30.251665 -24.197476
-3.968247 47.656541 -6.420759
-9.970530 37.221056 -16.132657
-9.604704 42.168092 -5.794338
-12.399855 37.712730 -10.869681
28.649262 51.150819 -7.759023
20.308368 45.697872 -20.772714
19.992494 51.584781 -7.347592
3.453642 26.221534 -33.385582
12.374910 39.598461 -31.673722
0.000000 30.024180 -30.381900
4.322322 51.908791 -6.993664
12.634252 47.165015 -20.442649
11.797169 51.793796 -7.117011
0.000000 48.820255 -13.493587
16.304710 49.588896 -14.292666
-6.623803 35.575105 -21.986624
8.172278 43.891651 -27.126532
-3.459731 33.266403 -26.445814
-3.770180 41.811940 -18.300839
3.791969 36.460973 -28.985404
4.295111 47.633514 -20.848908
0.000000 -15.598101 -35.385522
0.000000 -5.137648 -36.886147
0.000000 15.598101 -35.385522
0.000000 5.137648 -36.886147
40.260924 51.260707 -5.302772
45.878894 36.697268 -14.337607
34.462033 47.818336 -12.851080
45.163122 6.850755 -25.295589
45.844827 20.839514 -20.373675
24.523011 40.941075 -25.302976
40.181912 34.180776 -21.124881
29.131574 44.220548 -19.537996
38.303730 41.551734 -17.512931
22.981659 -29.260533 -3.026917
28.282615 -22.622488 -8.838596
21.437552 -29.746012 -7.994180
37.500289 -5.688386 -21.003683
33.080518 -15.037289 -14.701151
17.229616 -28.764778 -17.777610
26.282020 -22.356821 -13.817276
19.481070 -29.571474 -13.065585
24.014172 -26.050478 -10.979571
5.022077 -18.543416 -33.107692
14.218756 -13.900915 -31.279827
8.161797 -21.887041 -30.369709
4.943614 -13.451367 -34.707317
33.478957 -3.463301 -26.294872
23.302228 -9.104170 -29.132426
32.208797 -8.656049 -23.212448
14.183248 -26.978141 -22.948977
17.363076 -16.827859 -28.094047
11.326537 -24.773043 -26.873699
19.113031 -24.072171 -21.007254
12.923706 -19.269525 -29.250358
4.935418 -3.050256 -36.631954
14.392392 -8.894988 -33.205941
4.931312 -8.174150 -35.887449
9.791509 -11.169904 -33.971976
28.700389 -17.737816 -17.191048
22.594565 -13.964209 -26.561505
30.534797 -13.491211 -20.115687
24.005863 -20.949389 -19.060383
27.176600 -11.454202 -25.052268
20.927412 -19.040388 -23.980680
5.401571 19.944651 -35.609478
16.847890 16.471278 -37.063656
9.488321 25.444307 -35.305648
5.201817 14.153927 -36.520069
36.721400 3.798723 -28.841536
28.029256 10.951018 -35.042152
41.549188 11.166260 -29.943942
30.502079 0.000000 -30.142945
19.552256 37.190602 -31.636216
22.905112 22.199062 -37.061251
14.727133 32.210720 -34.942061
27.333825 34.425963 -30.042780
16.186926 24.135056 -36.636036
4.990407 3.084241 -37.040097
15.955890 9.861283 -36.813223
5.082702 8.425095 -36.989184
10.054189 0.000000 -36.376396
10.678484 12.181743 -37.049368
41.155826 25.435699 -24.651644
30.728450 18.991227 -36.123460
41.471110 18.323210 -27.320301
34.912930 30.467746 -27.720471
36.751328 15.489690 -33.878561
29.673954 26.998255 -34.003326
19.912599 -5.998971 -32.219262
21.908535 6.600277 -35.448754
24.866545 -3.253126 -31.279827
15.198729 -3.131110 -34.724545
26.474273 3.463455 -33.302202
15.754262 3.245557 -35.993773
40.260924 51.260707 5.302772
45.878894 36.697268 14.337607
34.462033 47.818336 12.851080
51.800112 52.417279 0.000000
45.163122 6.850755 25.295589
45.844827 20.839514 20.373675
24.523011 40.941075 25.302976
40.181912 34.180776 21.124881
29.131574 44.220548 19.537996
38.303730 41.551734 17.512931
50.353633 31.120257 -9.375447
50.353633 31.120257 9.375447
51.206288 40.707496 -5.325493
51.206288 40.707496 5.325493
22.981659 -29.260533 3.026917
28.282615 -22.622488 8.838596
21.437552 -29.746012 7.994180
26.053434 -26.363845 0.000000
37.500289 -5.688386 21.003683
33.080518 -15.037289 14.701151
17.229616 -28.764778 17.777610
26.282020 -22.356821 13.817276
19.481070 -29.571474 13.065585
24.014172 -26.050478 10.979571
31.975020 -19.761649 -5.953495
31.975020 -19.761649 5.953495
29.104761 -23.137431 -3.026917
29.104761 -23.137431 3.026917
5.022077 -18.543416 33.107692
14.218756 -13.900915 31.279827
8.161797 -21.887041 30.369709
4.943614 -13.451367 34.707317
33.478957 -3.463301 26.294872
23.302228 -9.104170 29.132426
32.208797 -8.656049 23.212448
14.183248 -26.978141 22.948977
17.363076 -16.827859 28.094047
11.326537 -24.773043 26.873699
19.113031 -24.072171 21.007254
12.923706 -19.269525 29.250358
4.935418 -3.050256 36.631954
14.392392 -8.894988 33.205941
4.931312 -8.174150 35.887449
9.791509 -11.169904 33.971976
28.700389 -17.737816 17.191048
22.594565 -13.964209 26.561505
30.534797 -13.491211 20.115687
24.005863 -20.949389 19.060383
27.176600 -11.454202 25.052268
20.927412 -19.040388 23.980680
5.401571 19.944651 35.609478
16.847890 16.471278 37.063656
9.488321 25.444307 35.305648
5.201817 14.153927 36.520069
36.721400 3.798723 28.841536
28.029256 10.951018 35.042152
41.549188 11.166260 29.943942
30.502079 0.000000 30.142945
19.552256 37.190602 31.636216
22.905112 22.199062 37.061251
14.727133 32.210720 34.942061
27.333825 34.425963 30.042780
16.186926 24.135056 36.636036
4.990407 3.084241 37.040097
15.955890 9.861283 36.813223
5.082702 8.425095 36.989184
10.054189 0.000000 36.376396
10.678484 12.181743 37.049368
41.155826 25.435699 24.651644
30.728450 18.991227 36.123460
41.471110 18.323210 27.320301
34.912930 30.467746 27.720471
36.751328 15.489690 33.878561
29.673954 26.998255 34.003326
19.912599 -5.998971 32.219262
21.908535 6.600277 35.448754
24.866545 -3.253126 31.279827
15.198729 -3.131110 34.724545
26.474273 3.463455 33.302202
15.754262 3.245557 35.993773
44.481884 0.000000 -19.607819
51.429049 0.000000 -7.163241
48.530164 6.912501 -18.808629
41.367462 -5.892266 -16.032611
44.481884 0.000000 19.607819
51.429049 0.000000 7.163241
48.530164 6.912501 18.808629
41.367462 -5.892266 16.032611
49.567583 21.483990 -13.277836
52.209060 7.034119 -4.347325
49.024208 14.129910 -16.119042
52.045720 22.780105 -4.692960
50.935507 6.999073 -11.601674
35.353956 -15.323403 -9.470384
45.946868 -6.190415 -3.825887
38.272672 -11.031069 -12.583962
36.316695 -15.895603 -3.274674
44.340886 -6.092903 -10.099605
49.567583 21.483990 13.277836
52.209060 7.034119 4.347325
49.024208 14.129910 16.119042
52.045720 22.780105 4.692960
50.935507 6.999073 11.601674
52.417279 14.487779 0.000000
35.353956 -15.323403 9.470384
45.946868 -6.190415 3.825887
38.272672 -11.031069 12.583962
36.316695 -15.895603 3.274674
44.340886 -6.092903 10.099605
41.066717 -11.350561 0.000000
-22.981659 29.260533 -3.026917
-28.282615 22.622488 -8.838596
-21.437552 29.746012 -7.994180
-37.500289 5.688386 -21.003683
-33.080518 15.037289 -14.701151
-17.229616 28.764778 -17.777610
-26.282020 22.356821 -13.817276
-19.481070 29.571474 -13.065585
-24.014172 26.050478 -10.979571
-40.260924 -51.260707 -5.302772
-45.878894 -36.697268 -14.337607
-34.462033 -47.818336 -12.851080
-45.163122 -6.850755 -25.295589
-45.844827 -20.839514 -20.373675
-24.523011 -40.941075 -25.302976
-40.181912 -34.180776 -21.124881
-29.131574 -44.220548 -19.537996
-38.303730 -41.551734 -17.512931
-5.401571 -19.944651 -35.609478
-16.847890 -16.471278 -37.063656
-9.488321 -25.444307 -35.305648
-5.201817 -14.153927 -36.520069
-36.721400 -3.798723 -28.841536
-28.029256 -10.951018 -35.042152
-41.549188 -11.166260 -29.943942
-19.552256 -37.190602 -31.636216
-22.905112 -22.199062 -37.061251
-14.727133 -32.210720 -34.942061
-27.333825 -34.425963 -30.042780
-16.186926 -24.135056 -36.636036
-4.990407 -3.084241 -37.040097
-15.955890 -9.861283 -36.813223
-5.082702 -8.425095 -36.989184
-10.678484 -12.181743 -37.049368
-41.155826 -25.435699 -24.651644
-30.728450 -18.991227 -36.123460
-41.471110 -18.323210 -27.320301
-34.912930 -30.467746 -27.720471
-36.751328 -15.489690 -33.878561
-29.673954 -26.998255 -34.003326
-5.022077 18.543416 -33.107692
-14.218756 13.900915 -31.279827
-8.161797 21.887041 -30.369709
-4.943614 13.451367 -34.707317
-33.478957 3.463301 -26.294872
-23.302228 9.104170 -29.132426
-32.208797 8.656049 -23.212448
-30.502079 0.000000 -30.142945
-14.183248 26.978141 -22.948977
-17.363076 16.827859 -28.094047
-11.326537 24.773043 -26.873699
-19.113031 24.072171 -21.007254
-12.923706 19.269525 -29.250358
-4.935418 3.050256 -36.631954
-14.392392 8.894988 -33.205941
-4.931312 8.174150 -35.887449
-10.054189 0.000000 -36.376396
-9.791509 11.169904 -33.971976
-28.700389 17.737816 -17.191048
-22.594565 13.964209 -26.561505
-30.534797 13.491211 -20.115687
-24.005863 20.949389 -19.060383
-27.176600 11.454202 -25.052268
-20.927412 19.040388 -23.980680
-21.908535 -6.600277 -35.448754
-19.912599 5.998971 -32.219262
-26.474273 -3.463455 -33.302202
-15.754262 -3.245557 -35.993773
-24.866545 3.253126 -31.279827
-15.198729 3.131110 -34.724545
-22.981659 29.260533 3.026917
-28.282615 22.622488 8.838596
-21.437552 29.746012 7.994180
-26.053434 26.363845 0.000000
-37.500289 5.688386 21.003683
-33.080518 15.037289 14.701151
-17.229616 28.764778 17.777610
-26.282020 22.356821 13.817276
-19.481070 29.571474 13.065585
-24.014172 26.050478 10.979571
-31.975020 19.761649 -5.953495
-31.975020 19.761649 5.953495
-29.104761 23.137431 -3.026917
-29.104761 23.137431 3.026917
-40.260924 -51.260707 5.302772
-45.878894 -36.697268 14.337607
-34.462033 -47.818336 12.851080
-51.800112 -52.417279 0.000000
-45.163122 -6.850755 25.295589
-45.844827 -20.839514 20.373675
-24.523011 -40.941075 25.302976
-40.181912 -34.180776 21.124881
-29.131574 -44.220548 19.537996
-38.303730 -41.551734 17.512931
-50.353633 -31.120257 -9.375447
-50.353633 -31.120257 9.375447
-51.206288 -40.707496 -5.325493
-51.206288 -40.707496 5.325493
-5.401571 -19.944651 35.609478
-16.847890 -16.471278 37.063656
-9.488321 -25.444307 35.305648
-5.201817 -14.153927 36.520069
-36.721400 -3.798723 28.841536
-28.029256 -10.951018 35.042152
-41.549188 -11.166260 29.943942
-19.552256 -37.190602 31.636216
-22.905112 -22.199062 37.061251
-14.727133 -32.210720 34.942061
-27.333825 -34.425963 30.042780
-16.186926 -24.135056 36.636036
-4.990407 -3.084241 37.040097
-15.955890 -9.861283 36.813223
-5.082702 -8.425095 36.989184
-10.678484 -12.181743 37.049368
-41.155826 -25.435699 24.651644
-30.728450 -18.991227 36.123460
-41.471110 -18.323210 27.320301
-34.912930 -30.467746 27.720471
-36.751328 -15.489690 33.878561
-29.673954 -26.998255 34.003326
-5.022077 18.543416 33.107692
-14.218756 13.900915 31.279827
-8.161797 21.887041 30.369709
-4.943614 13.451367 34.707317
-33.478957 3.463301 26.294872
-23.302228 9.104170 29.132426
-32.208797 8.656049 23.212448
-30.502079 0.000000 30.142945
-14.183248 26.978141 22.948977
-17.363076 16.827859 28.094047
-11.326537 24.773043 26.873699
-19.113031 24.072171 21.007254
-12.923706 19.269525 29.250358
-4.935418 3.050256 36.631954
-14.392392 8.894988 33.205941
-4.931312 8.174150 35.887449
-10.054189 0.000000 36.376396
-9.791509 11.169904 33.971976
-28.700389 17.737816 17.191048
-22.594565 13.964209 26.561505
-30.534797 13.491211 20.115687
-24.005863 20.949389 19.060383
-27.176600 11.454202 25.052268
-20.927412 19.040388 23.980680
-21.908535 -6.600277 35.448754
-19.912599 5.998971 32.219262
-26.474273 -3.463455 33.302202
-15.754262 -3.245557 35.993773
-24.866545 3.253126 31.279827
-15.198729 3.131110 34.724545
-44.481884 0.000000 -19.607819
-51.429049 0.000000 -7.163241
-41.367462 5.892266 -16.032611
-48.530164 -6.912501 -18.808629
-44.481884 0.000000 19.607819
-51.429049 0.000000 7.163241
-41.367462 5.892266 16.032611
-48.530164 -6.912501 18.808629
-35.353956 15.323403 -9.470384
-45.946868 6.190415 -3.825887
-38.272672 11.031069 -12.583962
-36.316695 15.895603 -3.274674
-44.340886 6.092903 -10.099605
-49.567583 -21.483990 -13.277836
-52.209060 -7.034119 -4.347325
-49.024208 -14.129910 -16.119042
-52.045720 -22.780105 -4.692960
-50.935507 -6.999073 -11.601674
-35.353956 15.323403 9.470384
-45.946868 6.190415 3.825887
-38.272672 11.031069 12.583962
-36.316695 15.895603 3.274674
-44.340886 6.092903 10.099605
-41.066717 11.350561 0.000000
-49.567583 -21.483990 13.277836
-52.209060 -7.034119 4.347325
-49.024208 -14.129910 16.119042
-52.045720 -22.780105 4.692960
-50.935507 -6.999073 11.601674
-52.417279 -14.487779 0.000000
-18.072040 34.345239 0.000000
-13.888873 38.528405 0.000000
-3.397440 49.019839 0.000000
-9.119566 43.297713 0.000000
27.581324 52.417279 0.000000
18.895590 52.417279 0.000000
3.632908 52.417279 0.000000
11.040371 52.417279 0.000000
-27.581324 -52.417279 0.000000
-18.895590 -52.417279 0.000000
-3.632908 -52.417279 0.000000
-11.040371 -52.417279 0.000000
18.072040 -34.345239 0.000000
13.888873 -38.528405 0.000000
3.397440 -49.019839 0.000000
9.119566 -43.297713 0.000000
-30.650153 -52.053269 3.980816
-26.549630 -49.946176 11.306778
-26.004719 -52.137698 3.843028
-18.302425 -44.225354 23.641755
-22.353309 -47.158399 17.782171
-17.485104 -52.227075 3.645328
-22.336932 -50.390886 11.041249
-21.609655 -52.190789 3.735670
-24.210668 -51.406276 7.552079
-1.671317 -23.525507 33.689505
-5.375202 -29.119437 33.043777
-14.373993 -41.262646 29.132761
-9.785248 -35.735773 32.203582
-2.163768 -52.295323 3.501050
-6.465636 -51.226402 10.461619
-5.820039 -52.284534 3.517246
-14.535198 -45.116766 23.518444
-10.641878 -48.868644 17.218921
-16.448935 -46.499646 20.632375
-13.369088 -52.251492 3.598244
-10.195789 -51.100597 10.544406
-9.564671 -52.270472 3.547125
-15.815410 -51.702893 7.231575
-8.023897 -51.856627 7.055383
-20.312727 -49.152817 14.477850
-12.400937 -49.936041 14.091845
-18.389016 -47.859903 17.611335
-18.160576 -50.683929 10.897599
-14.465589 -48.418618 17.421590
-14.100094 -50.914045 10.733097
19.381160 -32.915096 2.517209
17.807727 -33.500576 7.583835
17.401710 -34.889248 2.571659
13.530170 -32.693840 17.477300
15.850737 -33.440033 12.609342
13.111420 -39.163116 2.733494
15.740249 -35.509135 7.780478
15.309232 -36.974255 2.646513
16.617774 -35.284359 5.183613
1.625443 -22.879785 32.764805
4.850857 -26.278866 29.820391
0.000000 -25.449661 32.402823
10.883135 -31.241629 22.057599
7.965549 -29.090222 26.214890
-3.582597 -31.152439 31.523601
3.322807 -28.893439 29.237686
-1.734882 -28.211019 31.988945
1.676193 -27.256674 30.906798
2.074088 -50.127888 3.355945
5.690352 -45.083920 9.207182
5.231238 -46.995020 3.161414
0.000000 -51.490941 6.937367
11.155489 -34.626264 18.049961
8.675251 -39.837682 14.036851
12.426909 -35.129742 15.587431
10.647172 -41.613207 2.865650
8.471781 -42.459988 8.761450
8.081365 -44.164273 2.997030
12.139692 -39.686431 5.550858
6.928309 -44.776094 6.092037
-4.276034 -50.401708 13.930690
3.856557 -45.457318 12.564094
-2.162707 -51.319339 10.504900
2.042320 -48.462655 9.920147
14.702233 -35.576520 10.478983
9.932348 -39.995539 11.286656
13.619060 -35.445448 13.043103
13.493255 -37.658011 8.096884
11.226885 -37.578162 13.521066
11.070408 -39.974147 8.426877
-12.260580 -43.441877 26.848557
-3.849079 -41.602940 25.712031
-10.327985 -41.961428 29.554157
-10.415468 -45.635472 23.868312
9.533330 -33.778644 20.876350
3.466195 -37.464521 23.154347
8.087211 -32.857417 23.142045
8.344024 -36.559421 19.121346
-5.658739 -34.500170 30.949499
-1.896780 -38.123040 26.788330
-7.862192 -38.019219 30.316042
-1.811706 -33.114379 29.729730
-5.864546 -39.998965 28.128389
-6.448362 -49.104622 17.451602
-2.025369 -43.389849 22.765664
-8.459197 -47.539793 20.707723
-2.129182 -48.541887 17.225444
-6.271617 -46.051437 24.136456
4.993444 -30.444007 27.310786
1.804190 -36.262088 25.480675
6.562845 -31.735963 25.305853
1.737421 -31.756589 28.510721
5.063358 -34.534483 24.285614
0.000000 -34.836973 27.694371
5.560347 -42.342342 15.048313
1.907046 -40.855009 21.435691
7.016595 -39.432523 17.176300
1.985070 -45.256361 16.059551
5.262156 -38.639130 20.251521
0.000000 -44.569676 19.507884
-19.381160 32.915096 2.517209
-17.807727 33.500576 7.583835
-17.401710 34.889248 2.571659
-13.530170 32.693840 17.477300
-15.850737 33.440033 12.609342
-13.111420 39.163116 2.733494
-15.740249 35.509135 7.780478
-15.309232 36.974255 2.646513
-16.617774 35.284359 5.183613
-1.625443 22.879785 32.764805
-4.850857 26.278866 29.820391
-10.883135 31.241629 22.057599
-7.965549 29.090222 26.214890
-2.074088 50.127888 3.355945
-5.690352 45.083920 9.207182
-5.231238 46.995020 3.161414
-11.155489 34.626264 18.049961
-8.675251 39.837682 14.036851
-12.426909 35.129742 15.587431
-10.647172 41.613207 2.865650
-8.471781 42.459988 8.761450
-8.081365 44.164273 2.997030
-12.139692 39.686431 5.550858
-6.928309 44.776094 6.092037
-14.702233 35.576520 10.478983
-9.932348 39.995539 11.286656
-13.619060 35.445448 13.043103
-13.493255 37.658011 8.096884
-11.226885 37.578162 13.521066
-11.070408 39.974147 8.426877
30.650153 52.053269 3.980816
26.549630 49.946176 11.306778
26.004719 52.137698 3.843028
18.302425 44.225354 23.641755
22.353309 47.158399 17.782171
17.485104 52.227075 3.645328
22.336932 50.390886 11.041249
21.609655 52.190789 3.735670
24.210668 51.406276 7.552079
1.671317 23.525507 33.689505
5.375202 29.119437 33.043777
0.000000 25.449661 32.402823
14.373993 41.262646 29.132761
9.785248 35.735773 32.203582
-3.322807 28.893439 29.237686
3.582597 31.152439 31.523601
-1.676193 27.256674 30.906798
1.734882 28.211019 31.988945
2.163768 52.295323 3.501050
6.465636 51.226402 10.461619
5.820039 52.284534 3.517246
0.000000 51.490941 6.937367
14.535198 45.116766 23.518444
10.641878 48.868644 17.218921
16.448935 46.499646 20.632375
13.369088 52.251492 3.598244
10.195789 51.100597 10.544406
9.564671 52.270472 3.547125
15.815410 51.702893 7.231575
8.023897 51.856627 7.055383
-3.856557 45.457318 12.564094
4.276034 50.401708 13.930690
-2.042320 48.462655 9.920147
2.162707 51.319339 10.504900
20.312727 49.152817 14.477850
12.400937 49.936041 14.091845
18.389016 47.859903 17.611335
18.160576 50.683929 10.897599
14.465589 48.418618 17.421590
14.100094 50.914045 10.733097
-9.533330 33.778644 20.876350
-3.466195 37.464521 23.154347
-8.087211 32.857417 23.142045
-8.344024 36.559421 19.121346
12.260580 43.441877 26.848557
3.849079 41.602940 25.712031
10.327985 41.961428 29.554157
10.415468 45.635472 23.868312
-4.993444 30.444007 27.310786
-1.804190 36.262088 25.480675
-6.562845 31.735963 25.305853
-1.737421 31.756589 28.510721
-5.063358 34.534483 24.285614
-5.560347 42.342342 15.048313
-1.907046 40.855009 21.435691
-7.016595 39.432523 17.176300
-1.985070 45.256361 16.059551
-5.262156 38.639130 20.251521
5.658739 34.500170 30.949499
1.896780 38.123040 26.788330
7.862192 38.019219 30.316042
1.811706 33.114379 29.729730
5.864546 39.998965 28.128389
0.000000 34.836973 27.694371
6.448362 49.104622 17.451602
2.025369 43.389849 22.765664
8.459197 47.539793 20.707723
2.129182 48.541887 17.225444
6.271617 46.051437 24.136456
0.000000 44.569676 19.507884
0.000000 -18.278715 34.738017
0.000000 -12.947201 35.916160
0.000000 -2.565774 37.020183
0.000000 -7.721553 36.660256
0.000000 18.278715 34.738017
0.000000 12.947201 35.916160
0.000000 2.565774 37.020183
0.000000 7.721553 36.660256
-30.650153 -52.053269 -3.980816
-26.549630 -49.946176 -11.306778
-26.004719 -52.137698 -3.843028
-18.302425 -44.225354 -23.641755
-22.353309 -47.158399 -17.782171
-17.485104 -52.227075 -3.645328
-22.336932 -50.390886 -11.041249
-21.609655 -52.190789 -3.735670
-24.210668 -51.406276 -7.552079
-1.671317 -23.525507 -33.689505
-5.375202 -29.119437 -33.043777
-14.373993 -41.262646 -29.132761
-9.785248 -35.735773 -32.203582
-2.163768 -52.295323 -3.501050
-6.465636 -51.226402 -10.461619
-5.820039 -52.284534 -3.517246
-14.535198 -45.116766 -23.518444
-10.641878 -48.868644 -17.218921
-16.448935 -46.499646 -20.632375
-13.369088 -52.251492 -3.598244
-10.195789 -51.100597 -10.544406
-9.564671 -52.270472 -3.547125
-15.815410 -51.702893 -7.231575
-8.023897 -51.856627 -7.055383
-20.312727 -49.152817 -14.477850
-12.400937 -49.936041 -14.091845
-18.389016 -47.859903 -17.611335
-18.160576 -50.683929 -10.897599
-14.465589 -48.418618 -17.421590
-14.100094 -50.914045 -10.733097
19.381160 -32.915096 -2.517209
17.807727 -33.500576 -7.583835
17.401710 -34.889248 -2.571659
13.530170 -32.693840 -17.477300
15.850737 -33.440033 -12.609342
13.111420 -39.163116 -2.733494
15.740249 -35.509135 -7.780478
15.309232 -36.974255 -2.646513
16.617774 -35.284359 -5.183613
1.625443 -22.879785 -32.764805
4.850857 -26.278866 -29.820391
0.000000 -25.449661 -32.402823
10.883135 -31.241629 -22.057599
7.965549 -29.090222 -26.214890
-3.582597 -31.152439 -31.523601
3.322807 -28.893439 -29.237686
-1.734882 -28.211019 -31.988945
1.676193 -27.256674 -30.906798
2.074088 -50.127888 -3.355945
5.690352 -45.083920 -9.207182
5.231238 -46.995020 -3.161414
0.000000 -51.490941 -6.937367
11.155489 -34.626264 -18.049961
8.675251 -39.837682 -14.036851
12.426909 -35.129742 -15.587431
10.647172 -41.613207 -2.865650
8.471781 -42.459988 -8.761450
8.081365 -44.164273 -2.997030
12.139692 -39.686431 -5.550858
6.928309 -44.776094 -6.092037
-4.276034 -50.401708 -13.930690
3.856557 -45.457318 -12.564094
-2.162707 -51.319339 -10.504900
2.042320 -48.462655 -9.920147
14.702233 -35.576520 -10.478983
9.932348 -39.995539 -11.286656
13.619060 -35.445448 -13.043103
13.493255 -37.658011 -8.096884
11.226885 -37.578162 -13.521066
11.070408 -39.974147 -8.426877
-12.260580 -43.441877 -26.848557
-3.849079 -41.602940 -25.712031
-10.327985 -41.961428 -29.554157
-10.415468 -45.635472 -23.868312
9.533330 -33.778644 -20.876350
3.466195 -37.464521 -23.154347
8.087211 -32.857417 -23.142045
8.344024 -36.559421 -19.121346
-5.658739 -34.500170 -30.949499
-1.896780 -38.123040 -26.788330
-7.862192 -38.019219 -30.316042
-1.811706 -33.114379 -29.729730
-5.864546 -39.998965 -28.128389
-6.448362 -49.104622 -17.451602
-2.025369 -43.389849 -22.765664
-8.459197 -47.539793 -20.707723
-2.129182 -48.541887 -17.225444
-6.271617 -46.051437 -24.136456
4.993444 -30.444007 -27.310786
1.804190 -36.262088 -25.480675
6.562845 -31.735963 -25.305853
1.737421 -31.756589 -28.510721
5.063358 -34.534483 -24.285614
0.000000 -34.836973 -27.694371
5.560347 -42.342342 -15.048313
1.907046 -40.855009 -21.435691
7.016595 -39.432523 -17.176300
1.985070 -45.256361 -16.059551
5.262156 -38.639130 -20.251521
0.000000 -44.569676 -19.507884
-19.381160 32.915096 -2.517209
-17.807727 33.500576 -7.583835
-17.401710 34.889248 -2.571659
-13.530170 32.693840 -17.477300
-15.850737 33.440033 -12.609342
-13.111420 39.163116 -2.733494
-15.740249 35.509135 -7.780478
-15.309232 36.974255 -2.646513
-16.617774 35.284359 -5.183613
-1.625443 22.879785 -32.764805
-4.850857 26.278866 -29.820391
-10.883135 31.241629 -22.057599
-7.965549 29.090222 -26.214890
-2.074088 50.127888 -3.355945
-5.690352 45.083920 -9.207182
-5.231238 46.995020 -3.161414
-11.155489 34.626264 -18.049961
-8.675251 39.837682 -14.036851
-12.426909 35.129742 -15.587431
-10.647172 41.613207 -2.865650
-8.471781 42.459988 -8.761450
-8.081365 44.164273 -2.997030
-12.139692 39.686431 -5.550858
-6.928309 44.776094 -6.092037
-14.702233 35.576520 -10.478983
-9.932348 39.995539 -11.286656
-13.619060 35.445448 -13.043103
-13.493255 37.658011 -8.096884
-11.226885 37.578162 -13.521066
-11.070408 39.974147 -8.426877
30.650153 52.053269 -3.980816
26.549630 49.946176 -11.306778
26.004719 52.137698 -3.843028
18.302425 44.225354 -23.641755
22.353309 47.158399 -17.782171
17.485104 52.227075 -3.645328
22.336932 50.390886 -11.041249
21.609655 52.190789 -3.735670
24.210668 51.406276 -7.552079
1.671317 23.525507 -33.689505
5.375202 29.119437 -33.043777
0.000000 25.449661 -32.402823
14.373993 41.262646 -29.132761
9.785248 35.735773 -32.203582
-3.322807 28.893439 -29.237686
3.582597 31.152439 -31.523601
-1.676193 27.256674 -30.906798
1.734882 28.211019 -31.988945
2.163768 52.295323 -3.501050
6.465636 51.226402 -10.461619
5.820039 52.284534 -3.517246
0.000000 51.490941 -6.937367
14.535198 45.116766 -23.518444
10.641878 48.868644 -17.218921
16.448935 46.499646 -20.632375
13.369088 52.251492 -3.598244
10.195789 51.100597 -10.544406
9.564671 52.270472 -3.547125
15.815410 51.702893 -7.231575
8.023897 51.856627 -7.055383
-3.856557 45.457318 -12.564094
4.276034 50.401708 -13.930690
-2.042320 48.462655 -9.920147
2.162707 51.319339 -10.504900
20.312727 49.152817 -14.477850
12.400937 49.936041 -14.091845
18.389016 47.859903 -17.611335
18.160576 50.683929 -10.897599
14.465589 48.418618 -17.421590
14.100094 50.914045 -10.733097
-9.533330 33.778644 -20.876350
-3.466195 37.464521 -23.154347
-8.087211 32.857417 -23.142045
-8.344024 36.559421 -19.121346
12.260580 43.441877 -26.848557
3.849079 41.602940 -25.712031
10.327985 41.961428 -29.554157
10.415468 45.635472 -23.868312
-4.993444 30.444007 -27.310786
-1.804190 36.262088 -25.480675
-6.562845 31.735963 -25.305853
-1.737421 31.756589 -28.510721
-5.063358 34.534483 -24.285614
-5.560347 42.342342 -15.048313
-1.907046 40.855009 -21.435691
-7.016595 39.432523 -17.176300
-1.985070 45.256361 -16.059551
-5.262156 38.639130 -20.251521
5.658739 34.500170 -30.949499
1.896780 38.123040 -26.788330
7.862192 38.019219 -30.316042
1.811706 33.114379 -29.729730
5.864546 39.998965 -28.128389
0.000000 34.836973 -27.694371
6.448362 49.104622 -17.451602
2.025369 43.389849 -22.765664
8.459197 47.539793 -20.707723
2.129182 48.541887 -17.225444
6.271617 46.051437 -24.136456
0.000000 44.569676 -19.507884
0.000000 -18.278715 -34.738017
0.000000 -12.947201 -35.916160
0.000000 -2.565774 -37.020183
0.000000 -7.721553 -36.660256
0.000000 18.278715 -34.738017
0.000000 12.947201 -35.916160
0.000000 2.565774 -37.020183
0.000000 7.721553 -36.660256
36.456441 52.207142 -2.589966
43.167497 48.985052 -7.968355
34.177903 51.224816 -6.595420
45.985717 32.467401 -16.019292
45.564064 41.060427 -12.476453
29.325704 48.295109 -13.797636
39.755197 46.972657 -11.742252
31.735315 49.828656 -10.347734
37.328758 49.581947 -9.249969
42.152619 3.223656 -24.820424
45.479644 10.295648 -24.175379
45.932893 24.554562 -19.009081
45.735978 17.245814 -21.679074
20.415637 41.926629 -25.912082
28.627810 39.739293 -24.560234
22.501901 43.478091 -23.126572
43.357419 31.500224 -19.468209
36.572124 36.425255 -22.512045
43.009290 35.455518 -17.864828
26.915221 46.637066 -17.170166
31.052044 41.396166 -21.701090
24.674691 45.058884 -20.205985
31.725862 45.985276 -16.314854
26.782079 42.553381 -22.488352
41.422164 43.372955 -14.102722
35.403687 39.855059 -20.675032
42.414678 39.490757 -16.080972
36.662591 44.974737 -15.313714
39.400388 37.925391 -19.423662
33.761800 43.111766 -18.633238
21.534421 -30.838187 -1.529865
24.372542 -27.657158 -4.498965
20.853231 -31.254197 -4.024115
29.518582 -20.841072 -10.282906
27.016490 -24.346130 -7.397715
19.206059 -31.629546 -9.036380
23.598869 -27.883187 -6.970256
20.074237 -31.519216 -6.545480
22.262820 -29.570604 -5.516669
38.514798 -2.945450 -22.678392
36.440200 -8.249305 -19.370328
31.915189 -17.061053 -13.207930
34.224648 -12.905199 -16.222648
14.798245 -30.390457 -18.782335
19.568455 -27.163676 -16.788075
16.016678 -30.947366 -16.461314
28.493885 -20.701504 -12.794233
24.071582 -23.974913 -14.817311
27.348974 -22.545642 -11.359981
18.214297 -31.560632 -11.619541
20.687007 -27.578307 -14.457361
17.162377 -31.340517 -14.054187
20.514453 -29.734820 -10.549447
18.403477 -29.240828 -15.453015
24.925507 -26.099382 -8.486218
22.984728 -25.874641 -13.422614
26.154764 -24.351745 -9.916238
22.753123 -27.911714 -9.503825
25.167715 -24.225534 -12.407217
21.777022 -27.807933 -12.018803
2.564900 -19.748356 -33.538707
7.395480 -17.365448 -32.668544
4.158766 -21.551000 -32.299992
2.532385 -17.135953 -34.356423
16.455890 -12.739439 -30.783144
11.974848 -15.053139 -31.757353
7.322754 -24.792308 -29.293292
8.953791 -19.030522 -31.340464
5.759761 -23.243832 -30.873635
6.608361 -20.267087 -31.822016
2.487240 -11.930244 -35.635005
7.354559 -14.878597 -33.565294
2.509165 -14.514718 -35.055374
4.989704 -15.996134 -33.964435
36.371641 -1.804376 -25.398452
30.754193 -5.002757 -27.101768
35.628883 -4.587375 -23.772082
20.979643 -10.351276 -29.714849
25.690937 -7.806343 -28.508800
33.902803 -9.685836 -20.586423
30.288077 -7.571431 -25.634242
34.792771 -7.225287 -22.159128
32.879501 -6.133974 -24.753989
13.249973 -29.508859 -21.438906
15.053755 -24.455697 -24.357486
11.873630 -28.585575 -23.565057
15.765675 -27.971783 -20.427993
18.050701 -14.221804 -29.206647
16.637504 -19.392946 -26.920046
15.832113 -15.404473 -29.764465
8.934634 -26.242583 -27.478487
13.630275 -23.340325 -26.274948
10.422502 -27.490070 -25.595000
9.772372 -23.396052 -28.700407
12.789860 -25.943895 -24.972658
20.545831 -24.904570 -18.463913
17.551157 -23.079237 -23.417324
18.204185 -26.430555 -19.433361
16.687146 -25.520883 -21.977868
11.344909 -17.783796 -30.814685
14.434574 -20.654402 -27.534840
13.588940 -16.594237 -30.303027
10.576981 -20.567995 -29.812427
15.156004 -18.049757 -28.678812
12.149626 -22.014061 -28.110617
2.474142 -1.529104 -36.956360
7.370919 -4.555478 -36.092466
2.473737 -4.093330 -36.772576
16.593880 -10.255582 -31.832982
12.112551 -7.485968 -34.376367
14.325406 -11.420773 -32.285487
2.487679 -9.242842 -36.124548
7.351377 -7.108327 -35.626451
2.476583 -6.678002 -36.494963
4.944353 -10.813271 -35.350165
4.939509 -5.617571 -36.305090
9.762801 -13.697414 -33.145056
9.793122 -8.618026 -34.703031
12.041561 -12.573291 -32.723693
7.385476 -12.307711 -34.349305
12.089678 -10.038367 -33.600005
7.386553 -9.703732 -35.039215
29.808299 -18.422542 -14.514771
27.414088 -16.942838 -19.748850
30.873966 -16.422271 -15.978690
27.514531 -20.094059 -15.507955
20.708302 -12.798435 -28.503243
24.349348 -15.048724 -24.447526
22.976360 -11.577005 -27.871456
19.970762 -15.412798 -27.345702
32.902391 -12.113530 -18.988654
28.226111 -14.796959 -21.172937
31.913633 -14.311193 -17.476221
31.396026 -11.138818 -21.660542
29.635285 -15.661475 -18.651738
22.952422 -23.288651 -17.454717
25.007097 -18.539925 -20.630414
25.222098 -21.720563 -16.491782
21.573339 -22.519605 -20.042247
26.341009 -19.367522 -18.142510
27.702773 -9.007560 -26.456781
26.594358 -13.795970 -23.624060
25.315084 -10.308518 -27.189429
29.647079 -10.094709 -24.167761
24.861572 -12.732967 -25.828489
28.952395 -12.513449 -22.673276
18.414837 -20.491221 -24.838375
23.433758 -17.563474 -23.095434
19.203524 -17.988885 -26.117962
20.047534 -21.579029 -22.525545
21.780413 -16.537225 -25.291597
22.541118 -20.061393 -21.593947
2.665043 20.519410 -34.848190
8.201856 19.258911 -36.230599
4.459894 23.111470 -34.638778
2.616379 17.704316 -35.495952
19.741996 15.283400 -36.930286
13.943360 17.527682 -36.977856
8.537388 28.904638 -34.152205
10.325648 21.946289 -36.142301
6.419200 25.905036 -34.408380
7.365312 22.588570 -35.467052
2.542770 12.196596 -36.430583
8.021165 16.227169 -36.607599
2.578453 14.915522 -36.023380
5.307590 17.015224 -36.128260
38.244506 1.897288 -26.706281
34.911630 5.679044 -30.765460
40.814002 5.254982 -27.231665
35.071705 0.000000 -27.545840
25.369970 12.517447 -35.933158
30.531925 9.277306 -33.880763
43.632301 12.465498 -26.494358
37.109750 9.276717 -31.407749
43.549159 9.043694 -27.735974
39.120506 7.298291 -29.452654
29.332447 -3.333576 -28.987084
31.673369 3.599618 -31.300444
32.097489 -1.740769 -28.306743
33.488407 1.816204 -29.533393
18.001711 40.091399 -29.127380
20.981570 34.085778 -33.948894
16.011768 38.548077 -31.777834
22.007890 39.046848 -28.516193
22.809398 17.971091 -36.906381
22.847427 26.631334 -36.967913
19.714141 19.181643 -37.062700
11.009002 32.335368 -33.858213
18.602809 31.855235 -35.860454
13.651540 36.006881 -33.524691
11.964360 28.643896 -35.138043
17.545267 35.590114 -34.257760
29.947233 36.300452 -26.912667
24.795501 32.605330 -33.082964
26.027880 37.789733 -27.785324
23.475316 35.902532 -30.918253
13.499360 21.161022 -36.666538
19.187142 27.454842 -36.600657
16.580353 20.247224 -36.973809
12.795577 24.882277 -36.065793
19.538014 23.268429 -36.970631
15.548108 28.171813 -35.973693
2.480984 1.533332 -37.058555
7.557965 4.671079 -37.008357
2.492175 4.123838 -37.046651
4.971201 0.000000 -36.897549
19.132327 11.824428 -36.702627
13.001017 8.035070 -36.897903
16.412775 13.084905 -36.989839
2.530391 9.401536 -36.744785
7.648047 7.395189 -37.064182
2.506948 6.759878 -36.942412
5.148791 11.260375 -36.811816
5.042407 5.734594 -37.061381
9.925724 -3.046708 -35.911607
10.151706 3.116073 -36.729218
7.474012 -1.538719 -36.512613
7.537376 1.551765 -36.822164
10.879038 15.263519 -36.934722
10.456558 9.201855 -37.053993
13.638018 14.240246 -37.062167
7.928698 13.212976 -36.875788
13.323876 11.063153 -37.030124
7.804995 10.253440 -37.024156
43.581064 26.934579 -21.221244
38.740515 23.942955 -27.908300
43.668098 23.227640 -22.600239
40.763326 29.769749 -22.975345
26.424413 16.331185 -36.370990
33.944309 20.978737 -34.081175
29.352063 14.789505 -35.605498
26.882484 20.747045 -36.809832
43.675164 16.079696 -25.205845
39.017472 20.454108 -29.267740
43.695409 19.594555 -23.928039
41.526651 14.733004 -28.649796
41.342946 21.848668 -26.020260
33.924613 34.421573 -25.798782
35.701650 26.468723 -29.453232
37.491308 32.286463 -24.514158
31.215258 32.584446 -28.999866
38.196044 28.084069 -26.307728
34.717543 11.288414 -33.156048
36.603739 18.988393 -32.515504
32.147990 13.090935 -34.528248
39.283767 13.375962 -32.023415
33.859295 17.341192 -35.176152
39.164486 16.927193 -30.670596
26.054845 28.992686 -35.143400
33.116563 24.820684 -32.638444
27.150733 25.433426 -36.926650
28.586707 30.770537 -32.120218
30.662188 23.280894 -35.605187
32.264343 28.714977 -30.908606
19.323999 -8.824438 -31.266888
20.468821 -3.064173 -33.119249
21.666713 -7.571642 -30.762719
17.119945 -7.470668 -32.732803
22.287495 10.177739 -36.061925
21.472613 3.214440 -34.743418
24.834363 8.678608 -35.260195
18.977663 8.281325 -36.284704
26.596014 -4.862757 -29.647233
22.992746 -1.628029 -32.721465
24.097792 -6.249545 -30.220938
27.599881 -1.681915 -30.742052
22.341257 -4.657975 -31.769581
12.455608 -4.602343 -35.047093
18.031010 -1.604146 -34.365912
14.811138 -6.050415 -34.002696
12.659139 -1.564756 -35.673883
17.602149 -4.573743 -33.584229
29.519848 5.397345 -32.906503
23.646080 1.674289 -33.651237
27.272242 7.072810 -34.202003
28.582589 1.741800 -31.836639
24.253921 5.056750 -34.489417
25.685286 0.000000 -32.309729
13.010325 4.807311 -36.607934
18.423070 1.639026 -35.113152
15.883426 6.488450 -36.464404
12.845715 1.587818 -36.199661
18.734233 4.867904 -35.744202
15.497687 0.000000 -35.407575
36.456441 52.207142 2.589966
43.167497 48.985052 7.968355
34.177903 51.224816 6.595420
41.169313 52.417279 0.000000
45.985717 32.467401 16.019292
45.564064 41.060427 12.476453
29.325704 48.295109 13.797636
39.755197 46.972657 11.742252
31.735315 49.828656 10.347734
37.328758 49.581947 9.249969
48.200067 48.774341 -5.543110
48.200067 48.774341 5.543110
45.707516 51.828516 -2.810857
45.707516 51.828516 2.810857
42.152619 3.223656 24.820424
45.479644 10.295648 24.175379
45.932893 24.554562 19.009081
45.735978 17.245814 21.679074
20.415637 41.926629 25.912082
28.627810 39.739293 24.560234
22.501901 43.478091 23.126572
43.357419 31.500224 19.468209
36.572124 36.425255 22.512045
43.009290 35.455518 17.864828
26.915221 46.637066 17.170166
31.052044 41.396166 21.701090
24.674691 45.058884 20.205985
31.725862 45.985276 16.314854
26.782079 42.553381 22.488352
41.422164 43.372955 14.102722
35.403687 39.855059 20.675032
42.414678 39.490757 16.080972
36.662591 44.974737 15.313714
39.400388 37.925391 19.423662
33.761800 43.111766 18.633238
48.300002 29.851043 -13.631686
51.852385 32.046537 -4.797352
48.511332 34.167367 -11.940116
48.300002 29.851043 13.631686
51.852385 32.046537 4.797352
48.511332 34.167367 11.940116
48.741008 43.724706 -7.994530
52.202918 36.681991 -2.597313
48.688501 38.823591 -10.068548
51.745044 46.456139 -2.831000
50.760956 35.696522 -7.442442
48.741008 43.724706 7.994530
52.202918 36.681991 2.597313
48.688501 38.823591 10.068548
51.745044 46.456139 2.831000
50.760956 35.696522 7.442442
52.417279 41.670198 0.000000
21.534421 -30.838187 1.529865
24.372542 -27.657158 4.498965
20.853231 -31.254197 4.024115
23.058681 -29.358598 0.000000
29.518582 -20.841072 10.282906
27.016490 -24.346130 7.397715
19.206059 -31.629546 9.036380
23.598869 -27.883187 6.970256
20.074237 -31.519216 6.545480
22.262820 -29.570604 5.516669
25.968724 -26.278125 -2.986458
25.968724 -26.278125 2.986458
24.543507 -27.830292 -1.509342
24.543507 -27.830292 1.509342
38.514798 -2.945450 22.678392
36.440200 -8.249305 19.370328
31.915189 -17.061053 13.207930
34.224648 -12.905199 16.222648
14.798245 -30.390457 18.782335
19.568455 -27.163676 16.788075
16.016678 -30.947366 16.461314
28.493885 -20.701504 12.794233
24.071582 -23.974913 14.817311
27.348974 -22.545642 11.359981
18.214297 -31.560632 11.619541
20.687007 -27.578307 14.457361
17.162377 -31.340517 14.054187
20.514453 -29.734820 10.549447
18.403477 -29.240828 15.453015
24.925507 -26.099382 8.486218
22.984728 -25.874641 13.422614
26.154764 -24.351745 9.916238
22.753123 -27.911714 9.503825
25.167715 -24.225534 12.407217
21.777022 -27.807933 12.018803
31.452840 -19.438924 -8.876920
32.290257 -19.956476 -2.987475
30.133545 -21.223575 -7.416783
31.452840 -19.438924 8.876920
32.290257 -19.956476 2.987475
30.133545 -21.223575 7.416783
27.426212 -24.603575 -4.498464
30.758893 -21.613685 -1.530383
28.784502 -22.952396 -5.952497
27.597254 -24.776515 -1.509861
30.549713 -21.483412 -4.479121
27.426212 -24.603575 4.498464
30.758893 -21.613685 1.530383
28.784502 -22.952396 5.952497
27.597254 -24.776515 1.509861
30.549713 -21.483412 4.479121
29.202304 -23.214975 0.000000
2.564900 -19.748356 33.538707
7.395480 -17.365448 32.668544
4.158766 -21.551000 32.299992
2.532385 -17.135953 34.356423
16.455890 -12.739439 30.783144
11.974848 -15.053139 31.757353
7.322754 -24.792308 29.293292
8.953791 -19.030522 31.340464
5.759761 -23.243832 30.873635
6.608361 -20.267087 31.822016
2.487240 -11.930244 35.635005
7.354559 -14.878597 33.565294
2.509165 -14.514718 35.055374
4.989704 -15.996134 33.964435
36.371641 -1.804376 25.398452
30.754193 -5.002757 27.101768
35.628883 -4.587375 23.772082
20.979643 -10.351276 29.714849
25.690937 -7.806343 28.508800
33.902803 -9.685836 20.586423
30.288077 -7.571431 25.634242
34.792771 -7.225287 22.159128
32.879501 -6.133974 24.753989
13.249973 -29.508859 21.438906
15.053755 -24.455697 24.357486
11.873630 -28.585575 23.565057
15.765675 -27.971783 20.427993
18.050701 -14.221804 29.206647
16.637504 -19.392946 26.920046
15.832113 -15.404473 29.764465
8.934634 -26.242583 27.478487
13.630275 -23.340325 26.274948
10.422502 -27.490070 25.595000
9.772372 -23.396052 28.700407
12.789860 -25.943895 24.972658
20.545831 -24.904570 18.463913
17.551157 -23.079237 23.417324
18.204185 -26.430555 19.433361
16.687146 -25.520883 21.977868
11.344909 -17.783796 30.814685
14.434574 -20.654402 27.534840
13.588940 -16.594237 30.303027
10.576981 -20.567995 29.812427
15.156004 -18.049757 28.678812
12.149626 -22.014061 28.110617
2.474142 -1.529104 36.956360
7.370919 -4.555478 36.092466
2.473737 -4.093330 36.772576
16.593880 -10.255582 31.832982
12.112551 -7.485968 34.376367
14.325406 -11.420773 32.285487
2.487679 -9.242842 36.124548
7.351377 -7.108327 35.626451
2.476583 -6.678002 36.494963
4.944353 -10.813271 35.350165
4.939509 -5.617571 36.305090
9.762801 -13.697414 33.145056
9.793122 -8.618026 34.703031
12.041561 -12.573291 32.723693
7.385476 -12.307711 34.349305
12.089678 -10.038367 33.600005
7.386553 -9.703732 35.039215
29.808299 -18.422542 14.514771
27.414088 -16.942838 19.748850
30.873966 -16.422271 15.978690
27.514531 -20.094059 15.507955
20.708302 -12.798435 28.503243
24.349348 -15.048724 24.447526
22.976360 -11.577005 27.871456
19.970762 -15.412798 27.345702
32.902391 -12.113530 18.988654
28.226111 -14.796959 21.172937
31.913633 -14.311193 17.476221
31.396026 -11.138818 21.660542
29.635285 -15.661475 18.651738
22.952422 -23.288651 17.454717
25.007097 -18.539925 20.630414
25.222098 -21.720563 16.491782
21.573339 -22.519605 20.042247
26.341009 -19.367522 18.142510
27.702773 -9.007560 26.456781
26.594358 -13.795970 23.624060
25.315084 -10.308518 27.189429
29.647079 -10.094709 24.167761
24.861572 -12.732967 25.828489
28.952395 -12.513449 22.673276
18.414837 -20.491221 24.838375
23.433758 -17.563474 23.095434
19.203524 -17.988885 26.117962
20.047534 -21.579029 22.525545
21.780413 -16.537225 25.291597
22.541118 -20.061393 21.593947
2.665043 20.519410 34.848190
8.201856 19.258911 36.230599
4.459894 23.111470 34.638778
2.616379 17.704316 35.495952
19.741996 15.283400 36.930286
13.943360 17.527682 36.977856
8.537388 28.904638 34.152205
10.325648 21.946289 36.142301
6.419200 25.905036 34.408380
7.365312 22.588570 35.467052
2.542770 12.196596 36.430583
8.021165 16.227169 36.607599
2.578453 14.915522 36.023380
5.307590 17.015224 36.128260
38.244506 1.897288 26.706281
34.911630 5.679044 30.765460
40.814002 5.254982 27.231665
35.071705 0.000000 27.545840
25.369970 12.517447 35.933158
30.531925 9.277306 33.880763
43.632301 12.465498 26.494358
37.109750 9.276717 31.407749
43.549159 9.043694 27.735974
39.120506 7.298291 29.452654
29.332447 -3.333576 28.987084
31.673369 3.599618 31.300444
