2.748265172 33.0052055 -4.446786458
6.890760329 25.72394576 -11.14948442
7.546682757 33.13264056 -4.552772253
0 29.14559555 -8.055644485
9.717828082 29.5556546 -8.518622847
-3.560144438 19.12081602 -11.8173142
3.844819615 20.64974884 -12.76224664
-1.69706427 16.3178056 -12.97217667
-2.151725623 23.86300283 -10.44469558
1.752711725 16.85287334 -13.39753982
2.261256384 25.07771758 -10.97636906
0 -6.433653507 -14.59525041
0 -2.06124281 -14.79885352
0 6.433653507 -14.59525041
0 2.06124281 -14.79885352
23.82345739 30.33232087 -3.137790779
25.72785586 20.57900565 -8.040208676
19.67039248 27.29396263 -7.335196857
21.94171497 3.328319663 -12.28942063
24.78265728 11.2653613 -11.01353941
12.35995045 20.63489047 -12.75306366
21.14423373 17.98635951 -11.11618151
15.83180083 24.03203192 -10.61808956
20.791701 22.55475452 -9.506218594
16.96001229 -21.5936976 -2.233805501
19.81200039 -15.84707526 -6.191445502
15.07427897 -20.916553 -5.621281009
20.66070547 -3.134004447 -11.57193504
20.94411449 -9.520489033 -9.3076714
10.20077687 -17.03015836 -10.5252167
16.91906566 -14.39221688 -8.894879203
12.63639017 -19.18152807 -8.474988034
16.2191273 -17.59444477 -7.415582282
2.166530155 -7.999652404 -14.28269876
6.373692475 -6.231217216 -14.02147983
3.719638161 -9.974748317 -13.840619
2.068056911 -5.6270969 -14.51907733
16.54877507 -1.71192287 -12.99765485
10.91602726 -4.264887164 -13.64720826
17.05397606 -4.583221324 -12.29057161
7.541116893 -14.34405672 -12.20178345
8.310884175 -8.054701153 -13.44729307
5.546856053 -12.13190833 -13.16064589
10.61108996 -13.36428384 -11.66271645
6.0343487 -8.997344221 -13.65760382
1.990104134 -1.229951996 -14.77107042
6.206978079 -3.83612342 -14.32065927
2.016950457 -3.343300387 -14.67828628
4.158098542 -4.743452962 -14.42666573
17.30204425 -10.69325142 -10.36363192
11.17315636 -6.905390393 -13.13483306
17.30595594 -7.646302681 -11.40080242
13.9092102 -12.13826168 -11.04375531
13.86938615 -5.845570893 -12.78524799
10.92524709 -9.940118175 -12.51921916
2.21354845 8.173261814 -14.59266359
6.700008899 6.550239278 -14.73934301
3.895928457 10.44749627 -14.49658786
2.098143304 5.708960725 -14.73030298
17.05765544 1.764565072 -13.39733709
11.55121581 4.513055057 -14.44132045
18.54665608 4.984376039 -13.36632607
13.92443715 0 -13.76048939
8.613373047 16.38360913 -13.93673035
9.042713654 8.763971987 -14.63141804
6.034549242 13.19857547 -14.31776216
12.57432361 15.83690559 -13.82051904
6.462763401 9.636119791 -14.62723925
1.996135587 1.233679639 -14.81583743
6.393602736 3.951463801 -14.75123726
2.033886507 3.37137361 -14.80153779
4.073212979 0 -14.737023
4.261773646 4.861722882 -14.78637007
20.7925399 12.85049637 -12.45437979
12.28556229 7.592895068 -14.44254466
19.88381605 8.785280427 -13.09904283
16.78337405 14.64648123 -13.32580884
15.25315057 6.428790144 -14.06084671
12.49090246 11.36459848 -14.31330056
8.756528562 -2.638036524 -14.16836084
9.006952851 2.713480624 -14.57355585
11.13116484 -1.456216841 -14.00198198
6.358569007 -1.309937255 -14.52742678
11.34616773 1.484344251 -14.27243585
6.423754666 1.32336624 -14.67635649
23.82345739 30.33232087 3.137790779
25.72785586 20.57900565 8.040208676
19.67039248 27.29396263 7.335196857
29.24151214 29.58990675 0
21.94171497 3.328319663 12.28942063
24.78265728 11.2653613 11.01353941
12.35995045 20.63489047 12.75306366
21.14423373 17.98635951 11.11618151
15.83180083 24.03203192 10.61808956
20.791701 22.55475452 9.506218594
30.66747851 18.95354407 -5.710041502
30.66747851 18.95354407 5.710041502
31.3164585 24.89566565 -3.256935649
31.3164585 24.89566565 3.256935649
16.96001229 -21.5936976 2.233805501
19.81200039 -15.84707526 6.191445502
15.07427897 -20.916553 5.621281009
19.47570804 -19.70774911 0
20.66070547 -3.134004447 11.57193504
20.94411449 -9.520489033 9.3076714
10.20077687 -17.03015836 10.5252167
16.91906566 -14.39221688 8.894879203
12.63639017 -19.18152807 8.474988034
16.2191273 -17.59444477 7.415582282
23.26303563 -14.3773467 -4.331392907
23.26303563 -14.3773467 4.331392907
21.64901293 -17.21033008 -2.251513913
21.64901293 -17.21033008 2.251513913
2.166530155 -7.999652404 14.28269876
6.373692475 -6.231217216 14.02147983
3.719638161 -9.974748317 13.840619
2.068056911 -5.6270969 14.51907733
16.54877507 -1.71192287 12.99765485
10.91602726 -4.264887164 13.64720826
17.05397606 -4.583221324 12.29057161
7.541116893 -14.34405672 12.20178345
8.310884175 -8.054701153 13.44729307
5.546856053 -12.13190833 13.16064589
10.61108996 -13.36428384 11.66271645
6.0343487 -8.997344221 13.65760382
1.990104134 -1.229951996 14.77107042
6.206978079 -3.83612342 14.32065927
2.016950457 -3.343300387 14.67828628
4.158098542 -4.743452962 14.42666573
17.30204425 -10.69325142 10.36363192
11.17315636 -6.905390393 13.13483306
17.30595594 -7.646302681 11.40080242
13.9092102 -12.13826168 11.04375531
13.86938615 -5.845570893 12.78524799
10.92524709 -9.940118175 12.51921916
2.21354845 8.173261814 14.59266359
6.700008899 6.550239278 14.73934301
3.895928457 10.44749627 14.49658786
2.098143304 5.708960725 14.73030298
17.05765544 1.764565072 13.39733709
11.55121581 4.513055057 14.44132045
18.54665608 4.984376039 13.36632607
13.92443715 0 13.76048939
8.613373047 16.38360913 13.93673035
9.042713654 8.763971987 14.63141804
6.034549242 13.19857547 14.31776216
12.57432361 15.83690559 13.82051904
6.462763401 9.636119791 14.62723925
1.996135587 1.233679639 14.81583743
6.393602736 3.951463801 14.75123726
2.033886507 3.37137361 14.80153779
4.073212979 0 14.737023
4.261773646 4.861722882 14.78637007
20.7925399 12.85049637 12.45437979
12.28556229 7.592895068 14.44254466
19.88381605 8.785280427 13.09904283
16.78337405 14.64648123 13.32580884
15.25315057 6.428790144 14.06084671
12.49090246 11.36459848 14.31330056
8.756528562 -2.638036524 14.16836084
9.006952851 2.713480624 14.57355585
11.13116484 -1.456216841 14.00198198
6.358569007 -1.309937255 14.52742678
11.34616773 1.484344251 14.27243585
6.423754666 1.32336624 14.67635649
24.54725188 0 -10.82054153
32.90096899 0 -4.582577
26.6766752 3.79975127 -10.33896528
25.00991605 -3.562342742 -9.69298654
24.54725188 0 10.82054153
32.90096899 0 4.582577
26.6766752 3.79975127 10.33896528
25.00991605 -3.562342742 9.69298654
29.52639079 12.79757146 -7.909334135
34.58342194 4.659419326 -2.879679511
28.37840573 8.179312509 -9.330751487
34.37882133 15.04740731 -3.099936386
31.33908303 4.306318641 -7.138160845
24.52213399 -10.62858526 -6.568826945
32.2991983 -4.351666212 -2.689477627
25.03094206 -7.214496102 -8.230113491
26.96522001 -11.80251774 -2.431452371
29.3829825 -4.037529916 -6.692616213
29.52639079 12.79757146 7.909334135
34.58342194 4.659419326 2.879679511
28.37840573 8.179312509 9.330751487
34.37882133 15.04740731 3.099936386
31.33908303 4.306318641 7.138160845
35.49478576 9.810517498 0
24.52213399 -10.62858526 6.568826945
32.2991983 -4.351666212 2.689477627
25.03094206 -7.214496102 8.230113491
26.96522001 -11.80251774 2.431452371
29.3829825 -4.037529916 6.692616213
30.35388154 -8.389606519 0
-16.96001229 21.5936976 -2.233805501
-19.81200039 15.84707526 -6.191445502
-15.07427897 20.916553 -5.621281009
-20.66070547 3.134004447 -11.57193504
-20.94411449 9.520489033 -9.3076714
-10.20077687 17.03015836 -10.5252167
-16.91906566 14.39221688 -8.894879203
-12.63639017 19.18152807 -8.474988034
-16.2191273 17.59444477 -7.415582282
-23.82345739 -30.33232087 -3.137790779
-25.72785586 -20.57900565 -8.040208676
-19.67039248 -27.29396263 -7.335196857
-21.94171497 -3.328319663 -12.28942063
-24.78265728 -11.2653613 -11.01353941
-12.35995045 -20.63489047 -12.75306366
-21.14423373 -17.98635951 -11.11618151
-15.83180083 -24.03203192 -10.61808956
-20.791701 -22.55475452 -9.506218594
-2.21354845 -8.173261814 -14.59266359
-6.700008899 -6.550239278 -14.73934301
-3.895928457 -10.44749627 -14.49658786
-2.098143304 -5.708960725 -14.73030298
-17.05765544 -1.764565072 -13.39733709
-11.55121581 -4.513055057 -14.44132045
-18.54665608 -4.984376039 -13.36632607
-8.613373047 -16.38360913 -13.93673035
-9.042713654 -8.763971987 -14.63141804
-6.034549242 -13.19857547 -14.31776216
-12.57432361 -15.83690559 -13.82051904
-6.462763401 -9.636119791 -14.62723925
-1.996135587 -1.233679639 -14.81583743
-6.393602736 -3.951463801 -14.75123726
-2.033886507 -3.37137361 -14.80153779
-4.261773646 -4.861722882 -14.78637007
-20.7925399 -12.85049637 -12.45437979
-12.28556229 -7.592895068 -14.44254466
-19.88381605 -8.785280427 -13.09904283
-16.78337405 -14.64648123 -13.32580884
-15.25315057 -6.428790144 -14.06084671
-12.49090246 -11.36459848 -14.31330056
-2.166530155 7.999652404 -14.28269876
-6.373692475 6.231217216 -14.02147983
-3.719638161 9.974748317 -13.840619
-2.068056911 5.6270969 -14.51907733
-16.54877507 1.71192287 -12.99765485
-10.91602726 4.264887164 -13.64720826
-17.05397606 4.583221324 -12.29057161
-13.92443715 0 -13.76048939
-7.541116893 14.34405672 -12.20178345
-8.310884175 8.054701153 -13.44729307
-5.546856053 12.13190833 -13.16064589
-10.61108996 13.36428384 -11.66271645
-6.0343487 8.997344221 -13.65760382
-1.990104134 1.229951996 -14.77107042
-6.206978079 3.83612342 -14.32065927
-2.016950457 3.343300387 -14.67828628
-4.073212979 0 -14.737023
-4.158098542 4.743452962 -14.42666573
-17.30204425 10.69325142 -10.36363192
-11.17315636 6.905390393 -13.13483306
-17.30595594 7.646302681 -11.40080242
-13.9092102 12.13826168 -11.04375531
-13.86938615 5.845570893 -12.78524799
-10.92524709 9.940118175 -12.51921916
-9.006952851 -2.713480624 -14.57355585
-8.756528562 2.638036524 -14.16836084
-11.34616773 -1.484344251 -14.27243585
-6.423754666 -1.32336624 -14.67635649
-11.13116484 1.456216841 -14.00198198
-6.358569007 1.309937255 -14.52742678
-16.96001229 21.5936976 2.233805501
-19.81200039 15.84707526 6.191445502
-15.07427897 20.916553 5.621281009
-19.47570804 19.70774911 0
-20.66070547 3.134004447 11.57193504
-20.94411449 9.520489033 9.3076714
-10.20077687 17.03015836 10.5252167
-16.91906566 14.39221688 8.894879203
-12.63639017 19.18152807 8.474988034
-16.2191273 17.59444477 7.415582282
-23.26303563 14.3773467 -4.331392907
-23.26303563 14.3773467 4.331392907
-21.64901293 17.21033008 -2.251513913
-21.64901293 17.21033008 2.251513913
-23.82345739 -30.33232087 3.137790779
-25.72785586 -20.57900565 8.040208676
-19.67039248 -27.29396263 7.335196857
-29.24151214 -29.58990675 0
-21.94171497 -3.328319663 12.28942063
-24.78265728 -11.2653613 11.01353941
-12.35995045 -20.63489047 12.75306366
-21.14423373 -17.98635951 11.11618151
-15.83180083 -24.03203192 10.61808956
-20.791701 -22.55475452 9.506218594
-30.66747851 -18.95354407 -5.710041502
-30.66747851 -18.95354407 5.710041502
-31.3164585 -24.89566565 -3.256935649
-31.3164585 -24.89566565 3.256935649
-2.21354845 -8.173261814 14.59266359
-6.700008899 -6.550239278 14.73934301
-3.895928457 -10.44749627 14.49658786
-2.098143304 -5.708960725 14.73030298
-17.05765544 -1.764565072 13.39733709
-11.55121581 -4.513055057 14.44132045
-18.54665608 -4.984376039 13.36632607
-8.613373047 -16.38360913 13.93673035
-9.042713654 -8.763971987 14.63141804
-6.034549242 -13.19857547 14.31776216
-12.57432361 -15.83690559 13.82051904
-6.462763401 -9.636119791 14.62723925
-1.996135587 -1.233679639 14.81583743
-6.393602736 -3.951463801 14.75123726
-2.033886507 -3.37137361 14.80153779
-4.261773646 -4.861722882 14.78637007
-20.7925399 -12.85049637 12.45437979
-12.28556229 -7.592895068 14.44254466
-19.88381605 -8.785280427 13.09904283
-16.78337405 -14.64648123 13.32580884
-15.25315057 -6.428790144 14.06084671
-12.49090246 -11.36459848 14.31330056
-2.166530155 7.999652404 14.28269876
-6.373692475 6.231217216 14.02147983
-3.719638161 9.974748317 13.840619
-2.068056911 5.6270969 14.51907733
-16.54877507 1.71192287 12.99765485
-10.91602726 4.264887164 13.64720826
-17.05397606 4.583221324 12.29057161
-13.92443715 0 13.76048939
-7.541116893 14.34405672 12.20178345
-8.310884175 8.054701153 13.44729307
-5.546856053 12.13190833 13.16064589
-10.61108996 13.36428384 11.66271645
-6.0343487 8.997344221 13.65760382
-1.990104134 1.229951996 14.77107042
-6.206978079 3.83612342 14.32065927
-2.016950457 3.343300387 14.67828628
-4.073212979 0 14.737023
-4.158098542 4.743452962 14.42666573
-17.30204425 10.69325142 10.36363192
-11.17315636 6.905390393 13.13483306
-17.30595594 7.646302681 11.40080242
-13.9092102 12.13826168 11.04375531
-13.86938615 5.845570893 12.78524799
-10.92524709 9.940118175 12.51921916
-9.006952851 -2.713480624 14.57355585
-8.756528562 2.638036524 14.16836084
-11.34616773 -1.484344251 14.27243585
-6.423754666 -1.32336624 14.67635649
-11.13116484 1.456216841 14.00198198
-6.358569007 1.309937255 14.52742678
-24.54725188 0 -10.82054153
-32.90096899 0 -4.582577
-25.00991605 3.562342742 -9.69298654
-26.6766752 -3.79975127 -10.33896528
-24.54725188 0 10.82054153
-32.90096899 0 4.582577
-25.00991605 3.562342742 9.69298654
-26.6766752 -3.79975127 10.33896528
-24.52213399 10.62858526 -6.568826945
-32.2991983 4.351666212 -2.689477627
-25.03094206 7.214496102 -8.230113491
-26.96522001 11.80251774 -2.431452371
-29.3829825 4.037529916 -6.692616213
-29.52639079 -12.79757146 -7.909334135
-34.58342194 -4.659419326 -2.879679511
-28.37840573 -8.179312509 -9.330751487
-34.37882133 -15.04740731 -3.099936386
-31.33908303 -4.306318641 -7.138160845
-24.52213399 10.62858526 6.568826945
-32.2991983 4.351666212 2.689477627
-25.03094206 7.214496102 8.230113491
-26.96522001 11.80251774 2.431452371
-29.3829825 4.037529916 6.692616213
-30.35388154 8.389606519 0
-29.52639079 -12.79757146 7.909334135
-34.58342194 -4.659419326 2.879679511
-28.37840573 -8.179312509 9.330751487
-34.37882133 -15.04740731 3.099936386
-31.33908303 -4.306318641 7.138160845
-35.49478576 -9.810517498 0
-13.30759825 25.29059504 0
-10.08661482 27.98075684 0
-2.275515279 32.83218901 0
-6.449112513 30.61898282 0
17.42362726 33.11295495 0
12.23008039 33.92683388 0
2.363431108 34.10067933 0
7.23359656 34.34354236 0
-17.42362726 -33.11295495 0
-12.23008039 -33.92683388 0
-2.363431108 -34.10067933 0
-7.23359656 -34.34354236 0
13.30759825 -25.29059504 0
10.08661482 -27.98075684 0
2.275515279 -32.83218901 0
6.449112513 -30.61898282 0
-18.97942168 -32.23282241 2.465031158
-15.83152643 -29.78287144 6.742223995
-16.37286771 -32.82648937 2.41961447
-9.492513919 -22.93738605 12.26174616
-12.62477917 -26.63428411 10.043076
-11.27841675 -33.68803127 2.351346229
-13.54760191 -30.56264286 6.696642463
-13.79262412 -33.3114025 2.38433674
-15.00986159 -31.87029306 4.682053934
-0.7107786333 -10.00494166 14.32749305
-2.305375797 -12.4890646 14.17217881
-6.610002845 -18.97497804 13.39694728
-4.227125747 -15.43748282 13.91161302
-1.391797654 -33.63785316 2.25197591
-4.01139351 -31.78175322 6.490571041
-3.781687312 -33.97292654 2.285401461
-7.51736857 -23.33365917 12.16335785
-6.099780446 -28.01084497 9.869652085
-8.979239117 -25.38349384 11.26291961
-8.687198946 -33.95288397 2.338129534
-6.349405081 -31.82278366 6.566505413
-6.232684397 -34.06132295 2.311434319
-10.05348994 -32.86633115 4.596944745
-5.134837394 -33.18529139 4.515043483
-11.98084297 -28.99129061 8.539318498
-7.431954676 -29.92696497 8.445326234
-10.48709684 -27.29408909 10.04359218
-11.16117891 -31.14947412 6.697477704
-8.294088179 -27.76162722 9.988961199
-8.746253101 -31.5818539 6.657713073
14.23933192 -24.18271034 1.849392328
12.50393006 -23.52287022 5.325089634
12.71968913 -25.50211408 1.879740583
8.023514136 -19.3877452 10.36419798
10.30741177 -21.74537311 8.199598457
9.435120335 -28.18220288 1.967052213
10.97341529 -24.7554198 5.424210079
11.11541202 -26.84550529 1.921525957
11.92100017 -25.31174366 3.718539668
0.7047696473 -9.920358993 14.20636714
2.230750711 -12.08479319 13.71342495
0 -11.09890579 14.13126425
5.875434182 -16.86629146 11.90814646
3.944088388 -14.40382908 12.98012756
-1.5825209 -13.76079667 13.92474809
1.543680222 -13.42305789 13.58298536
-0.7613767633 -12.38079293 14.03878776
0.7530127207 -12.24478474 13.8845658
1.360253594 -32.87547619 2.200936549
3.727114488 -29.52944721 6.030597922
3.556209231 -31.94733594 2.149137436
0 -32.4217827 4.368181991
6.519350714 -20.23584531 10.54853104
5.411812076 -24.85162055 8.756495879
7.621502511 -21.54529571 9.559871271
7.561748303 -29.55419397 2.035218388
5.676388918 -28.44967272 5.870477325
5.637557146 -30.8089809 2.090727242
8.547388691 -27.94266555 3.908281974
4.707887692 -30.42601214 4.139628193
-2.525227939 -29.7649169 8.226820697
2.399233329 -28.27981568 7.816348815
-1.320832021 -31.34231444 6.415669002
1.28800186 -30.56328031 6.256203271
9.863571133 -23.86790795 7.030237827
6.490669317 -26.1366009 7.375693509
8.753971483 -22.78339574 8.383761573
9.310919218 -25.98562745 5.587194179
7.118140416 -23.82554374 8.572711899
7.541221736 -27.23060497 5.740434213
-5.885750524 -20.85448317 12.88877942
-1.883005919 -20.35255107 12.57856832
-4.644075317 -18.86834948 13.28930354
-5.288524254 -23.17172029 12.11929731
5.260354908 -18.63857166 11.51927079
1.810867927 -19.57284445 12.09668313
4.258458442 -17.301632 12.18583743
4.75325051 -20.82641319 10.89265235
-2.517414924 -15.34816261 13.76856824
-0.9156584134 -18.40365035 12.93189257
-3.519141278 -17.01751895 13.56955311
-0.828982109 -15.1521415 13.60342817
-2.737338093 -18.66993367 13.12921896
-3.638430729 -27.70684626 9.846911252
-1.047877227 -22.44886791 11.77840892
-4.538221569 -25.50432664 11.10935699
-1.19462398 -27.23548414 9.664711018
-3.113611139 -22.86272566 11.98280035
2.412633646 -14.70933264 13.19548505
0.8991258033 -18.07136445 12.69840164
3.304476101 -15.9794621 12.74181978
0.817224328 -14.93723269 13.41048537
2.596011353 -17.70601881 12.4513671
0 -16.60122446 13.19748635
3.371597425 -25.67489626 9.124763696
1.023980137 -21.93691612 11.5097995
4.128380246 -23.20106163 10.10608435
1.163693987 -26.5303306 9.41448212
2.914492219 -21.40062874 11.21648684
0 -24.52975245 10.73652795
-14.23933192 24.18271034 1.849392328
-12.50393006 23.52287022 5.325089634
-12.71968913 25.50211408 1.879740583
-8.023514136 19.3877452 10.36419798
-10.30741177 21.74537311 8.199598457
-9.435120335 28.18220288 1.967052213
-10.97341529 24.7554198 5.424210079
-11.11541202 26.84550529 1.921525957
-11.92100017 25.31174366 3.718539668
-0.7047696473 9.920358993 14.20636714
-2.230750711 12.08479319 13.71342495
-5.875434182 16.86629146 11.90814646
-3.944088388 14.40382908 12.98012756
-1.360253594 32.87547619 2.200936549
-3.727114488 29.52944721 6.030597922
-3.556209231 31.94733594 2.149137436
-6.519350714 20.23584531 10.54853104
-5.411812076 24.85162055 8.756495879
-7.621502511 21.54529571 9.559871271
-7.561748303 29.55419397 2.035218388
-5.676388918 28.44967272 5.870477325
-5.637557146 30.8089809 2.090727242
-8.547388691 27.94266555 3.908281974
-4.707887692 30.42601214 4.139628193
-9.863571133 23.86790795 7.030237827
-6.490669317 26.1366009 7.375693509
-8.753971483 22.78339574 8.383761573
-9.310919218 25.98562745 5.587194179
-7.118140416 23.82554374 8.572711899
-7.541221736 27.23060497 5.740434213
18.97942168 32.23282241 2.465031158
15.83152643 29.78287144 6.742223995
16.37286771 32.82648937 2.41961447
9.492513919 22.93738605 12.26174616
12.62477917 26.63428411 10.043076
11.27841675 33.68803127 2.351346229
13.54760191 30.56264286 6.696642463
13.79262412 33.3114025 2.38433674
15.00986159 31.87029306 4.682053934
0.7107786333 10.00494166 14.32749305
2.305375797 12.4890646 14.17217881
0 11.09890579 14.13126425
6.610002845 18.97497804 13.39694728
4.227125747 15.43748282 13.91161302
-1.543680222 13.42305789 13.58298536
1.5825209 13.76079667 13.92474809
-0.7530127207 12.24478474 13.8845658
0.7613767633 12.38079293 14.03878776
1.391797654 33.63785316 2.25197591
4.01139351 31.78175322 6.490571041
3.781687312 33.97292654 2.285401461
0 32.4217827 4.368181991
7.51736857 23.33365917 12.16335785
6.099780446 28.01084497 9.869652085
8.979239117 25.38349384 11.26291961
8.687198946 33.95288397 2.338129534
6.349405081 31.82278366 6.566505413
6.232684397 34.06132295 2.311434319
10.05348994 32.86633115 4.596944745
5.134837394 33.18529139 4.515043483
-2.399233329 28.27981568 7.816348815
2.525227939 29.7649169 8.226820697
-1.28800186 30.56328031 6.256203271
1.320832021 31.34231444 6.415669002
11.98084297 28.99129061 8.539318498
7.431954676 29.92696497 8.445326234
10.48709684 27.29408909 10.04359218
11.16117891 31.14947412 6.697477704
8.294088179 27.76162722 9.988961199
8.746253101 31.5818539 6.657713073
-5.260354908 18.63857166 11.51927079
-1.810867927 19.57284445 12.09668313
-4.258458442 17.301632 12.18583743
-4.75325051 20.82641319 10.89265235
5.885750524 20.85448317 12.88877942
1.883005919 20.35255107 12.57856832
4.644075317 18.86834948 13.28930354
5.288524254 23.17172029 12.11929731
-2.412633646 14.70933264 13.19548505
-0.8991258033 18.07136445 12.69840164
-3.304476101 15.9794621 12.74181978
-0.817224328 14.93723269 13.41048537
-2.596011353 17.70601881 12.4513671
-3.371597425 25.67489626 9.124763696
-1.023980137 21.93691612 11.5097995
-4.128380246 23.20106163 10.10608435
-1.163693987 26.5303306 9.41448212
-2.914492219 21.40062874 11.21648684
2.517414924 15.34816261 13.76856824
0.9156584134 18.40365035 12.93189257
3.519141278 17.01751895 13.56955311
0.828982109 15.1521415 13.60342817
2.737338093 18.66993367 13.12921896
0 16.60122446 13.19748635
3.638430729 27.70684626 9.846911252
1.047877227 22.44886791 11.77840892
4.538221569 25.50432664 11.10935699
1.19462398 27.23548414 9.664711018
3.113611139 22.86272566 11.98280035
0 24.52975245 10.73652795
0 -7.630552335 14.50158063
0 -5.288061506 14.66933811
0 -1.026871128 14.81617252
0 -3.110790001 14.76935399
0 7.630552335 14.50158063
0 5.288061506 14.66933811
0 1.026871128 14.81617252
0 3.110790001 14.76935399
-18.97942168 -32.23282241 -2.465031158
-15.83152643 -29.78287144 -6.742223995
-16.37286771 -32.82648937 -2.41961447
-9.492513919 -22.93738605 -12.26174616
-12.62477917 -26.63428411 -10.043076
-11.27841675 -33.68803127 -2.351346229
-13.54760191 -30.56264286 -6.696642463
-13.79262412 -33.3114025 -2.38433674
-15.00986159 -31.87029306 -4.682053934
-0.7107786333 -10.00494166 -14.32749305
-2.305375797 -12.4890646 -14.17217881
-6.610002845 -18.97497804 -13.39694728
-4.227125747 -15.43748282 -13.91161302
-1.391797654 -33.63785316 -2.25197591
-4.01139351 -31.78175322 -6.490571041
-3.781687312 -33.97292654 -2.285401461
-7.51736857 -23.33365917 -12.16335785
-6.099780446 -28.01084497 -9.869652085
-8.979239117 -25.38349384 -11.26291961
-8.687198946 -33.95288397 -2.338129534
-6.349405081 -31.82278366 -6.566505413
-6.232684397 -34.06132295 -2.311434319
-10.05348994 -32.86633115 -4.596944745
-5.134837394 -33.18529139 -4.515043483
-11.98084297 -28.99129061 -8.539318498
-7.431954676 -29.92696497 -8.445326234
-10.48709684 -27.29408909 -10.04359218
-11.16117891 -31.14947412 -6.697477704
-8.294088179 -27.76162722 -9.988961199
-8.746253101 -31.5818539 -6.657713073
14.23933192 -24.18271034 -1.849392328
12.50393006 -23.52287022 -5.325089634
12.71968913 -25.50211408 -1.879740583
8.023514136 -19.3877452 -10.36419798
10.30741177 -21.74537311 -8.199598457
9.435120335 -28.18220288 -1.967052213
10.97341529 -24.7554198 -5.424210079
11.11541202 -26.84550529 -1.921525957
11.92100017 -25.31174366 -3.718539668
0.7047696473 -9.920358993 -14.20636714
2.230750711 -12.08479319 -13.71342495
0 -11.09890579 -14.13126425
5.875434182 -16.86629146 -11.90814646
3.944088388 -14.40382908 -12.98012756
-1.5825209 -13.76079667 -13.92474809
1.543680222 -13.42305789 -13.58298536
-0.7613767633 -12.38079293 -14.03878776
0.7530127207 -12.24478474 -13.8845658
1.360253594 -32.87547619 -2.200936549
3.727114488 -29.52944721 -6.030597922
3.556209231 -31.94733594 -2.149137436
0 -32.4217827 -4.368181991
6.519350714 -20.23584531 -10.54853104
5.411812076 -24.85162055 -8.756495879
7.621502511 -21.54529571 -9.559871271
7.561748303 -29.55419397 -2.035218388
5.676388918 -28.44967272 -5.870477325
5.637557146 -30.8089809 -2.090727242
8.547388691 -27.94266555 -3.908281974
4.707887692 -30.42601214 -4.139628193
-2.525227939 -29.7649169 -8.226820697
2.399233329 -28.27981568 -7.816348815
-1.320832021 -31.34231444 -6.415669002
1.28800186 -30.56328031 -6.256203271
9.863571133 -23.86790795 -7.030237827
6.490669317 -26.1366009 -7.375693509
8.753971483 -22.78339574 -8.383761573
9.310919218 -25.98562745 -5.587194179
7.118140416 -23.82554374 -8.572711899
7.541221736 -27.23060497 -5.740434213
-5.885750524 -20.85448317 -12.88877942
-1.883005919 -20.35255107 -12.57856832
-4.644075317 -18.86834948 -13.28930354
-5.288524254 -23.17172029 -12.11929731
5.260354908 -18.63857166 -11.51927079
1.810867927 -19.57284445 -12.09668313
4.258458442 -17.301632 -12.18583743
4.75325051 -20.82641319 -10.89265235
-2.517414924 -15.34816261 -13.76856824
-0.9156584134 -18.40365035 -12.93189257
-3.519141278 -17.01751895 -13.56955311
-0.828982109 -15.1521415 -13.60342817
-2.737338093 -18.66993367 -13.12921896
-3.638430729 -27.70684626 -9.846911252
-1.047877227 -22.44886791 -11.77840892
-4.538221569 -25.50432664 -11.10935699
-1.19462398 -27.23548414 -9.664711018
-3.113611139 -22.86272566 -11.98280035
2.412633646 -14.70933264 -13.19548505
0.8991258033 -18.07136445 -12.69840164
3.304476101 -15.9794621 -12.74181978
0.817224328 -14.93723269 -13.41048537
2.596011353 -17.70601881 -12.4513671
0 -16.60122446 -13.19748635
3.371597425 -25.67489626 -9.124763696
1.023980137 -21.93691612 -11.5097995
4.128380246 -23.20106163 -10.10608435
1.163693987 -26.5303306 -9.41448212
2.914492219 -21.40062874 -11.21648684
0 -24.52975245 -10.73652795
-14.23933192 24.18271034 -1.849392328
-12.50393006 23.52287022 -5.325089634
-12.71968913 25.50211408 -1.879740583
-8.023514136 19.3877452 -10.36419798
-10.30741177 21.74537311 -8.199598457
-9.435120335 28.18220288 -1.967052213
-10.97341529 24.7554198 -5.424210079
-11.11541202 26.84550529 -1.921525957
-11.92100017 25.31174366 -3.718539668
-0.7047696473 9.920358993 -14.20636714
-2.230750711 12.08479319 -13.71342495
-5.875434182 16.86629146 -11.90814646
-3.944088388 14.40382908 -12.98012756
-1.360253594 32.87547619 -2.200936549
-3.727114488 29.52944721 -6.030597922
-3.556209231 31.94733594 -2.149137436
-6.519350714 20.23584531 -10.54853104
-5.411812076 24.85162055 -8.756495879
-7.621502511 21.54529571 -9.559871271
-7.561748303 29.55419397 -2.035218388
-5.676388918 28.44967272 -5.870477325
-5.637557146 30.8089809 -2.090727242
-8.547388691 27.94266555 -3.908281974
-4.707887692 30.42601214 -4.139628193
-9.863571133 23.86790795 -7.030237827
-6.490669317 26.1366009 -7.375693509
-8.753971483 22.78339574 -8.383761573
-9.310919218 25.98562745 -5.587194179
-7.118140416 23.82554374 -8.572711899
-7.541221736 27.23060497 -5.740434213
18.97942168 32.23282241 -2.465031158
15.83152643 29.78287144 -6.742223995
16.37286771 32.82648937 -2.41961447
9.492513919 22.93738605 -12.26174616
12.62477917 26.63428411 -10.043076
11.27841675 33.68803127 -2.351346229
13.54760191 30.56264286 -6.696642463
13.79262412 33.3114025 -2.38433674
15.00986159 31.87029306 -4.682053934
0.7107786333 10.00494166 -14.32749305
2.305375797 12.4890646 -14.17217881
0 11.09890579 -14.13126425
6.610002845 18.97497804 -13.39694728
4.227125747 15.43748282 -13.91161302
-1.543680222 13.42305789 -13.58298536
1.5825209 13.76079667 -13.92474809
-0.7530127207 12.24478474 -13.8845658
0.7613767633 12.38079293 -14.03878776
1.391797654 33.63785316 -2.25197591
4.01139351 31.78175322 -6.490571041
3.781687312 33.97292654 -2.285401461
0 32.4217827 -4.368181991
7.51736857 23.33365917 -12.16335785
6.099780446 28.01084497 -9.869652085
8.979239117 25.38349384 -11.26291961
8.687198946 33.95288397 -2.338129534
6.349405081 31.82278366 -6.566505413
6.232684397 34.06132295 -2.311434319
10.05348994 32.86633115 -4.596944745
5.134837394 33.18529139 -4.515043483
-2.399233329 28.27981568 -7.816348815
2.525227939 29.7649169 -8.226820697
-1.28800186 30.56328031 -6.256203271
1.320832021 31.34231444 -6.415669002
11.98084297 28.99129061 -8.539318498
7.431954676 29.92696497 -8.445326234
10.48709684 27.29408909 -10.04359218
11.16117891 31.14947412 -6.697477704
8.294088179 27.76162722 -9.988961199
8.746253101 31.5818539 -6.657713073
-5.260354908 18.63857166 -11.51927079
-1.810867927 19.57284445 -12.09668313
-4.258458442 17.301632 -12.18583743
-4.75325051 20.82641319 -10.89265235
5.885750524 20.85448317 -12.88877942
1.883005919 20.35255107 -12.57856832
4.644075317 18.86834948 -13.28930354
5.288524254 23.17172029 -12.11929731
-2.412633646 14.70933264 -13.19548505
-0.8991258033 18.07136445 -12.69840164
-3.304476101 15.9794621 -12.74181978
-0.817224328 14.93723269 -13.41048537
-2.596011353 17.70601881 -12.4513671
-3.371597425 25.67489626 -9.124763696
-1.023980137 21.93691612 -11.5097995
-4.128380246 23.20106163 -10.10608435
-1.163693987 26.5303306 -9.41448212
-2.914492219 21.40062874 -11.21648684
2.517414924 15.34816261 -13.76856824
0.9156584134 18.40365035 -12.93189257
3.519141278 17.01751895 -13.56955311
0.828982109 15.1521415 -13.60342817
2.737338093 18.66993367 -13.12921896
0 16.60122446 -13.19748635
3.638430729 27.70684626 -9.846911252
1.047877227 22.44886791 -11.77840892
4.538221569 25.50432664 -11.10935699
1.19462398 27.23548414 -9.664711018
3.113611139 22.86272566 -11.98280035
0 24.52975245 -10.73652795
0 -7.630552335 -14.50158063
0 -5.288061506 -14.66933811
0 -1.026871128 -14.81617252
0 -3.110790001 -14.76935399
0 7.630552335 -14.50158063
0 5.288061506 -14.66933811
0 1.026871128 -14.81617252
0 3.110790001 -14.76935399
22.19918871 31.79016256 -1.577091556
24.88201258 28.23528766 -4.593009279
20.55855316 30.81254247 -3.967249931
25.64151663 18.10373882 -8.932315892
25.68812307 23.14906074 -7.033978771
16.90834671 27.84555338 -7.955314943
22.51911043 26.60740069 -6.651333631
18.71091714 29.37862271 -6.100950531
21.7350719 28.86962282 -5.385894142
21.01605187 1.607219561 -12.37473112
22.81461603 5.164755586 -12.12744706
25.17660472 13.4587758 -10.41920253
24.25815692 9.147102005 -11.49848341
10.16308223 20.87144146 -12.89926021
14.56679551 20.22069262 -12.49707532
11.77745416 22.75635332 -12.10440579
23.31349454 16.93782323 -10.46815045
18.96205466 18.88590551 -11.67213151
23.34932586 19.24845652 -9.698641503
15.11706897 26.19394263 -9.643710269
16.37748654 21.83318941 -11.44560084
13.44211419 24.54687935 -11.007682
17.70053968 25.65617305 -9.102407657
14.08678892 22.38215 -11.82838216
22.99908911 24.0822392 -7.830343162
18.74429979 21.10105586 -10.94628962
23.25488008 21.65176915 -8.816784768
20.33865829 24.94984094 -8.495318917
21.03617557 20.24866356 -10.37044506
18.30451833 23.37375684 -10.10231811
15.94716585 -22.83700551 -1.132930619
17.85022071 -20.25584205 -3.294999916
15.23790034 -22.8381077 -2.940506494
20.24402122 -14.29293276 -7.05207867
19.27223507 -17.36733116 -5.277166104
13.27231977 -21.85755325 -6.24457764
16.85372379 -19.91347675 -4.977982598
14.32477277 -22.49179404 -4.670788149
16.11127363 -21.39980926 -3.992331595
20.39989234 -1.560098262 -12.01192232
20.84925281 -4.719838141 -11.08272913
20.80513659 -11.12189955 -8.610093944
20.99493271 -7.916627457 -9.951699394
8.567130078 -17.59390997 -10.87363436
11.83927068 -16.43451733 -10.1570903
9.716735648 -18.77464065 -9.986480076
18.71152989 -13.5943835 -8.401791061
15.18489801 -15.12391743 -9.347095017
18.4058418 -15.17320234 -7.64525975
12.08674723 -20.94318444 -7.710561393
13.1018353 -17.46634632 -9.156373096
10.90540169 -19.91454437 -8.930380456
13.89312732 -20.13749213 -7.144466256
11.4126429 -18.13326562 -9.582957648
17.49277914 -18.31660765 -5.955647325
14.86862449 -16.73808461 -8.682974119
18.00054155 -16.75964653 -6.824670781
15.70005201 -19.25956938 -6.557804696
16.60918278 -15.98740004 -8.188019582
14.42217764 -18.41624387 -7.959642742
1.096358664 -8.441375409 -14.33601924
3.220201199 -7.561407101 -14.22480748
1.821669993 -9.440015131 -14.14841136
1.065770167 -7.211774506 -14.45911879
7.452862698 -5.769684186 -13.94166758
5.314734064 -6.680955501 -14.09469937
3.407971545 -11.53821051 -13.63294483
4.003939961 -8.510034556 -14.01477185
2.596012302 -10.47635036 -13.91521891
2.924759399 -8.969902396 -14.083937
1.021800938 -4.901148401 -14.63946973
3.146830472 -6.366176295 -14.36174268
1.042129824 -6.028387142 -14.55952317
2.117307438 -6.787724368 -14.4123091
18.24100504 -0.9049256971 -12.73776164
14.98571118 -2.437712387 -13.20598035
18.54717687 -2.388030336 -12.37493212
9.712614251 -4.792166937 -13.75661471
12.18584552 -3.702741102 -13.52242767
18.96999312 -5.419618268 -11.51893864
15.24047886 -3.809823844 -12.89874312
18.79028067 -3.902108481 -11.96732019
16.82175424 -3.138253249 -12.66459351
7.260283447 -16.16929173 -11.74738539
7.778914639 -12.63729803 -12.58654828
6.223126981 -14.98207967 -12.35075955
8.837482754 -15.67964271 -11.4509553
8.444664446 -6.653390798 -13.6637541
8.158040497 -9.509145514 -13.19998681
7.320321432 -7.122592512 -13.76224688
4.316101291 -12.67714533 -13.27417988
6.765285889 -11.58479733 -13.0413757
5.235638112 -13.80935791 -12.85738858
4.608235439 -11.03258475 -13.53389347
6.517294056 -13.22015991 -12.72524891
12.02938138 -14.58137987 -10.81043909
9.259919796 -12.17651272 -12.3548859
10.43307986 -15.14773043 -11.13753838
9.066911015 -13.86669533 -11.94160889
5.130281648 -8.042010735 -13.93470972
6.983653924 -9.992895941 -13.32175052
6.212082367 -7.585931404 -13.85280174
4.879003466 -9.487708936 -13.75202715
7.164121242 -8.531975244 -13.55624414
5.804268952 -10.51682854 -13.42935053
0.9914472463 -0.6127480963 -14.80928669
3.003291843 -1.856136437 -14.70592951
0.9947505499 -1.646028322 -14.78715575
7.356891973 -4.546809291 -14.11314309
5.10371084 -3.154266768 -14.48473076
6.292976201 -5.01700625 -14.18262122
1.012621977 -3.762344405 -14.70467568
3.022430507 -2.922503586 -14.64738793
1.001114415 -2.69946247 -14.75243364
2.043116382 -4.468282987 -14.60747155
2.004268511 -2.279400616 -14.73125006
4.213734779 -5.91195828 -14.30577974
4.09973614 -3.607800615 -14.52787689
5.242498504 -5.473996607 -14.24681714
3.112350392 -5.186654007 -14.47531179
5.172811362 -4.295116651 -14.37643593
3.071536113 -4.035084113 -14.57028918
18.95814914 -11.71678053 -9.231428943
15.66825018 -9.683511155 -11.28725908
19.07360105 -10.14550107 -9.871461335
17.15535963 -12.52868193 -9.669237854
9.831654727 -6.076296787 -13.53244899
12.59281226 -7.782785991 -12.64358726
11.05256267 -5.569009802 -13.40730292
9.712823282 -7.496047796 -13.29964136
19.07268146 -7.021906422 -11.00724107
15.65084434 -8.204633491 -11.73999307
19.11177238 -8.570389328 -10.4657958
17.20435754 -6.103836121 -11.86951822
17.33048765 -9.158710441 -10.90739368
13.73637978 -13.93760338 -10.44615794
14.0253385 -10.39819749 -11.57065705
15.40788739 -13.26884024 -10.07463859
12.23487471 -12.77153029 -11.36654773
15.56633033 -11.44531864 -10.72139277
13.71592641 -4.459735231 -13.09902336
13.99582177 -7.260410078 -12.43264227
12.34947104 -5.028809767 -13.26383383
15.40513223 -5.245384591 -12.55798468
12.48511807 -6.394309957 -12.97068989
15.54211358 -6.717421449 -12.17138113
9.434866676 -10.49870487 -12.72597476
12.47140453 -9.347249875 -12.29134912
9.58123509 -8.975214041 -13.03106318
10.78777536 -11.61188806 -12.12121773
11.06241548 -8.399365425 -12.84576865
12.38034793 -11.01839893 -11.8601297
1.108874716 8.537742315 -14.49967952
3.319561533 7.794716725 -14.66371845
1.860629386 9.641905302 -14.45099829
1.075898504 7.280310185 -14.59652818
7.86554181 6.089162518 -14.7136441
5.557398096 6.985999476 -14.73824551
3.578016662 12.11392434 -14.31317812
4.178587777 8.881233665 -14.62608204
2.684669852 10.83413278 -14.39044363
3.021747075 9.267352498 -14.55097313
1.028141599 4.931561877 -14.73031317
3.226472596 6.527295809 -14.72521942
1.050236565 6.07528204 -14.67278188
2.155394295 6.909824296 -14.67156269
18.54698604 0.9201052374 -12.95142931
15.61104834 2.539435431 -13.75705132
19.39617951 2.497343149 -12.94139839
16.82304006 0 -13.21306667
10.28622027 5.075181965 -14.56905066
12.85843375 3.907111008 -14.26878751
21.01613025 6.004187915 -12.76139181
16.26989197 4.067157138 -13.76998446
20.23064193 4.201223006 -12.88467021
17.80326961 3.321363985 -13.40354695
13.74236981 -1.56179396 -13.58056574
14.08167318 1.600355136 -13.91587411
15.21505862 -0.825170398 -13.41814503
15.42534603 0.8365750828 -13.60359729
8.354748 18.60676084 -13.51826623
8.79536121 14.28857444 -14.23119338
6.975397117 16.79315812 -13.84375617
10.41365491 18.47611959 -13.49324238
9.061377412 7.139287235 -14.66161664
8.997748286 10.48792265 -14.55866255
7.817497802 7.606339671 -14.69694135
4.619063848 13.56699941 -14.20594196
7.466892982 12.78622121 -14.39385685
5.725259683 15.10076869 -14.05977397
4.911044501 11.75754047 -14.42321122
7.25616879 14.71894791 -14.16792816
14.64208231 17.74835776 -13.15839394
10.65033057 14.00486057 -14.21001714
12.52955205 18.19158671 -13.37556779
10.56936453 16.16450823 -13.92042088
5.403884552 8.470898981 -14.67786132
7.627916054 10.91476929 -14.55072026
6.592648928 8.050663141 -14.70145648
5.171512965 10.05652284 -14.5764985
7.739729978 9.217485626 -14.6454346
6.268565713 11.35809373 -14.50359502
0.9921916126 0.6132081399 -14.82040532
3.024086343 1.868988145 -14.80775193
0.9967662747 1.649363772 -14.81711988
1.994221772 0 -14.80163259
7.669909171 4.740264558 -14.71362173
5.206779434 3.217966662 -14.77724749
6.546531329 5.219150295 -14.75406409
1.01740296 3.7801079 -14.77410218
3.055749024 2.954720534 -14.80885707
1.004465715 2.708499106 -14.80181843
2.066394968 4.519193113 -14.7739042
2.015640706 2.292333908 -14.81483499
4.058229219 -1.245676086 -14.68281125
4.08361294 1.253467636 -14.77465041
3.020512526 -0.6218509188 -14.75603765
3.027515996 0.623292765 -14.79025154
4.347226064 6.099249353 -14.75898741
4.175899544 3.67482502 -14.7977705
5.434464388 5.674439315 -14.76849642
3.175601694 5.292060718 -14.76948892
5.318239144 4.415869032 -14.78061328
3.119263764 4.09778404 -14.79669241
23.10797848 14.28151611 -11.25213542
18.48609811 11.42503695 -13.31721004
22.79023829 12.12242966 -11.79499118
21.05742239 15.37838629 -11.86854896
10.58846344 6.544030292 -14.57413277
14.173016 8.759405609 -14.23016248
11.91748647 6.004815436 -14.45649809
10.63798944 8.210061587 -14.56645924
21.73793939 8.00316288 -12.54541684
18.05128544 9.463015405 -13.54060915
22.33020946 10.01364944 -12.22824381
19.24265024 6.826990394 -13.27576384
20.39200473 10.77664232 -12.83423917
16.8583909 17.1053487 -12.82036583
16.57072761 12.28531477 -13.6705582
18.95757788 16.32573408 -12.39564782
14.66909817 15.31252556 -13.62801079
18.79188234 13.81694187 -12.94300886
14.73199586 4.790110342 -14.06939292
15.76519134 8.178280345 -14.0043927
13.30493168 5.417881474 -14.29003739
16.87662596 5.746422196 -13.75751971
13.74664405 7.040406221 -14.2812792
17.47887459 7.554504504 -13.68810253
10.68007417 11.88431703 -14.40554054
14.34998567 10.75523622 -14.14280832
10.67181951 9.996818091 -14.5143244
12.5711113 13.53145875 -14.12498612
12.40753323 9.420673609 -14.40773054
14.56009379 12.95835324 -13.94828334
8.665671405 -3.957238957 -14.02135087
8.835795855 -1.322714595 -14.29661801
9.814346601 -3.429718094 -13.93455428
7.453060117 -3.252308131 -14.25001961
9.040218625 4.128278542 -14.627381
8.961203035 1.341487992 -14.49953109
10.22544972 3.573382043 -14.51824456
7.679575509 3.351153148 -14.68311001
12.30992965 -2.250720632 -13.72218219
9.997361252 -0.7078753471 -14.22745664
11.03206356 -2.861066237 -13.83526408
12.47390976 -0.7601501543 -13.89403049
9.909651816 -2.066083862 -14.091664
5.179167565 -1.913700849 -14.57293519
7.593713217 -0.6755818383 -14.47311484
6.286666618 -2.568131177 -14.43262639
5.198762087 -0.6426023339 -14.65028826
7.531869765 -1.957081226 -14.37052001
12.71624359 2.325010185 -14.17511037
10.08160436 0.7138402831 -14.3473448
11.45744107 2.971384059 -14.3687282
12.61062531 0.7684814913 -14.04631073
10.15680446 2.117613229 -14.44311853
11.24709973 0 -14.14781741
5.242912764 1.93725468 -14.75229889
7.64099742 0.6797885219 -14.5632354
6.413269431 2.619848987 -14.72327503
5.220086973 0.6452382347 -14.71038251
7.668895705 1.99268605 -14.63196027
6.395089918 0 -14.61086613
22.19918871 31.79016256 1.577091556
24.88201258 28.23528766 4.593009279
20.55855316 30.81254247 3.967249931
24.66778399 31.40732796 0
25.64151663 18.10373882 8.932315892
25.68812307 23.14906074 7.033978771
16.90834671 27.84555338 7.955314943
22.51911043 26.60740069 6.651333631
18.71091714 29.37862271 6.100950531
21.7350719 28.86962282 5.385894142
27.8954114 28.22776805 -3.208031674
27.8954114 28.22776805 3.208031674
26.69106291 30.26544174 -1.641409819
26.69106291 30.26544174 1.641409819
21.01605187 1.607219561 12.37473112
22.81461603 5.164755586 12.12744706
25.17660472 13.4587758 10.41920253
24.25815692 9.147102005 11.49848341
10.16308223 20.87144146 12.89926021
14.56679551 20.22069262 12.49707532
11.77745416 22.75635332 12.10440579
23.31349454 16.93782323 10.46815045
18.96205466 18.88590551 11.67213151
23.34932586 19.24845652 9.698641503
15.11706897 26.19394263 9.643710269
16.37748654 21.83318941 11.44560084
13.44211419 24.54687935 11.007682
17.70053968 25.65617305 9.102407657
14.08678892 22.38215 11.82838216
22.99908911 24.0822392 7.830343162
18.74429979 21.10105586 10.94628962
23.25488008 21.65176915 8.816784768
20.33865829 24.94984094 8.495318917
21.03617557 20.24866356 10.37044506
18.30451833 23.37375684 10.10231811
27.94690457 17.2721369 -7.887441124
33.43942737 20.66670268 -3.09379593
28.21936564 19.87538529 -6.945645116
27.94690457 17.2721369 7.887441124
33.43942737 20.66670268 3.09379593
28.21936564 19.87538529 6.945645116
28.38767838 25.46608978 -4.656164196
33.72215367 23.69591142 -1.677817886
28.40068809 22.64634736 -5.873126046
30.89337141 27.73573352 -1.690193573
31.10582077 21.87448219 -4.560656165
28.38767838 25.46608978 4.656164196
33.72215367 23.69591142 1.677817886
28.40068809 22.64634736 5.873126046
30.89337141 27.73573352 1.690193573
31.10582077 21.87448219 4.560656165
33.06926082 26.28909206 0
15.94716585 -22.83700551 1.132930619
17.85022071 -20.25584205 3.294999916
15.23790034 -22.8381077 2.940506494
17.15854507 -21.84647201 0
20.24402122 -14.29293276 7.05207867
19.27223507 -17.36733116 5.277166104
13.27231977 -21.85755325 6.24457764
16.85372379 -19.91347675 4.977982598
14.32477277 -22.49179404 4.670788149
16.11127363 -21.39980926 3.992331595
19.25335063 -19.48274245 -2.214176295
19.25335063 -19.48274245 2.214176295
18.26944588 -20.71602962 -1.123508942
18.26944588 -20.71602962 1.123508942
20.39989234 -1.560098262 12.01192232
20.84925281 -4.719838141 11.08272913
20.80513659 -11.12189955 8.610093944
20.99493271 -7.916627457 9.951699394
8.567130078 -17.59390997 10.87363436
11.83927068 -16.43451733 10.1570903
9.716735648 -18.77464065 9.986480076
18.71152989 -13.5943835 8.401791061
15.18489801 -15.12391743 9.347095017
18.4058418 -15.17320234 7.64525975
12.08674723 -20.94318444 7.710561393
13.1018353 -17.46634632 9.156373096
10.90540169 -19.91454437 8.930380456
13.89312732 -20.13749213 7.144466256
11.4126429 -18.13326562 9.582957648
17.49277914 -18.31660765 5.955647325
14.86862449 -16.73808461 8.682974119
18.00054155 -16.75964653 6.824670781
15.70005201 -19.25956938 6.557804696
16.60918278 -15.98740004 8.188019582
14.42217764 -18.41624387 7.959642742
22.05110366 -13.62833155 -6.223472137
24.06818887 -14.87495877 -2.226774518
21.5405797 -15.17140131 -5.301792539
22.05110366 -13.62833155 6.223472137
24.06818887 -14.87495877 2.226774518
21.5405797 -15.17140131 5.301792539
20.16370108 -18.08850358 -3.30726246
23.0538797 -16.19951966 -1.147026732
20.90738874 -16.6712858 -4.32354769
20.62632976 -18.51809497 -1.128478001
22.52280348 -15.83866465 -3.302236045
20.16370108 -18.08850358 3.30726246
23.0538797 -16.19951966 1.147026732
20.90738874 -16.6712858 4.32354769
20.62632976 -18.51809497 1.128478001
22.52280348 -15.83866465 3.302236045
21.90879181 -17.41684666 0
1.096358664 -8.441375409 14.33601924
3.220201199 -7.561407101 14.22480748
1.821669993 -9.440015131 14.14841136
1.065770167 -7.211774506 14.45911879
7.452862698 -5.769684186 13.94166758
5.314734064 -6.680955501 14.09469937
3.407971545 -11.53821051 13.63294483
4.003939961 -8.510034556 14.01477185
2.596012302 -10.47635036 13.91521891
2.924759399 -8.969902396 14.083937
1.021800938 -4.901148401 14.63946973
3.146830472 -6.366176295 14.36174268
1.042129824 -6.028387142 14.55952317
2.117307438 -6.787724368 14.4123091
18.24100504 -0.9049256971 12.73776164
14.98571118 -2.437712387 13.20598035
18.54717687 -2.388030336 12.37493212
9.712614251 -4.792166937 13.75661471
12.18584552 -3.702741102 13.52242767
18.96999312 -5.419618268 11.51893864
15.24047886 -3.809823844 12.89874312
18.79028067 -3.902108481 11.96732019
16.82175424 -3.138253249 12.66459351
7.260283447 -16.16929173 11.74738539
7.778914639 -12.63729803 12.58654828
6.223126981 -14.98207967 12.35075955
8.837482754 -15.67964271 11.4509553
8.444664446 -6.653390798 13.6637541
8.158040497 -9.509145514 13.19998681
7.320321432 -7.122592512 13.76224688
4.316101291 -12.67714533 13.27417988
6.765285889 -11.58479733 13.0413757
5.235638112 -13.80935791 12.85738858
4.608235439 -11.03258475 13.53389347
6.517294056 -13.22015991 12.72524891
12.02938138 -14.58137987 10.81043909
9.259919796 -12.17651272 12.3548859
10.43307986 -15.14773043 11.13753838
9.066911015 -13.86669533 11.94160889
5.130281648 -8.042010735 13.93470972
6.983653924 -9.992895941 13.32175052
6.212082367 -7.585931404 13.85280174
4.879003466 -9.487708936 13.75202715
7.164121242 -8.531975244 13.55624414
5.804268952 -10.51682854 13.42935053
0.9914472463 -0.6127480963 14.80928669
3.003291843 -1.856136437 14.70592951
0.9947505499 -1.646028322 14.78715575
7.356891973 -4.546809291 14.11314309
5.10371084 -3.154266768 14.48473076
6.292976201 -5.01700625 14.18262122
1.012621977 -3.762344405 14.70467568
3.022430507 -2.922503586 14.64738793
1.001114415 -2.69946247 14.75243364
2.043116382 -4.468282987 14.60747155
2.004268511 -2.279400616 14.73125006
4.213734779 -5.91195828 14.30577974
4.09973614 -3.607800615 14.52787689
5.242498504 -5.473996607 14.24681714
3.112350392 -5.186654007 14.47531179
5.172811362 -4.295116651 14.37643593
3.071536113 -4.035084113 14.57028918
18.95814914 -11.71678053 9.231428943
15.66825018 -9.683511155 11.28725908
19.07360105 -10.14550107 9.871461335
17.15535963 -12.52868193 9.669237854
9.831654727 -6.076296787 13.53244899
12.59281226 -7.782785991 12.64358726
11.05256267 -5.569009802 13.40730292
9.712823282 -7.496047796 13.29964136
19.07268146 -7.021906422 11.00724107
15.65084434 -8.204633491 11.73999307
19.11177238 -8.570389328 10.4657958
17.20435754 -6.103836121 11.86951822
17.33048765 -9.158710441 10.90739368
13.73637978 -13.93760338 10.44615794
14.0253385 -10.39819749 11.57065705
15.40788739 -13.26884024 10.07463859
12.23487471 -12.77153029 11.36654773
15.56633033 -11.44531864 10.72139277
13.71592641 -4.459735231 13.09902336
13.99582177 -7.260410078 12.43264227
12.34947104 -5.028809767 13.26383383
15.40513223 -5.245384591 12.55798468
12.48511807 -6.394309957 12.97068989
15.54211358 -6.717421449 12.17138113
9.434866676 -10.49870487 12.72597476
12.47140453 -9.347249875 12.29134912
9.58123509 -8.975214041 13.03106318
10.78777536 -11.61188806 12.12121773
11.06241548 -8.399365425 12.84576865
12.38034793 -11.01839893 11.8601297
1.108874716 8.537742315 14.49967952
3.319561533 7.794716725 14.66371845
1.860629386 9.641905302 14.45099829
1.075898504 7.280310185 14.59652818
7.86554181 6.089162518 14.7136441
5.557398096 6.985999476 14.73824551
3.578016662 12.11392434 14.31317812
4.178587777 8.881233665 14.62608204
2.684669852 10.83413278 14.39044363
3.021747075 9.267352498 14.55097313
1.028141599 4.931561877 14.73031317
3.226472596 6.527295809 14.72521942
1.050236565 6.07528204 14.67278188
2.155394295 6.909824296 14.67156269
18.54698604 0.9201052374 12.95142931
15.61104834 2.539435431 13.75705132
19.39617951 2.497343149 12.94139839
16.82304006 0 13.21306667
10.28622027 5.075181965 14.56905066
12.85843375 3.907111008 14.26878751
21.01613025 6.004187915 12.76139181
16.26989197 4.067157138 13.76998446
20.23064193 4.201223006 12.88467021
17.80326961 3.321363985 13.40354695
13.74236981 -1.56179396 13.58056574
14.08167318 1.600355136 13.91587411
15.21505862 -0.825170398 13.41814503
15.42534603 0.8365750828 13.60359729
8.354748 18.60676084 13.51826623
8.79536121 14.28857444 14.23119338
6.975397117 16.79315812 13.84375617
