1.620770 -14.093389 14.261304
-0.846226 -13.760525 15.603289
0.817599 -13.295023 15.075448
1.011681 -24.450944 1.636934
2.775590 -21.990641 4.490999
2.551648 -22.922821 1.542047
0.000000 -25.115802 3.383848
5.441327 -16.889697 8.804252
4.231538 -19.431677 6.846773
6.061489 -17.135279 7.603101
5.193385 -20.297727 1.397782
4.132292 -20.710762 4.273584
3.941858 -21.542064 1.461865
5.921393 -19.357901 2.707549
3.379430 -21.840492 2.971521
-2.085727 -24.584506 6.794990
1.881118 -22.172774 6.128404
-1.054906 -25.032100 5.123989
0.996185 -23.638691 4.838762
7.171327 -17.353204 5.111347
4.844714 -19.508675 5.505307
6.642986 -17.289271 6.362051
6.581622 -18.368496 3.949428
5.476152 -18.329548 6.595188
5.399827 -19.498241 4.110389
-5.980359 -21.189700 13.095955
-1.877470 -20.292719 12.541590
-5.037694 -20.467579 14.415669
-5.080366 -22.259672 11.642277
4.650085 -16.476252 10.182884
1.690710 -18.274117 11.294025
3.944709 -16.026904 11.288025
4.069975 -17.832635 9.326844
-2.760170 -16.828192 15.096276
-0.925195 -18.595324 13.066578
-3.834951 -18.544683 14.787294
-0.883698 -16.152243 14.501308
-2.860557 -19.510346 13.720220
-3.145326 -23.951824 8.512390
-0.987917 -21.164322 11.104437
-4.126153 -23.188546 10.100632
-1.038554 -23.677338 8.402077
-3.059115 -22.462568 11.773070
2.435659 -14.849712 13.321417
0.880032 -17.687605 12.428741
3.201167 -15.479891 12.343468
0.847464 -15.489952 13.906711
2.469761 -16.844929 11.845825
0.000000 -16.992475 13.508519
2.712178 -20.653378 7.340135
0.930202 -19.927900 10.455714
3.422493 -19.234052 8.378106
0.968260 -22.074753 7.833388
2.566728 -18.847057 9.878110
0.000000 -21.739808 9.515386
-9.453573 16.055038 1.227822
-8.686098 16.340619 3.699177
-8.488054 17.017973 1.254381
-6.599628 15.947116 8.524925
-7.731534 16.311088 6.150475
-6.395374 19.102643 1.333320
-7.677642 17.320336 3.795094
-7.467404 18.034979 1.290893
-8.105673 17.210697 2.528418
-0.792844 11.160102 15.981731
-2.366109 12.818076 14.545530
-5.308481 15.238769 10.759063
-3.885366 14.189375 12.786870
-1.011681 24.450944 1.636934
-2.775590 21.990641 4.490999
-2.551648 22.922821 1.542047
-5.441327 16.889697 8.804252
-4.231538 19.431677 6.846773
-6.061489 17.135279 7.603101
-5.193385 20.297727 1.397782
-4.132292 20.710762 4.273584
-3.941858 21.542064 1.461865
-5.921393 19.357901 2.707549
-3.379430 21.840492 2.971521
-7.171327 17.353204 5.111347
-4.844714 19.508675 5.505307
-6.642986 17.289271 6.362051
-6.581622 18.368496 3.949428
-5.476152 18.329548 6.595188
-5.399827 19.498241 4.110389
14.950264 25.390089 1.941728
12.950147 24.362310 5.515121
12.684355 25.431271 1.874519
8.927397 21.571857 11.531769
10.903302 23.002512 8.673632
8.528731 25.474867 1.778086
10.895314 24.579227 5.385604
10.540569 25.457167 1.822153
11.809269 25.074505 3.683687
0.815220 11.475066 16.432773
2.621869 14.203625 16.117805
0.000000 12.413613 15.805166
7.011221 20.126733 14.210124
4.772963 17.430883 15.707982
-1.620770 14.093389 14.261304
1.747488 15.195265 15.376307
-0.817599 13.295023 15.075448
0.846226 13.760525 15.603289
1.055424 25.508157 1.707712
3.153752 24.986767 5.102877
2.838848 25.502894 1.715612
0.000000 25.115802 3.383848
7.089852 22.006662 11.471622
5.190803 23.836721 8.398895
8.023318 22.681191 10.063880
6.521057 25.486777 1.755120
4.973213 24.925403 5.143258
4.665372 25.496035 1.730186
7.714303 25.219186 3.527355
3.913826 25.294173 3.441413
-1.881118 22.172774 6.128404
2.085727 24.584506 6.794990
-0.996185 23.638691 4.838762
1.054906 25.032100 5.123989
9.907965 23.975332 7.061879
6.048821 24.357366 6.873597
8.969634 23.344686 8.590303
8.858207 24.722165 5.315536
7.055899 23.617211 8.497751
6.877621 24.834409 5.235296
-4.650085 16.476252 10.182884
-1.690710 18.274117 11.294025
-3.944709 16.026904 11.288025
-4.069975 17.832635 9.326844
5.980359 21.189700 13.095955
1.877470 20.292719 12.541590
5.037694 20.467579 14.415669
5.080366 22.259672 11.642277
-2.435659 14.849712 13.321417
-0.880032 17.687605 12.428741
-3.201167 15.479891 12.343468
-0.847464 15.489952 13.906711
-2.469761 16.844929 11.845825
-2.712178 20.653378 7.340135
-0.930202 19.927900 10.455714
-3.422493 19.234052 8.378106
-0.968260 22.074753 7.833388
-2.566728 18.847057 9.878110
2.760170 16.828192 15.096276
0.925195 18.595324 13.066578
3.834951 18.544683 14.787294
0.883698 16.152243 14.501308
2.860557 19.510346 13.720220
0.000000 16.992475 13.508519
3.145326 23.951824 8.512390
0.987917 21.164322 11.104437
4.126153 23.188546 10.100632
1.038554 23.677338 8.402077
3.059115 22.462568 11.773070
0.000000 21.739808 9.515386
0.000000 -8.915832 16.944207
0.000000 -6.315272 17.518871
0.000000 -1.251511 18.057382
0.000000 -3.766352 17.881820
0.000000 8.915832 16.944207
0.000000 6.315272 17.518871
0.000000 1.251511 18.057382
0.000000 3.766352 17.881820
-14.950264 -25.390089 -1.941728
-12.950147 -24.362310 -5.515121
-12.684355 -25.431271 -1.874519
-8.927397 -21.571857 -11.531769
-10.903302 -23.002512 -8.673632
-8.528731 -25.474867 -1.778086
-10.895314 -24.579227 -5.385604
-10.540569 -25.457167 -1.822153
-11.809269 -25.074505 -3.683687
-0.815220 -11.475066 -16.432773
-2.621869 -14.203625 -16.117805
-7.011221 -20.126733 -14.210124
-4.772963 -17.430883 -15.707982
-1.055424 -25.508157 -1.707712
-3.153752 -24.986767 -5.102877
-2.838848 -25.502894 -1.715612
-7.089852 -22.006662 -11.471622
-5.190803 -23.836721 -8.398895
-8.023318 -22.681191 -10.063880
-6.521057 -25.486777 -1.755120
-4.973213 -24.925403 -5.143258
-4.665372 -25.496035 -1.730186
-7.714303 -25.219186 -3.527355
-3.913826 -25.294173 -3.441413
-9.907965 -23.975332 -7.061879
-6.048821 -24.357366 -6.873597
-8.969634 -23.344686 -8.590303
-8.858207 -24.722165 -5.315536
-7.055899 -23.617211 -8.497751
-6.877621 -24.834409 -5.235296
9.453573 -16.055038 -1.227822
8.686098 -16.340619 -3.699177
8.488054 -17.017973 -1.254381
6.599628 -15.947116 -8.524925
7.731534 -16.311088 -6.150475
6.395374 -19.102643 -1.333320
7.677642 -17.320336 -3.795094
7.467404 -18.034979 -1.290893
8.105673 -17.210697 -2.528418
0.792844 -11.160102 -15.981731
2.366109 -12.818076 -14.545530
0.000000 -12.413613 -15.805166
5.308481 -15.238769 -10.759063
3.885366 -14.189375 -12.786870
-1.747488 -15.195265 -15.376307
1.620770 -14.093389 -14.261304
-0.846226 -13.760525 -15.603289
0.817599 -13.295023 -15.075448
1.011681 -24.450944 -1.636934
2.775590 -21.990641 -4.490999
2.551648 -22.922821 -1.542047
0.000000 -25.115802 -3.383848
5.441327 -16.889697 -8.804252
4.231538 -19.431677 -6.846773
6.061489 -17.135279 -7.603101
5.193385 -20.297727 -1.397782
4.132292 -20.710762 -4.273584
3.941858 -21.542064 -1.461865
5.921393 -19.357901 -2.707549
3.379430 -21.840492 -2.971521
-2.085727 -24.584506 -6.794990
1.881118 -22.172774 -6.128404
-1.054906 -25.032100 -5.123989
0.996185 -23.638691 -4.838762
7.171327 -17.353204 -5.111347
4.844714 -19.508675 -5.505307
6.642986 -17.289271 -6.362051
6.581622 -18.368496 -3.949428
5.476152 -18.329548 -6.595188
5.399827 -19.498241 -4.110389
-5.980359 -21.189700 -13.095955
-1.877470 -20.292719 -12.541590
-5.037694 -20.467579 -14.415669
-5.080366 -22.259672 -11.642277
4.650085 -16.476252 -10.182884
1.690710 -18.274117 -11.294025
3.944709 -16.026904 -11.288025
4.069975 -17.832635 -9.326844
-2.760170 -16.828192 -15.096276
-0.925195 -18.595324 -13.066578
-3.834951 -18.544683 -14.787294
-0.883698 -16.152243 -14.501308
-2.860557 -19.510346 -13.720220
-3.145326 -23.951824 -8.512390
-0.987917 -21.164322 -11.104437
-4.126153 -23.188546 -10.100632
-1.038554 -23.677338 -8.402077
-3.059115 -22.462568 -11.773070
2.435659 -14.849712 -13.321417
0.880032 -17.687605 -12.428741
3.201167 -15.479891 -12.343468
0.847464 -15.489952 -13.906711
2.469761 -16.844929 -11.845825
0.000000 -16.992475 -13.508519
2.712178 -20.653378 -7.340135
0.930202 -19.927900 -10.455714
3.422493 -19.234052 -8.378106
0.968260 -22.074753 -7.833388
2.566728 -18.847057 -9.878110
0.000000 -21.739808 -9.515386
-9.453573 16.055038 -1.227822
-8.686098 16.340619 -3.699177
-8.488054 17.017973 -1.254381
-6.599628 15.947116 -8.524925
-7.731534 16.311088 -6.150475
-6.395374 19.102643 -1.333320
-7.677642 17.320336 -3.795094
-7.467404 18.034979 -1.290893
-8.105673 17.210697 -2.528418
-0.792844 11.160102 -15.981731
-2.366109 12.818076 -14.545530
-5.308481 15.238769 -10.759063
-3.885366 14.189375 -12.786870
-1.011681 24.450944 -1.636934
-2.775590 21.990641 -4.490999
-2.551648 22.922821 -1.542047
-5.441327 16.889697 -8.804252
-4.231538 19.431677 -6.846773
-6.061489 17.135279 -7.603101
-5.193385 20.297727 -1.397782
-4.132292 20.710762 -4.273584
-3.941858 21.542064 -1.461865
-5.921393 19.357901 -2.707549
-3.379430 21.840492 -2.971521
-7.171327 17.353204 -5.111347
-4.844714 19.508675 -5.505307
-6.642986 17.289271 -6.362051
-6.581622 18.368496 -3.949428
-5.476152 18.329548 -6.595188
-5.399827 19.498241 -4.110389
14.950264 25.390089 -1.941728
12.950147 24.362310 -5.515121
12.684355 25.431271 -1.874519
8.927397 21.571857 -11.531769
10.903302 23.002512 -8.673632
8.528731 25.474867 -1.778086
10.895314 24.579227 -5.385604
10.540569 25.457167 -1.822153
11.809269 25.074505 -3.683687
0.815220 11.475066 -16.432773
2.621869 14.203625 -16.117805
0.000000 12.413613 -15.805166
7.011221 20.126733 -14.210124
4.772963 17.430883 -15.707982
-1.620770 14.093389 -14.261304
1.747488 15.195265 -15.376307
-0.817599 13.295023 -15.075448
0.846226 13.760525 -15.603289
1.055424 25.508157 -1.707712
3.153752 24.986767 -5.102877
2.838848 25.502894 -1.715612
0.000000 25.115802 -3.383848
7.089852 22.006662 -11.471622
5.190803 23.836721 -8.398895
8.023318 22.681191 -10.063880
6.521057 25.486777 -1.755120
4.973213 24.925403 -5.143258
4.665372 25.496035 -1.730186
7.714303 25.219186 -3.527355
3.913826 25.294173 -3.441413
-1.881118 22.172774 -6.128404
2.085727 24.584506 -6.794990
-0.996185 23.638691 -4.838762
1.054906 25.032100 -5.123989
9.907965 23.975332 -7.061879
6.048821 24.357366 -6.873597
8.969634 23.344686 -8.590303
8.858207 24.722165 -5.315536
7.055899 23.617211 -8.497751
6.877621 24.834409 -5.235296
-4.650085 16.476252 -10.182884
-1.690710 18.274117 -11.294025
-3.944709 16.026904 -11.288025
-4.069975 17.832635 -9.326844
5.980359 21.189700 -13.095955
1.877470 20.292719 -12.541590
5.037694 20.467579 -14.415669
5.080366 22.259672 -11.642277
-2.435659 14.849712 -13.321417
-0.880032 17.687605 -12.428741
-3.201167 15.479891 -12.343468
-0.847464 15.489952 -13.906711
-2.469761 16.844929 -11.845825
-2.712178 20.653378 -7.340135
-0.930202 19.927900 -10.455714
-3.422493 19.234052 -8.378106
-0.968260 22.074753 -7.833388
-2.566728 18.847057 -9.878110
2.760170 16.828192 -15.096276
0.925195 18.595324 -13.066578
3.834951 18.544683 -14.787294
0.883698 16.152243 -14.501308
2.860557 19.510346 -13.720220
0.000000 16.992475 -13.508519
3.145326 23.951824 -8.512390
0.987917 21.164322 -11.104437
4.126153 23.188546 -10.100632
1.038554 23.677338 -8.402077
3.059115 22.462568 -11.773070
0.000000 21.739808 -9.515386
0.000000 -8.915832 -16.944207
0.000000 -6.315272 -17.518871
0.000000 -1.251511 -18.057382
0.000000 -3.766352 -17.881820
0.000000 8.915832 -16.944207
0.000000 6.315272 -17.518871
0.000000 1.251511 -18.057382
0.000000 3.766352 -17.881820
17.782405 25.465144 -1.263311
21.055865 23.893501 -3.886735
16.670999 24.985994 -3.217056
22.430512 15.836666 -7.813751
22.224842 20.028097 -6.085655
14.304236 23.556967 -6.730090
19.391443 22.911913 -5.727533
15.479575 24.304987 -5.047327
18.207896 24.184649 -4.511869
20.560837 1.572407 -12.106690
22.183664 5.021921 -11.792055
22.404746 11.977010 -9.272084
22.308696 8.412012 -10.574430
9.958161 20.450605 -12.639169
13.963824 19.383686 -11.979776
10.975781 21.207364 -11.280478
21.148503 15.364904 -9.496033
17.838831 17.767193 -10.980729
20.978696 17.294183 -8.713950
13.128472 22.748221 -8.375114
15.146295 20.191861 -10.585168
12.035605 21.978429 -9.855899
15.474964 22.430297 -7.957917
13.063529 20.756317 -10.969172
20.204542 21.156081 -6.878903
17.268901 19.440153 -10.084687
20.688661 19.262457 -7.843836
17.882959 21.937385 -7.469590
19.218377 18.498917 -9.474304
16.468036 21.028681 -9.088758
10.503872 -15.041982 -0.746224
11.888226 -13.490367 -2.194466
10.171607 -15.244900 -1.962848
14.398316 -10.165676 -5.015706
13.177868 -11.875343 -3.608393
9.368164 -15.427984 -4.407687
11.510851 -13.600618 -3.399890
9.791636 -15.374168 -3.192697
10.859164 -14.423691 -2.690872
18.786412 -1.436706 -11.061868
17.774483 -4.023774 -9.448290
15.567313 -8.321891 -6.442449
16.693800 -6.294785 -7.912942
7.218159 -14.823592 -9.161484
9.544930 -13.249661 -8.188741
7.812475 -15.095236 -8.029356
13.898499 -10.097599 -6.240659
11.741426 -11.694274 -7.227459
13.340044 -10.997117 -5.541072
8.884411 -15.394370 -5.667678
10.090528 -13.451906 -7.051885
8.371315 -15.287004 -6.855229
10.006361 -14.503791 -5.145717
8.976687 -14.262836 -7.537537
12.157946 -12.730529 -4.139333
11.211290 -12.620907 -6.547165
12.757543 -11.878082 -4.836856
11.098320 -13.614532 -4.635693
12.276088 -11.816520 -6.051884
10.622206 -13.563911 -5.862427
1.251084 -9.632681 -16.359218
3.607303 -8.470367 -15.934777
2.028526 -10.511959 -15.755008
1.235224 -8.358425 -16.758076
8.026710 -6.213932 -15.015133
5.840987 -7.342489 -15.490325
3.571829 -12.092976 -14.288426
4.367402 -9.282542 -15.286978
2.809446 -11.337674 -15.059272
3.223369 -9.885703 -15.521865
1.213205 -5.819230 -17.381732
3.587343 -7.257352 -16.372186
1.223899 -7.079862 -17.099004
2.433834 -7.802455 -16.566876
17.741042 -0.880123 -12.388636
15.001012 -2.440201 -13.219464
17.378745 -2.237590 -11.595339
10.233267 -5.049055 -14.494050
12.531301 -3.807710 -13.905774
16.536813 -4.724473 -10.041466
14.773654 -3.693127 -12.503647
16.970914 -3.524287 -10.808586
16.037676 -2.991976 -12.074285
6.462956 -14.393574 -10.457283
7.342789 -11.928787 -11.880882
5.791615 -13.943222 -11.494358
7.690043 -13.643832 -9.964188
8.804613 -6.936988 -14.246164
8.115296 -9.459322 -13.130825
7.722450 -7.513859 -14.518251
4.358058 -12.800378 -13.403217
6.648457 -11.384740 -12.816165
5.083797 -13.408866 -12.484506
4.766682 -11.411922 -13.999234
6.238526 -12.654687 -12.180945
10.021666 -12.147734 -9.006167
8.560950 -11.257389 -11.422298
8.879479 -12.892065 -9.479035
8.139511 -12.448354 -10.720173
5.533721 -8.674425 -15.030518
7.040771 -10.074624 -13.430704
6.628295 -8.094192 -14.780946
5.159148 -10.032477 -14.541645
7.392663 -8.804153 -13.988701
5.926238 -10.737827 -13.711552
1.206816 -0.745853 -18.026251
3.595322 -2.222031 -17.604868
1.206618 -1.996609 -17.936606
8.094018 -5.002378 -15.527214
5.908154 -3.651440 -16.767804
6.987521 -5.570725 -15.747933
1.213418 -4.508393 -17.620517
3.585791 -3.467238 -17.377559
1.208006 -3.257338 -17.801195
2.411714 -5.274403 -17.242795
2.409351 -2.740090 -17.708580
4.762014 -6.681205 -16.167206
4.776804 -4.203625 -16.927142
5.873527 -6.132890 -15.961677
3.602423 -6.003348 -16.754604
5.896998 -4.896427 -16.389117
3.602949 -4.733202 -17.091123
14.539632 -8.985987 -7.079888
13.371805 -8.264230 -9.632922
15.059434 -8.010312 -7.793946
13.420798 -9.801305 -7.564335
10.100915 -6.242709 -13.903063
11.876912 -7.340336 -11.924801
11.207208 -5.646930 -13.594896
9.741164 -7.517920 -13.338448
16.048841 -5.908632 -9.262120
13.767886 -7.217531 -10.327551
15.566553 -6.980589 -8.524399
15.314080 -5.433195 -10.565390
14.455241 -7.639217 -9.097782
11.195532 -11.359535 -8.513910
12.197743 -9.043243 -10.062923
12.302615 -10.594667 -8.044218
10.522855 -10.984417 -9.776032
12.848387 -9.446921 -8.849395
13.512617 -4.393629 -12.904858
12.971964 -6.729278 -11.523138
12.347971 -5.028199 -13.262222
14.460993 -4.923909 -11.788340
12.126761 -6.210776 -12.598395
14.122147 -6.103701 -11.059373
8.982229 -9.995029 -12.115446
11.430314 -8.566958 -11.265289
9.366927 -8.774461 -12.739591
9.778611 -10.525630 -10.987314
10.623860 -8.066383 -12.336514
10.994910 -9.785371 -10.532907
1.299932 10.008779 -16.997946
4.000630 9.393944 -17.672245
2.175408 11.273111 -16.895801
1.276194 8.635657 -17.313906
9.629579 7.454804 -18.013533
6.801171 8.549500 -18.036736
4.164293 14.098852 -16.658465
5.036555 10.704769 -17.629176
3.131102 12.635733 -16.783420
3.592588 11.018055 -17.299809
1.240290 5.949149 -17.769792
3.912494 7.915147 -17.856135
1.257695 7.275363 -17.571170
2.588890 8.299538 -17.622328
18.654571 0.925442 -13.026556
17.028890 2.770075 -15.006508
19.907898 2.563229 -13.282824
17.106970 0.000000 -13.436070
12.374743 6.105651 -17.527162
14.892596 4.525203 -16.526063
21.282583 6.080312 -12.923187
18.101070 4.524916 -15.319798
21.242029 4.411254 -13.528811
19.081859 3.559897 -14.366159
14.307525 -1.626023 -14.139067
15.449360 1.755790 -15.267457
15.656233 -0.849097 -13.807216
16.334683 0.885892 -14.405541
8.780718 19.555433 -14.207499
10.234207 16.626063 -16.559295
7.810080 18.802645 -15.500314
10.734816 19.045931 -13.909380
11.125769 8.765782 -18.001872
11.144318 12.990000 -18.031886
9.615992 9.356255 -18.078121
5.369875 15.772264 -16.515064
9.073916 15.538069 -17.491699
6.658829 17.563122 -16.352381
5.835871 13.971670 -17.139328
8.558077 17.359835 -16.709951
14.607400 17.706318 -13.127226
12.094533 15.903943 -16.136919
12.695652 18.432746 -13.552883
11.450585 17.512224 -15.081036
6.584600 10.321738 -17.884884
9.358937 13.391683 -17.852749
8.087420 9.876014 -18.034762
6.241315 12.136860 -17.591858
9.530082 11.349671 -18.033212
7.583920 13.741401 -17.546934
1.210153 0.747915 -18.076099
3.686558 2.278418 -18.051613
1.215611 2.011490 -18.070292
2.424809 0.000000 -17.997565
9.332199 5.767616 -17.902487
6.341522 3.919276 -17.997737
8.005680 6.382441 -18.042581
1.234252 4.585799 -17.923051
3.730498 3.607161 -18.078843
1.222817 3.297274 -18.019448
2.511433 5.492488 -17.955747
2.459541 2.797170 -18.077477
4.841483 -1.486096 -17.516651
4.951711 1.519931 -17.915458
3.645608 -0.750543 -17.809804
3.676516 0.756906 -17.960794
5.306482 7.445106 -18.015697
5.100409 4.488401 -18.073873
6.652234 6.945983 -18.077860
3.867391 6.444910 -17.986950
6.499004 5.396288 -18.062231
3.807052 5.001333 -18.059320
21.257591 13.137914 -10.351113
18.896510 11.678686 -13.612867
21.300044 11.329776 -11.023747
19.883180 14.520828 -11.206713
12.889069 7.965883 -17.740724
16.557059 10.232825 -16.623818
14.317093 7.213895 -17.367339
13.112503 10.119813 -17.954779
21.303490 7.843214 -12.294687
19.031602 9.976926 -14.275963
21.313365 9.557661 -11.671410
20.255507 7.186336 -13.974548
20.165901 10.657153 -12.691935
16.547452 16.789854 -12.583905
17.414239 12.910683 -14.366440
18.287183 15.748409 -11.957302
15.225906 15.893757 -14.145302
18.630933 13.698602 -12.832154
16.934220 5.506164 -16.172568
17.854253 9.261992 -15.860129
15.680866 6.385382 -16.841887
19.161493 6.524410 -15.620102
16.515591 8.458535 -17.157917
19.103311 8.256599 -14.960236
12.708805 14.141799 -17.141941
16.153308 12.106817 -15.920095
13.243348 12.405695 -18.011759
13.943775 15.008984 -15.667320
14.956135 11.355751 -17.367188
15.737620 14.006341 -15.076330
9.425692 -4.304308 -15.251090
9.984103 -1.494616 -16.154618
10.568400 -3.693229 -15.005171
8.350617 -3.643977 -15.966121
10.871200 4.964409 -17.589971
10.473724 1.567912 -16.946841
12.113489 4.233175 -17.198910
9.256759 4.039392 -17.698636
12.972772 -2.371913 -14.461068
11.215201 -0.794106 -15.960590
11.754211 -3.048349 -14.740906
13.462429 -0.820390 -14.995090
10.897423 -2.272026 -15.496289
6.075488 -2.244891 -17.094965
8.795009 -0.782456 -16.762704
7.224448 -2.951219 -16.585538
6.174764 -0.763243 -17.400696
8.585823 -2.230940 -16.381422
14.398934 2.632670 -16.050847
11.533878 0.816670 -16.414107
13.302616 3.449914 -16.682755
13.941766 0.849600 -15.528998
11.830366 2.466538 -16.822947
12.528545 0.000000 -15.759758
6.346063 2.344868 -17.856299
8.986244 0.799470 -17.127187
7.747479 3.164880 -17.786289
6.265771 0.774492 -17.657155
9.138021 2.374424 -17.434995
7.559327 0.000000 -17.270798
17.782405 25.465144 1.263311
21.055865 23.893501 3.886735
16.670999 24.985994 3.217056
20.081208 25.567643 0.000000
22.430512 15.836666 7.813751
22.224842 20.028097 6.085655
14.304236 23.556967 6.730090
19.391443 22.911913 5.727533
15.479575 24.304987 5.047327
18.207896 24.184649 4.511869
23.510608 23.790723 -2.703770
23.510608 23.790723 2.703770
22.294813 25.280461 -1.371055
22.294813 25.280461 1.371055
20.560837 1.572407 12.106690
22.183664 5.021921 11.792055
22.404746 11.977010 9.272084
22.308696 8.412012 10.574430
9.958161 20.450605 12.639169
13.963824 19.383686 11.979776
10.975781 21.207364 11.280478
21.148503 15.364904 9.496033
17.838831 17.767193 10.980729
20.978696 17.294183 8.713950
13.128472 22.748221 8.375114
15.146295 20.191861 10.585168
12.035605 21.978429 9.855899
15.474964 22.430297 7.957917
13.063529 20.756317 10.969172
20.204542 21.156081 6.878903
17.268901 19.440153 10.084687
20.688661 19.262457 7.843836
17.882959 21.937385 7.469590
19.218377 18.498917 9.474304
16.468036 21.028681 9.088758
23.559354 14.560481 -6.649145
25.292104 15.631380 -2.340010
23.662434 16.665860 -5.824046
23.559354 14.560481 6.649145
25.292104 15.631380 2.340010
23.662434 16.665860 5.824046
23.774463 21.327655 -3.899502
25.463084 17.892421 -1.266895
23.748852 18.937033 -4.911149
25.239746 22.659970 -1.380881
24.759736 17.411738 -3.630209
23.774463 21.327655 3.899502
25.463084 17.892421 1.266895
23.748852 18.937033 4.911149
25.239746 22.659970 1.380881
24.759736 17.411738 3.630209
25.567643 20.325526 0.000000
10.503872 -15.041982 0.746224
11.888226 -13.490367 2.194466
10.171607 -15.244900 1.962848
11.247362 -14.320281 0.000000
14.398316 -10.165676 5.015706
13.177868 -11.875343 3.608393
9.368164 -15.427984 4.407687
11.510851 -13.600618 3.399890
9.791636 -15.374168 3.192697
10.859164 -14.423691 2.690872
12.666797 -12.817715 -1.456709
12.666797 -12.817715 1.456709
11.971618 -13.574817 -0.736214
11.971618 -13.574817 0.736214
18.786412 -1.436706 11.061868
17.774483 -4.023774 9.448290
15.567313 -8.321891 6.442449
16.693800 -6.294785 7.912942
7.218159 -14.823592 9.161484
9.544930 -13.249661 8.188741
7.812475 -15.095236 8.029356
13.898499 -10.097599 6.240659
11.741426 -11.694274 7.227459
13.340044 -10.997117 5.541072
8.884411 -15.394370 5.667678
10.090528 -13.451906 7.051885
8.371315 -15.287004 6.855229
10.006361 -14.503791 5.145717
8.976687 -14.262836 7.537537
12.157946 -12.730529 4.139333
11.211290 -12.620907 6.547165
12.757543 -11.878082 4.836856
11.098320 -13.614532 4.635693
12.276088 -11.816520 6.051884
10.622206 -13.563911 5.862427
15.341792 -9.481749 -4.329906
15.750260 -9.734196 -1.457205
14.698278 -10.352250 -3.617694
15.341792 -9.481749 4.329906
15.750260 -9.734196 1.457205
14.698278 -10.352250 3.617694
13.377718 -12.000917 -2.194221
15.003305 -10.542535 -0.746477
14.040253 -11.195519 -2.903457
13.461148 -12.085272 -0.736467
14.901272 -10.478991 -2.184787
13.377718 -12.000917 2.194221
15.003305 -10.542535 0.746477
14.040253 -11.195519 2.903457
13.461148 -12.085272 0.736467
14.901272 -10.478991 2.184787
14.244045 -11.323598 0.000000
1.251084 -9.632681 16.359218
3.607303 -8.470367 15.934777
2.028526 -10.511959 15.755008
1.235224 -8.358425 16.758076
8.026710 -6.213932 15.015133
5.840987 -7.342489 15.490325
3.571829 -12.092976 14.288426
4.367402 -9.282542 15.286978
2.809446 -11.337674 15.059272
3.223369 -9.885703 15.521865
1.213205 -5.819230 17.381732
3.587343 -7.257352 16.372186
1.223899 -7.079862 17.099004
2.433834 -7.802455 16.566876
17.741042 -0.880123 12.388636
15.001012 -2.440201 13.219464
17.378745 -2.237590 11.595339
10.233267 -5.049055 14.494050
12.531301 -3.807710 13.905774
16.536813 -4.724473 10.041466
14.773654 -3.693127 12.503647
16.970914 -3.524287 10.808586
16.037676 -2.991976 12.074285
6.462956 -14.393574 10.457283
7.342789 -11.928787 11.880882
5.791615 -13.943222 11.494358
7.690043 -13.643832 9.964188
8.804613 -6.936988 14.246164
8.115296 -9.459322 13.130825
7.722450 -7.513859 14.518251
4.358058 -12.800378 13.403217
6.648457 -11.384740 12.816165
5.083797 -13.408866 12.484506
4.766682 -11.411922 13.999234
6.238526 -12.654687 12.180945
10.021666 -12.147734 9.006167
8.560950 -11.257389 11.422298
8.879479 -12.892065 9.479035
8.139511 -12.448354 10.720173
5.533721 -8.674425 15.030518
7.040771 -10.074624 13.430704
6.628295 -8.094192 14.780946
5.159148 -10.032477 14.541645
7.392663 -8.804153 13.988701
5.926238 -10.737827 13.711552
1.206816 -0.745853 18.026251
3.595322 -2.222031 17.604868
1.206618 -1.996609 17.936606
8.094018 -5.002378 15.527214
5.908154 -3.651440 16.767804
6.987521 -5.570725 15.747933
1.213418 -4.508393 17.620517
3.585791 -3.467238 17.377559
1.208006 -3.257338 17.801195
2.411714 -5.274403 17.242795
2.409351 -2.740090 17.708580
4.762014 -6.681205 16.167206
4.776804 -4.203625 16.927142
5.873527 -6.132890 15.961677
3.602423 -6.003348 16.754604
5.896998 -4.896427 16.389117
3.602949 -4.733202 17.091123
14.539632 -8.985987 7.079888
13.371805 -8.264230 9.632922
15.059434 -8.010312 7.793946
13.420798 -9.801305 7.564335
10.100915 -6.242709 13.903063
11.876912 -7.340336 11.924801
11.207208 -5.646930 13.594896
9.741164 -7.517920 13.338448
16.048841 -5.908632 9.262120
13.767886 -7.217531 10.327551
15.566553 -6.980589 8.524399
15.314080 -5.433195 10.565390
14.455241 -7.639217 9.097782
11.195532 -11.359535 8.513910
12.197743 -9.043243 10.062923
12.302615 -10.594667 8.044218
10.522855 -10.984417 9.776032
12.848387 -9.446921 8.849395
13.512617 -4.393629 12.904858
12.971964 -6.729278 11.523138
12.347971 -5.028199 13.262222
14.460993 -4.923909 11.788340
12.126761 -6.210776 12.598395
14.122147 -6.103701 11.059373
8.982229 -9.995029 12.115446
11.430314 -8.566958 11.265289
9.366927 -8.774461 12.739591
9.778611 -10.525630 10.987314
10.623860 -8.066383 12.336514
10.994910 -9.785371 10.532907
1.299932 10.008779 16.997946
4.000630 9.393944 17.672245
2.175408 11.273111 16.895801
1.276194 8.635657 17.313906
9.629579 7.454804 18.013533
6.801171 8.549500 18.036736
4.164293 14.098852 16.658465
5.036555 10.704769 17.629176
3.131102 12.635733 16.783420
3.592588 11.018055 17.299809
1.240290 5.949149 17.769792
3.912494 7.915147 17.856135
1.257695 7.275363 17.571170
2.588890 8.299538 17.622328
18.654571 0.925442 13.026556
17.028890 2.770075 15.006508
19.907898 2.563229 13.282824
17.106970 0.000000 13.436070
12.374743 6.105651 17.527162
14.892596 4.525203 16.526063
21.282583 6.080312 12.923187
18.101070 4.524916 15.319798
21.242029 4.411254 13.528811
19.081859 3.559897 14.366159
14.307525 -1.626023 14.139067
15.449360 1.755790 15.267457
15.656233 -0.849097 13.807216
16.334683 0.885892 14.405541
8.780718 19.555433 14.207499
10.234207 16.626063 16.559295
7.810080 18.802645 15.500314
10.734816 19.045931 13.909380
11.125769 8.765782 18.001872
11.144318 12.990000 18.031886
9.615992 9.356255 18.078121
5.369875 15.772264 16.515064
9.073916 15.538069 17.491699
6.658829 17.563122 16.352381
5.835871 13.971670 17.139328
8.558077 17.359835 16.709951
14.607400 17.706318 13.127226
12.094533 15.903943 16.136919
12.695652 18.432746 13.552883
11.450585 17.512224 15.081036
6.584600 10.321738 17.884884
9.358937 13.391683 17.852749
8.087420 9.876014 18.034762
6.241315 12.136860 17.591858
9.530082 11.349671 18.033212
7.583920 13.741401 17.546934
1.210153 0.747915 18.076099
3.686558 2.278418 18.051613
1.215611 2.011490 18.070292
2.424809 0.000000 17.997565
9.332199 5.767616 17.902487
6.341522 3.919276 17.997737
8.005680 6.382441 18.042581
1.234252 4.585799 17.923051
3.730498 3.607161 18.078843
1.222817 3.297274 18.019448
2.511433 5.492488 17.955747
2.459541 2.797170 18.077477
4.841483 -1.486096 17.516651
4.951711 1.519931 17.915458
3.645608 -0.750543 17.809804
3.676516 0.756906 17.960794
5.306482 7.445106 18.015697
5.100409 4.488401 18.073873
6.652234 6.945983 18.077860
3.867391 6.444910 17.986950
6.499004 5.396288 18.062231
3.807052 5.001333 18.059320
21.257591 13.137914 10.351113
18.896510 11.678686 13.612867
21.300044 11.329776 11.023747
19.883180 14.520828 11.206713
12.889069 7.965883 17.740724
16.557059 10.232825 16.623818
14.317093 7.213895 17.367339
13.112503 10.119813 17.954779
21.303490 7.843214 12.294687
19.031602 9.976926 14.275963
21.313365 9.557661 11.671410
20.255507 7.186336 13.974548
20.165901 10.657153 12.691935
16.547452 16.789854 12.583905
17.414239 12.910683 14.366440
18.287183 15.748409 11.957302
15.225906 15.893757 14.145302
18.630933 13.698602 12.832154
16.934220 5.506164 16.172568
17.854253 9.261992 15.860129
15.680866 6.385382 16.841887
19.161493 6.524410 15.620102
16.515591 8.458535 17.157917
19.103311 8.256599 14.960236
12.708805 14.141799 17.141941
16.153308 12.106817 15.920095
13.243348 12.405695 18.011759
13.943775 15.008984 15.667320
14.956135 11.355751 17.367188
15.737620 14.006341 15.076330
9.425692 -4.304308 15.251090
9.984103 -1.494616 16.154618
10.568400 -3.693229 15.005171
8.350617 -3.643977 15.966121
10.871200 4.964409 17.589971
10.473724 1.567912 16.946841
12.113489 4.233175 17.198910
9.256759 4.039392 17.698636
12.972772 -2.371913 14.461068
11.215201 -0.794106 15.960590
11.754211 -3.048349 14.740906
13.462429 -0.820390 14.995090
10.897423 -2.272026 15.496289
6.075488 -2.244891 17.094965
8.795009 -0.782456 16.762704
7.224448 -2.951219 16.585538
6.174764 -0.763243 17.400696
8.585823 -2.230940 16.381422
14.398934 2.632670 16.050847
11.533878 0.816670 16.414107
13.302616 3.449914 16.682755
13.941766 0.849600 15.528998
11.830366 2.466538 16.822947
12.528545 0.000000 15.759758
6.346063 2.344868 17.856299
8.986244 0.799470 17.127187
7.747479 3.164880 17.786289
6.265771 0.774492 17.657155
9.138021 2.374424 17.434995
7.559327 0.000000 17.270798
20.511648 0.000000 -10.792976
22.778394 0.000000 -8.211246
21.959968 1.618652 -10.952973
19.902004 -1.466961 -9.926522
25.445706 0.000000 -1.763577
24.503690 0.000000 -5.161081
23.028775 5.045881 -10.208040
24.193883 1.688677 -8.099871
22.938704 3.369917 -10.803376
23.292977 1.667246 -9.644483
18.651007 -4.086660 -8.267492
21.854795 -1.525414 -7.316767
19.277693 -2.832079 -9.079161
20.937720 -1.498663 -8.669287
20.511648 0.000000 10.792976
22.778394 0.000000 8.211246
21.959968 1.618652 10.952973
19.902004 -1.466961 9.926522
25.445706 0.000000 1.763577
24.503690 0.000000 5.161081
23.028775 5.045881 10.208040
24.193883 1.688677 8.099871
22.938704 3.369917 10.803376
23.292977 1.667246 9.644483
18.651007 -4.086660 8.267492
21.854795 -1.525414 7.316767
19.277693 -2.832079 9.079161
20.937720 -1.498663 8.669287
23.433373 12.215337 -7.549493
24.709091 8.706275 -5.380774
23.329640 10.351603 -8.252702
24.362375 12.742035 -5.560270
25.544231 1.710127 -1.056917
25.317338 5.170388 -3.195475
25.400112 1.708697 -2.827407
23.131440 6.813313 -9.559221
24.568786 6.933260 -6.101324
23.227781 8.547285 -8.924716
23.791100 5.115347 -8.524597
24.042663 8.650834 -7.183007
25.509455 13.384229 -1.190740
25.236800 8.969066 -3.314067
25.097113 13.153886 -3.417906
24.900837 10.846485 -4.430837
24.728899 1.702929 -6.327146
24.960261 5.150451 -4.980168
25.124766 1.704991 -4.597436
24.319354 3.401497 -7.439053
25.223571 3.431807 -3.902902
24.445141 5.153236 -6.769818
16.100108 -8.392656 -5.186947
18.434119 -6.495282 -4.014305
16.733524 -7.424838 -5.919371
16.422707 -8.589422 -3.748185
23.927396 -1.601883 -0.990018
21.002181 -4.289133 -2.650830
23.699665 -1.594306 -2.638122
18.000848 -5.302109 -7.438970
19.232092 -5.427256 -4.776029
17.369981 -6.391750 -6.673997
19.421751 -4.175889 -6.959014
17.955566 -6.460624 -5.364421
16.753521 -8.790190 -0.782028
18.688976 -6.641993 -2.454214
16.642997 -8.722919 -2.266564
17.542415 -7.641251 -3.121485
22.657313 -1.560272 -5.797109
20.637259 -4.258417 -4.117626
23.269350 -1.579081 -4.257924
20.970921 -2.933159 -6.414800
22.099399 -3.006746 -3.419491
20.091266 -4.235403 -5.564059
23.433373 12.215337 7.549493
24.709091 8.706275 5.380774
23.329640 10.351603 8.252702
24.362375 12.742035 5.560270
25.544231 1.710127 1.056917
25.317338 5.170388 3.195475
25.400112 1.708697 2.827407
25.567643 3.444725 0.000000
23.131440 6.813313 9.559221
24.568786 6.933260 6.101324
23.227781 8.547285 8.924716
23.791100 5.115347 8.524597
24.042663 8.650834 7.183007
25.509455 13.384229 1.190740
25.236800 8.969066 3.314067
25.097113 13.153886 3.417906
25.567643 11.190806 0.000000
24.900837 10.846485 4.430837
24.728899 1.702929 6.327146
24.960261 5.150451 4.980168
25.124766 1.704991 4.597436
24.319354 3.401497 7.439053
25.223571 3.431807 3.902902
24.445141 5.153236 6.769818
25.441966 7.031986 -2.158473
25.441966 7.031986 2.158473
25.539167 5.227784 -1.076275
25.529663 9.059388 -1.119802
25.539167 5.227784 1.076275
25.529663 9.059388 1.119802
16.100108 -8.392656 5.186947
18.434119 -6.495282 4.014305
16.733524 -7.424838 5.919371
16.422707 -8.589422 3.748185
23.927396 -1.601883 0.990018
21.002181 -4.289133 2.650830
23.699665 -1.594306 2.638122
22.531920 -3.035722 0.000000
18.000848 -5.302109 7.438970
19.232092 -5.427256 4.776029
17.369981 -6.391750 6.673997
19.421751 -4.175889 6.959014
17.955566 -6.460624 5.364421
16.753521 -8.790190 0.782028
18.688976 -6.641993 2.454214
16.642997 -8.722919 2.266564
17.783785 -7.783858 0.000000
17.542415 -7.641251 3.121485
22.657313 -1.560272 5.797109
20.637259 -4.258417 4.117626
23.269350 -1.579081 4.257924
20.970921 -2.933159 6.414800
22.099399 -3.006746 3.419491
20.091266 -4.235403 5.564059
19.943250 -5.512179 -1.691967
19.943250 -5.512179 1.691967
21.197379 -4.339034 -0.893303
18.851348 -6.689539 -0.826872
21.197379 -4.339034 0.893303
18.851348 -6.689539 0.826872
-10.503872 15.041982 -0.746224
-11.888226 13.490367 -2.194466
-10.171607 15.244900 -1.962848
-14.398316 10.165676 -5.015706
-13.177868 11.875343 -3.608393
-9.368164 15.427984 -4.407687
-11.510851 13.600618 -3.399890
-9.791636 15.374168 -3.192697
-10.859164 14.423691 -2.690872
-18.786412 1.436706 -11.061868
-17.774483 4.023774 -9.448290
-15.567313 8.321891 -6.442449
-16.693800 6.294785 -7.912942
-7.218159 14.823592 -9.161484
-9.544930 13.249661 -8.188741
-7.812475 15.095236 -8.029356
-13.898499 10.097599 -6.240659
-11.741426 11.694274 -7.227459
-13.340044 10.997117 -5.541072
-8.884411 15.394370 -5.667678
-10.090528 13.451906 -7.051885
-8.371315 15.287004 -6.855229
-10.006361 14.503791 -5.145717
-8.976687 14.262836 -7.537537
-12.157946 12.730529 -4.139333
-11.211290 12.620907 -6.547165
-12.757543 11.878082 -4.836856
-11.098320 13.614532 -4.635693
-12.276088 11.816520 -6.051884
-10.622206 13.563911 -5.862427
-17.782405 -25.465144 -1.263311
-21.055865 -23.893501 -3.886735
-16.670999 -24.985994 -3.217056
-22.430512 -15.836666 -7.813751
-22.224842 -20.028097 -6.085655
-14.304236 -23.556967 -6.730090
-19.391443 -22.911913 -5.727533
-15.479575 -24.304987 -5.047327
-18.207896 -24.184649 -4.511869
-20.560837 -1.572407 -12.106690
-22.183664 -5.021921 -11.792055
-22.404746 -11.977010 -9.272084
-22.308696 -8.412012 -10.574430
-9.958161 -20.450605 -12.639169
-13.963824 -19.383686 -11.979776
-10.975781 -21.207364 -11.280478
-21.148503 -15.364904 -9.496033
-17.838831 -17.767193 -10.980729
-20.978696 -17.294183 -8.713950
-13.128472 -22.748221 -8.375114
-15.146295 -20.191861 -10.585168
-12.035605 -21.978429 -9.855899
-15.474964 -22.430297 -7.957917
-13.063529 -20.756317 -10.969172
-20.204542 -21.156081 -6.878903
-17.268901 -19.440153 -10.084687
-20.688661 -19.262457 -7.843836
-17.882959 -21.937385 -7.469590
-19.218377 -18.498917 -9.474304
-16.468036 -21.028681 -9.088758
-1.299932 -10.008779 -16.997946
-4.000630 -9.393944 -17.672245
-2.175408 -11.273111 -16.895801
-1.276194 -8.635657 -17.313906
-9.629579 -7.454804 -18.013533
-6.801171 -8.549500 -18.036736
-4.164293 -14.098852 -16.658465
-5.036555 -10.704769 -17.629176
-3.131102 -12.635733 -16.783420
-3.592588 -11.018055 -17.299809
-1.240290 -5.949149 -17.769792
-3.912494 -7.915147 -17.856135
-1.257695 -7.275363 -17.571170
-2.588890 -8.299538 -17.622328
-18.654571 -0.925442 -13.026556
-17.028890 -2.770075 -15.006508
-19.907898 -2.563229 -13.282824
-12.374743 -6.105651 -17.527162
-14.892596 -4.525203 -16.526063
-21.282583 -6.080312 -12.923187
-18.101070 -4.524916 -15.319798
-21.242029 -4.411254 -13.528811
-19.081859 -3.559897 -14.366159
-8.780718 -19.555433 -14.207499
-10.234207 -16.626063 -16.559295
-7.810080 -18.802645 -15.500314
-10.734816 -19.045931 -13.909380
-11.125769 -8.765782 -18.001872
-11.144318 -12.990000 -18.031886
-9.615992 -9.356255 -18.078121
-5.369875 -15.772264 -16.515064
-9.073916 -15.538069 -17.491699
-6.658829 -17.563122 -16.352381
-5.835871 -13.971670 -17.139328
-8.558077 -17.359835 -16.709951
-14.607400 -17.706318 -13.127226
-12.094533 -15.903943 -16.136919
-12.695652 -18.432746 -13.552883
-11.450585 -17.512224 -15.081036
-6.584600 -10.321738 -17.884884
-9.358937 -13.391683 -17.852749
-8.087420 -9.876014 -18.034762
-6.241315 -12.136860 -17.591858
-9.530082 -11.349671 -18.033212
-7.583920 -13.741401 -17.546934
-1.210153 -0.747915 -18.076099
-3.686558 -2.278418 -18.051613
-1.215611 -2.011490 -18.070292
-9.332199 -5.767616 -17.902487
-6.341522 -3.919276 -17.997737
-8.005680 -6.382441 -18.042581
-1.234252 -4.585799 -17.923051
-3.730498 -3.607161 -18.078843
-1.222817 -3.297274 -18.019448
-2.511433 -5.492488 -17.955747
-2.459541 -2.797170 -18.077477
-5.306482 -7.445106 -18.015697
-5.100409 -4.488401 -18.073873
-6.652234 -6.945983 -18.077860
-3.867391 -6.444910 -17.986950
-6.499004 -5.396288 -18.062231
-3.807052 -5.001333 -18.059320
-21.257591 -13.137914 -10.351113
-18.896510 -11.678686 -13.612867
-21.300044 -11.329776 -11.023747
-19.883180 -14.520828 -11.206713
-12.889069 -7.965883 -17.740724
-16.557059 -10.232825 -16.623818
-14.317093 -7.213895 -17.367339
-13.112503 -10.119813 -17.954779
-21.303490 -7.843214 -12.294687
-19.031602 -9.976926 -14.275963
-21.313365 -9.557661 -11.671410
-20.255507 -7.186336 -13.974548
-20.165901 -10.657153 -12.691935
-16.547452 -16.789854 -12.583905
-17.414239 -12.910683 -14.366440
-18.287183 -15.748409 -11.957302
-15.225906 -15.893757 -14.145302
-18.630933 -13.698602 -12.832154
-16.934220 -5.506164 -16.172568
-17.854253 -9.261992 -15.860129
-15.680866 -6.385382 -16.841887
-19.161493 -6.524410 -15.620102
-16.515591 -8.458535 -17.157917
-19.103311 -8.256599 -14.960236
-12.708805 -14.141799 -17.141941
-16.153308 -12.106817 -15.920095
-13.243348 -12.405695 -18.011759
-13.943775 -15.008984 -15.667320
-14.956135 -11.355751 -17.367188
-15.737620 -14.006341 -15.076330
-1.251084 9.632681 -16.359218
-3.607303 8.470367 -15.934777
-2.028526 10.511959 -15.755008
-1.235224 8.358425 -16.758076
-8.026710 6.213932 -15.015133
-5.840987 7.342489 -15.490325
-3.571829 12.092976 -14.288426
-4.367402 9.282542 -15.286978
-2.809446 11.337674 -15.059272
-3.223369 9.885703 -15.521865
-1.213205 5.819230 -17.381732
-3.587343 7.257352 -16.372186
-1.223899 7.079862 -17.099004
-2.433834 7.802455 -16.566876
-17.741042 0.880123 -12.388636
-15.001012 2.440201 -13.219464
-17.378745 2.237590 -11.595339
-17.106970 0.000000 -13.436070
-10.233267 5.049055 -14.494050
-12.531301 3.807710 -13.905774
-16.536813 4.724473 -10.041466
-14.773654 3.693127 -12.503647
-16.970914 3.524287 -10.808586
-16.037676 2.991976 -12.074285
-15.449360 -1.755790 -15.267457
-14.307525 1.626023 -14.139067
-16.334683 -0.885892 -14.405541
-15.656233 0.849097 -13.807216
-6.462956 14.393574 -10.457283
-7.342789 11.928787 -11.880882
-5.791615 13.943222 -11.494358
-7.690043 13.643832 -9.964188
-8.804613 6.936988 -14.246164
-8.115296 9.459322 -13.130825
-7.722450 7.513859 -14.518251
-4.358058 12.800378 -13.403217
-6.648457 11.384740 -12.816165
-5.083797 13.408866 -12.484506
-4.766682 11.411922 -13.999234
-6.238526 12.654687 -12.180945
-10.021666 12.147734 -9.006167
-8.560950 11.257389 -11.422298
-8.879479 12.892065 -9.479035
-8.139511 12.448354 -10.720173
-5.533721 8.674425 -15.030518
-7.040771 10.074624 -13.430704
-6.628295 8.094192 -14.780946
-5.159148 10.032477 -14.541645
-7.392663 8.804153 -13.988701
-5.926238 10.737827 -13.711552
-1.206816 0.745853 -18.026251
-3.595322 2.222031 -17.604868
-1.206618 1.996609 -17.936606
-2.424809 0.000000 -17.997565
-8.094018 5.002378 -15.527214
-5.908154 3.651440 -16.767804
-6.987521 5.570725 -15.747933
-1.213418 4.508393 -17.620517
-3.585791 3.467238 -17.377559
-1.208006 3.257338 -17.801195
-2.411714 5.274403 -17.242795
-2.409351 2.740090 -17.708580
-4.951711 -1.519931 -17.915458
-4.841483 1.486096 -17.516651
-3.676516 -0.756906 -17.960794
-3.645608 0.750543 -17.809804
-4.762014 6.681205 -16.167206
-4.776804 4.203625 -16.927142
-5.873527 6.132890 -15.961677
-3.602423 6.003348 -16.754604
-5.896998 4.896427 -16.389117
-3.602949 4.733202 -17.091123
-14.539632 8.985987 -7.079888
-13.371805 8.264230 -9.632922
-15.059434 8.010312 -7.793946
-13.420798 9.801305 -7.564335
-10.100915 6.242709 -13.903063
-11.876912 7.340336 -11.924801
-11.207208 5.646930 -13.594896
-9.741164 7.517920 -13.338448
-16.048841 5.908632 -9.262120
-13.767886 7.217531 -10.327551
-15.566553 6.980589 -8.524399
-15.314080 5.433195 -10.565390
-14.455241 7.639217 -9.097782
-11.195532 11.359535 -8.513910
-12.197743 9.043243 -10.062923
-12.302615 10.594667 -8.044218
-10.522855 10.984417 -9.776032
-12.848387 9.446921 -8.849395
-13.512617 4.393629 -12.904858
-12.971964 6.729278 -11.523138
-12.347971 5.028199 -13.262222
-14.460993 4.923909 -11.788340
-12.126761 6.210776 -12.598395
-14.122147 6.103701 -11.059373
-8.982229 9.995029 -12.115446
-11.430314 8.566958 -11.265289
-9.366927 8.774461 -12.739591
-9.778611 10.525630 -10.987314
-10.623860 8.066383 -12.336514
-10.994910 9.785371 -10.532907
-10.871200 -4.964409 -17.589971
-10.473724 -1.567912 -16.946841
-12.113489 -4.233175 -17.198910
-9.256759 -4.039392 -17.698636
-9.425692 4.304308 -15.251090
-9.984103 1.494616 -16.154618
-10.568400 3.693229 -15.005171
-8.350617 3.643977 -15.966121
-14.398934 -2.632670 -16.050847
-11.533878 -0.816670 -16.414107
-13.302616 -3.449914 -16.682755
-13.941766 -0.849600 -15.528998
-11.830366 -2.466538 -16.822947
-6.346063 -2.344868 -17.856299
-8.986244 -0.799470 -17.127187
-7.747479 -3.164880 -17.786289
-6.265771 -0.774492 -17.657155
-9.138021 -2.374424 -17.434995
-12.972772 2.371913 -14.461068
-11.215201 0.794106 -15.960590
-11.754211 3.048349 -14.740906
-13.462429 0.820390 -14.995090
-10.897423 2.272026 -15.496289
-12.528545 0.000000 -15.759758
-6.075488 2.244891 -17.094965
-8.795009 0.782456 -16.762704
-7.224448 2.951219 -16.585538
-6.174764 0.763243 -17.400696
-8.585823 2.230940 -16.381422
-7.559327 0.000000 -17.270798
-10.503872 15.041982 0.746224
-11.888226 13.490367 2.194466
-10.171607 15.244900 1.962848
-11.247362 14.320281 0.000000
-14.398316 10.165676 5.015706
-13.177868 11.875343 3.608393
-9.368164 15.427984 4.407687
-11.510851 13.600618 3.399890
-9.791636 15.374168 3.192697
-10.859164 14.423691 2.690872
-12.666797 12.817715 -1.456709
-12.666797 12.817715 1.456709
-11.971618 13.574817 -0.736214
-11.971618 13.574817 0.736214
-18.786412 1.436706 11.061868
-17.774483 4.023774 9.448290
-15.567313 8.321891 6.442449
-16.693800 6.294785 7.912942
-7.218159 14.823592 9.161484
-9.544930 13.249661 8.188741
-7.812475 15.095236 8.029356
-13.898499 10.097599 6.240659
-11.741426 11.694274 7.227459
-13.340044 10.997117 5.541072
-8.884411 15.394370 5.667678
-10.090528 13.451906 7.051885
-8.371315 15.287004 6.855229
-10.006361 14.503791 5.145717
-8.976687 14.262836 7.537537
-12.157946 12.730529 4.139333
-11.211290 12.620907 6.547165
-12.757543 11.878082 4.836856
-11.098320 13.614532 4.635693
-12.276088 11.816520 6.051884
-10.622206 13.563911 5.862427
-15.341792 9.481749 -4.329906
-15.750260 9.734196 -1.457205
-14.698278 10.352250 -3.617694
-15.341792 9.481749 4.329906
-15.750260 9.734196 1.457205
-14.698278 10.352250 3.617694
-13.377718 12.000917 -2.194221
-15.003305 10.542535 -0.746477
-14.040253 11.195519 -2.903457
-13.461148 12.085272 -0.736467
-14.901272 10.478991 -2.184787
-13.377718 12.000917 2.194221
-15.003305 10.542535 0.746477
-14.040253 11.195519 2.903457
-13.461148 12.085272 0.736467
-14.901272 10.478991 2.184787
-14.244045 11.323598 0.000000
-17.782405 -25.465144 1.263311
-21.055865 -23.893501 3.886735
-16.670999 -24.985994 3.217056
-20.081208 -25.567643 0.000000
-22.430512 -15.836666 7.813751
-22.224842 -20.028097 6.085655
-14.304236 -23.556967 6.730090
-19.391443 -22.911913 5.727533
-15.479575 -24.304987 5.047327
-18.207896 -24.184649 4.511869
-23.510608 -23.790723 -2.703770
-23.510608 -23.790723 2.703770
-22.294813 -25.280461 -1.371055
-22.294813 -25.280461 1.371055
-20.560837 -1.572407 12.106690
-22.183664 -5.021921 11.792055
-22.404746 -11.977010 9.272084
-22.308696 -8.412012 10.574430
-9.958161 -20.450605 12.639169
-13.963824 -19.383686 11.979776
-10.975781 -21.207364 11.280478
-21.148503 -15.364904 9.496033
-17.838831 -17.767193 10.980729
-20.978696 -17.294183 8.713950
-13.128472 -22.748221 8.375114
-15.146295 -20.191861 10.585168
-12.035605 -21.978429 9.855899
-15.474964 -22.430297 7.957917
-13.063529 -20.756317 10.969172
-20.204542 -21.156081 6.878903
-17.268901 -19.440153 10.084687
-20.688661 -19.262457 7.843836
-17.882959 -21.937385 7.469590
-19.218377 -18.498917 9.474304
-16.468036 -21.028681 9.088758
-23.559354 -14.560481 -6.649145
-25.292104 -15.631380 -2.340010
-23.662434 -16.665860 -5.824046
-23.559354 -14.560481 6.649145
-25.292104 -15.631380 2.340010
-23.662434 -16.665860 5.824046
-23.774463 -21.327655 -3.899502
-25.463084 -17.892421 -1.266895
-23.748852 -18.937033 -4.911149
-25.239746 -22.659970 -1.380881
-24.759736 -17.411738 -3.630209
-23.774463 -21.327655 3.899502
-25.463084 -17.892421 1.266895
-23.748852 -18.937033 4.911149
-25.239746 -22.659970 1.380881
-24.759736 -17.411738 3.630209
-25.567643 -20.325526 0.000000
-1.299932 -10.008779 16.997946
-4.000630 -9.393944 17.672245
-2.175408 -11.273111 16.895801
-1.276194 -8.635657 17.313906
-9.629579 -7.454804 18.013533
-6.801171 -8.549500 18.036736
-4.164293 -14.098852 16.658465
-5.036555 -10.704769 17.629176
-3.131102 -12.635733 16.783420
-3.592588 -11.018055 17.299809
-1.240290 -5.949149 17.769792
-3.912494 -7.915147 17.856135
-1.257695 -7.275363 17.571170
-2.588890 -8.299538 17.622328
-18.654571 -0.925442 13.026556
-17.028890 -2.770075 15.006508
-19.907898 -2.563229 13.282824
-12.374743 -6.105651 17.527162
-14.892596 -4.525203 16.526063
-21.282583 -6.080312 12.923187
-18.101070 -4.524916 15.319798
-21.242029 -4.411254 13.528811
-19.081859 -3.559897 14.366159
-8.780718 -19.555433 14.207499
-10.234207 -16.626063 16.559295
-7.810080 -18.802645 15.500314
-10.734816 -19.045931 13.909380
-11.125769 -8.765782 18.001872
-11.144318 -12.990000 18.031886
-9.615992 -9.356255 18.078121
-5.369875 -15.772264 16.515064
-9.073916 -15.538069 17.491699
-6.658829 -17.563122 16.352381
-5.835871 -13.971670 17.139328
-8.558077 -17.359835 16.709951
-14.607400 -17.706318 13.127226
-12.094533 -15.903943 16.136919
-12.695652 -18.432746 13.552883
-11.450585 -17.512224 15.081036
-6.584600 -10.321738 17.884884
-9.358937 -13.391683 17.852749
-8.087420 -9.876014 18.034762
-6.241315 -12.136860 17.591858
-9.530082 -11.349671 18.033212
-7.583920 -13.741401 17.546934
-1.210153 -0.747915 18.076099
-3.686558 -2.278418 18.051613
-1.215611 -2.011490 18.070292
-9.332199 -5.767616 17.902487
-6.341522 -3.919276 17.997737
-8.005680 -6.382441 18.042581
-1.234252 -4.585799 17.923051
-3.730498 -3.607161 18.078843
-1.222817 -3.297274 18.019448
-2.511433 -5.492488 17.955747
-2.459541 -2.797170 18.077477
-5.306482 -7.445106 18.015697
-5.100409 -4.488401 18.073873
-6.652234 -6.945983 18.077860
-3.867391 -6.444910 17.986950
-6.499004 -5.396288 18.062231
-3.807052 -5.001333 18.059320
-21.257591 -13.137914 10.351113
-18.896510 -11.678686 13.612867
-21.300044 -11.329776 11.023747
-19.883180 -14.520828 11.206713
-12.889069 -7.965883 17.740724
-16.557059 -10.232825 16.623818
-14.317093 -7.213895 17.367339
-13.112503 -10.119813 17.954779
-21.303490 -7.843214 12.294687
-19.031602 -9.976926 14.275963
-21.313365 -9.557661 11.671410
-20.255507 -7.186336 13.974548
-20.165901 -10.657153 12.691935
-16.547452 -16.789854 12.583905
-17.414239 -12.910683 14.366440
-18.287183 -15.748409 11.957302
-15.225906 -15.893757 14.145302
-18.630933 -13.698602 12.832154
-16.934220 -5.506164 16.172568
-17.854253 -9.261992 15.860129
-15.680866 -6.385382 16.841887
-19.161493 -6.524410 15.620102
-16.515591 -8.458535 17.157917
-19.103311 -8.256599 14.960236
-12.708805 -14.141799 17.141941
-16.153308 -12.106817 15.920095
-13.243348 -12.405695 18.011759
-13.943775 -15.008984 15.667320
-14.956135 -11.355751 17.367188
