18.476028 -41.914327 0
7.3830648 -53.00729 0
-33.007038 -58.931257 8.9392312
-23.397429 -52.648874 23.932405
-23.033508 -59.431228 8.4652184
-3.9789676 -30.210034 38.463789
-14.25723 -45.621695 36.491542
-4.9797807 -59.804523 8.0574545
-14.55602 -54.339181 23.552135
-13.59161 -59.672036 8.1995635
-18.784783 -57.131753 16.466692
21.478813 -38.348593 5.8170647
16.975173 -38.197521 17.363306
16.692852 -43.071021 6.1349162
3.7400545 -28.396102 36.154269
10.891962 -34.853179 27.878101
0 -34.591092 35.003223
4.5718485 -54.905472 7.3974062
11.487126 -42.882669 18.58656
11.065654 -48.582187 6.6757019
0 -56.246196 15.546066
14.285969 -43.44913 12.523044
-9.4153446 -50.567913 31.252689
7.6313346 -40.986356 25.330961
-4.3687571 -42.006971 33.394309
-4.9484311 -54.878942 24.020189
3.9859834 -38.326482 30.468428
4.343654 -48.171861 21.084539
-21.478813 38.348593 5.8170647
-16.975173 38.197521 17.363306
-16.692852 43.071021 6.1349162
-3.7400545 28.396102 36.154269
-10.891962 34.853179 27.878101
-4.5718485 54.905472 7.3974062
-11.487126 42.882669 18.58656
-11.065654 48.582187 6.6757019
-14.285969 43.44913 12.523044
33.007038 58.931257 8.9392312
23.397429 52.648874 23.932405
23.033508 59.431228 8.4652184
3.9789676 30.210034 38.463789
14.25723 45.621695 36.491542
0 34.591092 35.003223
4.9797807 59.804523 8.0574545
14.55602 54.339181 23.552135
13.59161 59.672036 8.1995635
0 56.246196 15.546066
18.784783 57.131753 16.466692
-7.6313346 40.986356 25.330961
9.4153446 50.567913 31.252689
-3.9859834 38.326482 30.468428
-4.343654 48.171861 21.084539
4.3687571 42.006971 33.394309
4.9484311 54.878942 24.020189
0 -17.970693 40.767935
0 -5.9191246 42.496817
0 17.970693 40.767935
0 5.9191246 42.496817
-33.007038 -58.931257 -8.9392312
-23.397429 -52.648874 -23.932405
-23.033508 -59.431228 -8.4652184
-3.9789676 -30.210034 -38.463789
-14.25723 -45.621695 -36.491542
-4.9797807 -59.804523 -8.0574545
-14.55602 -54.339181 -23.552135
-13.59161 -59.672036 -8.1995635
-18.784783 -57.131753 -16.466692
21.478813 -38.348593 -5.8170647
16.975173 -38.197521 -17.363306
16.692852 -43.071021 -6.1349162
3.7400545 -28.396102 -36.154269
10.891962 -34.853179 -27.878101
0 -34.591092 -35.003223
4.5718485 -54.905472 -7.3974062
11.487126 -42.882669 -18.58656
11.065654 -48.582187 -6.6757019
0 -56.246196 -15.546066
14.285969 -43.44913 -12.523044
-9.4153446 -50.567913 -31.252689
7.6313346 -40.986356 -25.330961
-4.3687571 -42.006971 -33.394309
-4.9484311 -54.878942 -24.020189
3.9859834 -38.326482 -30.468428
4.343654 -48.171861 -21.084539
-21.478813 38.348593 -5.8170647
-16.975173 38.197521 -17.363306
-16.692852 43.071021 -6.1349162
-3.7400545 28.396102 -36.154269
-10.891962 34.853179 -27.878101
-4.5718485 54.905472 -7.3974062
-11.487126 42.882669 -18.58656
-11.065654 48.582187 -6.6757019
-14.285969 43.44913 -12.523044
33.007038 58.931257 -8.9392312
23.397429 52.648874 -23.932405
23.033508 59.431228 -8.4652184
3.9789676 30.210034 -38.463789
14.25723 45.621695 -36.491542
0 34.591092 -35.003223
4.9797807 59.804523 -8.0574545
14.55602 54.339181 -23.552135
13.59161 59.672036 -8.1995635
0 56.246196 -15.546066
18.784783 57.131753 -16.466692
-7.6313346 40.986356 -25.330961
9.4153446 50.567913 -31.252689
-3.9859834 38.326482 -30.468428
-4.343654 48.171861 -21.084539
4.3687571 42.006971 -33.394309
4.9484311 54.878942 -24.020189
0 -17.970693 -40.767935
0 -5.9191246 -42.496817
0 17.970693 -40.767935
0 5.9191246 -42.496817
46.384924 59.05786 -6.1093646
52.857431 42.279208 -16.518468
39.703977 55.091878 -14.80583
52.032784 7.8928078 -29.143245
52.818182 24.009367 -23.47267
28.253152 47.168531 -29.151755
46.293893 39.379938 -24.33814
33.562713 50.946838 -22.509877
44.130026 47.872077 -20.176785
26.477348 -33.711288 -3.4873351
32.584621 -26.063544 -10.183016
24.69837 -34.270613 -9.2101573
43.204375 -6.5536341 -24.198507
38.112323 -17.324578 -16.937311
19.850374 -33.140125 -20.481723
30.27972 -25.757468 -15.918991
22.444292 -34.069526 -15.052962
27.666914 -30.012958 -12.64965
5.7859741 -21.364015 -38.14363
16.381539 -16.015352 -36.037733
9.4032702 -25.216231 -34.989178
5.6955757 -15.497425 -39.986571
38.571367 -3.9900963 -30.294527
26.846678 -10.488986 -33.563695
37.108006 -9.972701 -26.743242
16.340631 -31.081726 -26.439696
20.004135 -19.387508 -32.367371
13.049391 -28.541216 -30.961398
22.020272 -27.733736 -24.202621
14.889503 -22.20057 -33.699566
5.6861332 -3.5142236 -42.203959
16.581587 -10.247985 -38.256823
5.6814027 -9.4175024 -41.346209
11.280873 -12.868933 -39.139378
33.065941 -20.435876 -19.80594
26.031375 -16.088274 -30.601716
35.179378 -15.543329 -23.175439
27.657342 -24.135954 -21.959616
31.310373 -13.196475 -28.862913
24.110634 -21.93658 -27.628328
6.2231918 22.978388 -41.025957
19.410585 18.976688 -42.701327
10.931569 29.314584 -40.675912
5.9930536 16.30685 -42.075055
42.307011 4.3765378 -33.228558
32.292724 12.616753 -40.372337
47.869143 12.864735 -34.498648
35.141683 0 -34.727921
22.526307 42.847582 -36.44833
26.389158 25.575713 -42.698555
16.967245 37.110222 -40.257021
31.491512 39.66242 -34.612521
18.649083 27.806186 -42.208663
5.7494866 3.5533781 -42.674185
18.382906 11.361261 -42.412801
5.8558203 9.7066174 -42.615527
11.583509 0 -41.909529
12.302765 14.034681 -42.684865
47.415948 29.304667 -28.401351
35.402487 21.87994 -41.618119
47.779189 21.110312 -31.475932
40.223459 35.102127 -31.936971
42.341492 17.845793 -39.031754
34.187594 31.1049 -39.175496
22.94146 -6.9114614 -37.120062
25.240994 7.6042307 -40.840786
28.64894 -3.7479518 -36.037733
17.510574 -3.6073766 -40.006419
30.501216 3.9902729 -38.367726
18.150608 3.7392309 -41.468706
46.384924 59.05786 6.1093646
52.857431 42.279208 16.518468
39.703977 55.091878 14.80583
59.679312 60.390355 0
52.032784 7.8928078 29.143245
52.818182 24.009367 23.47267
28.253152 47.168531 29.151755
46.293893 39.379938 24.33814
33.562713 50.946838 22.509877
44.130026 47.872077 20.176785
58.012812 35.85389 -10.801526
58.012812 35.85389 10.801526
58.995163 46.899423 -6.1355421
58.995163 46.899423 6.1355421
26.477348 -33.711288 3.4873351
32.584621 -26.063544 10.183016
24.69837 -34.270613 9.2101573
30.016364 -30.373991 0
43.204375 -6.5536341 24.198507
38.112323 -17.324578 16.937311
19.850374 -33.140125 20.481723
30.27972 -25.757468 15.918991
22.444292 -34.069526 15.052962
27.666914 -30.012958 12.64965
36.838669 -22.76755 -6.8590683
36.838669 -22.76755 6.8590683
33.531822 -26.656814 -3.4873351
33.531822 -26.656814 3.4873351
5.7859741 -21.364015 38.14363
16.381539 -16.015352 36.037733
9.4032702 -25.216231 34.989178
5.6955757 -15.497425 39.986571
38.571367 -3.9900963 30.294527
26.846678 -10.488986 33.563695
37.108006 -9.972701 26.743242
16.340631 -31.081726 26.439696
20.004135 -19.387508 32.367371
13.049391 -28.541216 30.961398
22.020272 -27.733736 24.202621
14.889503 -22.20057 33.699566
5.6861332 -3.5142236 42.203959
16.581587 -10.247985 38.256823
5.6814027 -9.4175024 41.346209
11.280873 -12.868933 39.139378
33.065941 -20.435876 19.80594
26.031375 -16.088274 30.601716
35.179378 -15.543329 23.175439
27.657342 -24.135954 21.959616
31.310373 -13.196475 28.862913
24.110634 -21.93658 27.628328
6.2231918 22.978388 41.025957
19.410585 18.976688 42.701327
10.931569 29.314584 40.675912
5.9930536 16.30685 42.075055
42.307011 4.3765378 33.228558
32.292724 12.616753 40.372337
47.869143 12.864735 34.498648
35.141683 0 34.727921
22.526307 42.847582 36.44833
26.389158 25.575713 42.698555
16.967245 37.110222 40.257021
31.491512 39.66242 34.612521
18.649083 27.806186 42.208663
5.7494866 3.5533781 42.674185
18.382906 11.361261 42.412801
5.8558203 9.7066174 42.615527
11.583509 0 41.909529
12.302765 14.034681 42.684865
47.415948 29.304667 28.401351
35.402487 21.87994 41.618119
47.779189 21.110312 31.475932
40.223459 35.102127 31.936971
42.341492 17.845793 39.031754
34.187594 31.1049 39.175496
22.94146 -6.9114614 37.120062
25.240994 7.6042307 40.840786
28.64894 -3.7479518 36.037733
17.510574 -3.6073766 40.006419
30.501216 3.9902729 38.367726
18.150608 3.7392309 41.468706
51.247924 0 -22.590321
59.251807 0 -8.2528259
55.91198 7.9639467 -21.669568
47.659775 -6.7885255 -18.471296
51.247924 0 22.590321
59.251807 0 8.2528259
55.91198 7.9639467 21.669568
47.659775 -6.7885255 18.471296
57.107198 24.751872 -15.297498
60.150465 8.1040632 -5.0085865
56.481172 16.279179 -18.570873
59.96228 26.245136 -5.4067954
58.683194 8.0636862 -13.366379
40.731568 -17.654212 -10.910903
52.935745 -7.132025 -4.4078339
44.094244 -12.70898 -14.498081
41.840747 -18.313448 -3.7727778
51.08548 -7.0196806 -11.635834
57.107198 24.751872 15.297498
60.150465 8.1040632 5.0085865
56.481172 16.279179 18.570873
59.96228 26.245136 5.4067954
58.683194 8.0636862 13.366379
60.390355 16.691484 0
40.731568 -17.654212 10.910903
52.935745 -7.132025 4.4078339
44.094244 -12.70898 14.498081
41.840747 -18.313448 3.7727778
51.08548 -7.0196806 11.635834
47.313285 -13.07707 0
-26.477348 33.711288 -3.4873351
-32.584621 26.063544 -10.183016
-24.69837 34.270613 -9.2101573
-43.204375 6.5536341 -24.198507
-38.112323 17.324578 -16.937311
-19.850374 33.140125 -20.481723
-30.27972 25.757468 -15.918991
-22.444292 34.069526 -15.052962
-27.666914 30.012958 -12.64965
-46.384924 -59.05786 -6.1093646
-52.857431 -42.279208 -16.518468
-39.703977 -55.091878 -14.80583
-52.032784 -7.8928078 -29.143245
-52.818182 -24.009367 -23.47267
-28.253152 -47.168531 -29.151755
-46.293893 -39.379938 -24.33814
-33.562713 -50.946838 -22.509877
-44.130026 -47.872077 -20.176785
-6.2231918 -22.978388 -41.025957
-19.410585 -18.976688 -42.701327
-10.931569 -29.314584 -40.675912
-5.9930536 -16.30685 -42.075055
-42.307011 -4.3765378 -33.228558
-32.292724 -12.616753 -40.372337
-47.869143 -12.864735 -34.498648
-22.526307 -42.847582 -36.44833
-26.389158 -25.575713 -42.698555
-16.967245 -37.110222 -40.257021
-31.491512 -39.66242 -34.612521
-18.649083 -27.806186 -42.208663
-5.7494866 -3.5533781 -42.674185
-18.382906 -11.361261 -42.412801
-5.8558203 -9.7066174 -42.615527
-12.302765 -14.034681 -42.684865
-47.415948 -29.304667 -28.401351
-35.402487 -21.87994 -41.618119
-47.779189 -21.110312 -31.475932
-40.223459 -35.102127 -31.936971
-42.341492 -17.845793 -39.031754
-34.187594 -31.1049 -39.175496
-5.7859741 21.364015 -38.14363
-16.381539 16.015352 -36.037733
-9.4032702 25.216231 -34.989178
-5.6955757 15.497425 -39.986571
-38.571367 3.9900963 -30.294527
-26.846678 10.488986 -33.563695
-37.108006 9.972701 -26.743242
-35.141683 0 -34.727921
-16.340631 31.081726 -26.439696
-20.004135 19.387508 -32.367371
-13.049391 28.541216 -30.961398
-22.020272 27.733736 -24.202621
-14.889503 22.20057 -33.699566
-5.6861332 3.5142236 -42.203959
-16.581587 10.247985 -38.256823
-5.6814027 9.4175024 -41.346209
-11.583509 0 -41.909529
-11.280873 12.868933 -39.139378
-33.065941 20.435876 -19.80594
-26.031375 16.088274 -30.601716
-35.179378 15.543329 -23.175439
-27.657342 24.135954 -21.959616
-31.310373 13.196475 -28.862913
-24.110634 21.93658 -27.628328
-25.240994 -7.6042307 -40.840786
-22.94146 6.9114614 -37.120062
-30.501216 -3.9902729 -38.367726
-18.150608 -3.7392309 -41.468706
-28.64894 3.7479518 -36.037733
-17.510574 3.6073766 -40.006419
-26.477348 33.711288 3.4873351
-32.584621 26.063544 10.183016
-24.69837 34.270613 9.2101573
-30.016364 30.373991 0
-43.204375 6.5536341 24.198507
-38.112323 17.324578 16.937311
-19.850374 33.140125 20.481723
-30.27972 25.757468 15.918991
-22.444292 34.069526 15.052962
-27.666914 30.012958 12.64965
-36.838669 22.76755 -6.8590683
-36.838669 22.76755 6.8590683
-33.531822 26.656814 -3.4873351
-33.531822 26.656814 3.4873351
-46.384924 -59.05786 6.1093646
-52.857431 -42.279208 16.518468
-39.703977 -55.091878 14.80583
-59.679312 -60.390355 0
-52.032784 -7.8928078 29.143245
-52.818182 -24.009367 23.47267
-28.253152 -47.168531 29.151755
-46.293893 -39.379938 24.33814
-33.562713 -50.946838 22.509877
-44.130026 -47.872077 20.176785
-58.012812 -35.85389 -10.801526
-58.012812 -35.85389 10.801526
-58.995163 -46.899423 -6.1355421
-58.995163 -46.899423 6.1355421
-6.2231918 -22.978388 41.025957
-19.410585 -18.976688 42.701327
-10.931569 -29.314584 40.675912
-5.9930536 -16.30685 42.075055
-42.307011 -4.3765378 33.228558
-32.292724 -12.616753 40.372337
-47.869143 -12.864735 34.498648
-22.526307 -42.847582 36.44833
-26.389158 -25.575713 42.698555
-16.967245 -37.110222 40.257021
-31.491512 -39.66242 34.612521
-18.649083 -27.806186 42.208663
-5.7494866 -3.5533781 42.674185
-18.382906 -11.361261 42.412801
-5.8558203 -9.7066174 42.615527
-12.302765 -14.034681 42.684865
-47.415948 -29.304667 28.401351
-35.402487 -21.87994 41.618119
-47.779189 -21.110312 31.475932
-40.223459 -35.102127 31.936971
-42.341492 -17.845793 39.031754
-34.187594 -31.1049 39.175496
-5.7859741 21.364015 38.14363
-16.381539 16.015352 36.037733
-9.4032702 25.216231 34.989178
-5.6955757 15.497425 39.986571
-38.571367 3.9900963 30.294527
-26.846678 10.488986 33.563695
-37.108006 9.972701 26.743242
-35.141683 0 34.727921
-16.340631 31.081726 26.439696
-20.004135 19.387508 32.367371
-13.049391 28.541216 30.961398
-22.020272 27.733736 24.202621
-14.889503 22.20057 33.699566
-5.6861332 3.5142236 42.203959
-16.581587 10.247985 38.256823
-5.6814027 9.4175024 41.346209
-11.583509 0 41.909529
-11.280873 12.868933 39.139378
-33.065941 20.435876 19.80594
-26.031375 16.088274 30.601716
-35.179378 15.543329 23.175439
-27.657342 24.135954 21.959616
-31.310373 13.196475 28.862913
-24.110634 21.93658 27.628328
-25.240994 -7.6042307 40.840786
-22.94146 6.9114614 37.120062
-30.501216 -3.9902729 38.367726
-18.150608 -3.7392309 41.468706
-28.64894 3.7479518 36.037733
-17.510574 3.6073766 40.006419
-51.247924 0 -22.590321
-59.251807 0 -8.2528259
-47.659775 6.7885255 -18.471296
-55.91198 -7.9639467 -21.669568
-51.247924 0 22.590321
-59.251807 0 8.2528259
-47.659775 6.7885255 18.471296
-55.91198 -7.9639467 21.669568
-40.731568 17.654212 -10.910903
-52.935745 7.132025 -4.4078339
-44.094244 12.70898 -14.498081
-41.840747 18.313448 -3.7727778
-51.08548 7.0196806 -11.635834
-57.107198 -24.751872 -15.297498
-60.150465 -8.1040632 -5.0085865
-56.481172 -16.279179 -18.570873
-59.96228 -26.245136 -5.4067954
-58.683194 -8.0636862 -13.366379
-40.731568 17.654212 10.910903
-52.935745 7.132025 4.4078339
-44.094244 12.70898 14.498081
-41.840747 18.313448 3.7727778
-51.08548 7.0196806 11.635834
-47.313285 13.07707 0
-57.107198 -24.751872 15.297498
-60.150465 -8.1040632 5.0085865
-56.481172 -16.279179 18.570873
-59.96228 -26.245136 5.4067954
-58.683194 -8.0636862 13.366379
-60.390355 -16.691484 0
-20.820938 39.569417 0
-16.001479 44.388876 0
-3.9142171 56.476138 0
-10.506723 49.883632 0
31.776658 60.390355 0
21.769756 60.390355 0
4.1855015 60.390355 0
12.719697 60.390355 0
-31.776658 -60.390355 0
-21.769756 -60.390355 0
-4.1855015 -60.390355 0
-12.719697 -60.390355 0
20.820938 -39.569417 0
16.001479 -44.388876 0
3.9142171 -56.476138 0
10.506723 -49.883632 0
-35.31228 -59.970976 4.5863289
-30.588035 -57.543378 13.026627
-29.960239 -60.068248 4.4275829
-21.086366 -50.952375 27.23785
-25.753421 -54.331559 20.486977
-20.144724 -60.17122 4.1998112
-25.734553 -58.055732 12.720709
-24.896652 -60.129414 4.3038948
-27.893299 -59.225571 8.7008086
-1.9255371 -27.103919 38.813941
-6.1928121 -33.54873 38.069993
-16.56039 -47.539016 33.56408
-11.273661 -41.171462 37.101997
-2.4928939 -60.249849 4.0335871
-7.4491099 -59.018336 12.052913
-6.7053123 -60.237419 4.0522469
-16.746115 -51.979377 27.095783
-12.260591 -56.301946 19.838053
-18.950946 -53.572604 23.77072
-15.402631 -60.19935 4.1455647
-11.746648 -58.873396 12.148292
-11.019532 -60.221218 4.0866701
-18.221057 -59.567306 8.331554
-9.2443938 -59.744424 8.1285612
-23.402451 -56.629343 16.680044
-14.287216 -57.531702 16.235325
-21.186128 -55.139767 20.290156
-20.922941 -58.393349 12.555209
-16.665918 -55.783467 20.07155
-16.244829 -58.658467 12.365685
22.329185 -37.921739 2.9000956
20.516421 -38.596274 8.7373955
20.048645 -40.196174 2.9628281
15.588214 -37.666828 20.135733
18.261758 -38.526523 14.527321
15.105769 -45.12013 3.1492802
18.134464 -40.910351 8.9639497
17.637886 -42.598327 3.0490687
19.145467 -40.651384 5.9720811
1.8726855 -26.359979 37.748587
5.5887097 -30.276086 34.356305
0 -29.320752 37.331545
12.538545 -35.993724 25.412731
9.1771711 -33.515071 30.202379
-4.1275377 -35.890968 36.318587
3.8282318 -33.288356 33.684966
-1.998771 -32.502135 36.854713
1.931155 -31.402626 35.607962
2.3895733 -57.75273 3.8664108
6.5558982 -51.941536 10.607666
6.0269502 -54.143328 3.6422897
0 -59.323114 7.9925943
12.852326 -39.893188 20.795501
9.9948244 -45.897304 16.171966
14.317138 -40.47325 17.958401
12.26669 -47.942899 3.3015372
9.7604051 -48.918482 10.094135
9.3106033 -50.882003 3.4529019
13.986234 -45.723046 6.3951865
7.982159 -51.586886 7.0186828
-4.9264523 -58.068201 16.049656
4.443169 -52.37173 14.47519
-2.491671 -59.12541 12.102778
2.3529724 -55.834202 11.429078
16.938557 -40.987985 12.072918
11.443135 -46.079171 13.003445
15.690625 -40.836977 15.027061
15.545684 -43.386088 9.3284835
12.934581 -43.294093 15.577726
12.754303 -46.054526 9.7086707
-14.125509 -50.049725 30.932431
-4.4345542 -47.931071 29.623031
-11.898952 -48.344088 34.049574
-11.999741 -52.576982 27.498868
10.983424 -38.916639 24.051806
3.9934304 -43.163166 26.676304
9.3173386 -37.855286 26.66213
9.6132147 -42.120393 22.029852
-6.5194769 -39.747914 35.657159
-2.1852954 -43.921851 30.863043
-9.0580928 -43.802239 34.927348
-2.0872808 -38.151334 34.251854
-6.7565894 -46.083118 32.406936
-7.4292078 -56.573818 20.106127
-2.333443 -49.989782 26.228499
-9.7459063 -54.770966 23.857529
-2.4530472 -55.925486 19.845568
-7.2255792 -53.056219 27.807799
5.7529863 -35.074778 31.46497
2.0786216 -41.777834 29.356484
7.5611047 -36.56325 29.15507
2.0016959 -36.587013 32.847423
5.8335341 -39.787447 27.979644
0 -40.135948 31.906901
6.4061191 -48.782942 17.337278
2.197123 -47.069374 24.696227
8.0838735 -45.430516 19.788949
2.2870142 -52.140205 18.502334
6.0625707 -44.516442 23.331935
0 -51.34907 22.475185
-22.329185 37.921739 2.9000956
-20.516421 38.596274 8.7373955
-20.048645 40.196174 2.9628281
-15.588214 37.666828 20.135733
-18.261758 38.526523 14.527321
-15.105769 45.12013 3.1492802
-18.134464 40.910351 8.9639497
-17.637886 42.598327 3.0490687
-19.145467 40.651384 5.9720811
-1.8726855 26.359979 37.748587
-5.5887097 30.276086 34.356305
-12.538545 35.993724 25.412731
-9.1771711 33.515071 30.202379
-2.3895733 57.75273 3.8664108
-6.5558982 51.941536 10.607666
-6.0269502 54.143328 3.6422897
-12.852326 39.893188 20.795501
-9.9948244 45.897304 16.171966
-14.317138 40.47325 17.958401
-12.26669 47.942899 3.3015372
-9.7604051 48.918482 10.094135
-9.3106033 50.882003 3.4529019
-13.986234 45.723046 6.3951865
-7.982159 51.586886 7.0186828
-16.938557 40.987985 12.072918
-11.443135 46.079171 13.003445
-15.690625 40.836977 15.027061
-15.545684 43.386088 9.3284835
-12.934581 43.294093 15.577726
-12.754303 46.054526 9.7086707
35.31228 59.970976 4.5863289
30.588035 57.543378 13.026627
29.960239 60.068248 4.4275829
21.086366 50.952375 27.23785
25.753421 54.331559 20.486977
20.144724 60.17122 4.1998112
25.734553 58.055732 12.720709
24.896652 60.129414 4.3038948
27.893299 59.225571 8.7008086
1.9255371 27.103919 38.813941
6.1928121 33.54873 38.069993
0 29.320752 37.331545
16.56039 47.539016 33.56408
11.273661 41.171462 37.101997
-3.8282318 33.288356 33.684966
4.1275377 35.890968 36.318587
-1.931155 31.402626 35.607962
1.998771 32.502135 36.854713
2.4928939 60.249849 4.0335871
7.4491099 59.018336 12.052913
6.7053123 60.237419 4.0522469
0 59.323114 7.9925943
16.746115 51.979377 27.095783
12.260591 56.301946 19.838053
18.950946 53.572604 23.77072
15.402631 60.19935 4.1455647
11.746648 58.873396 12.148292
11.019532 60.221218 4.0866701
18.221057 59.567306 8.331554
9.2443938 59.744424 8.1285612
-4.443169 52.37173 14.47519
4.9264523 58.068201 16.049656
-2.3529724 55.834202 11.429078
2.491671 59.12541 12.102778
23.402451 56.629343 16.680044
14.287216 57.531702 16.235325
21.186128 55.139767 20.290156
20.922941 58.393349 12.555209
16.665918 55.783467 20.07155
16.244829 58.658467 12.365685
-10.983424 38.916639 24.051806
-3.9934304 43.163166 26.676304
-9.3173386 37.855286 26.66213
-9.6132147 42.120393 22.029852
14.125509 50.049725 30.932431
4.4345542 47.931071 29.623031
11.898952 48.344088 34.049574
11.999741 52.576982 27.498868
-5.7529863 35.074778 31.46497
-2.0786216 41.777834 29.356484
-7.5611047 36.56325 29.15507
-2.0016959 36.587013 32.847423
-5.8335341 39.787447 27.979644
-6.4061191 48.782942 17.337278
-2.197123 47.069374 24.696227
-8.0838735 45.430516 19.788949
-2.2870142 52.140205 18.502334
-6.0625707 44.516442 23.331935
6.5194769 39.747914 35.657159
2.1852954 43.921851 30.863043
9.0580928 43.802239 34.927348
2.0872808 38.151334 34.251854
6.7565894 46.083118 32.406936
0 40.135948 31.906901
7.4292078 56.573818 20.106127
2.333443 49.989782 26.228499
9.7459063 54.770966 23.857529
2.4530472 55.925486 19.845568
7.2255792 53.056219 27.807799
0 51.34907 22.475185
0 -21.05905 40.02194
0 -14.916571 41.379287
0 -2.9560487 42.651241
0 -8.8960619 42.236566
0 21.05905 40.02194
0 14.916571 41.379287
0 2.9560487 42.651241
0 8.8960619 42.236566
-35.31228 -59.970976 -4.5863289
-30.588035 -57.543378 -13.026627
-29.960239 -60.068248 -4.4275829
-21.086366 -50.952375 -27.23785
-25.753421 -54.331559 -20.486977
-20.144724 -60.17122 -4.1998112
-25.734553 -58.055732 -12.720709
-24.896652 -60.129414 -4.3038948
-27.893299 -59.225571 -8.7008086
-1.9255371 -27.103919 -38.813941
-6.1928121 -33.54873 -38.069993
-16.56039 -47.539016 -33.56408
-11.273661 -41.171462 -37.101997
-2.4928939 -60.249849 -4.0335871
-7.4491099 -59.018336 -12.052913
-6.7053123 -60.237419 -4.0522469
-16.746115 -51.979377 -27.095783
-12.260591 -56.301946 -19.838053
-18.950946 -53.572604 -23.77072
-15.402631 -60.19935 -4.1455647
-11.746648 -58.873396 -12.148292
-11.019532 -60.221218 -4.0866701
-18.221057 -59.567306 -8.331554
-9.2443938 -59.744424 -8.1285612
-23.402451 -56.629343 -16.680044
-14.287216 -57.531702 -16.235325
-21.186128 -55.139767 -20.290156
-20.922941 -58.393349 -12.555209
-16.665918 -55.783467 -20.07155
-16.244829 -58.658467 -12.365685
22.329185 -37.921739 -2.9000956
20.516421 -38.596274 -8.7373955
20.048645 -40.196174 -2.9628281
15.588214 -37.666828 -20.135733
18.261758 -38.526523 -14.527321
15.105769 -45.12013 -3.1492802
18.134464 -40.910351 -8.9639497
17.637886 -42.598327 -3.0490687
19.145467 -40.651384 -5.9720811
1.8726855 -26.359979 -37.748587
5.5887097 -30.276086 -34.356305
0 -29.320752 -37.331545
12.538545 -35.993724 -25.412731
9.1771711 -33.515071 -30.202379
-4.1275377 -35.890968 -36.318587
3.8282318 -33.288356 -33.684966
-1.998771 -32.502135 -36.854713
1.931155 -31.402626 -35.607962
2.3895733 -57.75273 -3.8664108
6.5558982 -51.941536 -10.607666
6.0269502 -54.143328 -3.6422897
0 -59.323114 -7.9925943
12.852326 -39.893188 -20.795501
9.9948244 -45.897304 -16.171966
14.317138 -40.47325 -17.958401
12.26669 -47.942899 -3.3015372
9.7604051 -48.918482 -10.094135
9.3106033 -50.882003 -3.4529019
13.986234 -45.723046 -6.3951865
7.982159 -51.586886 -7.0186828
-4.9264523 -58.068201 -16.049656
4.443169 -52.37173 -14.47519
-2.491671 -59.12541 -12.102778
2.3529724 -55.834202 -11.429078
16.938557 -40.987985 -12.072918
11.443135 -46.079171 -13.003445
15.690625 -40.836977 -15.027061
15.545684 -43.386088 -9.3284835
12.934581 -43.294093 -15.577726
12.754303 -46.054526 -9.7086707
-14.125509 -50.049725 -30.932431
-4.4345542 -47.931071 -29.623031
-11.898952 -48.344088 -34.049574
-11.999741 -52.576982 -27.498868
10.983424 -38.916639 -24.051806
3.9934304 -43.163166 -26.676304
9.3173386 -37.855286 -26.66213
9.6132147 -42.120393 -22.029852
-6.5194769 -39.747914 -35.657159
-2.1852954 -43.921851 -30.863043
-9.0580928 -43.802239 -34.927348
-2.0872808 -38.151334 -34.251854
-6.7565894 -46.083118 -32.406936
-7.4292078 -56.573818 -20.106127
-2.333443 -49.989782 -26.228499
-9.7459063 -54.770966 -23.857529
-2.4530472 -55.925486 -19.845568
-7.2255792 -53.056219 -27.807799
5.7529863 -35.074778 -31.46497
2.0786216 -41.777834 -29.356484
7.5611047 -36.56325 -29.15507
2.0016959 -36.587013 -32.847423
5.8335341 -39.787447 -27.979644
0 -40.135948 -31.906901
6.4061191 -48.782942 -17.337278
2.197123 -47.069374 -24.696227
8.0838735 -45.430516 -19.788949
2.2870142 -52.140205 -18.502334
6.0625707 -44.516442 -23.331935
0 -51.34907 -22.475185
-22.329185 37.921739 -2.9000956
-20.516421 38.596274 -8.7373955
-20.048645 40.196174 -2.9628281
-15.588214 37.666828 -20.135733
-18.261758 38.526523 -14.527321
-15.105769 45.12013 -3.1492802
-18.134464 40.910351 -8.9639497
-17.637886 42.598327 -3.0490687
-19.145467 40.651384 -5.9720811
-1.8726855 26.359979 -37.748587
-5.5887097 30.276086 -34.356305
-12.538545 35.993724 -25.412731
-9.1771711 33.515071 -30.202379
-2.3895733 57.75273 -3.8664108
-6.5558982 51.941536 -10.607666
-6.0269502 54.143328 -3.6422897
-12.852326 39.893188 -20.795501
-9.9948244 45.897304 -16.171966
-14.317138 40.47325 -17.958401
-12.26669 47.942899 -3.3015372
-9.7604051 48.918482 -10.094135
-9.3106033 50.882003 -3.4529019
-13.986234 45.723046 -6.3951865
-7.982159 51.586886 -7.0186828
-16.938557 40.987985 -12.072918
-11.443135 46.079171 -13.003445
-15.690625 40.836977 -15.027061
-15.545684 43.386088 -9.3284835
-12.934581 43.294093 -15.577726
-12.754303 46.054526 -9.7086707
35.31228 59.970976 -4.5863289
30.588035 57.543378 -13.026627
29.960239 60.068248 -4.4275829
21.086366 50.952375 -27.23785
25.753421 54.331559 -20.486977
20.144724 60.17122 -4.1998112
25.734553 58.055732 -12.720709
24.896652 60.129414 -4.3038948
27.893299 59.225571 -8.7008086
1.9255371 27.103919 -38.813941
6.1928121 33.54873 -38.069993
0 29.320752 -37.331545
16.56039 47.539016 -33.56408
11.273661 41.171462 -37.101997
-3.8282318 33.288356 -33.684966
4.1275377 35.890968 -36.318587
-1.931155 31.402626 -35.607962
1.998771 32.502135 -36.854713
2.4928939 60.249849 -4.0335871
7.4491099 59.018336 -12.052913
6.7053123 60.237419 -4.0522469
0 59.323114 -7.9925943
16.746115 51.979377 -27.095783
12.260591 56.301946 -19.838053
18.950946 53.572604 -23.77072
15.402631 60.19935 -4.1455647
11.746648 58.873396 -12.148292
11.019532 60.221218 -4.0866701
18.221057 59.567306 -8.331554
9.2443938 59.744424 -8.1285612
-4.443169 52.37173 -14.47519
4.9264523 58.068201 -16.049656
-2.3529724 55.834202 -11.429078
2.491671 59.12541 -12.102778
23.402451 56.629343 -16.680044
14.287216 57.531702 -16.235325
21.186128 55.139767 -20.290156
20.922941 58.393349 -12.555209
16.665918 55.783467 -20.07155
16.244829 58.658467 -12.365685
-10.983424 38.916639 -24.051806
-3.9934304 43.163166 -26.676304
-9.3173386 37.855286 -26.66213
-9.6132147 42.120393 -22.029852
14.125509 50.049725 -30.932431
4.4345542 47.931071 -29.623031
11.898952 48.344088 -34.049574
11.999741 52.576982 -27.498868
-5.7529863 35.074778 -31.46497
-2.0786216 41.777834 -29.356484
-7.5611047 36.56325 -29.15507
-2.0016959 36.587013 -32.847423
-5.8335341 39.787447 -27.979644
-6.4061191 48.782942 -17.337278
-2.197123 47.069374 -24.696227
-8.0838735 45.430516 -19.788949
-2.2870142 52.140205 -18.502334
-6.0625707 44.516442 -23.331935
6.5194769 39.747914 -35.657159
2.1852954 43.921851 -30.863043
9.0580928 43.802239 -34.927348
2.0872808 38.151334 -34.251854
6.7565894 46.083118 -32.406936
0 40.135948 -31.906901
7.4292078 56.573818 -20.106127
2.333443 49.989782 -26.228499
9.7459063 54.770966 -23.857529
2.4530472 55.925486 -19.845568
7.2255792 53.056219 -27.807799
0 51.34907 -22.475185
0 -21.05905 -40.02194
0 -14.916571 -41.379287
0 -2.9560487 -42.651241
0 -8.8960619 -42.236566
0 21.05905 -40.02194
0 14.916571 -41.379287
0 2.9560487 -42.651241
0 8.8960619 -42.236566
42.00175 60.148254 -2.9839201
49.733609 56.43606 -9.180404
39.376628 59.016509 -7.5986343
52.980503 37.405946 -18.455951
52.494713 47.306037 -14.374219
33.786372 55.641172 -15.896364
45.802272 54.117564 -13.52834
36.562504 57.407983 -11.921705
43.006753 57.123747 -10.656961
48.56436 3.7139987 -28.595804
52.397452 11.861696 -27.852642
52.919644 28.289503 -21.90051
52.692776 19.869036 -24.97663
23.521015 48.303996 -29.853511
32.982323 45.783949 -28.296036
25.924616 50.091447 -26.644304
49.95242 36.291653 -22.429475
42.135028 41.96582 -25.936303
49.551338 40.848579 -20.582207
31.009235 53.730927 -19.781882
35.775302 47.692846 -25.001994
28.427904 51.912691 -23.279472
36.551613 52.979995 -18.796471
30.855841 49.026082 -25.909005
47.722797 49.970319 -16.247856
40.788863 45.917323 -23.819866
48.866281 45.497608 -18.527014
42.239256 51.815745 -17.643049
45.393493 43.694139 -22.378152
38.897233 49.669402 -21.467499
24.809974 -35.528916 -1.7625689
28.079796 -31.864027 -5.1832931
24.02517 -36.008204 -4.6362141
34.008588 -24.011162 -11.847016
31.125909 -28.049365 -8.5229653
22.12745 -36.440647 -10.410884
27.188441 -32.124437 -8.0304857
23.127685 -36.313535 -7.5410982
25.649168 -34.068523 -6.3557969
44.373198 -3.3934762 -26.127952
41.983038 -9.5040886 -22.316706
36.769738 -19.656172 -15.216958
39.430483 -14.86818 -18.690239
17.049174 -35.013082 -21.639275
22.54497 -31.295483 -19.341672
18.452939 -35.654701 -18.965208
32.828027 -23.850364 -14.740335
27.733057 -27.621684 -17.07114
31.508966 -25.97501 -13.087923
20.984834 -36.36125 -13.386964
23.833662 -31.773182 -16.656438
19.772908 -36.107653 -16.191939
23.634861 -34.257717 -12.154101
21.202789 -33.688586 -17.803538
28.716871 -30.069302 -9.7770372
26.480884 -29.810376 -15.464298
30.133108 -28.055836 -11.424575
26.214051 -32.157303 -10.94943
28.99592 -27.910426 -14.294452
25.089477 -32.037736 -13.846957
2.9550409 -22.752235 -38.640205
8.5203905 -20.006868 -37.637684
4.7913463 -24.829075 -37.213073
2.9175801 -19.742464 -39.582302
18.958959 -14.677206 -35.4655
13.796316 -17.342838 -36.587894
8.4366022 -28.563411 -33.749029
10.315732 -21.925213 -36.107592
6.6358656 -26.7794 -35.569755
7.6135442 -23.349869 -36.662392
2.8655691 -13.744927 -41.055367
8.4732451 -17.141747 -38.670836
2.8908289 -16.722519 -40.387569
5.7486764 -18.42927 -39.13069
41.904051 -2.0788357 -29.261755
35.432145 -5.7637157 -31.224158
41.048313 -5.2851503 -27.388
24.17081 -11.925786 -34.234709
29.598728 -8.9937483 -32.84521
39.059683 -11.159127 -23.717778
34.895129 -8.7231049 -29.53341
40.085022 -8.3243092 -25.529704
37.880729 -7.066999 -28.519263
15.265397 -33.997386 -24.699931
17.343548 -28.175599 -28.06245
13.679701 -32.933664 -27.149486
18.163757 -32.226509 -23.53525
20.796353 -16.385052 -33.649206
19.168197 -22.342765 -31.014795
18.240301 -17.747613 -34.291872
10.293661 -30.234285 -31.658179
15.703546 -26.89057 -30.271572
12.007845 -31.671523 -29.488198
11.258825 -26.954774 -33.065963
14.735297 -29.890164 -28.771193
23.671012 -28.692749 -21.272418
20.220825 -26.589769 -26.979281
20.973183 -30.450848 -22.389327
19.225391 -29.402808 -25.320873
13.070558 -20.488849 -35.501839
16.630185 -23.796097 -31.723104
15.655924 -19.11835 -34.912353
12.185822 -23.696547 -34.347129
17.46135 -20.795266 -33.041083
13.997678 -25.362571 -32.386461
2.8504785 -1.7616926 -42.57771
8.4920926 -5.2484018 -41.582411
2.8500121 -4.7159569 -42.365971
19.117939 -11.815536 -36.675026
13.954964 -8.624642 -39.60528
16.504411 -13.157961 -37.196361
2.8660742 -10.64875 -41.619373
8.4695788 -8.1895595 -41.045512
2.8532911 -7.6937782 -42.046131
5.6964281 -12.458053 -40.727201
5.6908473 -6.4720474 -41.827377
11.247798 -15.780897 -38.186677
11.282732 -9.9288945 -39.981632
13.873176 -14.485787 -37.701221
8.5088647 -14.17981 -39.574101
13.928613 -11.565281 -38.710828
8.5101054 -11.179745 -40.368953
34.342373 -21.224754 -16.72258
31.583985 -19.519976 -22.752804
35.570136 -18.920227 -18.409173
31.699705 -23.150521 -17.866835
23.858196 -14.745176 -32.838808
28.053073 -17.337753 -28.166185
26.471243 -13.337957 -32.110921
23.00847 -17.757205 -31.505196
37.9071 -13.956093 -21.876976
32.519522 -17.047691 -24.393506
36.767945 -16.488036 -20.134491
36.171606 -12.833118 -24.955279
34.143042 -18.043707 -21.488813
26.443664 -26.831036 -20.109715
28.810871 -21.359992 -23.768461
29.058575 -25.024429 -19.00031
24.854812 -25.945013 -23.090829
30.347681 -22.313472 -20.902127
31.91658 -10.37768 -30.481064
30.639567 -15.894445 -27.217464
29.165705 -11.876524 -31.325153
34.15663 -11.630193 -27.843866
28.643211 -14.66975 -29.757204
33.35628 -14.416842 -26.122058
21.215877 -23.608096 -28.616485
26.998215 -20.235015 -26.608429
22.124529 -20.725134 -30.090707
23.09692 -24.861367 -25.951856
25.093384 -19.052665 -29.138645
25.969797 -23.112887 -24.878555
3.0704174 23.640572 -40.148871
9.4494218 22.188342 -41.741555
5.1382791 26.626904 -39.907605
3.01435 20.39728 -40.895163
22.744908 17.608124 -42.54767
16.064254 20.193779 -42.602476
9.8359915 33.301258 -39.347021
11.89626 25.28449 -41.639826
7.3956108 29.845394 -39.642163
8.4856335 26.024467 -40.861866
2.9295451 14.051793 -41.971958
9.2412466 18.695448 -42.1759
2.9706552 17.184288 -41.502817
6.1149163 19.603372 -41.62365
44.061793 2.18588 -30.768514
40.22196 6.5428707 -35.445126
47.02213 6.0543053 -31.373813
40.406384 0 -31.735777
29.22894 14.421448 -41.398871
35.176069 10.688456 -39.034291
50.269113 14.361597 -30.524356
42.754432 10.687778 -36.185112
50.173325 10.41931 -31.954831
45.07104 8.4084178 -33.932632
33.79414 -3.8406392 -33.396245
36.491135 4.1471475 -36.061485
36.979767 -2.0055531 -32.612419
38.582255 2.0924622 -34.025652
20.739912 46.189613 -33.557882
24.173031 39.27049 -39.112785
18.447282 44.41154 -36.611489
25.355461 44.986178 -32.853728
26.278885 20.704634 -42.520129
26.322698 30.682168 -42.59102
22.712816 22.099321 -42.700226
12.683557 37.253829 -39.008311
21.432441 36.700664 -41.315108
15.728045 41.483808 -38.624058
13.784233 33.000856 -40.482813
20.214039 41.003648 -39.468632
34.50244 41.822033 -31.006293
28.56709 37.564854 -38.11514
29.986923 43.537846 -32.011689
27.046095 41.363586 -35.62116
15.552718 24.379778 -42.243804
22.105656 31.630938 -42.167902
19.102354 23.326985 -42.597814
14.741884 28.667065 -41.55168
22.509898 26.807738 -42.594152
17.913096 32.456966 -41.445572
2.8583609 1.7665642 -42.69545
8.70759 5.3815866 -42.637616
2.871254 4.7511061 -42.681736
5.7273598 0 -42.509954
22.042503 13.623016 -42.285383
14.978573 9.257267 -42.510361
18.909286 15.075221 -42.616281
2.915283 10.831583 -42.333953
8.8113747 8.520055 -42.701932
2.8882741 7.7881084 -42.561641
5.9319627 12.973166 -42.41118
5.8093965 6.6068702 -42.698706
11.435504 -3.5101354 -41.374043
11.69586 3.5900517 -42.316018
8.6108675 -1.7727706 -42.066465
8.6838699 1.7878001 -42.423102
12.533825 17.585219 -42.552781
12.047082 10.601529 -42.690194
15.712467 16.406298 -42.699611
9.1347145 15.222773 -42.484883
15.350541 12.745944 -42.662695
8.9921953 11.813068 -42.655818
50.210084 31.031538 -24.44916
44.633249 27.584865 -32.15337
50.310356 26.760745 -26.037911
46.963746 34.29796 -26.470073
30.443772 18.815286 -41.903301
39.107503 24.169766 -39.265187
33.81674 17.039103 -41.021372
30.971519 23.902832 -42.408894
50.318496 18.525543 -29.039851
44.952333 23.565337 -33.719592
50.341821 22.575039 -27.56768
47.843178 16.974009 -33.007653
47.63153 25.172021 -29.978144
39.084811 39.657362 -29.722977
41.132148 30.494822 -33.933297
43.194028 37.197485 -28.242952
35.963342 37.540794 -33.410971
44.00596 32.355874 -30.309339
39.998352 13.005469 -38.199341
42.171453 21.876675 -37.461365
37.037949 15.082168 -39.780263
45.259134 15.41055 -36.894426
39.009557 19.978922 -40.526719
45.121709 19.501951 -35.335833
30.017989 33.402699 -40.488985
38.15385 28.596103 -37.603006
31.280571 29.302049 -42.543481
32.934968 35.450975 -37.005954
35.326146 26.822099 -41.021013
37.172001 33.082748 -35.610045
22.26333 -10.166704 -36.022825
23.582288 -3.5302578 -38.156944
24.962388 -8.7233474 -35.441968
19.724022 -8.6070146 -37.711718
25.677597 11.725853 -41.547225
24.738765 3.7033818 -40.028163
28.611862 9.9986913 -40.623545
21.864314 9.5409784 -41.803889
30.641475 -5.6024203 -34.156808
26.490122 -1.8756654 -37.698654
27.763254 -7.2001495 -34.817778
31.798037 -1.9377472 -35.418158
25.739536 -5.3664893 -36.601982
14.350203 -5.3023956 -40.378028
20.773667 -1.8481488 -39.593234
17.064027 -6.9707306 -39.174771
14.584692 -1.8027671 -41.100159
20.279573 -5.2694448 -38.692652
34.010047 6.2183227 -37.911838
27.242833 1.928962 -38.769852
31.420563 8.1486397 -39.404394
32.930223 2.0067416 -36.67924
27.943132 5.8259215 -39.735525
29.592218 0 -37.22429
14.989297 5.5385406 -42.176286
21.225363 1.8883343 -40.454136
18.299419 7.4753936 -42.010924
14.799648 1.8293371 -41.705911
21.583856 5.6083497 -41.181174
17.855006 0 -40.793343
42.00175 60.148254 2.9839201
49.733609 56.43606 9.180404
39.376628 59.016509 7.5986343
47.431486 60.390355 0
52.980503 37.405946 18.455951
52.494713 47.306037 14.374219
33.786372 55.641172 15.896364
45.802272 54.117564 13.52834
36.562504 57.407983 11.921705
43.006753 57.123747 10.656961
55.531673 56.193298 -6.3862605
55.531673 56.193298 6.3862605
52.659985 59.712036 -3.2384105
52.659985 59.712036 3.2384105
48.56436 3.7139987 28.595804
52.397452 11.861696 27.852642
52.919644 28.289503 21.90051
52.692776 19.869036 24.97663
23.521015 48.303996 29.853511
32.982323 45.783949 28.296036
25.924616 50.091447 26.644304
49.95242 36.291653 22.429475
42.135028 41.96582 25.936303
49.551338 40.848579 20.582207
31.009235 53.730927 19.781882
35.775302 47.692846 25.001994
28.427904 51.912691 23.279472
36.551613 52.979995 18.796471
30.855841 49.026082 25.909005
47.722797 49.970319 16.247856
40.788863 45.917323 23.819866
48.866281 45.497608 18.527014
42.239256 51.815745 17.643049
45.393493 43.694139 22.378152
38.897233 49.669402 21.467499
55.646809 34.391619 -15.705171
59.739537 36.921064 -5.5270664
55.890283 39.364489 -13.7563
55.646809 34.391619 15.705171
59.739537 36.921064 5.5270664
55.890283 39.364489 13.7563
56.154895 50.375574 -9.2105598
60.143389 42.261607 -2.9923846
56.094401 44.728962 -11.600053
59.615869 53.52248 -3.2616174
58.482092 41.126241 -8.5744953
56.154895 50.375574 9.2105598
60.143389 42.261607 2.9923846
56.094401 44.728962 11.600053
59.615869 53.52248 3.2616174
58.482092 41.126241 8.5744953
60.390355 48.00856 0
24.809974 -35.528916 1.7625689
28.079796 -31.864027 5.1832931
24.02517 -36.008204 4.6362141
26.566086 -33.824269 0
34.008588 -24.011162 11.847016
31.125909 -28.049365 8.5229653
22.12745 -36.440647 10.410884
27.188441 -32.124437 8.0304857
23.127685 -36.313535 7.5410982
25.649168 -34.068523 6.3557969
29.918769 -30.275233 -3.4407221
29.918769 -30.275233 3.4407221
28.276766 -32.063496 -1.7389252
28.276766 -32.063496 1.7389252
44.373198 -3.3934762 26.127952
41.983038 -9.5040886 22.316706
36.769738 -19.656172 15.216958
39.430483 -14.86818 18.690239
17.049174 -35.013082 21.639275
22.54497 -31.295483 19.341672
18.452939 -35.654701 18.965208
32.828027 -23.850364 14.740335
27.733057 -27.621684 17.07114
31.508966 -25.97501 13.087923
20.984834 -36.36125 13.386964
23.833662 -31.773182 16.656438
19.772908 -36.107653 16.191939
23.634861 -34.257717 12.154101
21.202789 -33.688586 17.803538
28.716871 -30.069302 9.7770372
26.480884 -29.810376 15.464298
30.133108 -28.055836 11.424575
26.214051 -32.157303 10.94943
28.99592 -27.910426 14.294452
25.089477 -32.037736 13.846957
36.237062 -22.395736 -10.227168
37.201856 -22.992011 -3.4418936
34.717092 -24.451846 -8.5449334
36.237062 -22.395736 10.227168
37.201856 -22.992011 3.4418936
34.717092 -24.451846 8.5449334
31.597952 -28.34597 -5.1827153
35.43756 -24.901295 -1.7631665
33.162849 -26.443634 -6.8579181
31.795011 -28.545216 -1.7395228
35.196562 -24.751206 -5.1604302
31.597952 -28.34597 5.1827153
35.43756 -24.901295 1.7631665
33.162849 -26.443634 6.8579181
31.795011 -28.545216 1.7395228
35.196562 -24.751206 5.1604302
33.644202 -26.746153 0
2.9550409 -22.752235 38.640205
8.5203905 -20.006868 37.637684
4.7913463 -24.829075 37.213073
2.9175801 -19.742464 39.582302
18.958959 -14.677206 35.4655
13.796316 -17.342838 36.587894
8.4366022 -28.563411 33.749029
10.315732 -21.925213 36.107592
6.6358656 -26.7794 35.569755
7.6135442 -23.349869 36.662392
2.8655691 -13.744927 41.055367
8.4732451 -17.141747 38.670836
2.8908289 -16.722519 40.387569
5.7486764 -18.42927 39.13069
41.904051 -2.0788357 29.261755
35.432145 -5.7637157 31.224158
41.048313 -5.2851503 27.388
24.17081 -11.925786 34.234709
29.598728 -8.9937483 32.84521
39.059683 -11.159127 23.717778
34.895129 -8.7231049 29.53341
40.085022 -8.3243092 25.529704
37.880729 -7.066999 28.519263
15.265397 -33.997386 24.699931
17.343548 -28.175599 28.06245
13.679701 -32.933664 27.149486
18.163757 -32.226509 23.53525
20.796353 -16.385052 33.649206
19.168197 -22.342765 31.014795
18.240301 -17.747613 34.291872
10.293661 -30.234285 31.658179
15.703546 -26.89057 30.271572
12.007845 -31.671523 29.488198
11.258825 -26.954774 33.065963
14.735297 -29.890164 28.771193
23.671012 -28.692749 21.272418
20.220825 -26.589769 26.979281
20.973183 -30.450848 22.389327
19.225391 -29.402808 25.320873
13.070558 -20.488849 35.501839
16.630185 -23.796097 31.723104
15.655924 -19.11835 34.912353
12.185822 -23.696547 34.347129
17.46135 -20.795266 33.041083
13.997678 -25.362571 32.386461
2.8504785 -1.7616926 42.57771
8.4920926 -5.2484018 41.582411
2.8500121 -4.7159569 42.365971
19.117939 -11.815536 36.675026
13.954964 -8.624642 39.60528
16.504411 -13.157961 37.196361
2.8660742 -10.64875 41.619373
8.4695788 -8.1895595 41.045512
2.8532911 -7.6937782 42.046131
5.6964281 -12.458053 40.727201
5.6908473 -6.4720474 41.827377
11.247798 -15.780897 38.186677
11.282732 -9.9288945 39.981632
13.873176 -14.485787 37.701221
8.5088647 -14.17981 39.574101
13.928613 -11.565281 38.710828
8.5101054 -11.179745 40.368953
34.342373 -21.224754 16.72258
31.583985 -19.519976 22.752804
35.570136 -18.920227 18.409173
31.699705 -23.150521 17.866835
23.858196 -14.745176 32.838808
28.053073 -17.337753 28.166185
26.471243 -13.337957 32.110921
23.00847 -17.757205 31.505196
37.9071 -13.956093 21.876976
32.519522 -17.047691 24.393506
36.767945 -16.488036 20.134491
36.171606 -12.833118 24.955279
34.143042 -18.043707 21.488813
26.443664 -26.831036 20.109715
28.810871 -21.359992 23.768461
29.058575 -25.024429 19.00031
24.854812 -25.945013 23.090829
30.347681 -22.313472 20.902127
31.91658 -10.37768 30.481064
30.639567 -15.894445 27.217464
29.165705 -11.876524 31.325153
34.15663 -11.630193 27.843866
28.643211 -14.66975 29.757204
33.35628 -14.416842 26.122058
21.215877 -23.608096 28.616485
26.998215 -20.235015 26.608429
22.124529 -20.725134 30.090707
23.09692 -24.861367 25.951856
25.093384 -19.052665 29.138645
25.969797 -23.112887 24.878555
3.0704174 23.640572 40.148871
9.4494218 22.188342 41.741555
5.1382791 26.626904 39.907605
3.01435 20.39728 40.895163
22.744908 17.608124 42.54767
16.064254 20.193779 42.602476
9.8359915 33.301258 39.347021
11.89626 25.28449 41.639826
7.3956108 29.845394 39.642163
8.4856335 26.024467 40.861866
2.9295451 14.051793 41.971958
9.2412466 18.695448 42.1759
2.9706552 17.184288 41.502817
6.1149163 19.603372 41.62365
44.061793 2.18588 30.768514
40.22196 6.5428707 35.445126
47.02213 6.0543053 31.373813
40.406384 0 31.735777
29.22894 14.421448 41.398871
35.176069 10.688456 39.034291
50.269113 14.361597 30.524356
42.754432 10.687778 36.185112
50.173325 10.41931 31.954831
45.07104 8.4084178 33.932632
33.79414 -3.8406392 33.396245
36.491135 4.1471475 36.061485
36.979767 -2.0055531 32.612419
38.582255 2.0924622 34.025652
20.739912 46.189613 33.557882
24.173031 39.27049 39.112785
18.447282 44.41154 36.611489
25.355461 44.986178 32.853728
26.278885 20.704634 42.520129
26.322698 30.682168 42.59102
22.712816 22.099321 42.700226
12.683557 37.253829 39.008311
21.432441 36.700664 41.315108
15.728045 41.483808 38.624058
13.784233 33.000856 40.482813
20.214039 41.003648 39.468632
34.50244 41.822033 31.006293
28.56709 37.564854 38.11514
29.986923 43.537846 32.011689
27.046095 41.363586 35.62116
15.552718 24.379778 42.243804
22.105656 31.630938 42.167902
19.102354 23.326985 42.597814
14.741884 28.667065 41.55168
22.509898 26.807738 42.594152
17.913096 32.456966 41.445572
2.8583609 1.7665642 42.69545
8.70759 5.3815866 42.637616
2.871254 4.7511061 42.681736
5.7273598 0 42.509954
22.042503 13.623016 42.285383
14.978573 9.257267 42.510361
18.909286 15.075221 42.616281
2.915283 10.831583 42.333953
8.8113747 8.520055 42.701932
2.8882741 7.7881084 42.561641
5.9319627 12.973166 42.41118
5.8093965 6.6068702 42.698706
11.435504 -3.5101354 41.374043
11.69586 3.5900517 42.316018
8.6108675 -1.7727706 42.066465
8.6838699 1.7878001 42.423102
12.533825 17.585219 42.552781
12.047082 10.601529 42.690194
15.712467 16.406298 42.699611
9.1347145 15.222773 42.484883
15.350541 12.745944 42.662695
8.9921953 11.813068 42.655818
50.210084 31.031538 24.44916
44.633249 27.584865 32.15337
50.310356 26.760745 26.037911
46.963746 34.29796 26.470073
30.443772 18.815286 41.903301
39.107503 24.169766 39.265187
33.81674 17.039103 41.021372
30.971519 23.902832 42.408894
50.318496 18.525543 29.039851
44.952333 23.565337 33.719592
50.341821 22.575039 27.56768
47.843178 16.974009 33.007653
47.63153 25.172021 29.978144
39.084811 39.657362 29.722977
41.132148 30.494822 33.933297
43.194028 37.197485 28.242952
35.963342 37.540794 33.410971
44.00596 32.355874 30.309339
39.998352 13.005469 38.199341
42.171453 21.876675 37.461365
37.037949 15.082168 39.780263
45.259134 15.41055 36.894426
39.009557 19.978922 40.526719
45.121709 19.501951 35.335833
30.017989 33.402699 40.488985
38.15385 28.596103 37.603006
31.280571 29.302049 42.543481
32.934968 35.450975 37.005954
35.326146 26.822099 41.021013
37.172001 33.082748 35.610045
22.26333 -10.166704 36.022825
23.582288 -3.5302578 38.156944
24.962388 -8.7233474 35.441968
19.724022 -8.6070146 37.711718
25.677597 11.725853 41.547225
24.738765 3.7033818 40.028163
28.611862 9.9986913 40.623545
21.864314 9.5409784 41.803889
30.641475 -5.6024203 34.156808
26.490122 -1.8756654 37.698654
27.763254 -7.2001495 34.817778
31.798037 -1.9377472 35.418158
25.739536 -5.3664893 36.601982
14.350203 -5.3023956 40.378028
20.773667 -1.8481488 39.593234
17.064027 -6.9707306 39.174771
14.584692 -1.8027671 41.100159
20.279573 -5.2694448 38.692652
34.010047 6.2183227 37.911838
27.242833 1.928962 38.769852
31.420563 8.1486397 39.404394
32.930223 2.0067416 36.67924
27.943132 5.8259215 39.735525
29.592218 0 37.22429
14.989297 5.5385406 42.176286
21.225363 1.8883343 40.454136
18.299419 7.4753936 42.010924
14.799648 1.8293371 41.705911
21.583856 5.6083497 41.181174
17.855006 0 40.793343
48.448178 0 -25.492832
53.802194 0 -19.39483
51.869085 3.8232291 -25.870743
47.008209 -3.4649377 -23.446284
60.102342 0 -4.16554
57.877316 0 -12.190389
54.39359 11.91829 -24.111223
57.145558 3.988627 -19.131762
54.180843 7.9596893 -25.517398
55.017631 3.9380077 -22.780113
44.053374 -9.6526238 -19.527682
51.62067 -3.6030027 -17.282085
45.533597 -6.6893252 -21.444829
49.454553 -3.5398181 -20.476714
48.448178 0 25.492832
53.802194 0 19.39483
51.869085 3.8232291 25.870743
47.008209 -3.4649377 23.446284
60.102342 0 4.16554
57.877316 0 12.190389
54.39359 11.91829 24.111223
57.145558 3.988627 19.131762
54.180843 7.9596893 25.517398
55.017631 3.9380077 22.780113
44.053374 -9.6526238 19.527682
51.62067 -3.6030027 17.282085
45.533597 -6.6893252 21.444829
49.454553 -3.5398181 20.476714
55.349244 28.852426 -17.83178
58.362468 20.56408 -12.7093
55.104228 24.450318 -19.492748
57.543531 30.096477 -13.133266
60.335058 4.0392916 -2.4964195
59.799139 12.212371 -7.5476603
59.994649 4.0359154 -6.6782885
54.636083 16.092934 -22.578724
58.031072 16.376246 -14.411227
54.86364 20.188548 -21.080033
56.19419 12.082366 -20.13496
56.788377 20.433128 -16.966145
60.252915 31.61333 -2.8125096
59.608909 21.184787 -7.8277724
59.278971 31.069265 -8.0730385
58.81537 25.619219 -10.465565
58.409255 4.0222917 -14.944616
58.955728 12.165281 -11.763075
59.344288 4.0271608 -10.859068
57.441917 8.0342803 -17.570922
59.577662 8.1058723 -9.2185904
57.739023 12.171858 -15.990198
38.028193 -19.823317 -12.251484
43.541089 -15.341751 -9.4817233
39.52431 -17.537347 -13.981457
38.790166 -20.288073 -8.8531508
56.516118 -3.7836224 -2.3384073
49.60681 -10.130861 -6.2612164
55.978222 -3.7657253 -6.2312009
42.51771 -12.523494 -17.570725
45.425888 -12.81909 -11.280901
41.027611 -15.09721 -15.763872
45.873858 -9.8633814 -16.437078
