-2.5044681 27.069652 16.729965
-6.0195947 24.456928 17.225436
-6.1477143 26.93627 14.088236
8.4439779 29.918834 18.490857
2.6555292 28.702403 17.739061
6.9050987 28.05463 19.759359
7.1953223 31.526375 16.488957
-3.7096467 22.616955 20.289275
-1.301425 26.157103 18.380095
-4.8794154 23.595399 18.814671
-1.2727238 23.262856 20.88514
-3.7157241 25.342987 17.821896
-3.9761178 30.278352 10.760815
-1.352191 28.968239 15.198974
-5.0983621 28.652257 12.480555
-1.3825611 31.520146 11.185154
-3.8106195 27.980741 14.665252
3.9927806 24.343165 21.837827
1.3391175 26.914677 18.912428
5.4139388 26.180195 20.875755
1.3046014 23.845515 21.408245
4.0386719 27.545642 19.370865
0 25.094192 19.949146
4.4351567 33.773958 12.00314
1.3975546 29.940071 15.708872
5.8412032 32.826946 14.298996
1.4344604 32.703365 11.605029
4.1924147 30.7842 16.134599
0 30.868346 13.510893
0 -13.82536 26.274582
0 -9.8892436 27.43324
0 -1.9788099 28.551187
0 -5.9360644 28.183142
0 13.82536 26.274582
0 9.8892436 27.43324
0 1.9788099 28.551187
0 5.9360644 28.183142
-23.553022 -40.000186 -3.0590465
-20.461611 -38.493163 -8.7140533
-20.062567 -40.224086 -2.9648855
-13.30898 -32.159365 -17.191582
-16.909046 -35.672729 -13.451232
-13.23768 -39.540248 -2.7598173
-17.090205 -38.554561 -8.4477678
-16.579325 -40.041733 -2.8660749
-18.63862 -39.575201 -5.8139794
-1.2425253 -17.489823 -25.046155
-3.8767991 -21.00204 -23.832422
-9.8937274 -28.401389 -20.052298
-6.7489141 -24.647066 -22.210903
-1.4736197 -35.61538 -2.3843667
-4.530023 -35.890788 -7.3297312
-4.0917231 -36.758144 -2.4727666
-10.347025 -32.116818 -16.741838
-7.5671108 -34.748983 -12.243842
-11.995798 -33.911032 -15.046677
-9.9158793 -38.755035 -2.6688246
-7.3491607 -36.833491 -7.600445
-6.9212456 -37.824277 -2.566792
-11.852569 -38.747785 -5.4195714
-5.722089 -36.980566 -5.0314116
-15.362436 -37.174083 -10.949541
-9.0056063 -36.263739 -10.23355
-13.68821 -35.625419 -13.109328
-13.697258 -38.227357 -8.2193
-10.544771 -35.295019 -12.699565
-10.420419 -37.627102 -7.9321008
14.789932 -25.117796 -1.9209038
13.538634 -25.469394 -5.7657422
13.183792 -26.432608 -1.9483266
10.214021 -24.680812 -13.193737
12.006246 -25.329375 -9.5510295
9.7236025 -29.043884 -2.0271955
11.8662 -26.769493 -5.8655178
11.48911 -27.748046 -1.9861273
12.558598 -26.665548 -3.9174267
1.221081 -17.187974 -24.613894
3.6425551 -19.733055 -22.39242
0 -18.906687 -24.072228
8.1933184 -23.520116 -16.605962
5.9858489 -21.860348 -19.69963
-2.5816279 -22.448523 -22.715983
2.4676744 -21.457641 -21.713296
-1.2711696 -20.670564 -23.438697
1.2447854 -20.241529 -22.952208
1.4143483 -34.18287 -2.2884635
4.0275463 -31.90973 -6.5167068
3.6667612 -32.940483 -2.2159477
0 -34.556568 -4.6558013
8.3329652 -25.865244 -13.483021
6.3307692 -29.07157 -10.2434
9.3014665 -26.294401 -11.667099
7.7749296 -30.387388 -2.0925954
6.1214333 -30.680204 -6.3307387
5.7942586 -31.665347 -2.1488411
8.962794 -29.300686 -4.0982255
4.9339196 -31.886805 -4.3383772
-2.9179739 -34.394222 -9.5063292
2.7050391 -31.884354 -8.8126188
-1.4596614 -34.636628 -7.0900042
1.4029819 -33.291666 -6.8146949
11.054937 -26.750781 -7.8793814
7.274754 -29.29395 -8.2666907
10.216574 -26.590016 -9.7845095
10.060345 -28.077182 -6.0369013
8.3186901 -27.843974 -10.01859
8.1387791 -29.388326 -6.1952994
-8.4439779 -29.918834 -18.490857
-2.6555292 -28.702403 -17.739061
-6.9050987 -28.05463 -19.759359
-7.1953223 -31.526375 -16.488957
7.1063215 -25.179229 -15.56162
2.5044681 -27.069652 -16.729965
6.0195947 -24.456928 -17.225436
6.1477143 -26.93627 -14.088236
-3.9927806 -24.343165 -21.837827
-1.3391175 -26.914677 -18.912428
-5.4139388 -26.180195 -20.875755
-1.3046014 -23.845515 -21.408245
-4.0386719 -27.545642 -19.370865
-4.4351567 -33.773958 -12.00314
-1.3975546 -29.940071 -15.708872
-5.8412032 -32.826946 -14.298996
-1.4344604 -32.703365 -11.605029
-4.1924147 -30.7842 -16.134599
3.7096467 -22.616955 -20.289275
1.301425 -26.157103 -18.380095
4.8794154 -23.595399 -18.814671
1.2727238 -23.262856 -20.88514
3.7157241 -25.342987 -17.821896
0 -25.094192 -19.949146
3.9761178 -30.278352 -10.760815
1.352191 -28.968239 -15.198974
5.0983621 -28.652257 -12.480555
1.3825611 -31.520146 -11.185154
3.8106195 -27.980741 -14.665252
0 -30.868346 -13.510893
-14.789932 25.117796 -1.9209038
-13.538634 25.469394 -5.7657422
-13.183792 26.432608 -1.9483266
-10.214021 24.680812 -13.193737
-12.006246 25.329375 -9.5510295
-9.7236025 29.043884 -2.0271955
-11.8662 26.769493 -5.8655178
-11.48911 27.748046 -1.9861273
-12.558598 26.665548 -3.9174267
-1.221081 17.187974 -24.613894
-3.6425551 19.733055 -22.39242
-8.1933184 23.520116 -16.605962
-5.9858489 21.860348 -19.69963
-1.4143483 34.18287 -2.2884635
-4.0275463 31.90973 -6.5167068
-3.6667612 32.940483 -2.2159477
-8.3329652 25.865244 -13.483021
-6.3307692 29.07157 -10.2434
-9.3014665 26.294401 -11.667099
-7.7749296 30.387388 -2.0925954
-6.1214333 30.680204 -6.3307387
-5.7942586 31.665347 -2.1488411
-8.962794 29.300686 -4.0982255
-4.9339196 31.886805 -4.3383772
-11.054937 26.750781 -7.8793814
-7.274754 29.29395 -8.2666907
-10.216574 26.590016 -9.7845095
-10.060345 28.077182 -6.0369013
-8.3186901 27.843974 -10.01859
-8.1387791 29.388326 -6.1952994
23.553022 40.000186 -3.0590465
20.461611 38.493163 -8.7140533
20.062567 40.224086 -2.9648855
13.30898 32.159365 -17.191582
16.909046 35.672729 -13.451232
13.23768 39.540248 -2.7598173
17.090205 38.554561 -8.4477678
16.579325 40.041733 -2.8660749
18.63862 39.575201 -5.8139794
1.2425253 17.489823 -25.046155
3.8767991 21.00204 -23.832422
0 18.906687 -24.072228
9.8937274 28.401389 -20.052298
6.7489141 24.647066 -22.210903
-2.4676744 21.457641 -21.713296
2.5816279 22.448523 -22.715983
-1.2447854 20.241529 -22.952208
1.2711696 20.670564 -23.438697
1.4736197 35.61538 -2.3843667
4.530023 35.890788 -7.3297312
4.0917231 36.758144 -2.4727666
0 34.556568 -4.6558013
10.347025 32.116818 -16.741838
7.5671108 34.748983 -12.243842
11.995798 33.911032 -15.046677
9.9158793 38.755035 -2.6688246
7.3491607 36.833491 -7.600445
6.9212456 37.824277 -2.566792
11.852569 38.747785 -5.4195714
5.722089 36.980566 -5.0314116
-2.7050391 31.884354 -8.8126188
2.9179739 34.394222 -9.5063292
-1.4029819 33.291666 -6.8146949
1.4596614 34.636628 -7.0900042
15.362436 37.174083 -10.949541
9.0056063 36.263739 -10.23355
13.68821 35.625419 -13.109328
13.697258 38.227357 -8.2193
10.544771 35.295019 -12.699565
10.420419 37.627102 -7.9321008
-7.1063215 25.179229 -15.56162
-2.5044681 27.069652 -16.729965
-6.0195947 24.456928 -17.225436
-6.1477143 26.93627 -14.088236
8.4439779 29.918834 -18.490857
2.6555292 28.702403 -17.739061
6.9050987 28.05463 -19.759359
7.1953223 31.526375 -16.488957
-3.7096467 22.616955 -20.289275
-1.301425 26.157103 -18.380095
-4.8794154 23.595399 -18.814671
-1.2727238 23.262856 -20.88514
-3.7157241 25.342987 -17.821896
-3.9761178 30.278352 -10.760815
-1.352191 28.968239 -15.198974
-5.0983621 28.652257 -12.480555
-1.3825611 31.520146 -11.185154
-3.8106195 27.980741 -14.665252
3.9927806 24.343165 -21.837827
1.3391175 26.914677 -18.912428
5.4139388 26.180195 -20.875755
1.3046014 23.845515 -21.408245
4.0386719 27.545642 -19.370865
0 25.094192 -19.949146
4.4351567 33.773958 -12.00314
1.3975546 29.940071 -15.708872
5.8412032 32.826946 -14.298996
1.4344604 32.703365 -11.605029
4.1924147 30.7842 -16.134599
0 30.868346 -13.510893
0 -13.82536 -26.274582
0 -9.8892436 -27.43324
0 -1.9788099 -28.551187
0 -5.9360644 -28.183142
0 13.82536 -26.274582
0 9.8892436 -27.43324
0 1.9788099 -28.551187
0 5.9360644 -28.183142
27.464231 39.329922 -1.9511347
31.91858 36.220153 -5.8919002
26.080631 39.088867 -5.032863
35.479605 25.049747 -12.35945
34.621212 31.199186 -9.4800569
22.620437 37.252523 -10.642832
30.195602 35.677541 -8.9186926
24.433971 38.364577 -7.9670306
28.332673 37.632891 -7.0207625
29.091342 2.2247839 -17.129647
31.342473 7.0952855 -16.660556
34.882935 18.647534 -14.436115
33.361632 12.579779 -15.813575
14.826461 30.448402 -18.818147
21.544223 29.90631 -18.483116
16.724315 32.314659 -17.188595
33.337358 24.220405 -14.969034
28.002459 27.890005 -17.236971
33.183219 27.355211 -13.783359
20.637693 35.759745 -13.16551
23.739105 31.647126 -16.590355
18.68246 34.116366 -15.298976
24.472832 35.472321 -12.585023
20.243856 32.164962 -16.998343
31.667793 33.159199 -10.781718
27.240557 30.665563 -15.907931
32.639593 30.389533 -12.374876
28.224652 34.623748 -11.789245
30.386551 29.248998 -14.980007
26.029224 33.237736 -14.365606
16.528129 -23.668969 -1.1742039
18.79212 -21.324678 -3.4688665
15.98457 -23.957193 -3.0845937
22.671475 -16.006793 -7.897691
20.835317 -18.775915 -5.7051727
14.681444 -24.178174 -6.9075656
18.187254 -21.489107 -5.3718595
15.36648 -24.127413 -5.0104511
17.121302 -22.741381 -4.2426141
27.668115 -2.1159414 -16.291618
26.850483 -6.0783922 -14.272772
24.300774 -12.990579 -10.056745
25.706474 -9.6932238 -12.184993
11.25271 -23.109158 -14.282245
15.045308 -20.884933 -12.907598
12.193732 -23.560683 -12.53224
21.903668 -15.91355 -9.8351148
18.5722 -18.497616 -11.432156
21.071383 -17.370592 -8.7524494
13.90365 -24.091404 -8.8696276
15.915091 -21.21676 -11.122451
13.082907 -23.890925 -10.713529
15.746743 -22.824228 -8.0976779
14.098945 -22.401464 -11.838589
19.229441 -20.135058 -6.5469168
17.724681 -19.953239 -10.350853
20.175493 -18.784664 -7.6492752
17.526697 -21.500351 -7.3207817
19.416876 -18.689984 -9.5721605
16.764916 -21.407778 -9.252607
1.9444052 -14.97088 -25.425101
5.6718195 -13.318092 -25.054503
3.1513549 -16.330531 -24.475709
1.9290426 -13.053303 -26.170987
12.685768 -9.8207735 -23.730581
9.2337795 -11.607442 -24.488026
5.5480305 -18.783708 -22.193845
6.8660546 -14.593216 -24.032875
4.3637108 -17.609995 -23.390486
5.0418827 -15.462877 -24.278769
1.9087113 -9.1552836 -27.346345
5.6549575 -11.440228 -25.808522
1.9192166 -11.102053 -26.813241
3.821779 -12.251968 -26.014484
26.225632 -1.3010384 -18.313457
22.827624 -3.7133494 -20.116573
26.010816 -3.3490066 -17.354775
16.076866 -7.9322644 -22.770723
19.447863 -5.9093479 -21.580966
25.273746 -7.2205642 -15.346696
22.669632 -5.6669679 -19.186389
25.686042 -5.3341259 -16.359154
24.333964 -4.5397252 -18.320311
10.062808 -22.410761 -16.281965
11.552806 -18.768203 -18.692832
9.0096253 -21.69053 -17.880997
12.055399 -21.388936 -15.620493
13.914486 -10.962959 -22.514111
12.830607 -14.955565 -20.760358
12.214988 -11.885049 -22.964248
6.7714854 -19.889038 -20.82572
10.45668 -17.905898 -20.15724
7.9029518 -20.844582 -19.407629
7.4563034 -17.851149 -21.898364
9.765931 -19.809935 -19.068328
15.833712 -19.192789 -14.229276
13.516403 -17.773659 -18.034024
13.98797 -20.309056 -14.932461
12.814302 -19.597856 -16.877124
8.7311312 -13.686549 -23.715224
11.110821 -15.898451 -21.194577
10.478684 -12.796125 -23.367227
8.1116053 -15.773826 -22.863484
11.687542 -13.919058 -22.115646
9.3190879 -16.885374 -21.561595
1.9087986 -1.1797024 -28.5118
5.6842327 -3.513049 -27.833434
1.908286 -3.1576689 -28.367034
12.771772 -7.8933889 -24.500814
9.3332178 -5.7682458 -26.488402
11.046985 -8.8070873 -24.896836
1.9140552 -7.1115728 -27.794737
5.671868 -5.4843459 -27.487166
1.9087428 -5.1468438 -28.127256
3.8068254 -8.3255038 -27.217291
3.8109274 -4.3340651 -28.010082
7.5253365 -10.558205 -25.548786
7.5551616 -6.6486026 -26.772566
9.2903974 -9.7006425 -25.247235
5.689841 -9.4819776 -26.46303
9.3253017 -7.7430349 -25.917164
5.6971728 -7.4843891 -27.025388
22.819577 -14.103274 -11.111702
21.0118 -12.986007 -15.136702
23.524365 -12.512922 -12.174936
21.158033 -15.451863 -11.925256
15.917008 -9.8372519 -21.908428
18.688711 -11.550259 -18.764065
17.589099 -8.8625477 -21.336443
15.388879 -11.876647 -21.07179
24.745118 -9.1103028 -14.280922
21.543203 -11.293582 -16.159962
24.172538 -10.839814 -13.237121
23.641972 -8.3878006 -16.310915
22.598723 -11.942835 -14.223095
17.708611 -17.968024 -13.466936
19.245234 -14.268158 -15.876979
19.445424 -16.745853 -12.714632
16.64381 -17.373853 -15.462574
20.26348 -14.89895 -13.95658
20.934592 -6.8068852 -19.993014
20.317752 -10.539946 -18.048482
19.270159 -7.846973 -20.696934
22.361257 -7.6139165 -18.228491
19.012815 -9.7374995 -19.752262
21.980545 -9.5001613 -17.213463
14.204086 -15.805683 -19.158813
18.042427 -13.522701 -17.781941
14.814979 -13.877919 -20.149273
15.465292 -16.646736 -17.376908
16.776527 -12.737922 -19.481042
17.384912 -15.472416 -16.654403
1.992257 15.339314 -26.050813
6.0570615 14.222685 -26.756258
3.2925137 17.062025 -25.572051
1.9699034 13.329796 -26.725338
14.210907 11.00147 -26.583576
10.164518 12.77744 -26.95635
6.0894289 20.616696 -24.359607
7.5065321 15.954497 -26.274703
4.6657768 18.828999 -25.009629
5.3965146 16.550493 -25.986469
1.9364974 9.2885619 -27.744441
5.9790759 12.095933 -27.287759
1.9534479 11.30007 -27.291484
3.976586 12.748252 -27.06824
26.987033 1.3388111 -18.845146
24.590032 4.0000388 -21.669674
28.081302 3.6155907 -18.736232
25.241385 0 -19.82496
18.064145 8.9127803 -25.585437
21.573817 6.5553316 -23.940101
30.154923 8.6150886 -18.31064
25.496585 6.3736512 -21.578974
29.14711 6.0528731 -18.563469
26.874214 5.0136323 -20.232789
21.756683 -2.4726053 -21.500518
22.778558 2.5887395 -22.510361
23.486419 -1.2737577 -20.712649
24.081048 1.3060067 -21.237052
12.654732 28.183204 -20.475786
14.368432 23.342351 -23.248611
10.91474 26.277063 -21.661992
15.835107 28.094971 -20.517959
16.053286 12.648079 -25.974762
15.478362 18.041832 -25.044516
13.981219 13.603573 -26.284773
7.6651509 22.513891 -23.57419
12.545486 21.482745 -24.18381
9.2407642 24.373155 -22.692954
8.4264978 20.173894 -24.747721
11.803307 23.942698 -23.046377
22.291632 27.020738 -20.032812
17.32997 22.788383 -23.122209
19.091447 27.718765 -20.380532
16.675089 25.502443 -21.961988
9.7303394 15.252865 -26.429242
13.16765 18.841563 -25.118104
11.854281 14.475945 -26.434776
9.1182801 17.731405 -25.700911
13.634829 16.238142 -25.800382
10.808114 19.583359 -25.006759
1.9123122 1.181874 -28.564284
5.7790891 3.5716735 -28.297908
1.9177297 3.1732954 -28.507416
3.8297485 0 -28.425389
13.971516 8.6348718 -26.802352
9.7719382 6.0393899 -27.733525
12.043412 9.601478 -27.142507
1.935655 7.1918258 -28.108396
5.8214107 5.6289445 -28.211885
1.9242154 5.1885651 -28.355261
3.909167 8.5493242 -27.948993
3.8633007 4.3936279 -28.395022
7.6362143 -2.3439409 -27.628083
7.7501368 2.3789095 -28.040258
5.7542231 -1.1846562 -28.110969
5.7864691 1.1912949 -28.268499
8.0658948 11.31662 -27.384
7.8849403 6.9388106 -27.941174
10.058755 10.502929 -27.335294
5.9579101 9.928708 -27.7098
9.9279914 8.2434634 -27.592178
5.906173 7.7589531 -28.016811
33.100444 20.457199 -16.117839
28.201289 17.429355 -20.315942
32.620251 17.351143 -16.882472
30.962387 22.612053 -17.451263
18.444564 11.399368 -25.387398
23.215226 14.347799 -23.308831
20.366679 10.262076 -24.705785
18.366887 14.174978 -25.149537
31.115636 11.455709 -17.957481
27.735601 14.539819 -20.804997
31.939363 14.322731 -17.490311
28.740365 10.196631 -19.828365
30.199922 15.959871 -19.007107
25.527867 25.901824 -19.413276
25.89632 19.199184 -21.364008
28.391773 24.450198 -18.564314
22.893724 23.897907 -21.268923
28.436897 20.908547 -19.586064
23.893438 7.7689545 -22.81878
25.184668 13.064686 -22.371818
22.20013 9.0400821 -23.843842
26.309027 8.9581161 -21.446642
22.754801 11.653975 -23.639781
27.065698 11.698004 -21.195761
17.839486 19.850996 -24.062327
23.250008 17.425754 -22.914337
18.17027 17.020985 -24.712673
20.302521 21.853496 -22.812051
20.783469 15.780274 -24.133936
23.201826 20.649417 -22.226892
14.810545 -6.763338 -23.963965
15.510105 -2.3218556 -25.095876
16.518867 -5.7726773 -23.453731
13.134762 -5.7316449 -25.113258
16.191639 7.3940242 -26.198622
15.986531 2.3931764 -25.866751
17.975206 6.2816093 -25.521464
14.023592 6.1195053 -26.812672
19.956103 -3.6487302 -22.24556
17.268163 -1.2226933 -24.574689
18.243247 -4.7312216 -22.878778
20.476413 -1.2478164 -22.807597
16.919254 -3.5275303 -24.059417
9.5742595 -3.537686 -26.93967
13.689392 -1.2178896 -26.091074
11.374566 -4.6465604 -26.11318
9.6949265 -1.1983588 -27.320632
13.44307 -3.4930475 -25.648864
21.257807 3.886731 -23.696602
17.573286 1.244298 -25.008916
19.680519 5.1039651 -24.681255
20.91673 1.2746489 -23.298043
17.807859 3.7127974 -25.323025
19.068818 0 -23.98682
9.8501019 3.6396097 -27.715824
13.879331 1.2347877 -26.453086
11.898787 4.8607072 -27.316662
9.7880742 1.2098725 -27.583126
13.989243 3.6349653 -26.690942
11.786612 0 -26.92888
27.464231 39.329922 1.9511347
31.91858 36.220153 5.8919002
26.080631 39.088867 5.032863
30.167693 38.40988 0
35.479605 25.049747 12.35945
34.621212 31.199186 9.4800569
22.620437 37.252523 10.642832
30.195602 35.677541 8.9186926
24.433971 38.364577 7.9670306
28.332673 37.632891 7.0207625
34.478344 34.889133 -3.965083
34.478344 34.889133 3.965083
32.553615 36.913088 -2.0019369
32.553615 36.913088 2.0019369
29.091342 2.2247839 17.129647
31.342473 7.0952855 16.660556
34.882935 18.647534 14.436115
33.361632 12.579779 15.813575
14.826461 30.448402 18.818147
21.544223 29.90631 18.483116
16.724315 32.314659 17.188595
33.337358 24.220405 14.969034
28.002459 27.890005 17.236971
33.183219 27.355211 13.783359
20.637693 35.759745 13.16551
23.739105 31.647126 16.590355
18.68246 34.116366 15.298976
24.472832 35.472321 12.585023
20.243856 32.164962 16.998343
31.667793 33.159199 10.781718
27.240557 30.665563 15.907931
32.639593 30.389533 12.374876
28.224652 34.623748 11.789245
30.386551 29.248998 14.980007
26.029224 33.237736 14.365606
37.263389 23.030041 -10.516828
39.739038 24.560076 -3.6766321
37.280198 26.257086 -9.1757919
37.263389 23.030041 10.516828
39.739038 24.560076 3.6766321
37.280198 26.257086 9.1757919
35.971068 32.269016 -5.8999964
39.285937 27.605476 -1.9546393
36.865478 29.396063 -7.623604
36.660116 32.913054 -2.0056954
38.594016 27.14039 -5.6585563
35.971068 32.269016 5.8999964
39.285937 27.605476 1.9546393
36.865478 29.396063 7.623604
36.660116 32.913054 2.0056954
38.594016 27.14039 5.6585563
38.282416 30.433398 0
16.528129 -23.668969 1.1742039
18.79212 -21.324678 3.4688665
15.98457 -23.957193 3.0845937
17.748038 -22.597022 0
22.671475 -16.006793 7.897691
20.835317 -18.775915 5.7051727
14.681444 -24.178174 6.9075656
18.187254 -21.489107 5.3718595
15.36648 -24.127413 5.0104511
17.121302 -22.741381 4.2426141
20.035817 -20.274531 -2.3041616
20.035817 -20.274531 2.3041616
18.923923 -21.458152 -1.1637571
18.923923 -21.458152 1.1637571
27.668115 -2.1159414 16.291618
26.850483 -6.0783922 14.272772
24.300774 -12.990579 10.056745
25.706474 -9.6932238 12.184993
11.25271 -23.109158 14.282245
15.045308 -20.884933 12.907598
12.193732 -23.560683 12.53224
21.903668 -15.91355 9.8351148
18.5722 -18.497616 11.432156
21.071383 -17.370592 8.7524494
13.90365 -24.091404 8.8696276
15.915091 -21.21676 11.122451
13.082907 -23.890925 10.713529
15.746743 -22.824228 8.0976779
14.098945 -22.401464 11.838589
19.229441 -20.135058 6.5469168
17.724681 -19.953239 10.350853
20.175493 -18.784664 7.6492752
17.526697 -21.500351 7.3207817
19.416876 -18.689984 9.5721605
16.764916 -21.407778 9.252607
24.057438 -14.868315 -6.789719
24.686497 -15.257094 -2.28398
23.138106 -16.296566 -5.6949923
24.057438 -14.868315 6.789719
24.686497 -15.257094 2.28398
23.138106 -16.296566 5.6949923
21.150226 -18.973497 -3.4690728
23.612256 -16.59188 -1.1748083
22.162741 -17.672288 -4.5831486
21.282142 -19.106876 -1.1643578
23.453701 -16.493298 -3.4387219
21.150226 -18.973497 3.4690728
23.612256 -16.59188 1.1748083
22.162741 -17.672288 4.5831486
21.282142 -19.106876 1.1643578
23.453701 -16.493298 3.4387219
22.481938 -17.872481 0
1.9444052 -14.97088 25.425101
5.6718195 -13.318092 25.054503
3.1513549 -16.330531 24.475709
1.9290426 -13.053303 26.170987
12.685768 -9.8207735 23.730581
9.2337795 -11.607442 24.488026
5.5480305 -18.783708 22.193845
6.8660546 -14.593216 24.032875
4.3637108 -17.609995 23.390486
5.0418827 -15.462877 24.278769
1.9087113 -9.1552836 27.346345
5.6549575 -11.440228 25.808522
1.9192166 -11.102053 26.813241
3.821779 -12.251968 26.014484
26.225632 -1.3010384 18.313457
22.827624 -3.7133494 20.116573
26.010816 -3.3490066 17.354775
16.076866 -7.9322644 22.770723
19.447863 -5.9093479 21.580966
25.273746 -7.2205642 15.346696
22.669632 -5.6669679 19.186389
25.686042 -5.3341259 16.359154
24.333964 -4.5397252 18.320311
10.062808 -22.410761 16.281965
11.552806 -18.768203 18.692832
9.0096253 -21.69053 17.880997
12.055399 -21.388936 15.620493
13.914486 -10.962959 22.514111
12.830607 -14.955565 20.760358
12.214988 -11.885049 22.964248
6.7714854 -19.889038 20.82572
10.45668 -17.905898 20.15724
7.9029518 -20.844582 19.407629
7.4563034 -17.851149 21.898364
9.765931 -19.809935 19.068328
15.833712 -19.192789 14.229276
13.516403 -17.773659 18.034024
13.98797 -20.309056 14.932461
12.814302 -19.597856 16.877124
8.7311312 -13.686549 23.715224
11.110821 -15.898451 21.194577
10.478684 -12.796125 23.367227
8.1116053 -15.773826 22.863484
11.687542 -13.919058 22.115646
9.3190879 -16.885374 21.561595
1.9087986 -1.1797024 28.5118
5.6842327 -3.513049 27.833434
1.908286 -3.1576689 28.367034
12.771772 -7.8933889 24.500814
9.3332178 -5.7682458 26.488402
11.046985 -8.8070873 24.896836
1.9140552 -7.1115728 27.794737
5.671868 -5.4843459 27.487166
1.9087428 -5.1468438 28.127256
3.8068254 -8.3255038 27.217291
3.8109274 -4.3340651 28.010082
7.5253365 -10.558205 25.548786
7.5551616 -6.6486026 26.772566
9.2903974 -9.7006425 25.247235
5.689841 -9.4819776 26.46303
9.3253017 -7.7430349 25.917164
5.6971728 -7.4843891 27.025388
22.819577 -14.103274 11.111702
21.0118 -12.986007 15.136702
23.524365 -12.512922 12.174936
21.158033 -15.451863 11.925256
15.917008 -9.8372519 21.908428
18.688711 -11.550259 18.764065
17.589099 -8.8625477 21.336443
15.388879 -11.876647 21.07179
24.745118 -9.1103028 14.280922
21.543203 -11.293582 16.159962
24.172538 -10.839814 13.237121
23.641972 -8.3878006 16.310915
22.598723 -11.942835 14.223095
17.708611 -17.968024 13.466936
19.245234 -14.268158 15.876979
19.445424 -16.745853 12.714632
16.64381 -17.373853 15.462574
20.26348 -14.89895 13.95658
20.934592 -6.8068852 19.993014
20.317752 -10.539946 18.048482
19.270159 -7.846973 20.696934
22.361257 -7.6139165 18.228491
19.012815 -9.7374995 19.752262
21.980545 -9.5001613 17.213463
14.204086 -15.805683 19.158813
18.042427 -13.522701 17.781941
14.814979 -13.877919 20.149273
15.465292 -16.646736 17.376908
16.776527 -12.737922 19.481042
17.384912 -15.472416 16.654403
1.992257 15.339314 26.050813
6.0570615 14.222685 26.756258
3.2925137 17.062025 25.572051
1.9699034 13.329796 26.725338
14.210907 11.00147 26.583576
10.164518 12.77744 26.95635
6.0894289 20.616696 24.359607
7.5065321 15.954497 26.274703
4.6657768 18.828999 25.009629
5.3965146 16.550493 25.986469
1.9364974 9.2885619 27.744441
5.9790759 12.095933 27.287759
1.9534479 11.30007 27.291484
3.976586 12.748252 27.06824
26.987033 1.3388111 18.845146
24.590032 4.0000388 21.669674
28.081302 3.6155907 18.736232
25.241385 0 19.82496
18.064145 8.9127803 25.585437
21.573817 6.5553316 23.940101
30.154923 8.6150886 18.31064
25.496585 6.3736512 21.578974
29.14711 6.0528731 18.563469
26.874214 5.0136323 20.232789
21.756683 -2.4726053 21.500518
22.778558 2.5887395 22.510361
23.486419 -1.2737577 20.712649
24.081048 1.3060067 21.237052
12.654732 28.183204 20.475786
14.368432 23.342351 23.248611
10.91474 26.277063 21.661992
15.835107 28.094971 20.517959
16.053286 12.648079 25.974762
15.478362 18.041832 25.044516
13.981219 13.603573 26.284773
7.6651509 22.513891 23.57419
12.545486 21.482745 24.18381
9.2407642 24.373155 22.692954
8.4264978 20.173894 24.747721
11.803307 23.942698 23.046377
22.291632 27.020738 20.032812
17.32997 22.788383 23.122209
19.091447 27.718765 20.380532
16.675089 25.502443 21.961988
9.7303394 15.252865 26.429242
13.16765 18.841563 25.118104
11.854281 14.475945 26.434776
9.1182801 17.731405 25.700911
13.634829 16.238142 25.800382
10.808114 19.583359 25.006759
1.9123122 1.181874 28.564284
5.7790891 3.5716735 28.297908
1.9177297 3.1732954 28.507416
3.8297485 0 28.425389
13.971516 8.6348718 26.802352
9.7719382 6.0393899 27.733525
12.043412 9.601478 27.142507
1.935655 7.1918258 28.108396
5.8214107 5.6289445 28.211885
1.9242154 5.1885651 28.355261
3.909167 8.5493242 27.948993
3.8633007 4.3936279 28.395022
7.6362143 -2.3439409 27.628083
7.7501368 2.3789095 28.040258
5.7542231 -1.1846562 28.110969
5.7864691 1.1912949 28.268499
8.0658948 11.31662 27.384
7.8849403 6.9388106 27.941174
10.058755 10.502929 27.335294
5.9579101 9.928708 27.7098
9.9279914 8.2434634 27.592178
5.906173 7.7589531 28.016811
33.100444 20.457199 16.117839
28.201289 17.429355 20.315942
32.620251 17.351143 16.882472
30.962387 22.612053 17.451263
18.444564 11.399368 25.387398
23.215226 14.347799 23.308831
20.366679 10.262076 24.705785
18.366887 14.174978 25.149537
31.115636 11.455709 17.957481
27.735601 14.539819 20.804997
31.939363 14.322731 17.490311
28.740365 10.196631 19.828365
30.199922 15.959871 19.007107
25.527867 25.901824 19.413276
25.89632 19.199184 21.364008
28.391773 24.450198 18.564314
22.893724 23.897907 21.268923
28.436897 20.908547 19.586064
23.893438 7.7689545 22.81878
25.184668 13.064686 22.371818
22.20013 9.0400821 23.843842
26.309027 8.9581161 21.446642
22.754801 11.653975 23.639781
27.065698 11.698004 21.195761
17.839486 19.850996 24.062327
23.250008 17.425754 22.914337
18.17027 17.020985 24.712673
20.302521 21.853496 22.812051
20.783469 15.780274 24.133936
23.201826 20.649417 22.226892
14.810545 -6.763338 23.963965
15.510105 -2.3218556 25.095876
16.518867 -5.7726773 23.453731
13.134762 -5.7316449 25.113258
16.191639 7.3940242 26.198622
15.986531 2.3931764 25.866751
17.975206 6.2816093 25.521464
14.023592 6.1195053 26.812672
19.956103 -3.6487302 22.24556
17.268163 -1.2226933 24.574689
18.243247 -4.7312216 22.878778
20.476413 -1.2478164 22.807597
16.919254 -3.5275303 24.059417
9.5742595 -3.537686 26.93967
13.689392 -1.2178896 26.091074
11.374566 -4.6465604 26.11318
9.6949265 -1.1983588 27.320632
13.44307 -3.4930475 25.648864
21.257807 3.886731 23.696602
17.573286 1.244298 25.008916
19.680519 5.1039651 24.681255
20.91673 1.2746489 23.298043
17.807859 3.7127974 25.323025
19.068818 0 23.98682
9.8501019 3.6396097 27.715824
13.879331 1.2347877 26.453086
11.898787 4.8607072 27.316662
9.7880742 1.2098725 27.583126
13.989243 3.6349653 26.690942
11.786612 0 26.92888
29.440031 0 -15.49098
32.040117 0 -11.549949
30.660455 2.2599578 -15.292515
29.062701 -2.1421886 -14.495603
34.898364 0 -2.4187166
33.913659 0 -7.1430526
33.04087 7.2396518 -14.646134
33.345469 2.3274362 -11.16373
31.8743 4.6826426 -15.011749
32.096836 2.2974015 -13.289732
28.024842 -6.1405798 -12.422663
31.41696 -2.1928307 -10.518085
28.585365 -4.1994663 -13.462768
30.32559 -2.1706207 -12.556345
29.440031 0 15.49098
32.040117 0 11.549949
30.660455 2.2599578 15.292515
29.062701 -2.1421886 14.495603
34.898364 0 2.4187166
33.913659 0 7.1430526
33.04087 7.2396518 14.646134
33.345469 2.3274362 11.16373
31.8743 4.6826426 15.011749
32.096836 2.2974015 13.289732
28.024842 -6.1405798 12.422663
31.41696 -2.1928307 10.518085
28.585365 -4.1994663 13.462768
30.32559 -2.1706207 12.556345
36.793071 19.179473 -11.853566
38.147638 13.441362 -8.3072187
36.107654 16.021341 -12.772838
38.474649 20.123051 -8.7811398
36.122393 2.4183101 -1.4945978
37.73694 7.7067583 -4.7630386
35.823773 2.4099102 -3.9877138
34.206154 10.075345 -14.13592
37.126386 10.476988 -9.2198329
35.220335 12.960267 -13.532566
34.614406 7.4424759 -12.4027
36.846006 13.257628 -11.008145
40.337942 21.164398 -1.8829106
39.236985 13.94468 -5.152555
39.697398 20.80618 -5.4062784
39.117733 17.039182 -6.9605812
34.441973 2.3718101 -8.8123374
37.001798 7.6351746 -7.3827421
35.254318 2.3923921 -6.4509836
34.677971 4.850335 -10.607653
36.54732 4.9724661 -5.6550518
35.958814 7.5804121 -9.958405
25.089471 -13.078627 -8.0830359
28.153334 -9.9198581 -6.1308095
25.902486 -11.493202 -9.162829
25.579815 -13.378782 -5.8381281
33.795775 -2.2625484 -1.3983318
31.080779 -6.3474159 -3.9229188
33.540884 -2.2563374 -3.7335946
27.3701 -8.0618004 -11.310875
29.042306 -8.1956773 -7.2122616
26.668043 -9.8132219 -10.246554
29.047498 -6.2455299 -10.408019
27.490519 -9.8914133 -8.2130917
26.081845 -13.684549 -1.2174588
28.52498 -10.137673 -3.7458671
25.914178 -13.582126 -3.52918
27.079451 -11.795461 -4.8184981
32.354654 -2.2280691 -8.2782752
30.616396 -6.3175722 -6.108702
33.054757 -2.2431277 -6.0484986
30.720511 -4.2968134 -9.3971046
32.099853 -4.3673636 -4.966885
29.919727 -6.3073231 -8.285945
36.793071 19.179473 11.853566
38.147638 13.441362 8.3072187
36.107654 16.021341 12.772838
38.474649 20.123051 8.7811398
36.122393 2.4183101 1.4945978
37.73694 7.7067583 4.7630386
35.823773 2.4099102 3.9877138
37.263178 5.0204625 0
34.206154 10.075345 14.13592
37.126386 10.476988 9.2198329
35.220335 12.960267 13.532566
34.614406 7.4424759 12.4027
36.846006 13.257628 11.008145
40.337942 21.164398 1.8829106
39.236985 13.94468 5.152555
39.697398 20.80618 5.4062784
40.337815 17.655624 0
39.117733 17.039182 6.9605812
34.441973 2.3718101 8.8123374
37.001798 7.6351746 7.3827421
35.254318 2.3923921 6.4509836
34.677971 4.850335 10.607653
36.54732 4.9724661 5.6550518
35.958814 7.5804121 9.958405
38.896286 10.750669 -3.2999248
38.896286 10.750669 3.2999248
38.217173 7.82293 -1.6105532
39.811356 14.127351 -1.7462366
38.217173 7.82293 1.6105532
39.811356 14.127351 1.7462366
25.089471 -13.078627 8.0830359
28.153334 -9.9198581 6.1308095
25.902486 -11.493202 9.162829
25.579815 -13.378782 5.8381281
33.795775 -2.2625484 1.3983318
31.080779 -6.3474159 3.9229188
33.540884 -2.2563374 3.7335946
32.619075 -4.3947631 0
27.3701 -8.0618004 11.310875
29.042306 -8.1956773 7.2122616
26.668043 -9.8132219 10.246554
29.047498 -6.2455299 10.408019
27.490519 -9.8914133 8.2130917
26.081845 -13.684549 1.2174588
28.52498 -10.137673 3.7458671
25.914178 -13.582126 3.52918
27.438951 -12.009867 0
27.079451 -11.795461 4.8184981
32.354654 -2.2280691 8.2782752
30.616396 -6.3175722 6.108702
33.054757 -2.2431277 6.0484986
30.720511 -4.2968134 9.3971046
32.099853 -4.3673636 4.966885
29.919727 -6.3073231 8.285945
29.993234 -8.2899259 -2.5445981
29.993234 -8.2899259 2.5445981
31.335556 -6.4142856 -1.3205472
28.75384 -10.203511 -1.2612233
31.335556 -6.4142856 1.3205472
28.75384 -10.203511 1.2612233
-16.528129 23.668969 -1.1742039
-18.79212 21.324678 -3.4688665
-15.98457 23.957193 -3.0845937
-22.671475 16.006793 -7.897691
-20.835317 18.775915 -5.7051727
-14.681444 24.178174 -6.9075656
-18.187254 21.489107 -5.3718595
-15.36648 24.127413 -5.0104511
-17.121302 22.741381 -4.2426141
-27.668115 2.1159414 -16.291618
-26.850483 6.0783922 -14.272772
-24.300774 12.990579 -10.056745
-25.706474 9.6932238 -12.184993
-11.25271 23.109158 -14.282245
-15.045308 20.884933 -12.907598
-12.193732 23.560683 -12.53224
-21.903668 15.91355 -9.8351148
-18.5722 18.497616 -11.432156
-21.071383 17.370592 -8.7524494
-13.90365 24.091404 -8.8696276
-15.915091 21.21676 -11.122451
-13.082907 23.890925 -10.713529
-15.746743 22.824228 -8.0976779
-14.098945 22.401464 -11.838589
-19.229441 20.135058 -6.5469168
-17.724681 19.953239 -10.350853
-20.175493 18.784664 -7.6492752
-17.526697 21.500351 -7.3207817
-19.416876 18.689984 -9.5721605
-16.764916 21.407778 -9.252607
-27.464231 -39.329922 -1.9511347
-31.91858 -36.220153 -5.8919002
-26.080631 -39.088867 -5.032863
-35.479605 -25.049747 -12.35945
-34.621212 -31.199186 -9.4800569
-22.620437 -37.252523 -10.642832
-30.195602 -35.677541 -8.9186926
-24.433971 -38.364577 -7.9670306
-28.332673 -37.632891 -7.0207625
-29.091342 -2.2247839 -17.129647
-31.342473 -7.0952855 -16.660556
-34.882935 -18.647534 -14.436115
-33.361632 -12.579779 -15.813575
-14.826461 -30.448402 -18.818147
-21.544223 -29.90631 -18.483116
-16.724315 -32.314659 -17.188595
-33.337358 -24.220405 -14.969034
-28.002459 -27.890005 -17.236971
-33.183219 -27.355211 -13.783359
-20.637693 -35.759745 -13.16551
-23.739105 -31.647126 -16.590355
-18.68246 -34.116366 -15.298976
-24.472832 -35.472321 -12.585023
-20.243856 -32.164962 -16.998343
-31.667793 -33.159199 -10.781718
-27.240557 -30.665563 -15.907931
-32.639593 -30.389533 -12.374876
-28.224652 -34.623748 -11.789245
-30.386551 -29.248998 -14.980007
-26.029224 -33.237736 -14.365606
-1.992257 -15.339314 -26.050813
-6.0570615 -14.222685 -26.756258
-3.2925137 -17.062025 -25.572051
-1.9699034 -13.329796 -26.725338
-14.210907 -11.00147 -26.583576
-10.164518 -12.77744 -26.95635
-6.0894289 -20.616696 -24.359607
-7.5065321 -15.954497 -26.274703
-4.6657768 -18.828999 -25.009629
-5.3965146 -16.550493 -25.986469
-1.9364974 -9.2885619 -27.744441
-5.9790759 -12.095933 -27.287759
-1.9534479 -11.30007 -27.291484
-3.976586 -12.748252 -27.06824
-26.987033 -1.3388111 -18.845146
-24.590032 -4.0000388 -21.669674
-28.081302 -3.6155907 -18.736232
-18.064145 -8.9127803 -25.585437
-21.573817 -6.5553316 -23.940101
-30.154923 -8.6150886 -18.31064
-25.496585 -6.3736512 -21.578974
-29.14711 -6.0528731 -18.563469
-26.874214 -5.0136323 -20.232789
-12.654732 -28.183204 -20.475786
-14.368432 -23.342351 -23.248611
-10.91474 -26.277063 -21.661992
-15.835107 -28.094971 -20.517959
-16.053286 -12.648079 -25.974762
-15.478362 -18.041832 -25.044516
-13.981219 -13.603573 -26.284773
-7.6651509 -22.513891 -23.57419
-12.545486 -21.482745 -24.18381
-9.2407642 -24.373155 -22.692954
-8.4264978 -20.173894 -24.747721
-11.803307 -23.942698 -23.046377
-22.291632 -27.020738 -20.032812
-17.32997 -22.788383 -23.122209
-19.091447 -27.718765 -20.380532
-16.675089 -25.502443 -21.961988
-9.7303394 -15.252865 -26.429242
-13.16765 -18.841563 -25.118104
-11.854281 -14.475945 -26.434776
-9.1182801 -17.731405 -25.700911
-13.634829 -16.238142 -25.800382
-10.808114 -19.583359 -25.006759
-1.9123122 -1.181874 -28.564284
-5.7790891 -3.5716735 -28.297908
-1.9177297 -3.1732954 -28.507416
-13.971516 -8.6348718 -26.802352
-9.7719382 -6.0393899 -27.733525
-12.043412 -9.601478 -27.142507
-1.935655 -7.1918258 -28.108396
-5.8214107 -5.6289445 -28.211885
-1.9242154 -5.1885651 -28.355261
-3.909167 -8.5493242 -27.948993
-3.8633007 -4.3936279 -28.395022
-8.0658948 -11.31662 -27.384
-7.8849403 -6.9388106 -27.941174
-10.058755 -10.502929 -27.335294
-5.9579101 -9.928708 -27.7098
-9.9279914 -8.2434634 -27.592178
-5.906173 -7.7589531 -28.016811
-33.100444 -20.457199 -16.117839
-28.201289 -17.429355 -20.315942
-32.620251 -17.351143 -16.882472
-30.962387 -22.612053 -17.451263
-18.444564 -11.399368 -25.387398
-23.215226 -14.347799 -23.308831
-20.366679 -10.262076 -24.705785
-18.366887 -14.174978 -25.149537
-31.115636 -11.455709 -17.957481
-27.735601 -14.539819 -20.804997
-31.939363 -14.322731 -17.490311
-28.740365 -10.196631 -19.828365
-30.199922 -15.959871 -19.007107
-25.527867 -25.901824 -19.413276
-25.89632 -19.199184 -21.364008
-28.391773 -24.450198 -18.564314
-22.893724 -23.897907 -21.268923
-28.436897 -20.908547 -19.586064
-23.893438 -7.7689545 -22.81878
-25.184668 -13.064686 -22.371818
-22.20013 -9.0400821 -23.843842
-26.309027 -8.9581161 -21.446642
-22.754801 -11.653975 -23.639781
-27.065698 -11.698004 -21.195761
-17.839486 -19.850996 -24.062327
-23.250008 -17.425754 -22.914337
-18.17027 -17.020985 -24.712673
-20.302521 -21.853496 -22.812051
-20.783469 -15.780274 -24.133936
-23.201826 -20.649417 -22.226892
-1.9444052 14.97088 -25.425101
-5.6718195 13.318092 -25.054503
-3.1513549 16.330531 -24.475709
-1.9290426 13.053303 -26.170987
-12.685768 9.8207735 -23.730581
-9.2337795 11.607442 -24.488026
-5.5480305 18.783708 -22.193845
-6.8660546 14.593216 -24.032875
-4.3637108 17.609995 -23.390486
-5.0418827 15.462877 -24.278769
-1.9087113 9.1552836 -27.346345
-5.6549575 11.440228 -25.808522
-1.9192166 11.102053 -26.813241
-3.821779 12.251968 -26.014484
-26.225632 1.3010384 -18.313457
-22.827624 3.7133494 -20.116573
-26.010816 3.3490066 -17.354775
-25.241385 0 -19.82496
-16.076866 7.9322644 -22.770723
-19.447863 5.9093479 -21.580966
-25.273746 7.2205642 -15.346696
-22.669632 5.6669679 -19.186389
-25.686042 5.3341259 -16.359154
-24.333964 4.5397252 -18.320311
-22.778558 -2.5887395 -22.510361
-21.756683 2.4726053 -21.500518
-24.081048 -1.3060067 -21.237052
-23.486419 1.2737577 -20.712649
-10.062808 22.410761 -16.281965
-11.552806 18.768203 -18.692832
-9.0096253 21.69053 -17.880997
-12.055399 21.388936 -15.620493
-13.914486 10.962959 -22.514111
-12.830607 14.955565 -20.760358
-12.214988 11.885049 -22.964248
-6.7714854 19.889038 -20.82572
-10.45668 17.905898 -20.15724
-7.9029518 20.844582 -19.407629
-7.4563034 17.851149 -21.898364
-9.765931 19.809935 -19.068328
-15.833712 19.192789 -14.229276
-13.516403 17.773659 -18.034024
-13.98797 20.309056 -14.932461
-12.814302 19.597856 -16.877124
-8.7311312 13.686549 -23.715224
-11.110821 15.898451 -21.194577
-10.478684 12.796125 -23.367227
-8.1116053 15.773826 -22.863484
-11.687542 13.919058 -22.115646
-9.3190879 16.885374 -21.561595
-1.9087986 1.1797024 -28.5118
-5.6842327 3.513049 -27.833434
-1.908286 3.1576689 -28.367034
-3.8297485 0 -28.425389
-12.771772 7.8933889 -24.500814
-9.3332178 5.7682458 -26.488402
-11.046985 8.8070873 -24.896836
-1.9140552 7.1115728 -27.794737
-5.671868 5.4843459 -27.487166
-1.9087428 5.1468438 -28.127256
-3.8068254 8.3255038 -27.217291
-3.8109274 4.3340651 -28.010082
-7.7501368 -2.3789095 -28.040258
-7.6362143 2.3439409 -27.628083
-5.7864691 -1.1912949 -28.268499
-5.7542231 1.1846562 -28.110969
-7.5253365 10.558205 -25.548786
-7.5551616 6.6486026 -26.772566
-9.2903974 9.7006425 -25.247235
-5.689841 9.4819776 -26.46303
-9.3253017 7.7430349 -25.917164
-5.6971728 7.4843891 -27.025388
-22.819577 14.103274 -11.111702
-21.0118 12.986007 -15.136702
-23.524365 12.512922 -12.174936
-21.158033 15.451863 -11.925256
-15.917008 9.8372519 -21.908428
-18.688711 11.550259 -18.764065
-17.589099 8.8625477 -21.336443
-15.388879 11.876647 -21.07179
-24.745118 9.1103028 -14.280922
-21.543203 11.293582 -16.159962
-24.172538 10.839814 -13.237121
-23.641972 8.3878006 -16.310915
-22.598723 11.942835 -14.223095
-17.708611 17.968024 -13.466936
-19.245234 14.268158 -15.876979
-19.445424 16.745853 -12.714632
-16.64381 17.373853 -15.462574
-20.26348 14.89895 -13.95658
-20.934592 6.8068852 -19.993014
-20.317752 10.539946 -18.048482
-19.270159 7.846973 -20.696934
-22.361257 7.6139165 -18.228491
-19.012815 9.7374995 -19.752262
-21.980545 9.5001613 -17.213463
-14.204086 15.805683 -19.158813
-18.042427 13.522701 -17.781941
-14.814979 13.877919 -20.149273
-15.465292 16.646736 -17.376908
-16.776527 12.737922 -19.481042
-17.384912 15.472416 -16.654403
-16.191639 -7.3940242 -26.198622
-15.986531 -2.3931764 -25.866751
-17.975206 -6.2816093 -25.521464
-14.023592 -6.1195053 -26.812672
-14.810545 6.763338 -23.963965
-15.510105 2.3218556 -25.095876
-16.518867 5.7726773 -23.453731
-13.134762 5.7316449 -25.113258
-21.257807 -3.886731 -23.696602
-17.573286 -1.244298 -25.008916
-19.680519 -5.1039651 -24.681255
-20.91673 -1.2746489 -23.298043
-17.807859 -3.7127974 -25.323025
-9.8501019 -3.6396097 -27.715824
-13.879331 -1.2347877 -26.453086
-11.898787 -4.8607072 -27.316662
-9.7880742 -1.2098725 -27.583126
-13.989243 -3.6349653 -26.690942
-19.956103 3.6487302 -22.24556
-17.268163 1.2226933 -24.574689
-18.243247 4.7312216 -22.878778
-20.476413 1.2478164 -22.807597
-16.919254 3.5275303 -24.059417
-19.068818 0 -23.98682
-9.5742595 3.537686 -26.93967
-13.689392 1.2178896 -26.091074
-11.374566 4.6465604 -26.11318
-9.6949265 1.1983588 -27.320632
-13.44307 3.4930475 -25.648864
-11.786612 0 -26.92888
-16.528129 23.668969 1.1742039
-18.79212 21.324678 3.4688665
-15.98457 23.957193 3.0845937
-17.748038 22.597022 0
-22.671475 16.006793 7.897691
-20.835317 18.775915 5.7051727
-14.681444 24.178174 6.9075656
-18.187254 21.489107 5.3718595
-15.36648 24.127413 5.0104511
-17.121302 22.741381 4.2426141
-20.035817 20.274531 -2.3041616
-20.035817 20.274531 2.3041616
-18.923923 21.458152 -1.1637571
-18.923923 21.458152 1.1637571
-27.668115 2.1159414 16.291618
-26.850483 6.0783922 14.272772
-24.300774 12.990579 10.056745
-25.706474 9.6932238 12.184993
-11.25271 23.109158 14.282245
-15.045308 20.884933 12.907598
-12.193732 23.560683 12.53224
-21.903668 15.91355 9.8351148
-18.5722 18.497616 11.432156
-21.071383 17.370592 8.7524494
-13.90365 24.091404 8.8696276
-15.915091 21.21676 11.122451
-13.082907 23.890925 10.713529
-15.746743 22.824228 8.0976779
-14.098945 22.401464 11.838589
-19.229441 20.135058 6.5469168
-17.724681 19.953239 10.350853
-20.175493 18.784664 7.6492752
-17.526697 21.500351 7.3207817
-19.416876 18.689984 9.5721605
-16.764916 21.407778 9.252607
-24.057438 14.868315 -6.789719
-24.686497 15.257094 -2.28398
-23.138106 16.296566 -5.6949923
-24.057438 14.868315 6.789719
-24.686497 15.257094 2.28398
-23.138106 16.296566 5.6949923
-21.150226 18.973497 -3.4690728
-23.612256 16.59188 -1.1748083
-22.162741 17.672288 -4.5831486
-21.282142 19.106876 -1.1643578
-23.453701 16.493298 -3.4387219
-21.150226 18.973497 3.4690728
-23.612256 16.59188 1.1748083
-22.162741 17.672288 4.5831486
-21.282142 19.106876 1.1643578
-23.453701 16.493298 3.4387219
-22.481938 17.872481 0
-27.464231 -39.329922 1.9511347
-31.91858 -36.220153 5.8919002
-26.080631 -39.088867 5.032863
-30.167693 -38.40988 0
-35.479605 -25.049747 12.35945
-34.621212 -31.199186 9.4800569
-22.620437 -37.252523 10.642832
-30.195602 -35.677541 8.9186926
-24.433971 -38.364577 7.9670306
-28.332673 -37.632891 7.0207625
-34.478344 -34.889133 -3.965083
-34.478344 -34.889133 3.965083
-32.553615 -36.913088 -2.0019369
-32.553615 -36.913088 2.0019369
-29.091342 -2.2247839 17.129647
-31.342473 -7.0952855 16.660556
-34.882935 -18.647534 14.436115
-33.361632 -12.579779 15.813575
-14.826461 -30.448402 18.818147
-21.544223 -29.90631 18.483116
-16.724315 -32.314659 17.188595
-33.337358 -24.220405 14.969034
-28.002459 -27.890005 17.236971
-33.183219 -27.355211 13.783359
-20.637693 -35.759745 13.16551
-23.739105 -31.647126 16.590355
-18.68246 -34.116366 15.298976
-24.472832 -35.472321 12.585023
-20.243856 -32.164962 16.998343
-31.667793 -33.159199 10.781718
-27.240557 -30.665563 15.907931
-32.639593 -30.389533 12.374876
-28.224652 -34.623748 11.789245
-30.386551 -29.248998 14.980007
-26.029224 -33.237736 14.365606
-37.263389 -23.030041 -10.516828
-39.739038 -24.560076 -3.6766321
-37.280198 -26.257086 -9.1757919
-37.263389 -23.030041 10.516828
-39.739038 -24.560076 3.6766321
-37.280198 -26.257086 9.1757919
-35.971068 -32.269016 -5.8999964
-39.285937 -27.605476 -1.9546393
-36.865478 -29.396063 -7.623604
-36.660116 -32.913054 -2.0056954
-38.594016 -27.14039 -5.6585563
-35.971068 -32.269016 5.8999964
-39.285937 -27.605476 1.9546393
-36.865478 -29.396063 7.623604
-36.660116 -32.913054 2.0056954
-38.594016 -27.14039 5.6585563
-38.282416 -30.433398 0
-1.992257 -15.339314 26.050813
-6.0570615 -14.222685 26.756258
-3.2925137 -17.062025 25.572051
-1.9699034 -13.329796 26.725338
-14.210907 -11.00147 26.583576
-10.164518 -12.77744 26.95635
-6.0894289 -20.616696 24.359607
-7.5065321 -15.954497 26.274703
-4.6657768 -18.828999 25.009629
-5.3965146 -16.550493 25.986469
-1.9364974 -9.2885619 27.744441
-5.9790759 -12.095933 27.287759
-1.9534479 -11.30007 27.291484
-3.976586 -12.748252 27.06824
-26.987033 -1.3388111 18.845146
-24.590032 -4.0000388 21.669674
-28.081302 -3.6155907 18.736232
-18.064145 -8.9127803 25.585437
-21.573817 -6.5553316 23.940101
-30.154923 -8.6150886 18.31064
-25.496585 -6.3736512 21.578974
-29.14711 -6.0528731 18.563469
-26.874214 -5.0136323 20.232789
-12.654732 -28.183204 20.475786
-14.368432 -23.342351 23.248611
-10.91474 -26.277063 21.661992
-15.835107 -28.094971 20.517959
-16.053286 -12.648079 25.974762
-15.478362 -18.041832 25.044516
-13.981219 -13.603573 26.284773
-7.6651509 -22.513891 23.57419
-12.545486 -21.482745 24.18381
-9.2407642 -24.373155 22.692954
-8.4264978 -20.173894 24.747721
-11.803307 -23.942698 23.046377
-22.291632 -27.020738 20.032812
-17.32997 -22.788383 23.122209
-19.091447 -27.718765 20.380532
-16.675089 -25.502443 21.961988
-9.7303394 -15.252865 26.429242
-13.16765 -18.841563 25.118104
-11.854281 -14.475945 26.434776
-9.1182801 -17.731405 25.700911
-13.634829 -16.238142 25.800382
-10.808114 -19.583359 25.006759
-1.9123122 -1.181874 28.564284
-5.7790891 -3.5716735 28.297908
-1.9177297 -3.1732954 28.507416
-13.971516 -8.6348718 26.802352
-9.7719382 -6.0393899 27.733525
-12.043412 -9.601478 27.142507
-1.935655 -7.1918258 28.108396
-5.8214107 -5.6289445 28.211885
-1.9242154 -5.1885651 28.355261
-3.909167 -8.5493242 27.948993
-3.8633007 -4.3936279 28.395022
-8.0658948 -11.31662 27.384
-7.8849403 -6.9388106 27.941174
-10.058755 -10.502929 27.335294
-5.9579101 -9.928708 27.7098
-9.9279914 -8.2434634 27.592178
-5.906173 -7.7589531 28.016811
-33.100444 -20.457199 16.117839
-28.201289 -17.429355 20.315942
-32.620251 -17.351143 16.882472
-30.962387 -22.612053 17.451263
-18.444564 -11.399368 25.387398
-23.215226 -14.347799 23.308831
-20.366679 -10.262076 24.705785
-18.366887 -14.174978 25.149537
-31.115636 -11.455709 17.957481
-27.735601 -14.539819 20.804997
-31.939363 -14.322731 17.490311
-28.740365 -10.196631 19.828365
-30.199922 -15.959871 19.007107
-25.527867 -25.901824 19.413276
-25.89632 -19.199184 21.364008
-28.391773 -24.450198 18.564314
-22.893724 -23.897907 21.268923
-28.436897 -20.908547 19.586064
-23.893438 -7.7689545 22.81878
-25.184668 -13.064686 22.371818
-22.20013 -9.0400821 23.843842
-26.309027 -8.9581161 21.446642
-22.754801 -11.653975 23.639781
-27.065698 -11.698004 21.195761
-17.839486 -19.850996 24.062327
-23.250008 -17.425754 22.914337
-18.17027 -17.020985 24.712673
-20.302521 -21.853496 22.812051
-20.783469 -15.780274 24.133936
-23.201826 -20.649417 22.226892
-1.9444052 14.97088 25.425101
-5.6718195 13.318092 25.054503
-3.1513549 16.330531 24.475709
-1.9290426 13.053303 26.170987
-12.685768 9.8207735 23.730581
-9.2337795 11.607442 24.488026
-5.5480305 18.783708 22.193845
-6.8660546 14.593216 24.032875
-4.3637108 17.609995 23.390486
-5.0418827 15.462877 24.278769
-1.9087113 9.1552836 27.346345
-5.6549575 11.440228 25.808522
-1.9192166 11.102053 26.813241
-3.821779 12.251968 26.014484
-26.225632 1.3010384 18.313457
-22.827624 3.7133494 20.116573
-26.010816 3.3490066 17.354775
-25.241385 0 19.82496
-16.076866 7.9322644 22.770723
-19.447863 5.9093479 21.580966
-25.273746 7.2205642 15.346696
-22.669632 5.6669679 19.186389
-25.686042 5.3341259 16.359154
-24.333964 4.5397252 18.320311
-22.778558 -2.5887395 22.510361
-21.756683 2.4726053 21.500518
-24.081048 -1.3060067 21.237052
-23.486419 1.2737577 20.712649
-10.062808 22.410761 16.281965
-11.552806 18.768203 18.692832
-9.0096253 21.69053 17.880997
-12.055399 21.388936 15.620493
-13.914486 10.962959 22.514111
-12.830607 14.955565 20.760358
-12.214988 11.885049 22.964248
-6.7714854 19.889038 20.82572
-10.45668 17.905898 20.15724
-7.9029518 20.844582 19.407629
-7.4563034 17.851149 21.898364
-9.765931 19.809935 19.068328
-15.833712 19.192789 14.229276
-13.516403 17.773659 18.034024
-13.98797 20.309056 14.932461
-12.814302 19.597856 16.877124
-8.7311312 13.686549 23.715224
-11.110821 15.898451 21.194577
-10.478684 12.796125 23.367227
-8.1116053 15.773826 22.863484
-11.687542 13.919058 22.115646
-9.3190879 16.885374 21.561595
-1.9087986 1.1797024 28.5118
-5.6842327 3.513049 27.833434
-1.908286 3.1576689 28.367034
-3.8297485 0 28.425389
-12.771772 7.8933889 24.500814
-9.3332178 5.7682458 26.488402
-11.046985 8.8070873 24.896836
-1.9140552 7.1115728 27.794737
-5.671868 5.4843459 27.487166
-1.9087428 5.1468438 28.127256
-3.8068254 8.3255038 27.217291
-3.8109274 4.3340651 28.010082
-7.7501368 -2.3789095 28.040258
-7.6362143 2.3439409 27.628083
-5.7864691 -1.1912949 28.268499
-5.7542231 1.1846562 28.110969
-7.5253365 10.558205 25.548786
-7.5551616 6.6486026 26.772566
-9.2903974 9.7006425 25.247235
-5.689841 9.4819776 26.46303
-9.3253017 7.7430349 25.917164
-5.6971728 7.4843891 27.025388
-22.819577 14.103274 11.111702
-21.0118 12.986007 15.136702
-23.524365 12.512922 12.174936
-21.158033 15.451863 11.925256
-15.917008 9.8372519 21.908428
-18.688711 11.550259 18.764065
-17.589099 8.8625477 21.336443
-15.388879 11.876647 21.07179
-24.745118 9.1103028 14.280922
-21.543203 11.293582 16.159962
-24.172538 10.839814 13.237121
-23.641972 8.3878006 16.310915
-22.598723 11.942835 14.223095
-17.708611 17.968024 13.466936
