-17.03787707 5.132917878 27.5678642
-21.37297094 -2.796084747 26.88523243
-12.30246875 -2.534447944 28.10745841
-21.41516447 2.801604649 26.93830801
-12.32484109 2.539056899 28.15857251
-47.54320961 0 -20.95726546
-72.89484458 0 -10.15308206
-50.53851463 7.198565177 -19.58699665
-50.77892972 -7.232809232 -19.6801733
-47.54320961 0 20.95726546
-72.89484458 0 10.15308206
-50.53851463 7.198565177 19.58699665
-50.77892972 -7.232809232 19.6801733
-54.65097761 23.68727679 -14.63954216
-74.73231447 10.06867368 -6.222782558
-53.08211751 15.29949328 -17.45327245
-63.65689605 27.86224791 -5.739938737
-63.21316813 8.686152178 -14.3981801
-51.52282803 -22.33144844 -13.80159416
-74.15570674 -9.990987408 -6.174769799
-52.47448242 -15.1243588 -17.25348349
-58.64624556 -25.66911574 -5.288128663
-63.29730665 -8.697713692 -14.41734449
-54.65097761 23.68727679 14.63954216
-74.73231447 10.06867368 6.222782558
-53.08211751 15.29949328 17.45327245
-63.65689605 27.86224791 5.739938737
-63.21316813 8.686152178 14.3981801
-71.52014344 19.76768147 0
-51.52282803 -22.33144844 13.80159416
-74.15570674 -9.990987408 6.174769799
-52.47448242 -15.1243588 17.25348349
-58.64624556 -25.66911574 5.288128663
-63.29730665 -8.697713692 14.41734449
-68.92344746 -19.04997235 0
-30.1511298 57.30109969 0
-20.58563822 57.105555 0
-3.73901967 53.94830861 0
-11.74146228 55.74590787 0
23.7932296 45.21814705 0
17.17174705 47.63525597 0
3.601769012 51.96799251 0
10.50337229 49.86772599 0
-23.7932296 -45.21814705 0
-17.17174705 -47.63525597 0
-3.601769012 -51.96799251 0
-10.50337229 -49.86772599 0
30.1511298 -57.30109969 0
20.58563822 -57.105555 0
3.73901967 -53.94830861 0
11.74146228 -55.74590787 0
-25.8852493 -43.96101512 3.36195418
-22.52250312 -42.37019204 9.591732146
-22.57349914 -45.25833486 3.335955932
-14.99626212 -36.23645499 19.37109189
-18.78679005 -39.63417476 14.94498699
-15.96110856 -47.67498279 3.327602913
-19.3621722 -43.67999282 9.57081153
-19.25290671 -46.49886193 3.32825809
-21.04389529 -44.68229811 6.564261246
-1.365228481 -19.21699763 27.51954076
-4.326258925 -23.43692827 26.59545362
-11.22877107 -32.23382644 22.75812245
-7.6260757 -27.8504638 25.09767165
-2.152799069 -52.03022058 3.483302065
-6.101909082 -48.34463837 9.873096291
-5.677675334 -51.00560441 3.431211107
-12.0406709 -37.37383744 19.48221476
-9.408279723 -43.20382793 15.22291637
-13.86652203 -39.19939897 17.39318007
-12.49874322 -48.84985147 3.363993485
-9.434197133 -47.28355028 9.75677339
-9.138296821 -49.94035626 3.389000878
-14.4194287 -47.1392244 6.593264363
-7.642118568 -49.38928189 6.719686523
-17.50219703 -42.35188474 12.47465101
-11.11172453 -44.74464731 12.62684486
-15.70245714 -40.86777024 15.03839224
-16.09154288 -44.909512 9.656036381
-12.56600312 -42.06040336 15.13382965
-12.77079242 -46.11406687 9.721222409
33.15505471 -56.30735268 4.306150328
28.08710458 -52.83853258 11.96154719
28.37453651 -56.88902137 4.193244602
16.77816614 -40.54218693 21.67282723
22.29229564 -47.02968091 17.73363451
18.9178715 -56.50667651 3.944034593
23.6553605 -53.36518889 11.69295442
23.55713911 -56.89427449 4.072332559
26.13906315 -55.50081845 8.153606396
1.368883254 -19.26844233 27.59321171
4.378562944 -23.72027828 26.91698988
0 -21.39072135 27.23493123
11.95498878 -34.31854038 24.22999782
7.859676058 -28.70357339 25.86645829
-2.973114701 -25.85269291 26.16071183
3.003159624 -26.11394828 26.4250799
-1.451493276 -23.60281868 26.76363006
1.457441974 -23.69955082 26.87331625
2.201445529 -53.20593924 3.56201369
6.516806079 -51.63181375 10.54441373
6.027577476 -54.14896312 3.642668797
0 -51.61501428 6.954083244
13.26090394 -41.16139974 21.45659329
10.36075952 -47.57771716 16.76406105
15.69451222 -44.3669613 19.6860811
14.28551245 -55.83322653 3.844896241
10.45097359 -52.37956427 10.8083157
10.07168439 -55.0412748 3.735154144
16.84429166 -55.06645658 7.702029687
8.295754358 -53.613582 7.29442605
-3.986308173 -46.98670154 12.9868049
4.158719676 -49.0189197 13.54849619
-2.085065257 -49.47697351 10.12777425
2.131750022 -50.5847666 10.35453587
20.90152573 -50.57759359 14.89751479
12.50981762 -50.37448289 14.21557255
18.27591524 -47.56554329 17.50301749
19.10629725 -53.32331971 11.46509708
14.25584509 -47.71657216 17.16898596
14.66440161 -52.95170215 11.16265184
-9.87425851 -34.98662695 21.62292461
-3.345992061 -36.16530017 22.35138472
-8.079757723 -32.82713609 23.12071738
-8.699081119 -38.11510827 19.93500368
10.56196049 -37.42330335 23.12887344
3.426076561 -37.03089696 22.88635296
8.46889388 -34.40815201 24.23425413
9.345233658 -40.94623188 21.4157409
-4.634665879 -28.25660755 25.34850843
-1.680492486 -33.77590996 23.73368494
-6.317988477 -30.55191029 24.36170458
-1.558983239 -28.49510788 25.58259856
-4.889040785 -33.34555838 23.44952826
-5.791968145 -44.10614985 15.67516343
-1.842214556 -39.46610361 20.70696432
-7.328758844 -41.18685185 17.94046348
-1.977883523 -45.09252804 16.00141383
-5.286801466 -38.82009863 20.3463707
4.723444685 -28.79787373 25.83406885
1.697528326 -34.11831018 23.97428301
6.51648899 -31.51179964 25.12710814
1.569055092 -28.6792013 25.74787563
5.033653606 -34.33188585 24.14314129
0 -31.26991991 24.85866884
6.146123824 -46.80306445 16.63363696
1.87065686 -40.07542835 21.02666312
7.854021302 -44.13877147 19.22628174
2.018003803 -46.00720519 16.32599372
5.524933258 -40.56866053 21.26282609
0 -42.77180021 18.72096465
-33.15505471 56.30735268 4.306150328
-28.08710458 52.83853258 11.96154719
-28.37453651 56.88902137 4.193244602
-16.77816614 40.54218693 21.67282723
-22.29229564 47.02968091 17.73363451
-18.9178715 56.50667651 3.944034593
-23.6553605 53.36518889 11.69295442
-23.55713911 56.89427449 4.072332559
-26.13906315 55.50081845 8.153606396
-1.368883254 19.26844233 27.59321171
-4.378562944 23.72027828 26.91698988
-11.95498878 34.31854038 24.22999782
-7.859676058 28.70357339 25.86645829
-2.201445529 53.20593924 3.56201369
-6.516806079 51.63181375 10.54441373
-6.027577476 54.14896312 3.642668797
-13.26090394 41.16139974 21.45659329
-10.36075952 47.57771716 16.76406105
-15.69451222 44.3669613 19.6860811
-14.28551245 55.83322653 3.844896241
-10.45097359 52.37956427 10.8083157
-10.07168439 55.0412748 3.735154144
-16.84429166 55.06645658 7.702029687
-8.295754358 53.613582 7.29442605
-20.90152573 50.57759359 14.89751479
-12.50981762 50.37448289 14.21557255
-18.27591524 47.56554329 17.50301749
-19.10629725 53.32331971 11.46509708
-14.25584509 47.71657216 17.16898596
-14.66440161 52.95170215 11.16265184
25.8852493 43.96101512 3.36195418
22.52250312 42.37019204 9.591732146
22.57349914 45.25833486 3.335955932
14.99626212 36.23645499 19.37109189
18.78679005 39.63417476 14.94498699
15.96110856 47.67498279 3.327602913
19.3621722 43.67999282 9.57081153
19.25290671 46.49886193 3.32825809
21.04389529 44.68229811 6.564261246
1.365228481 19.21699763 27.51954076
4.326258925 23.43692827 26.59545362
0 21.39072135 27.23493123
11.22877107 32.23382644 22.75812245
7.6260757 27.8504638 25.09767165
-3.003159624 26.11394828 26.4250799
2.973114701 25.85269291 26.16071183
-1.457441974 23.69955082 26.87331625
1.451493276 23.60281868 26.76363006
2.152799069 52.03022058 3.483302065
6.101909082 48.34463837 9.873096291
5.677675334 51.00560441 3.431211107
0 51.61501428 6.954083244
12.0406709 37.37383744 19.48221476
9.408279723 43.20382793 15.22291637
13.86652203 39.19939897 17.39318007
12.49874322 48.84985147 3.363993485
9.434197133 47.28355028 9.75677339
9.138296821 49.94035626 3.389000878
14.4194287 47.1392244 6.593264363
7.642118568 49.38928189 6.719686523
-4.158719676 49.0189197 13.54849619
3.986308173 46.98670154 12.9868049
-2.131750022 50.5847666 10.35453587
2.085065257 49.47697351 10.12777425
17.50219703 42.35188474 12.47465101
11.11172453 44.74464731 12.62684486
15.70245714 40.86777024 15.03839224
16.09154288 44.909512 9.656036381
12.56600312 42.06040336 15.13382965
12.77079242 46.11406687 9.721222409
-10.56196049 37.42330335 23.12887344
-3.426076561 37.03089696 22.88635296
-8.46889388 34.40815201 24.23425413
-9.345233658 40.94623188 21.4157409
9.87425851 34.98662695 21.62292461
3.345992061 36.16530017 22.35138472
8.079757723 32.82713609 23.12071738
8.699081119 38.11510827 19.93500368
-4.723444685 28.79787373 25.83406885
-1.697528326 34.11831018 23.97428301
-6.51648899 31.51179964 25.12710814
-1.569055092 28.6792013 25.74787563
-5.033653606 34.33188585 24.14314129
-6.146123824 46.80306445 16.63363696
-1.87065686 40.07542835 21.02666312
-7.854021302 44.13877147 19.22628174
-2.018003803 46.00720519 16.32599372
-5.524933258 40.56866053 21.26282609
4.634665879 28.25660755 25.34850843
1.680492486 33.77590996 23.73368494
6.317988477 30.55191029 24.36170458
1.558983239 28.49510788 25.58259856
4.889040785 33.34555838 23.44952826
0 31.26991991 24.85866884
5.791968145 44.10614985 15.67516343
1.842214556 39.46610361 20.70696432
7.328758844 41.18685185 17.94046348
1.977883523 45.09252804 16.00141383
5.286801466 38.82009863 20.3463707
0 42.77180021 18.72096465
0 -14.78585632 28.09996948
0 -10.26362901 28.47180275
0 -1.995127457 28.78662357
0 -6.04225569 28.68731516
0 14.78585632 28.09996948
0 10.26362901 28.47180275
0 1.995127457 28.78662357
0 6.04225569 28.68731516
-25.8852493 -43.96101512 -3.36195418
-22.52250312 -42.37019204 -9.591732146
-22.57349914 -45.25833486 -3.335955932
-14.99626212 -36.23645499 -19.37109189
-18.78679005 -39.63417476 -14.94498699
-15.96110856 -47.67498279 -3.327602913
-19.3621722 -43.67999282 -9.57081153
-19.25290671 -46.49886193 -3.32825809
-21.04389529 -44.68229811 -6.564261246
-1.365228481 -19.21699763 -27.51954076
-4.326258925 -23.43692827 -26.59545362
-11.22877107 -32.23382644 -22.75812245
-7.6260757 -27.8504638 -25.09767165
-2.152799069 -52.03022058 -3.483302065
-6.101909082 -48.34463837 -9.873096291
-5.677675334 -51.00560441 -3.431211107
-12.0406709 -37.37383744 -19.48221476
-9.408279723 -43.20382793 -15.22291637
-13.86652203 -39.19939897 -17.39318007
-12.49874322 -48.84985147 -3.363993485
-9.434197133 -47.28355028 -9.75677339
-9.138296821 -49.94035626 -3.389000878
-14.4194287 -47.1392244 -6.593264363
-7.642118568 -49.38928189 -6.719686523
-17.50219703 -42.35188474 -12.47465101
-11.11172453 -44.74464731 -12.62684486
-15.70245714 -40.86777024 -15.03839224
-16.09154288 -44.909512 -9.656036381
-12.56600312 -42.06040336 -15.13382965
-12.77079242 -46.11406687 -9.721222409
33.15505471 -56.30735268 -4.306150328
28.08710458 -52.83853258 -11.96154719
28.37453651 -56.88902137 -4.193244602
16.77816614 -40.54218693 -21.67282723
22.29229564 -47.02968091 -17.73363451
18.9178715 -56.50667651 -3.944034593
23.6553605 -53.36518889 -11.69295442
23.55713911 -56.89427449 -4.072332559
26.13906315 -55.50081845 -8.153606396
1.368883254 -19.26844233 -27.59321171
4.378562944 -23.72027828 -26.91698988
0 -21.39072135 -27.23493123
11.95498878 -34.31854038 -24.22999782
7.859676058 -28.70357339 -25.86645829
-2.973114701 -25.85269291 -26.16071183
3.003159624 -26.11394828 -26.4250799
-1.451493276 -23.60281868 -26.76363006
1.457441974 -23.69955082 -26.87331625
2.201445529 -53.20593924 -3.56201369
6.516806079 -51.63181375 -10.54441373
6.027577476 -54.14896312 -3.642668797
0 -51.61501428 -6.954083244
13.26090394 -41.16139974 -21.45659329
10.36075952 -47.57771716 -16.76406105
15.69451222 -44.3669613 -19.6860811
14.28551245 -55.83322653 -3.844896241
10.45097359 -52.37956427 -10.8083157
10.07168439 -55.0412748 -3.735154144
16.84429166 -55.06645658 -7.702029687
8.295754358 -53.613582 -7.29442605
-3.986308173 -46.98670154 -12.9868049
4.158719676 -49.0189197 -13.54849619
-2.085065257 -49.47697351 -10.12777425
2.131750022 -50.5847666 -10.35453587
20.90152573 -50.57759359 -14.89751479
12.50981762 -50.37448289 -14.21557255
18.27591524 -47.56554329 -17.50301749
19.10629725 -53.32331971 -11.46509708
14.25584509 -47.71657216 -17.16898596
14.66440161 -52.95170215 -11.16265184
-9.87425851 -34.98662695 -21.62292461
-3.345992061 -36.16530017 -22.35138472
-8.079757723 -32.82713609 -23.12071738
-8.699081119 -38.11510827 -19.93500368
10.56196049 -37.42330335 -23.12887344
3.426076561 -37.03089696 -22.88635296
8.46889388 -34.40815201 -24.23425413
9.345233658 -40.94623188 -21.4157409
-4.634665879 -28.25660755 -25.34850843
-1.680492486 -33.77590996 -23.73368494
-6.317988477 -30.55191029 -24.36170458
-1.558983239 -28.49510788 -25.58259856
-4.889040785 -33.34555838 -23.44952826
-5.791968145 -44.10614985 -15.67516343
-1.842214556 -39.46610361 -20.70696432
-7.328758844 -41.18685185 -17.94046348
-1.977883523 -45.09252804 -16.00141383
-5.286801466 -38.82009863 -20.3463707
4.723444685 -28.79787373 -25.83406885
1.697528326 -34.11831018 -23.97428301
6.51648899 -31.51179964 -25.12710814
1.569055092 -28.6792013 -25.74787563
5.033653606 -34.33188585 -24.14314129
0 -31.26991991 -24.85866884
6.146123824 -46.80306445 -16.63363696
1.87065686 -40.07542835 -21.02666312
7.854021302 -44.13877147 -19.22628174
2.018003803 -46.00720519 -16.32599372
5.524933258 -40.56866053 -21.26282609
0 -42.77180021 -18.72096465
-33.15505471 56.30735268 -4.306150328
-28.08710458 52.83853258 -11.96154719
-28.37453651 56.88902137 -4.193244602
-16.77816614 40.54218693 -21.67282723
-22.29229564 47.02968091 -17.73363451
-18.9178715 56.50667651 -3.944034593
-23.6553605 53.36518889 -11.69295442
-23.55713911 56.89427449 -4.072332559
-26.13906315 55.50081845 -8.153606396
-1.368883254 19.26844233 -27.59321171
-4.378562944 23.72027828 -26.91698988
-11.95498878 34.31854038 -24.22999782
-7.859676058 28.70357339 -25.86645829
-2.201445529 53.20593924 -3.56201369
-6.516806079 51.63181375 -10.54441373
-6.027577476 54.14896312 -3.642668797
-13.26090394 41.16139974 -21.45659329
-10.36075952 47.57771716 -16.76406105
-15.69451222 44.3669613 -19.6860811
-14.28551245 55.83322653 -3.844896241
-10.45097359 52.37956427 -10.8083157
-10.07168439 55.0412748 -3.735154144
-16.84429166 55.06645658 -7.702029687
-8.295754358 53.613582 -7.29442605
-20.90152573 50.57759359 -14.89751479
-12.50981762 50.37448289 -14.21557255
-18.27591524 47.56554329 -17.50301749
-19.10629725 53.32331971 -11.46509708
-14.25584509 47.71657216 -17.16898596
-14.66440161 52.95170215 -11.16265184
25.8852493 43.96101512 -3.36195418
22.52250312 42.37019204 -9.591732146
22.57349914 45.25833486 -3.335955932
14.99626212 36.23645499 -19.37109189
18.78679005 39.63417476 -14.94498699
15.96110856 47.67498279 -3.327602913
19.3621722 43.67999282 -9.57081153
19.25290671 46.49886193 -3.32825809
21.04389529 44.68229811 -6.564261246
1.365228481 19.21699763 -27.51954076
4.326258925 23.43692827 -26.59545362
0 21.39072135 -27.23493123
11.22877107 32.23382644 -22.75812245
7.6260757 27.8504638 -25.09767165
-3.003159624 26.11394828 -26.4250799
2.973114701 25.85269291 -26.16071183
-1.457441974 23.69955082 -26.87331625
1.451493276 23.60281868 -26.76363006
2.152799069 52.03022058 -3.483302065
6.101909082 48.34463837 -9.873096291
5.677675334 51.00560441 -3.431211107
0 51.61501428 -6.954083244
12.0406709 37.37383744 -19.48221476
9.408279723 43.20382793 -15.22291637
13.86652203 39.19939897 -17.39318007
12.49874322 48.84985147 -3.363993485
9.434197133 47.28355028 -9.75677339
9.138296821 49.94035626 -3.389000878
14.4194287 47.1392244 -6.593264363
7.642118568 49.38928189 -6.719686523
-4.158719676 49.0189197 -13.54849619
3.986308173 46.98670154 -12.9868049
-2.131750022 50.5847666 -10.35453587
2.085065257 49.47697351 -10.12777425
17.50219703 42.35188474 -12.47465101
11.11172453 44.74464731 -12.62684486
15.70245714 40.86777024 -15.03839224
16.09154288 44.909512 -9.656036381
12.56600312 42.06040336 -15.13382965
12.77079242 46.11406687 -9.721222409
-10.56196049 37.42330335 -23.12887344
-3.426076561 37.03089696 -22.88635296
-8.46889388 34.40815201 -24.23425413
-9.345233658 40.94623188 -21.4157409
9.87425851 34.98662695 -21.62292461
3.345992061 36.16530017 -22.35138472
8.079757723 32.82713609 -23.12071738
8.699081119 38.11510827 -19.93500368
-4.723444685 28.79787373 -25.83406885
-1.697528326 34.11831018 -23.97428301
-6.51648899 31.51179964 -25.12710814
-1.569055092 28.6792013 -25.74787563
-5.033653606 34.33188585 -24.14314129
-6.146123824 46.80306445 -16.63363696
-1.87065686 40.07542835 -21.02666312
-7.854021302 44.13877147 -19.22628174
-2.018003803 46.00720519 -16.32599372
-5.524933258 40.56866053 -21.26282609
4.634665879 28.25660755 -25.34850843
1.680492486 33.77590996 -23.73368494
6.317988477 30.55191029 -24.36170458
1.558983239 28.49510788 -25.58259856
4.889040785 33.34555838 -23.44952826
0 31.26991991 -24.85866884
5.791968145 44.10614985 -15.67516343
1.842214556 39.46610361 -20.70696432
7.328758844 41.18685185 -17.94046348
1.977883523 45.09252804 -16.00141383
5.286801466 38.82009863 -20.3463707
0 42.77180021 -18.72096465
0 -14.78585632 -28.09996948
0 -10.26362901 -28.47180275
0 -1.995127457 -28.78662357
0 -6.04225569 -28.68731516
0 14.78585632 -28.09996948
0 10.26362901 -28.47180275
0 1.995127457 -28.78662357
0 6.04225569 -28.68731516
29.78426537 42.65230817 -2.115956309
34.43017595 39.0702287 -6.355519558
28.21030514 42.2807587 -5.44383305
40.93235963 28.8995678 -14.25893685
38.11787089 34.35022894 -10.43751985
24.39986458 40.18297846 -11.48004655
32.22160007 38.07135395 -9.517099389
26.3563374 41.38294699 -8.593844406
30.33234842 40.28896073 -7.516276847
39.34418693 3.008878511 -23.16675546
41.65466582 9.429751859 -22.14215456
42.72885028 22.84176212 -17.68310501
43.00400692 16.21566054 -20.38410675
16.34118487 33.55911873 -20.740676
22.96276444 31.87543899 -19.7001047
18.33206735 35.42115267 -18.84098034
37.73154675 27.41289032 -16.94209795
29.99059078 29.87015247 -18.46076947
36.69908115 30.25357872 -15.24374767
22.33896355 38.70760469 -14.25081096
25.21587254 33.6158372 -17.62241179
20.34306811 37.14883175 -16.65883963
26.05932057 37.77186741 -13.40086592
21.74306156 34.54701196 -18.25719423
33.95098167 35.54991493 -11.5590594
28.93616059 32.57435849 -16.89812892
35.42412327 32.98210684 -13.43059475
29.93428615 36.72099051 -12.50334726
32.69908025 31.47495478 -16.12004112
27.5788425 35.21650486 -15.22084521
38.52625325 -55.1711988 -2.737011224
43.63692781 -49.51774723 -8.055008159
36.27462535 -54.3673198 -7.000030781
46.13168919 -32.57046238 -16.07014228
45.88430411 -41.34901331 -12.56414181
30.34083214 -49.96687585 -14.27524994
40.38073608 -47.71176145 -11.92701411
33.45142495 -52.52317592 -10.90729478
38.71218167 -51.41947947 -9.592777675
39.29644743 -3.005227594 -23.13864535
41.61255852 -9.42021964 -22.1197718
45.21743786 -24.17209807 -18.7129936
43.62704634 -16.45059204 -20.67943044
18.06127549 -37.09158751 -22.92386178
25.78957682 -35.7994389 -22.12527002
20.84953412 -40.28539264 -21.42833402
41.62542586 -30.24188861 -18.69051505
33.61944505 -33.48443373 -20.69451814
41.86355726 -34.51101187 -17.38892319
27.01285666 -46.80624393 -17.23245185
29.16355498 -38.87857994 -20.38129651
23.86549974 -43.58120564 -19.54334178
31.885283 -46.21635006 -16.39683588
25.00826226 -39.73500848 -20.99891499
41.37715975 -43.32583145 -14.08739965
33.46713988 -37.67502634 -19.54412862
41.81872106 -38.9358832 -15.85502319
36.71712797 -45.04163891 -15.33649404
37.635718 -36.22678414 -18.55371212
32.88570865 -41.99305024 -18.14972043
2.137437451 -16.45712533 -27.94919713
6.345676681 -14.9003872 -28.0311768
3.567677043 -18.48793986 -27.7091694
2.077784818 -14.05980017 -28.18894583
14.76393599 -11.42960114 -27.61809737
10.52770246 -13.23398515 -27.91951571
6.757681316 -22.87916684 -27.03282447
7.934451196 -16.86400259 -27.77252514
5.112968705 -20.63366629 -27.40668014
5.766565606 -17.68539684 -27.76841976
1.990728357 -9.54868482 -28.52141396
6.185688051 -12.51391868 -28.23071051
2.031181811 -11.749736 -28.37749958
4.147652344 -13.29666178 -28.23267258
34.76495178 -1.724669126 -24.27649508
28.93734591 -4.707212473 -25.50069309
35.87255957 -4.618749317 -23.93466633
19.15105094 -9.449055707 -27.1248937
23.81635747 -7.23674082 -26.42861102
37.91741829 -10.832789 -23.02417359
29.7979574 -7.448910867 -25.21943053
36.92663343 -7.668418158 -23.51816099
32.70778272 -6.101938236 -24.6247072
15.02775698 -33.46814052 -24.31542157
15.99604984 -25.98651078 -25.88215232
12.71152867 -30.60280401 -25.22799785
18.58968806 -32.98220489 -24.0871403
16.83667407 -13.26529586 -27.2423109
16.53317335 -19.27133743 -26.75123642
14.60261708 -14.20818635 -27.45300507
8.631731702 -25.3529076 -26.54691158
13.75212897 -23.54898665 -26.50984504
10.57240419 -27.88544782 -25.96312159
9.215213971 -22.06216034 -27.06409554
13.29923591 -26.97715093 -25.96723207
25.8530707 -31.33772493 -23.23336814
19.17981936 -25.22087876 -25.59033826
22.22444349 -32.26754549 -23.72507406
18.94606084 -28.97560735 -24.95297992
10.20461232 -15.99631511 -27.71744716
14.11568362 -20.19810246 -26.92653696
12.38241628 -15.12088137 -27.6125054
9.736605755 -18.93380115 -27.44373264
14.38878408 -17.13605136 -27.22704756
11.6815328 -21.16591745 -27.02758952
1.926794087 -1.190824235 -28.78059941
5.847354448 -3.613863793 -28.63217656
1.934579895 -3.201177721 -28.75789735
14.47836156 -8.948119543 -27.77466206
9.976294998 -6.165689391 -28.31350591
12.40367377 -9.888692857 -27.95443701
1.971808637 -7.326152665 -28.63339644
5.898101491 -5.70309978 -28.58354573
1.948236669 -5.253337371 -28.70923816
3.990929312 -8.728137911 -28.53356123
3.903540594 -4.439391622 -28.69078284
8.301203947 -11.64676326 -28.18288322
8.021628024 -7.05909686 -28.42554263
10.33686923 -10.79332442 -28.0910878
6.10312264 -10.17070108 -28.38517261
10.15420569 -8.431294878 -28.22087978
6.008341195 -7.893171759 -28.50146165
41.07423326 -25.38527222 -20.00057405
32.57409931 -20.13190053 -23.46607272
40.4443936 -21.51290874 -20.93182439
37.19977827 -27.16726434 -20.96682973
19.55968697 -12.08855135 -26.92227031
25.48520046 -15.7507201 -25.58795838
21.92278674 -11.0461454 -26.59342014
19.51458553 -15.06073585 -26.72106568
38.85194284 -14.30395131 -22.4222641
32.00297775 -16.77690337 -24.00603629
39.69430468 -17.80031901 -21.73699429
34.50077248 -12.24033277 -23.80254808
36.01024705 -19.03047579 -22.66398667
29.69193855 -30.12689441 -22.57994352
29.22727588 -21.66870958 -24.11198744
33.39277595 -28.75692157 -21.83428142
25.9021688 -27.03830987 -24.06385394
33.02370435 -24.28104832 -22.74525192
26.9686958 -8.768874897 -25.75572118
28.24946473 -14.65456633 -25.09430994
24.39746671 -9.934856194 -26.20387085
30.53865267 -10.39828648 -24.89455636
24.95502558 -12.78082976 -25.92557766
31.27562673 -13.51756727 -24.49265159
19.34277652 -21.52379138 -26.09000151
25.59633411 -19.18431322 -25.22678804
19.44613167 -18.21614775 -26.44792327
22.43951079 -24.15373687 -25.21318686
22.44015368 -17.03814607 -26.05769265
25.80100575 -22.96266434 -24.7168558
2.130485851 16.40360172 -27.8582978
6.295076521 14.78157213 -27.80765737
3.544850473 18.36965106 -27.53188169
2.072512375 14.02412299 -28.11741551
14.61239504 11.31228469 -27.33461791
10.41961165 13.09810819 -27.6328584
6.644654254 22.49649638 -26.58068111
7.842406894 16.66837023 -27.45034751
5.057821248 20.4111157 -27.11107717
5.712384046 17.5192282 -27.50751294
1.987725169 9.534279793 -28.47838691
6.147488953 12.43664023 -28.05637458
2.027179596 11.72658447 -28.32158491
4.128517026 13.23531723 -28.1024203
34.77071425 1.724954999 -24.28051903
28.8858417 4.698834328 -25.45530561
35.88913581 4.62088358 -23.94572622
31.77716575 0 -24.95826012
18.99140231 9.37028568 -26.89877283
23.69370482 7.199472088 -26.29250543
37.82656204 10.80683189 -22.96900396
29.70247802 7.425042878 -25.13862179
36.92717155 7.668529906 -23.51850371
32.67093765 6.095064449 -24.59696766
26.36156354 -2.995941112 -26.05117977
26.32270973 2.991525452 -26.01278344
28.96724562 -1.571003714 -25.54618504
28.95283455 1.570222147 -25.53347594
13.99582102 31.1699281 -22.64571411
15.31413722 24.87870417 -24.77879453
12.06954779 29.0572452 -23.95388733
17.15653863 30.43948185 -22.23017147
16.61387347 13.0897555 -26.88181197
16.13151376 18.80315644 -26.10133755
14.40031424 14.01134791 -27.07267456
8.414304511 24.71428586 -25.87821373
13.31756812 22.80484966 -25.67214631
10.19094528 26.87932355 -25.02635604
9.0261032 21.6094099 -26.50869748
12.76203538 25.88745377 -24.9183289
23.69233912 28.71860038 -21.2915844
18.32184025 24.09266234 -24.44559465
20.40001013 29.61866088 -21.777452
17.81713718 27.24906117 -23.46612681
10.07060276 15.78624744 -27.3534546
13.77496987 19.71057586 -26.27660448
12.21110601 14.91168454 -27.23048741
9.576041257 18.62156747 -26.99116331
14.1239421 16.82064279 -26.7259027
11.41283083 20.67905295 -26.40589316
1.926467994 1.190622698 -28.77572854
5.8386018 3.608454359 -28.58931832
1.933690152 3.19970545 -28.74467116
3.871236291 0 -28.73332248
14.37006665 8.881189607 -27.56691379
9.936248002 6.140938986 -28.1998494
12.30626763 9.811036883 -27.73491062
1.969617576 7.318011891 -28.60157919
5.8838318 5.68930187 -28.51439155
1.946735155 5.249288601 -28.68711183
3.980242178 8.704765215 -28.45715246
3.898573275 4.433742424 -28.65427335
7.885681651 -2.420515088 -28.53066424
7.875552961 2.41740608 -28.49401829
5.864965344 -1.207455376 -28.65197502
5.862050457 1.206855271 -28.637735
8.241000125 11.56229603 -27.9784891
7.989957533 7.031226575 -28.31331468
10.25633127 10.70923006 -27.87222086
6.07425032 10.12258608 -28.25088959
10.0958975 8.382880109 -28.05882787
5.987358298 7.865606479 -28.40192615
38.58798359 23.84868541 -18.78992648
31.58325954 19.51952787 -22.75228113
38.9319179 20.70840288 -20.14904901
34.6095212 25.27558106 -19.5068888
19.3295876 11.94634212 -26.6055578
25.03179502 15.47050012 -25.13272478
21.70313754 10.93547164 -26.32697483
19.18870033 14.80922803 -26.27483535
38.5138543 14.17947872 -22.22714617
31.41078131 16.46645656 -23.56181859
38.90296414 17.44545414 -21.30364838
34.27830404 12.16140445 -23.6490641
35.09297064 18.54571914 -22.08667488
27.26756535 27.66700667 -20.73627104
28.15236836 20.87178759 -23.22520768
30.82564769 26.54618275 -20.15573271
24.34114004 25.40881005 -22.61361368
31.36146243 23.05886635 -21.60037396
26.81717286 8.719607192 -25.6110133
27.8425088 14.44345568 -24.73280651
24.20452898 9.856290308 -25.99664789
30.36004933 10.33747277 -24.74896215
24.65754196 12.62847216 -25.61652428
30.94423065 13.37433532 -24.23312781
18.71677158 20.8272006 -25.24563101
24.89793298 18.66086537 -24.53847005
18.99059132 17.7894207 -25.82836065
21.45175075 23.09051868 -24.10333296
21.96497949 16.67736034 -25.50591644
24.7366161 22.01536707 -23.69719146
16.99741611 -7.761987969 -27.50239699
17.05507938 -2.553137576 -27.59569811
19.17361142 -6.70040347 -27.22297674
14.56786413 -6.357010708 -27.85330405
16.88611665 7.711162299 -27.32231068
17.02133392 2.548085897 -27.54109682
19.06923907 6.663929545 -27.07478733
14.49415712 6.324847017 -27.71237853
23.78301616 -4.348434694 -26.51151471
19.17812323 -1.357930387 -27.29279355
21.44308424 -5.561070601 -26.89168091
23.81984728 -1.451562576 -26.53167216
19.18288735 -3.999479972 -27.27833511
10.0773055 -3.723561333 -28.3551204
14.64061425 -1.302516016 -27.90404183
12.25547541 -5.006416022 -28.13553009
10.06732027 -1.24438922 -28.3700507
14.62083187 -3.799077316 -27.89598911
23.71682831 4.336333054 -26.43773349
19.15866755 1.356552804 -27.26510577
21.35431515 5.538049139 -26.78035598
23.79902855 1.450293899 -26.50848328
19.12396662 3.987195467 -27.19454901
21.41187621 0 -26.93417168
10.05327835 3.714683309 -28.28751377
14.62615031 1.301229218 -27.87647453
12.21084416 4.988183959 -28.03306782
10.05939144 1.243409163 -28.34770698
14.57804508 3.787959595 -27.81435354
12.32187764 0 -28.15180192
29.78426537 42.65230817 2.115956309
34.43017595 39.0702287 6.355519558
28.21030514 42.2807587 5.44383305
32.68711502 41.6176395 0
40.93235963 28.8995678 14.25893685
38.11787089 34.35022894 10.43751985
24.39986458 40.18297846 11.48004655
32.22160007 38.07135395 9.517099389
26.3563374 41.38294699 8.593844406
30.33234842 40.28896073 7.516276847
37.91755517 38.36931949 -4.360599534
37.91755517 38.36931949 4.360599534
35.44050457 40.18657968 -2.179470798
35.44050457 40.18657968 2.179470798
39.34418693 3.008878511 23.16675546
41.65466582 9.429751859 22.14215456
42.72885028 22.84176212 17.68310501
43.00400692 16.21566054 20.38410675
16.34118487 33.55911873 20.740676
22.96276444 31.87543899 19.7001047
18.33206735 35.42115267 18.84098034
37.73154675 27.41289032 16.94209795
29.99059078 29.87015247 18.46076947
36.69908115 30.25357872 15.24374767
22.33896355 38.70760469 14.25081096
25.21587254 33.6158372 17.62241179
20.34306811 37.14883175 16.65883963
26.05932057 37.77186741 13.40086592
21.74306156 34.54701196 18.25719423
33.95098167 35.54991493 11.5590594
28.93616059 32.57435849 16.89812892
35.42412327 32.98210684 13.43059475
29.93428615 36.72099051 12.50334726
32.69908025 31.47495478 16.12004112
27.5788425 35.21650486 15.22084521
45.22174734 27.94857689 -12.7629115
50.67805503 31.32076049 -4.688703508
43.80236939 30.85076324 -10.78109682
45.22174734 27.94857689 12.7629115
50.67805503 31.32076049 4.688703508
43.80236939 30.85076324 10.78109682
40.22338141 36.08369195 -6.597463372
48.04992857 33.76376439 -2.390684485
42.12901617 33.59314153 -8.712078433
41.51749658 37.27395778 -2.271445384
46.3674344 32.60687527 -6.798275059
40.22338141 36.08369195 6.597463372
48.04992857 33.76376439 2.390684485
42.12901617 33.59314153 8.712078433
41.51749658 37.27395778 2.271445384
46.3674344 32.60687527 6.798275059
44.98022157 35.75795638 0
38.52625325 -55.1711988 2.737011224
43.63692781 -49.51774723 8.055008159
36.27462535 -54.3673198 7.000030781
42.2015221 -53.73150038 0
46.13168919 -32.57046238 16.07014228
45.88430411 -41.34901331 12.56414181
30.34083214 -49.96687585 14.27524994
40.38073608 -47.71176145 11.92701411
33.45142495 -52.52317592 10.90729478
38.71218167 -51.41947947 9.592777675
47.56523786 -48.13194838 -5.470103575
47.56523786 -48.13194838 5.470103575
45.26665827 -51.32861936 -2.783745915
45.26665827 -51.32861936 2.783745915
39.29644743 -3.005227594 23.13864535
41.61255852 -9.42021964 22.1197718
45.21743786 -24.17209807 18.7129936
43.62704634 -16.45059204 20.67943044
18.06127549 -37.09158751 22.92386178
25.78957682 -35.7994389 22.12527002
20.84953412 -40.28539264 21.42833402
41.62542586 -30.24188861 18.69051505
33.61944505 -33.48443373 20.69451814
41.86355726 -34.51101187 17.38892319
27.01285666 -46.80624393 17.23245185
29.16355498 -38.87857994 20.38129651
23.86549974 -43.58120564 19.54334178
31.885283 -46.21635006 16.39683588
25.00826226 -39.73500848 20.99891499
41.37715975 -43.32583145 14.08739965
33.46713988 -37.67502634 19.54412862
41.81872106 -38.9358832 15.85502319
36.71712797 -45.04163891 15.33649404
37.635718 -36.22678414 18.55371212
32.88570865 -41.99305024 18.14972043
50.54321325 -31.23742369 -14.26478621
58.06047735 -35.88334841 -5.371720831
50.55683628 -35.60805062 -12.44357678
50.54321325 -31.23742369 14.26478621
58.06047735 -35.88334841 5.371720831
50.55683628 -35.60805062 12.44357678
49.22437327 -44.15832432 -8.073811507
56.42390576 -39.64799776 -2.8073248
50.14711741 -39.98667345 -10.3701833
51.13394413 -45.90750001 -2.797566592
54.26121363 -38.15800136 -7.955640852
49.22437327 -44.15832432 8.073811507
56.42390576 -39.64799776 2.8073248
50.14711741 -39.98667345 10.3701833
51.13394413 -45.90750001 2.797566592
54.26121363 -38.15800136 7.955640852
54.13431806 -43.0351945 0
2.137437451 -16.45712533 27.94919713
6.345676681 -14.9003872 28.0311768
3.567677043 -18.48793986 27.7091694
2.077784818 -14.05980017 28.18894583
14.76393599 -11.42960114 27.61809737
10.52770246 -13.23398515 27.91951571
6.757681316 -22.87916684 27.03282447
7.934451196 -16.86400259 27.77252514
5.112968705 -20.63366629 27.40668014
5.766565606 -17.68539684 27.76841976
1.990728357 -9.54868482 28.52141396
6.185688051 -12.51391868 28.23071051
2.031181811 -11.749736 28.37749958
4.147652344 -13.29666178 28.23267258
34.76495178 -1.724669126 24.27649508
28.93734591 -4.707212473 25.50069309
35.87255957 -4.618749317 23.93466633
19.15105094 -9.449055707 27.1248937
23.81635747 -7.23674082 26.42861102
37.91741829 -10.832789 23.02417359
29.7979574 -7.448910867 25.21943053
36.92663343 -7.668418158 23.51816099
32.70778272 -6.101938236 24.6247072
15.02775698 -33.46814052 24.31542157
15.99604984 -25.98651078 25.88215232
12.71152867 -30.60280401 25.22799785
18.58968806 -32.98220489 24.0871403
16.83667407 -13.26529586 27.2423109
16.53317335 -19.27133743 26.75123642
14.60261708 -14.20818635 27.45300507
8.631731702 -25.3529076 26.54691158
13.75212897 -23.54898665 26.50984504
10.57240419 -27.88544782 25.96312159
9.215213971 -22.06216034 27.06409554
13.29923591 -26.97715093 25.96723207
25.8530707 -31.33772493 23.23336814
19.17981936 -25.22087876 25.59033826
22.22444349 -32.26754549 23.72507406
18.94606084 -28.97560735 24.95297992
10.20461232 -15.99631511 27.71744716
14.11568362 -20.19810246 26.92653696
12.38241628 -15.12088137 27.6125054
9.736605755 -18.93380115 27.44373264
14.38878408 -17.13605136 27.22704756
11.6815328 -21.16591745 27.02758952
1.926794087 -1.190824235 28.78059941
5.847354448 -3.613863793 28.63217656
1.934579895 -3.201177721 28.75789735
14.47836156 -8.948119543 27.77466206
9.976294998 -6.165689391 28.31350591
12.40367377 -9.888692857 27.95443701
1.971808637 -7.326152665 28.63339644
5.898101491 -5.70309978 28.58354573
1.948236669 -5.253337371 28.70923816
3.990929312 -8.728137911 28.53356123
3.903540594 -4.439391622 28.69078284
8.301203947 -11.64676326 28.18288322
8.021628024 -7.05909686 28.42554263
10.33686923 -10.79332442 28.0910878
6.10312264 -10.17070108 28.38517261
10.15420569 -8.431294878 28.22087978
6.008341195 -7.893171759 28.50146165
41.07423326 -25.38527222 20.00057405
32.57409931 -20.13190053 23.46607272
40.4443936 -21.51290874 20.93182439
37.19977827 -27.16726434 20.96682973
19.55968697 -12.08855135 26.92227031
25.48520046 -15.7507201 25.58795838
21.92278674 -11.0461454 26.59342014
19.51458553 -15.06073585 26.72106568
38.85194284 -14.30395131 22.4222641
32.00297775 -16.77690337 24.00603629
39.69430468 -17.80031901 21.73699429
34.50077248 -12.24033277 23.80254808
36.01024705 -19.03047579 22.66398667
29.69193855 -30.12689441 22.57994352
29.22727588 -21.66870958 24.11198744
33.39277595 -28.75692157 21.83428142
25.9021688 -27.03830987 24.06385394
33.02370435 -24.28104832 22.74525192
26.9686958 -8.768874897 25.75572118
28.24946473 -14.65456633 25.09430994
24.39746671 -9.934856194 26.20387085
30.53865267 -10.39828648 24.89455636
24.95502558 -12.78082976 25.92557766
31.27562673 -13.51756727 24.49265159
19.34277652 -21.52379138 26.09000151
25.59633411 -19.18431322 25.22678804
19.44613167 -18.21614775 26.44792327
22.43951079 -24.15373687 25.21318686
22.44015368 -17.03814607 26.05769265
25.80100575 -22.96266434 24.7168558
2.130485851 16.40360172 27.8582978
6.295076521 14.78157213 27.80765737
3.544850473 18.36965106 27.53188169
2.072512375 14.02412299 28.11741551
14.61239504 11.31228469 27.33461791
10.41961165 13.09810819 27.6328584
6.644654254 22.49649638 26.58068111
7.842406894 16.66837023 27.45034751
5.057821248 20.4111157 27.11107717
5.712384046 17.5192282 27.50751294
1.987725169 9.534279793 28.47838691
6.147488953 12.43664023 28.05637458
2.027179596 11.72658447 28.32158491
4.128517026 13.23531723 28.1024203
34.77071425 1.724954999 24.28051903
28.8858417 4.698834328 25.45530561
35.88913581 4.62088358 23.94572622
31.77716575 0 24.95826012
18.99140231 9.37028568 26.89877283
23.69370482 7.199472088 26.29250543
37.82656204 10.80683189 22.96900396
29.70247802 7.425042878 25.13862179
36.92717155 7.668529906 23.51850371
32.67093765 6.095064449 24.59696766
26.36156354 -2.995941112 26.05117977
26.32270973 2.991525452 26.01278344
28.96724562 -1.571003714 25.54618504
28.95283455 1.570222147 25.53347594
13.99582102 31.1699281 22.64571411
15.31413722 24.87870417 24.77879453
12.06954779 29.0572452 23.95388733
17.15653863 30.43948185 22.23017147
16.61387347 13.0897555 26.88181197
16.13151376 18.80315644 26.10133755
14.40031424 14.01134791 27.07267456
8.414304511 24.71428586 25.87821373
13.31756812 22.80484966 25.67214631
10.19094528 26.87932355 25.02635604
9.0261032 21.6094099 26.50869748
12.76203538 25.88745377 24.9183289
23.69233912 28.71860038 21.2915844
18.32184025 24.09266234 24.44559465
20.40001013 29.61866088 21.777452
17.81713718 27.24906117 23.46612681
10.07060276 15.78624744 27.3534546
13.77496987 19.71057586 26.27660448
12.21110601 14.91168454 27.23048741
9.576041257 18.62156747 26.99116331
14.1239421 16.82064279 26.7259027
11.41283083 20.67905295 26.40589316
1.926467994 1.190622698 28.77572854
5.8386018 3.608454359 28.58931832
1.933690152 3.19970545 28.74467116
3.871236291 0 28.73332248
14.37006665 8.881189607 27.56691379
9.936248002 6.140938986 28.1998494
12.30626763 9.811036883 27.73491062
1.969617576 7.318011891 28.60157919
5.8838318 5.68930187 28.51439155
1.946735155 5.249288601 28.68711183
3.980242178 8.704765215 28.45715246
3.898573275 4.433742424 28.65427335
7.885681651 -2.420515088 28.53066424
7.875552961 2.41740608 28.49401829
5.864965344 -1.207455376 28.65197502
5.862050457 1.206855271 28.637735
8.241000125 11.56229603 27.9784891
7.989957533 7.031226575 28.31331468
10.25633127 10.70923006 27.87222086
6.07425032 10.12258608 28.25088959
10.0958975 8.382880109 28.05882787
5.987358298 7.865606479 28.40192615
38.58798359 23.84868541 18.78992648
31.58325954 19.51952787 22.75228113
38.9319179 20.70840288 20.14904901
34.6095212 25.27558106 19.5068888
19.3295876 11.94634212 26.6055578
25.03179502 15.47050012 25.13272478
21.70313754 10.93547164 26.32697483
19.18870033 14.80922803 26.27483535
38.5138543 14.17947872 22.22714617
31.41078131 16.46645656 23.56181859
38.90296414 17.44545414 21.30364838
34.27830404 12.16140445 23.6490641
35.09297064 18.54571914 22.08667488
27.26756535 27.66700667 20.73627104
28.15236836 20.87178759 23.22520768
30.82564769 26.54618275 20.15573271
24.34114004 25.40881005 22.61361368
31.36146243 23.05886635 21.60037396
26.81717286 8.719607192 25.6110133
27.8425088 14.44345568 24.73280651
24.20452898 9.856290308 25.99664789
30.36004933 10.33747277 24.74896215
24.65754196 12.62847216 25.61652428
30.94423065 13.37433532 24.23312781
18.71677158 20.8272006 25.24563101
24.89793298 18.66086537 24.53847005
18.99059132 17.7894207 25.82836065
21.45175075 23.09051868 24.10333296
21.96497949 16.67736034 25.50591644
24.7366161 22.01536707 23.69719146
16.99741611 -7.761987969 27.50239699
17.05507938 -2.553137576 27.59569811
19.17361142 -6.70040347 27.22297674
14.56786413 -6.357010708 27.85330405
16.88611665 7.711162299 27.32231068
17.02133392 2.548085897 27.54109682
19.06923907 6.663929545 27.07478733
14.49415712 6.324847017 27.71237853
23.78301616 -4.348434694 26.51151471
19.17812323 -1.357930387 27.29279355
21.44308424 -5.561070601 26.89168091
23.81984728 -1.451562576 26.53167216
19.18288735 -3.999479972 27.27833511
10.0773055 -3.723561333 28.3551204
14.64061425 -1.302516016 27.90404183
12.25547541 -5.006416022 28.13553009
10.06732027 -1.24438922 28.3700507
14.62083187 -3.799077316 27.89598911
23.71682831 4.336333054 26.43773349
19.15866755 1.356552804 27.26510577
21.35431515 5.538049139 26.78035598
23.79902855 1.450293899 26.50848328
19.12396662 3.987195467 27.19454901
21.41187621 0 26.93417168
10.05327835 3.714683309 28.28751377
14.62615031 1.301229218 27.87647453
12.21084416 4.988183959 28.03306782
10.05939144 1.243409163 28.34770698
14.57804508 3.787959595 27.81435354
12.32187764 0 28.15180192
42.51095299 0 -22.36873757
53.21250072 0 -19.18225448
44.00047129 3.243239807 -21.94611454
43.90105496 -3.235911908 -21.89652866
78.12138872 0 -5.414394197
66.2783278 0 -13.95984954
46.53575579 10.19654353 -20.62805552
55.1606861 3.850087594 -18.46724734
45.39457904 6.668902196 -21.37935622
49.29025729 3.52805834 -20.40868714
46.44659219 -10.17700671 -20.58853168
54.9448827 -3.835025018 -18.39499851
45.2288924 -6.644561228 -21.30132326
49.1282522 -3.51646247 -20.34160874
42.51095299 0 22.36873757
53.21250072 0 19.18225448
44.00047129 3.243239807 21.94611454
43.90105496 -3.235911908 21.89652866
78.12138872 0 5.414394197
66.2783278 0 13.95984954
46.53575579 10.19654353 20.62805552
55.1606861 3.850087594 18.46724734
45.39457904 6.668902196 21.37935622
49.29025729 3.52805834 20.40868714
46.44659219 -10.17700671 20.58853168
54.9448827 -3.835025018 18.39499851
45.2288924 -6.644561228 21.30132326
49.1282522 -3.51646247 20.34160874
46.56614815 24.27397776 -15.0021433
56.8851159 20.04353326 -12.38758481
47.31503445 20.99417175 -16.73737315
50.11572031 26.2115763 -11.43800283
78.47654907 5.253822151 -3.24704066
68.54164995 13.99779443 -8.651112727
74.51607614 5.012790085 -8.294737263
47.35728056 13.94897893 -19.57071003
57.65244494 16.26939806 -14.3172005
47.60023568 17.51578348 -18.28924496
51.9729181 11.17474596 -18.62243438
52.30692637 18.82064959 -15.62726336
55.51151532 29.12562584 -2.591188696
61.04434509 21.69493572 -8.016272184
53.34031859 27.95670112 -7.264269914
55.44177617 24.14972535 -9.865269841
61.86172303 4.260042292 -15.82796606
63.52048306 13.10720018 -12.67385287
68.47412421 4.646720297 -12.52968378
56.88106478 7.955835128 -17.3993626
69.26936489 9.424482396 -10.71821009
57.77009431 12.17840831 -15.99880324
50.10724923 -26.11988111 -16.14297431
59.45291768 -20.94830104 -12.94676205
49.46835675 -21.94962319 -17.49909633
55.06410277 -28.79968446 -12.56738124
78.66476757 -5.266422942 -3.254828377
69.72795125 -14.24006467 -8.800843968
74.57104686 -5.016488034 -8.300856313
47.64107109 -14.03256878 -19.68798834
58.84342139 -16.60548909 -14.6129633
48.62503348 -17.89288532 -18.68299885
51.92744394 -11.16496852 -18.60614051
54.01351663 -19.43470092 -16.13712576
61.85917837 -32.45609985 -2.887487448
64.55442271 -22.94240439 -8.477211483
59.32482177 -31.09329594 -8.079282788
59.77768548 -26.03839174 -10.63679843
61.64133753 -4.244865677 -15.77157814
64.17639993 -13.24254603 -12.80472394
68.35054683 -4.638334216 -12.50707107
56.63591427 -7.92154644 -17.32437345
69.51955991 -9.45852282 -10.75692335
57.96150915 -12.21876013 -16.05181351
46.56614815 24.27397776 15.0021433
56.8851159 20.04353326 12.38758481
47.31503445 20.99417175 16.73737315
50.11572031 26.2115763 11.43800283
78.47654907 5.253822151 3.24704066
68.54164995 13.99779443 8.651112727
74.51607614 5.012790085 8.294737263
76.59269209 10.31932208 0
47.35728056 13.94897893 19.57071003
57.65244494 16.26939806 14.3172005
47.60023568 17.51578348 18.28924496
51.9729181 11.17474596 18.62243438
52.30692637 18.82064959 15.62726336
55.51151532 29.12562584 2.591188696
61.04434509 21.69493572 8.016272184
53.34031859 27.95670112 7.264269914
60.12884316 26.31803997 0
55.44177617 24.14972535 9.865269841
61.86172303 4.260042292 15.82796606
63.52048306 13.10720018 12.67385287
68.47412421 4.646720297 12.52968378
56.88106478 7.955835128 17.3993626
69.26936489 9.424482396 10.71821009
57.77009431 12.17840831 15.99880324
67.04849246 18.53174754 -5.688331905
67.04849246 18.53174754 5.688331905
72.39640824 14.8193074 -3.050939151
64.07954894 22.73909726 -2.810706996
72.39640824 14.8193074 3.050939151
64.07954894 22.73909726 2.810706996
50.10724923 -26.11988111 16.14297431
59.45291768 -20.94830104 12.94676205
49.46835675 -21.94962319 17.49909633
55.06410277 -28.79968446 12.56738124
78.66476757 -5.266422942 3.254828377
69.72795125 -14.24006467 8.800843968
74.57104686 -5.016488034 8.300856313
77.30596683 -10.41542148 0
47.64107109 -14.03256878 19.68798834
58.84342139 -16.60548909 14.6129633
48.62503348 -17.89288532 18.68299885
51.92744394 -11.16496852 18.60614051
54.01351663 -19.43470092 16.13712576
61.85917837 -32.45609985 2.887487448
64.55442271 -22.94240439 8.477211483
59.32482177 -31.09329594 8.079282788
65.24329295 -28.55660447 0
59.77768548 -26.03839174 10.63679843
61.64133753 -4.244865677 15.77157814
64.17639993 -13.24254603 12.80472394
68.35054683 -4.638334216 12.50707107
56.63591427 -7.92154644 17.32437345
69.51955991 -9.45852282 10.75692335
57.96150915 -12.21876013 16.05181351
69.53794692 -19.21981583 -5.899534912
69.53794692 -19.21981583 5.899534912
73.91825284 -15.130824 -3.11507293
67.89474705 -24.09294825 -2.978052181
73.91825284 -15.130824 3.11507293
67.89474705 -24.09294825 2.978052181
-38.52625325 55.1711988 -2.737011224
-43.63692781 49.51774723 -8.055008159
-36.27462535 54.3673198 -7.000030781
-46.13168919 32.57046238 -16.07014228
-45.88430411 41.34901331 -12.56414181
-30.34083214 49.96687585 -14.27524994
-40.38073608 47.71176145 -11.92701411
-33.45142495 52.52317592 -10.90729478
-38.71218167 51.41947947 -9.592777675
-39.29644743 3.005227594 -23.13864535
-41.61255852 9.42021964 -22.1197718
-45.21743786 24.17209807 -18.7129936
-43.62704634 16.45059204 -20.67943044
-18.06127549 37.09158751 -22.92386178
-25.78957682 35.7994389 -22.12527002
-20.84953412 40.28539264 -21.42833402
-41.62542586 30.24188861 -18.69051505
-33.61944505 33.48443373 -20.69451814
-41.86355726 34.51101187 -17.38892319
-27.01285666 46.80624393 -17.23245185
-29.16355498 38.87857994 -20.38129651
-23.86549974 43.58120564 -19.54334178
-31.885283 46.21635006 -16.39683588
-25.00826226 39.73500848 -20.99891499
-41.37715975 43.32583145 -14.08739965
-33.46713988 37.67502634 -19.54412862
-41.81872106 38.9358832 -15.85502319
-36.71712797 45.04163891 -15.33649404
-37.635718 36.22678414 -18.55371212
-32.88570865 41.99305024 -18.14972043
-29.78426537 -42.65230817 -2.115956309
-34.43017595 -39.0702287 -6.355519558
-28.21030514 -42.2807587 -5.44383305
-40.93235963 -28.8995678 -14.25893685
-38.11787089 -34.35022894 -10.43751985
-24.39986458 -40.18297846 -11.48004655
-32.22160007 -38.07135395 -9.517099389
-26.3563374 -41.38294699 -8.593844406
-30.33234842 -40.28896073 -7.516276847
-39.34418693 -3.008878511 -23.16675546
-41.65466582 -9.429751859 -22.14215456
-42.72885028 -22.84176212 -17.68310501
-43.00400692 -16.21566054 -20.38410675
-16.34118487 -33.55911873 -20.740676
-22.96276444 -31.87543899 -19.7001047
-18.33206735 -35.42115267 -18.84098034
-37.73154675 -27.41289032 -16.94209795
-29.99059078 -29.87015247 -18.46076947
-36.69908115 -30.25357872 -15.24374767
-22.33896355 -38.70760469 -14.25081096
-25.21587254 -33.6158372 -17.62241179
-20.34306811 -37.14883175 -16.65883963
-26.05932057 -37.77186741 -13.40086592
-21.74306156 -34.54701196 -18.25719423
-33.95098167 -35.54991493 -11.5590594
-28.93616059 -32.57435849 -16.89812892
-35.42412327 -32.98210684 -13.43059475
-29.93428615 -36.72099051 -12.50334726
-32.69908025 -31.47495478 -16.12004112
-27.5788425 -35.21650486 -15.22084521
-2.130485851 -16.40360172 -27.8582978
-6.295076521 -14.78157213 -27.80765737
-3.544850473 -18.36965106 -27.53188169
-2.072512375 -14.02412299 -28.11741551
-14.61239504 -11.31228469 -27.33461791
-10.41961165 -13.09810819 -27.6328584
-6.644654254 -22.49649638 -26.58068111
-7.842406894 -16.66837023 -27.45034751
-5.057821248 -20.4111157 -27.11107717
-5.712384046 -17.5192282 -27.50751294
-1.987725169 -9.534279793 -28.47838691
-6.147488953 -12.43664023 -28.05637458
-2.027179596 -11.72658447 -28.32158491
-4.128517026 -13.23531723 -28.1024203
-34.77071425 -1.724954999 -24.28051903
-28.8858417 -4.698834328 -25.45530561
-35.88913581 -4.62088358 -23.94572622
-18.99140231 -9.37028568 -26.89877283
-23.69370482 -7.199472088 -26.29250543
-37.82656204 -10.80683189 -22.96900396
-29.70247802 -7.425042878 -25.13862179
-36.92717155 -7.668529906 -23.51850371
-32.67093765 -6.095064449 -24.59696766
-13.99582102 -31.1699281 -22.64571411
-15.31413722 -24.87870417 -24.77879453
-12.06954779 -29.0572452 -23.95388733
-17.15653863 -30.43948185 -22.23017147
-16.61387347 -13.0897555 -26.88181197
-16.13151376 -18.80315644 -26.10133755
-14.40031424 -14.01134791 -27.07267456
-8.414304511 -24.71428586 -25.87821373
-13.31756812 -22.80484966 -25.67214631
-10.19094528 -26.87932355 -25.02635604
-9.0261032 -21.6094099 -26.50869748
-12.76203538 -25.88745377 -24.9183289
-23.69233912 -28.71860038 -21.2915844
-18.32184025 -24.09266234 -24.44559465
-20.40001013 -29.61866088 -21.777452
-17.81713718 -27.24906117 -23.46612681
-10.07060276 -15.78624744 -27.3534546
-13.77496987 -19.71057586 -26.27660448
-12.21110601 -14.91168454 -27.23048741
-9.576041257 -18.62156747 -26.99116331
-14.1239421 -16.82064279 -26.7259027
-11.41283083 -20.67905295 -26.40589316
-1.926467994 -1.190622698 -28.77572854
-5.8386018 -3.608454359 -28.58931832
-1.933690152 -3.19970545 -28.74467116
-14.37006665 -8.881189607 -27.56691379
