1.588666 -37.697810 -7.716618
12.786006 -30.939627 -9.113197
8.335847 -33.566755 -9.472467
11.796435 -30.701819 -11.297558
11.597732 -32.367840 -6.959440
9.561802 -32.004866 -11.515729
9.336913 -33.714667 -7.107328
-9.650909 -34.195252 -21.133828
-3.031293 -32.763867 -20.249184
-7.910291 -32.138610 -22.635777
-8.187153 -35.872092 -18.761859
8.170937 -28.951392 -17.892944
2.864703 -30.963266 -19.136351
6.915703 -28.097713 -19.789703
7.051566 -30.896503 -16.159521
-4.585077 -27.954272 -25.077288
-1.531658 -30.784518 -21.631691
-6.211701 -30.037935 -23.951867
-1.496344 -27.350194 -24.554707
-4.620843 -31.516323 -22.163159
-5.013474 -38.177875 -13.568276
-1.591756 -34.100488 -17.891748
-6.621326 -37.211152 -16.208700
-1.625166 -37.051133 -13.147866
-4.770819 -35.031324 -18.360600
4.258154 -25.961090 -23.289240
1.489445 -29.936090 -21.035517
5.602597 -27.092489 -21.603206
1.459576 -26.678137 -23.951341
4.258819 -29.047148 -20.426766
0.000000 -28.745639 -22.851939
4.534018 -34.526792 -12.270695
1.542683 -33.049191 -17.340157
5.831663 -32.773331 -14.275642
1.571015 -35.816585 -12.709777
4.357544 -31.996720 -16.770105
0.000000 -35.103550 -15.364617
-17.303184 29.386061 -2.247323
-15.773860 29.674386 -6.717665
-15.335058 30.745752 -2.266245
-11.807703 28.531731 -15.252341
-13.931129 29.390269 -11.082284
-11.190895 33.426607 -2.333099
-13.750608 31.020614 -6.796989
-13.290744 32.099280 -2.297576
-14.580146 30.957882 -4.548012
-1.402288 19.738651 -28.266570
-4.184154 22.667094 -25.721871
-9.443145 27.107927 -19.139072
-6.884123 25.140847 -22.655879
-1.598367 38.630351 -2.586212
-4.580749 36.292687 -7.411808
-4.161115 37.381526 -2.514702
-9.593811 29.778866 -15.523112
-7.247229 33.280052 -11.726263
-10.723192 30.313491 -13.450411
-8.903035 34.796455 -2.396221
-6.990924 35.038032 -7.229959
-6.604549 36.093543 -2.449343
-10.297608 33.664390 -4.708568
-5.616545 36.298458 -4.938607
-12.786006 30.939627 -9.113197
-8.335847 33.566755 -9.472467
-11.796435 30.701819 -11.297558
-11.597732 32.367840 -6.959440
-9.561802 32.004866 -11.515729
-9.336913 33.714667 -7.107328
26.793839 45.504077 -3.479961
23.149921 43.550514 -9.858933
22.585675 45.282747 -3.337755
15.193495 36.713043 -19.625864
19.175813 40.454889 -15.254456
14.772436 44.124481 -3.079786
19.218932 43.356850 -9.500007
18.549615 44.800298 -3.206680
20.953591 44.490556 -6.536092
1.428106 20.102067 -28.786998
4.461411 24.169098 -27.426296
0.000000 21.715836 -27.648871
11.358819 32.607149 -23.021700
7.767633 28.367431 -25.563540
-2.832436 24.629420 -24.922864
2.965673 25.787980 -26.095228
-1.429085 23.238442 -26.350457
1.460267 23.745489 -26.925407
1.657692 40.064163 -2.682202
5.091537 40.339589 -8.238280
4.586988 41.207378 -2.772072
0.000000 38.994572 -5.253733
11.782405 36.572188 -19.064331
8.540555 39.219143 -13.818908
13.610227 38.474877 -17.071702
11.065579 43.248499 -2.978262
8.242513 41.310911 -8.524343
7.737118 42.282980 -2.869364
13.244770 43.299093 -6.056153
6.411730 41.437558 -5.637810
-3.073768 36.230573 -10.013884
3.292643 38.810451 -10.726945
-1.588666 37.697810 -7.716618
1.646213 39.063345 -7.996139
17.310755 41.888634 -12.338202
10.125589 40.773679 -11.506246
15.472787 40.270023 -14.818435
15.356774 42.858862 -9.215124
11.902128 39.838308 -14.334294
11.675302 42.158361 -8.887327
-8.170937 28.951392 -17.892944
-2.864703 30.963266 -19.136351
-6.915703 28.097713 -19.789703
-7.051566 30.896503 -16.159521
9.650909 34.195252 -21.133828
3.031293 32.763867 -20.249184
7.910291 32.138610 -22.635777
8.187153 35.872092 -18.761859
-4.258154 25.961090 -23.289240
-1.489445 29.936090 -21.035517
-5.602597 27.092489 -21.603206
-1.459576 26.678137 -23.951341
-4.258819 29.047148 -20.426766
-4.534018 34.526792 -12.270695
-1.542683 33.049191 -17.340157
-5.831663 32.773331 -14.275642
-1.571015 35.816585 -12.709777
-4.357544 31.996720 -16.770105
4.585077 27.954272 -25.077288
1.531658 30.784518 -21.631691
6.211701 30.037935 -23.951867
1.496344 27.350194 -24.554707
4.620843 31.516323 -22.163159
0.000000 28.745639 -22.851939
5.013474 38.177875 -13.568276
1.591756 34.100488 -17.891748
6.621326 37.211152 -16.208700
1.625166 37.051133 -13.147866
4.770819 35.031324 -18.360600
0.000000 35.103550 -15.364617
0.000000 -15.877009 -30.173665
0.000000 -11.348566 -31.481470
0.000000 -2.268094 -32.725110
0.000000 -6.806946 -32.317901
0.000000 15.877009 -30.173665
0.000000 11.348566 -31.481470
0.000000 2.268094 -32.725110
0.000000 6.806946 -32.317901
31.797200 45.534915 -2.258961
37.924194 43.035125 -7.000486
29.992422 44.951743 -5.787734
43.354213 30.609475 -15.102598
41.781022 37.651308 -11.440572
25.792117 42.475813 -12.135096
35.474375 41.914663 -10.477852
27.943929 43.875676 -9.111500
32.951559 43.767929 -8.165310
36.809002 2.814998 -21.673980
39.854531 9.022239 -21.185266
43.371870 23.185504 -17.949215
42.155138 15.895575 -19.981739
17.032655 34.979159 -21.618309
25.014184 34.723088 -21.460048
19.154153 37.009584 -19.685888
40.470246 29.402622 -18.171820
33.116455 32.983464 -20.384902
39.934469 32.920732 -16.587635
23.525379 40.763353 -15.007667
27.526041 36.695574 -19.236901
21.334612 38.959507 -17.470810
28.144311 40.793972 -14.473061
23.302635 37.024979 -19.566735
37.530452 39.297961 -12.777737
31.911791 35.924121 -18.635837
38.974341 36.287585 -14.776614
32.891935 40.349198 -13.738737
36.043877 34.694536 -17.768964
30.207075 38.572598 -16.671375
19.472289 -27.885128 -1.383365
22.373737 -25.388980 -4.130003
18.790607 -28.162798 -3.626084
27.593187 -19.481681 -9.612187
25.079188 -22.600314 -6.867239
17.178270 -28.290077 -8.082313
21.592639 -25.512730 -6.377687
18.022273 -28.297360 -5.876409
20.226329 -26.865634 -5.012032
34.799630 -2.661330 -20.490817
33.621555 -7.611222 -17.872036
29.896783 -15.982064 -12.372623
31.938152 -12.043023 -15.138838
13.046930 -26.793862 -16.559518
17.645608 -24.494503 -15.138435
14.167843 -27.375053 -14.561153
26.536603 -19.279490 -11.915380
22.103267 -22.014504 -13.605711
25.402286 -20.940853 -10.551382
16.228641 -28.120007 -10.352821
18.722028 -24.958749 -13.084111
15.235221 -27.821303 -12.476048
18.503270 -26.819697 -9.515208
16.477422 -26.180567 -13.835747
22.949109 -24.029905 -7.813327
21.008838 -23.650319 -12.268734
24.199689 -22.531446 -9.174997
20.748518 -25.452624 -8.666515
23.200936 -22.332384 -11.437632
19.785167 -25.264455 -10.919492
2.232655 -17.190252 -29.194269
6.523992 -15.319092 -28.818861
3.619755 -18.757812 -28.113646
2.214486 -14.984819 -30.043545
14.789522 -11.449409 -27.665960
10.674874 -13.418989 -28.309814
6.381545 -21.605701 -25.528164
7.908630 -16.809121 -27.682143
5.015220 -20.239196 -26.882725
5.797073 -17.778960 -27.915326
2.189788 -10.503490 -31.373367
6.503537 -13.156942 -29.681335
2.202534 -12.740954 -30.771450
4.389415 -14.071711 -29.878327
32.659467 -1.620217 -22.806227
27.851324 -4.530550 -24.543649
32.364827 -4.167113 -21.594259
18.966258 -9.357879 -26.863159
23.295832 -7.078576 -25.850992
31.305267 -8.943735 -19.009150
27.627406 -6.906315 -23.382389
31.901077 -6.624779 -20.317440
29.957201 -5.588792 -22.553877
11.640472 -25.924357 -18.834679
13.418060 -21.798416 -21.710876
10.404156 -25.047841 -20.648660
14.012273 -24.860862 -18.156065
16.280609 -12.827182 -26.342578
14.957339 -17.434519 -24.201483
14.218796 -13.834732 -26.731418
7.797493 -22.902603 -23.981209
12.116024 -20.747339 -23.355941
9.112188 -24.034026 -22.377203
8.595054 -20.577435 -25.242753
11.297398 -22.916475 -22.058572
18.629108 -22.581220 -16.741413
15.783899 -20.755346 -21.059390
16.351222 -23.740248 -17.455283
14.929915 -22.833420 -19.663500
10.084520 -15.808063 -27.391255
12.894433 -18.450617 -24.596925
12.144896 -14.830832 -27.082841
9.359637 -18.200749 -26.381205
13.584149 -16.177786 -25.704484
10.774447 -19.522356 -24.928862
2.188546 -1.352596 -32.690402
6.536929 -4.040044 -32.008748
2.187954 -3.620440 -32.524358
14.897828 -9.207364 -28.579349
10.796306 -6.672484 -30.640760
12.824047 -10.223831 -28.901842
2.195279 -8.156446 -31.878501
6.521825 -6.306202 -31.606253
2.188726 -5.901807 -32.253095
4.370267 -9.557746 -31.245673
4.374142 -4.974594 -32.149675
8.674474 -12.170469 -29.450148
8.709854 -7.664741 -30.864349
10.742083 -11.216431 -29.192281
6.543024 -10.903786 -30.431122
10.784571 -8.954703 -29.972810
6.551019 -8.606089 -31.075735
27.805025 -17.184451 -13.539303
25.338518 -15.660065 -18.253629
28.795860 -15.316899 -14.903175
25.526268 -18.642016 -14.387314
18.758820 -11.593588 -25.819944
22.278787 -13.769048 -22.368617
20.875385 -10.518395 -25.322870
18.094632 -13.964861 -24.776741
30.541047 -11.244165 -17.625873
26.062917 -13.662949 -19.550285
29.718249 -13.326705 -16.274007
28.973196 -10.279235 -19.988998
27.506059 -14.536234 -17.311654
20.996339 -21.303914 -15.967167
22.992892 -17.046621 -18.968730
23.246002 -20.018804 -15.199687
19.648943 -20.510800 -18.254428
24.331555 -17.890048 -16.758488
25.262464 -8.214094 -24.126231
24.420860 -12.668456 -21.693318
23.052746 -9.387275 -24.759586
27.195346 -9.259904 -22.169153
22.707654 -11.629828 -23.590801
26.665794 -11.525162 -20.882587
16.626045 -18.500732 -22.425609
21.437999 -16.067664 -21.128489
17.380028 -16.280727 -23.637897
18.178397 -19.567103 -20.425371
19.829232 -15.055750 -23.025869
20.591939 -18.326642 -19.726672
2.290861 17.638402 -29.955363
6.997139 16.430097 -30.908925
3.790425 19.642233 -29.439190
2.264542 15.323533 -30.722645
16.726083 12.948611 -31.288580
11.834560 14.876787 -31.385308
7.026235 23.788395 -28.107121
8.692133 18.474391 -30.424598
5.377877 21.702717 -28.826648
6.228131 19.100966 -29.991051
2.224168 10.668396 -31.865932
6.904238 13.967577 -31.510083
2.244706 12.984908 -31.360637
4.579812 14.682091 -31.174341
33.724801 1.673068 -23.550154
30.261264 4.922573 -26.667381
35.255009 4.539237 -23.522628
31.229212 0.000000 -24.527889
21.547718 10.631562 -30.519451
26.128482 7.939293 -28.994337
37.974889 10.849208 -23.059071
31.470560 7.867029 -26.635034
36.694240 7.620158 -23.370152
33.457746 6.241851 -25.189332
26.390574 -2.999238 -26.079849
27.779592 3.157097 -27.452512
28.765800 -1.560078 -25.368530
29.583206 1.604410 -26.089400
14.581285 32.473809 -23.593015
16.754992 27.219457 -27.110147
12.596313 30.325424 -24.999335
18.325710 32.513849 -23.745097
18.996046 14.966624 -30.736247
18.219590 21.237053 -29.479917
16.437167 15.993184 -30.901970
8.851043 25.997062 -27.221403
14.618044 25.031769 -28.179061
10.671635 28.147175 -26.206806
9.758278 23.362312 -28.659017
13.690841 27.771511 -26.731854
26.132748 31.676735 -23.484706
20.343214 26.750707 -27.142577
22.221122 32.262723 -23.721528
19.440950 29.732478 -25.604776
11.316476 17.739226 -30.737457
15.403783 22.041242 -29.383667
13.855710 16.920005 -30.897916
10.584883 20.583360 -29.834698
15.997324 19.051711 -30.270792
12.574279 22.783495 -29.093138
2.192928 1.355304 -32.755845
6.655805 4.113514 -32.590837
2.199721 3.639911 -32.699276
4.397103 0.000000 -32.636439
16.431110 10.154984 -31.520730
11.351115 7.015375 -32.215352
14.084979 11.229095 -31.743633
2.222094 8.256076 -32.267891
6.708911 6.487102 -32.512913
2.207978 5.953717 -32.536782
4.497338 9.835652 -32.154186
4.439497 5.048921 -32.630030
8.809160 -2.703978 -31.871842
8.952792 2.748065 -32.391505
6.619955 -1.362890 -32.340307
6.660412 1.371219 -32.537950
9.347282 13.114432 -31.734354
9.123881 8.029088 -32.331499
11.705787 12.222691 -31.811207
6.876193 11.459004 -31.980667
11.544204 9.585445 -32.084004
6.811795 8.948671 -32.312765
40.639225 25.116423 -19.788753
34.448810 21.290536 -24.816597
40.422425 21.501223 -20.920455
37.498059 27.385101 -21.134949
22.013189 13.604899 -30.299310
28.095990 17.364277 -28.209275
24.497305 12.343357 -29.716437
21.874655 16.882163 -29.952678
39.077223 14.386892 -22.552278
34.091610 17.871826 -25.572758
39.893102 17.889467 -21.845858
35.826932 12.710833 -24.717483
37.290921 19.707279 -23.470012
30.207559 30.650068 -22.972060
31.270712 23.183685 -25.797786
33.958281 29.243919 -22.204044
27.105581 28.294507 -25.181859
34.396533 25.290436 -23.690795
29.227043 9.503177 -27.912495
30.763899 15.958943 -27.327909
26.925078 10.964121 -28.918628
32.502679 11.067030 -26.495595
27.593549 14.132161 -28.666718
33.393280 14.432833 -26.151034
21.072580 23.448641 -28.423203
27.984143 20.973963 -27.580123
21.565719 20.201669 -29.330691
24.028163 25.863751 -26.998207
24.899045 18.905110 -28.912978
27.721370 24.671771 -26.556527
17.394941 -7.943520 -28.145606
18.285498 -2.737331 -29.586556
19.532102 -6.825681 -27.731967
15.344769 -6.696030 -29.338721
19.182955 8.760029 -31.038673
18.908113 2.830536 -30.593970
21.439628 7.492285 -30.440300
16.487815 7.194824 -31.524191
23.977078 -4.383916 -26.727840
20.507592 -1.452065 -29.184789
21.736376 -5.637133 -27.259496
24.677940 -1.503854 -27.487457
20.050697 -4.180411 -28.512373
11.085169 -4.095967 -31.191008
16.041293 -1.427129 -30.573644
13.224459 -5.402250 -30.360076
11.234160 -1.388618 -31.658244
15.729267 -4.087093 -30.010842
25.724360 4.703386 -28.675578
20.910531 1.480596 -29.758219
23.642090 6.131363 -29.649445
25.271362 1.540017 -28.148438
21.220999 4.424410 -30.176558
22.832792 0.000000 -28.721553
11.435107 4.225269 -32.175648
16.287065 1.448994 -31.042068
13.893916 5.675726 -31.896983
11.352494 1.403245 -31.991715
16.434554 4.270355 -31.356502
13.736595 0.000000 -31.384007
31.797200 45.534915 2.258961
37.924194 43.035125 7.000486
29.992422 44.951743 5.787734
35.499343 45.198203 0.000000
43.354213 30.609475 15.102598
41.781022 37.651308 11.440572
25.792117 42.475813 12.135096
35.474375 41.914663 10.477852
27.943929 43.875676 9.111500
32.951559 43.767929 8.165310
41.752524 42.249980 -4.801629
41.752524 42.249980 4.801629
38.930176 44.143577 -2.394074
38.930176 44.143577 2.394074
36.809002 2.814998 21.673980
39.854531 9.022239 21.185266
43.371870 23.185504 17.949215
42.155138 15.895575 19.981739
17.032655 34.979159 21.618309
25.014184 34.723088 21.460048
19.154153 37.009584 19.685888
40.470246 29.402622 18.171820
33.116455 32.983464 20.384902
39.934469 32.920732 16.587635
23.525379 40.763353 15.007667
27.526041 36.695574 19.236901
21.334612 38.959507 17.470810
28.144311 40.793972 14.473061
23.302635 37.024979 19.566735
37.530452 39.297961 12.777737
31.911791 35.924121 18.635837
38.974341 36.287585 14.776614
32.891935 40.349198 13.738737
36.043877 34.694536 17.768964
30.207075 38.572598 16.671375
46.167104 28.532840 -13.029719
49.943778 30.866952 -4.620769
45.918967 32.341519 -11.302056
46.167104 28.532840 13.029719
49.943778 30.866952 4.620769
45.918967 32.341519 11.302056
43.918891 39.398869 -7.203603
49.196184 34.569216 -2.447716
45.215299 36.054104 -9.350307
45.150945 40.536028 -2.470233
47.996321 33.752354 -7.037098
43.918891 39.398869 7.203603
49.196184 34.569216 2.447716
45.215299 36.054104 9.350307
45.150945 40.536028 2.470233
47.996321 33.752354 7.037098
47.674106 37.899515 0.000000
19.472289 -27.885128 1.383365
22.373737 -25.388980 4.130003
18.790607 -28.162798 3.626084
21.023185 -26.766980 0.000000
27.593187 -19.481681 9.612187
25.079188 -22.600314 6.867239
17.178270 -28.290077 8.082313
21.592639 -25.512730 6.377687
18.022273 -28.297360 5.876409
20.226329 -26.865634 5.012032
24.007369 -24.293402 -2.760899
24.007369 -24.293402 2.760899
22.543833 -25.562828 -1.386369
22.543833 -25.562828 1.386369
34.799630 -2.661330 20.490817
33.621555 -7.611222 17.872036
29.896783 -15.982064 12.372623
31.938152 -12.043023 15.138838
13.046930 -26.793862 16.559518
17.645608 -24.494503 15.138435
14.167843 -27.375053 14.561153
26.536603 -19.279490 11.915380
22.103267 -22.014504 13.605711
25.402286 -20.940853 10.551382
16.228641 -28.120007 10.352821
18.722028 -24.958749 13.084111
15.235221 -27.821303 12.476048
18.503270 -26.819697 9.515208
16.477422 -26.180567 13.835747
22.949109 -24.029905 7.813327
21.008838 -23.650319 12.268734
24.199689 -22.531446 9.174997
20.748518 -25.452624 8.666515
23.200936 -22.332384 11.437632
19.785167 -25.264455 10.919492
29.545054 -18.259848 -8.338486
30.447233 -18.817425 -2.816960
28.242349 -19.891573 -6.951302
29.545054 -18.259848 8.338486
30.447233 -18.817425 2.816960
28.242349 -19.891573 6.951302
25.501595 -22.877035 -4.182787
28.908407 -20.313384 -1.438314
26.884967 -21.437731 -5.559682
25.679007 -23.054334 -1.404913
28.684937 -20.172049 -4.205712
25.501595 -22.877035 4.182787
28.908407 -20.313384 1.438314
26.884967 -21.437731 5.559682
25.679007 -23.054334 1.404913
28.684937 -20.172049 4.205712
27.323991 -21.721771 0.000000
2.232655 -17.190252 29.194269
6.523992 -15.319092 28.818861
3.619755 -18.757812 28.113646
2.214486 -14.984819 30.043545
14.789522 -11.449409 27.665960
10.674874 -13.418989 28.309814
6.381545 -21.605701 25.528164
7.908630 -16.809121 27.682143
5.015220 -20.239196 26.882725
5.797073 -17.778960 27.915326
2.189788 -10.503490 31.373367
6.503537 -13.156942 29.681335
2.202534 -12.740954 30.771450
4.389415 -14.071711 29.878327
32.659467 -1.620217 22.806227
27.851324 -4.530550 24.543649
32.364827 -4.167113 21.594259
18.966258 -9.357879 26.863159
23.295832 -7.078576 25.850992
31.305267 -8.943735 19.009150
27.627406 -6.906315 23.382389
31.901077 -6.624779 20.317440
29.957201 -5.588792 22.553877
11.640472 -25.924357 18.834679
13.418060 -21.798416 21.710876
10.404156 -25.047841 20.648660
14.012273 -24.860862 18.156065
16.280609 -12.827182 26.342578
14.957339 -17.434519 24.201483
14.218796 -13.834732 26.731418
7.797493 -22.902603 23.981209
12.116024 -20.747339 23.355941
9.112188 -24.034026 22.377203
8.595054 -20.577435 25.242753
11.297398 -22.916475 22.058572
18.629108 -22.581220 16.741413
15.783899 -20.755346 21.059390
16.351222 -23.740248 17.455283
14.929915 -22.833420 19.663500
10.084520 -15.808063 27.391255
12.894433 -18.450617 24.596925
12.144896 -14.830832 27.082841
9.359637 -18.200749 26.381205
13.584149 -16.177786 25.704484
10.774447 -19.522356 24.928862
2.188546 -1.352596 32.690402
6.536929 -4.040044 32.008748
2.187954 -3.620440 32.524358
14.897828 -9.207364 28.579349
10.796306 -6.672484 30.640760
12.824047 -10.223831 28.901842
2.195279 -8.156446 31.878501
6.521825 -6.306202 31.606253
2.188726 -5.901807 32.253095
4.370267 -9.557746 31.245673
4.374142 -4.974594 32.149675
8.674474 -12.170469 29.450148
8.709854 -7.664741 30.864349
10.742083 -11.216431 29.192281
6.543024 -10.903786 30.431122
10.784571 -8.954703 29.972810
6.551019 -8.606089 31.075735
27.805025 -17.184451 13.539303
25.338518 -15.660065 18.253629
28.795860 -15.316899 14.903175
25.526268 -18.642016 14.387314
18.758820 -11.593588 25.819944
22.278787 -13.769048 22.368617
20.875385 -10.518395 25.322870
18.094632 -13.964861 24.776741
30.541047 -11.244165 17.625873
26.062917 -13.662949 19.550285
29.718249 -13.326705 16.274007
28.973196 -10.279235 19.988998
27.506059 -14.536234 17.311654
20.996339 -21.303914 15.967167
22.992892 -17.046621 18.968730
23.246002 -20.018804 15.199687
19.648943 -20.510800 18.254428
24.331555 -17.890048 16.758488
25.262464 -8.214094 24.126231
24.420860 -12.668456 21.693318
23.052746 -9.387275 24.759586
27.195346 -9.259904 22.169153
22.707654 -11.629828 23.590801
26.665794 -11.525162 20.882587
16.626045 -18.500732 22.425609
21.437999 -16.067664 21.128489
17.380028 -16.280727 23.637897
18.178397 -19.567103 20.425371
19.829232 -15.055750 23.025869
20.591939 -18.326642 19.726672
2.290861 17.638402 29.955363
6.997139 16.430097 30.908925
3.790425 19.642233 29.439190
2.264542 15.323533 30.722645
16.726083 12.948611 31.288580
11.834560 14.876787 31.385308
7.026235 23.788395 28.107121
8.692133 18.474391 30.424598
5.377877 21.702717 28.826648
6.228131 19.100966 29.991051
2.224168 10.668396 31.865932
6.904238 13.967577 31.510083
2.244706 12.984908 31.360637
4.579812 14.682091 31.174341
33.724801 1.673068 23.550154
30.261264 4.922573 26.667381
35.255009 4.539237 23.522628
31.229212 0.000000 24.527889
21.547718 10.631562 30.519451
26.128482 7.939293 28.994337
37.974889 10.849208 23.059071
31.470560 7.867029 26.635034
36.694240 7.620158 23.370152
33.457746 6.241851 25.189332
26.390574 -2.999238 26.079849
27.779592 3.157097 27.452512
28.765800 -1.560078 25.368530
29.583206 1.604410 26.089400
14.581285 32.473809 23.593015
16.754992 27.219457 27.110147
12.596313 30.325424 24.999335
18.325710 32.513849 23.745097
18.996046 14.966624 30.736247
18.219590 21.237053 29.479917
16.437167 15.993184 30.901970
8.851043 25.997062 27.221403
14.618044 25.031769 28.179061
10.671635 28.147175 26.206806
9.758278 23.362312 28.659017
13.690841 27.771511 26.731854
26.132748 31.676735 23.484706
20.343214 26.750707 27.142577
22.221122 32.262723 23.721528
19.440950 29.732478 25.604776
11.316476 17.739226 30.737457
15.403783 22.041242 29.383667
13.855710 16.920005 30.897916
10.584883 20.583360 29.834698
15.997324 19.051711 30.270792
12.574279 22.783495 29.093138
2.192928 1.355304 32.755845
6.655805 4.113514 32.590837
2.199721 3.639911 32.699276
4.397103 0.000000 32.636439
16.431110 10.154984 31.520730
11.351115 7.015375 32.215352
14.084979 11.229095 31.743633
2.222094 8.256076 32.267891
6.708911 6.487102 32.512913
2.207978 5.953717 32.536782
4.497338 9.835652 32.154186
4.439497 5.048921 32.630030
8.809160 -2.703978 31.871842
8.952792 2.748065 32.391505
6.619955 -1.362890 32.340307
6.660412 1.371219 32.537950
9.347282 13.114432 31.734354
9.123881 8.029088 32.331499
11.705787 12.222691 31.811207
6.876193 11.459004 31.980667
11.544204 9.585445 32.084004
6.811795 8.948671 32.312765
40.639225 25.116423 19.788753
34.448810 21.290536 24.816597
40.422425 21.501223 20.920455
37.498059 27.385101 21.134949
22.013189 13.604899 30.299310
28.095990 17.364277 28.209275
24.497305 12.343357 29.716437
21.874655 16.882163 29.952678
39.077223 14.386892 22.552278
34.091610 17.871826 25.572758
39.893102 17.889467 21.845858
35.826932 12.710833 24.717483
37.290921 19.707279 23.470012
30.207559 30.650068 22.972060
31.270712 23.183685 25.797786
33.958281 29.243919 22.204044
27.105581 28.294507 25.181859
34.396533 25.290436 23.690795
29.227043 9.503177 27.912495
30.763899 15.958943 27.327909
26.925078 10.964121 28.918628
32.502679 11.067030 26.495595
27.593549 14.132161 28.666718
33.393280 14.432833 26.151034
21.072580 23.448641 28.423203
27.984143 20.973963 27.580123
21.565719 20.201669 29.330691
24.028163 25.863751 26.998207
24.899045 18.905110 28.912978
27.721370 24.671771 26.556527
17.394941 -7.943520 28.145606
18.285498 -2.737331 29.586556
19.532102 -6.825681 27.731967
15.344769 -6.696030 29.338721
19.182955 8.760029 31.038673
18.908113 2.830536 30.593970
21.439628 7.492285 30.440300
16.487815 7.194824 31.524191
23.977078 -4.383916 26.727840
20.507592 -1.452065 29.184789
21.736376 -5.637133 27.259496
24.677940 -1.503854 27.487457
20.050697 -4.180411 28.512373
11.085169 -4.095967 31.191008
16.041293 -1.427129 30.573644
13.224459 -5.402250 30.360076
11.234160 -1.388618 31.658244
15.729267 -4.087093 30.010842
25.724360 4.703386 28.675578
20.910531 1.480596 29.758219
23.642090 6.131363 29.649445
25.271362 1.540017 28.148438
21.220999 4.424410 30.176558
22.832792 0.000000 28.721553
11.435107 4.225269 32.175648
16.287065 1.448994 31.042068
13.893916 5.675726 31.896983
11.352494 1.403245 31.991715
16.434554 4.270355 31.356502
13.736595 0.000000 31.384007
37.426645 0.000000 -19.693438
41.501875 0.000000 -14.960761
39.190890 2.888729 -19.547240
36.916525 -2.721088 -18.412855
46.222019 0.000000 -3.203530
44.565434 0.000000 -9.386579
42.393950 9.289024 -18.792104
43.408151 3.029788 -14.532616
40.877849 6.005351 -19.252125
41.423867 2.965004 -17.151599
35.397687 -7.756059 -15.690847
40.626510 -2.835636 -13.601350
36.228861 -5.322370 -17.062604
38.884450 -2.783240 -16.100151
37.426645 0.000000 19.693438
41.501875 0.000000 14.960761
39.190890 2.888729 19.547240
36.916525 -2.721088 18.412855
46.222019 0.000000 3.203530
44.565434 0.000000 9.386579
42.393950 9.289024 18.792104
43.408151 3.029788 14.532616
40.877849 6.005351 19.252125
41.423867 2.965004 17.151599
35.397687 -7.756059 15.690847
40.626510 -2.835636 13.601350
36.228861 -5.322370 17.062604
38.884450 -2.783240 16.100151
46.016692 23.987557 -14.825126
49.102558 17.301340 -10.692816
45.560364 20.215606 -16.116670
48.370495 25.298787 -11.039687
47.971870 3.211605 -1.984881
49.671427 10.144057 -6.269372
47.470184 3.193379 -5.284131
43.765892 12.891144 -18.086545
48.137340 13.584255 -11.954254
44.801621 16.485958 -17.213945
44.779773 9.628141 -16.045056
47.162390 16.969585 -14.090277
51.185708 26.855973 -2.389267
50.687406 18.014118 -6.656211
50.185038 26.302957 -6.834561
49.875666 21.725199 -8.874840
45.183139 3.111489 -11.560577
48.502585 10.008316 -9.677424
46.521151 3.156970 -8.512636
45.248308 6.328786 -13.841016
48.258678 6.565862 -7.467178
46.856780 9.877792 -12.976479
31.034853 -16.177832 -9.998450
35.633349 -12.555450 -7.759695
32.228168 -14.299973 -11.400496
31.752351 -16.607148 -7.246897
44.570352 -2.983881 -1.844140
40.249232 -8.219827 -5.080132
44.137705 -2.969199 -4.913177
34.416833 -10.137400 -14.222984
37.006162 -10.443061 -9.189977
33.365624 -12.277776 -12.819938
36.983110 -7.951773 -13.251431
34.611621 -12.453670 -10.340598
32.495758 -17.049783 -1.516850
36.215505 -12.870857 -4.755778
32.246458 -16.900998 -4.391556
33.993532 -14.807146 -6.048785
42.156801 -2.903084 -10.786256
39.488769 -8.148351 -7.878952
43.319414 -2.939697 -7.926769
39.592305 -5.537693 -12.110900
41.854234 -5.694501 -6.476203
38.365038 -8.087664 -10.624783
46.016692 23.987557 14.825126
49.102558 17.301340 10.692816
45.560364 20.215606 16.116670
48.370495 25.298787 11.039687
47.971870 3.211605 1.984881
49.671427 10.144057 6.269372
47.470184 3.193379 5.284131
49.434194 6.660262 0.000000
43.765892 12.891144 18.086545
48.137340 13.584255 11.954254
44.801621 16.485958 17.213945
44.779773 9.628141 16.045056
47.162390 16.969585 14.090277
51.185708 26.855973 2.389267
50.687406 18.014118 6.656211
50.185038 26.302957 6.834561
51.692058 22.625309 0.000000
49.875666 21.725199 8.874840
45.183139 3.111489 11.560577
48.502585 10.008316 9.677424
46.521151 3.156970 8.512636
45.248308 6.328786 13.841016
48.258678 6.565862 7.467178
46.856780 9.877792 12.976479
50.863039 14.058198 -4.315173
50.863039 14.058198 4.315173
50.426913 10.322224 -2.125098
51.556308 18.295133 -2.261403
50.426913 10.322224 2.125098
51.556308 18.295133 2.261403
31.034853 -16.177832 9.998450
35.633349 -12.555450 7.759695
32.228168 -14.299973 11.400496
31.752351 -16.607148 7.246897
44.570352 -2.983881 1.844140
40.249232 -8.219827 5.080132
44.137705 -2.969199 4.913177
42.725421 -5.756390 0.000000
34.416833 -10.137400 14.222984
37.006162 -10.443061 9.189977
33.365624 -12.277776 12.819938
36.983110 -7.951773 13.251431
34.611621 -12.453670 10.340598
32.495758 -17.049783 1.516850
36.215505 -12.870857 4.755778
32.246458 -16.900998 4.391556
34.543515 -15.119493 0.000000
33.993532 -14.807146 6.048785
42.156801 -2.903084 10.786256
39.488769 -8.148351 7.878952
43.319414 -2.939697 7.926769
39.592305 -5.537693 12.110900
41.854234 -5.694501 6.476203
38.365038 -8.087664 10.624783
38.526786 -10.648542 -3.268577
38.526786 -10.648542 3.268577
40.672071 -8.325440 -1.714008
36.576267 -12.979356 -1.604337
40.672071 -8.325440 1.714008
36.576267 -12.979356 1.604337
-19.472289 27.885128 -1.383365
-22.373737 25.388980 -4.130003
-18.790607 28.162798 -3.626084
-27.593187 19.481681 -9.612187
-25.079188 22.600314 -6.867239
-17.178270 28.290077 -8.082313
-21.592639 25.512730 -6.377687
-18.022273 28.297360 -5.876409
-20.226329 26.865634 -5.012032
-34.799630 2.661330 -20.490817
-33.621555 7.611222 -17.872036
-29.896783 15.982064 -12.372623
-31.938152 12.043023 -15.138838
-13.046930 26.793862 -16.559518
-17.645608 24.494503 -15.138435
-14.167843 27.375053 -14.561153
-26.536603 19.279490 -11.915380
-22.103267 22.014504 -13.605711
-25.402286 20.940853 -10.551382
-16.228641 28.120007 -10.352821
-18.722028 24.958749 -13.084111
-15.235221 27.821303 -12.476048
-18.503270 26.819697 -9.515208
-16.477422 26.180567 -13.835747
-22.949109 24.029905 -7.813327
-21.008838 23.650319 -12.268734
-24.199689 22.531446 -9.174997
-20.748518 25.452624 -8.666515
-23.200936 22.332384 -11.437632
-19.785167 25.264455 -10.919492
-31.797200 -45.534915 -2.258961
-37.924194 -43.035125 -7.000486
-29.992422 -44.951743 -5.787734
-43.354213 -30.609475 -15.102598
-41.781022 -37.651308 -11.440572
-25.792117 -42.475813 -12.135096
-35.474375 -41.914663 -10.477852
-27.943929 -43.875676 -9.111500
-32.951559 -43.767929 -8.165310
-36.809002 -2.814998 -21.673980
-39.854531 -9.022239 -21.185266
-43.371870 -23.185504 -17.949215
-42.155138 -15.895575 -19.981739
-17.032655 -34.979159 -21.618309
-25.014184 -34.723088 -21.460048
-19.154153 -37.009584 -19.685888
-40.470246 -29.402622 -18.171820
-33.116455 -32.983464 -20.384902
-39.934469 -32.920732 -16.587635
-23.525379 -40.763353 -15.007667
-27.526041 -36.695574 -19.236901
-21.334612 -38.959507 -17.470810
-28.144311 -40.793972 -14.473061
-23.302635 -37.024979 -19.566735
-37.530452 -39.297961 -12.777737
-31.911791 -35.924121 -18.635837
-38.974341 -36.287585 -14.776614
-32.891935 -40.349198 -13.738737
-36.043877 -34.694536 -17.768964
-30.207075 -38.572598 -16.671375
-2.290861 -17.638402 -29.955363
-6.997139 -16.430097 -30.908925
-3.790425 -19.642233 -29.439190
-2.264542 -15.323533 -30.722645
-16.726083 -12.948611 -31.288580
-11.834560 -14.876787 -31.385308
-7.026235 -23.788395 -28.107121
-8.692133 -18.474391 -30.424598
-5.377877 -21.702717 -28.826648
-6.228131 -19.100966 -29.991051
-2.224168 -10.668396 -31.865932
-6.904238 -13.967577 -31.510083
-2.244706 -12.984908 -31.360637
-4.579812 -14.682091 -31.174341
-33.724801 -1.673068 -23.550154
-30.261264 -4.922573 -26.667381
-35.255009 -4.539237 -23.522628
-21.547718 -10.631562 -30.519451
-26.128482 -7.939293 -28.994337
-37.974889 -10.849208 -23.059071
-31.470560 -7.867029 -26.635034
-36.694240 -7.620158 -23.370152
-33.457746 -6.241851 -25.189332
-14.581285 -32.473809 -23.593015
-16.754992 -27.219457 -27.110147
-12.596313 -30.325424 -24.999335
-18.325710 -32.513849 -23.745097
-18.996046 -14.966624 -30.736247
-18.219590 -21.237053 -29.479917
-16.437167 -15.993184 -30.901970
-8.851043 -25.997062 -27.221403
-14.618044 -25.031769 -28.179061
-10.671635 -28.147175 -26.206806
-9.758278 -23.362312 -28.659017
-13.690841 -27.771511 -26.731854
-26.132748 -31.676735 -23.484706
-20.343214 -26.750707 -27.142577
-22.221122 -32.262723 -23.721528
-19.440950 -29.732478 -25.604776
-11.316476 -17.739226 -30.737457
-15.403783 -22.041242 -29.383667
-13.855710 -16.920005 -30.897916
-10.584883 -20.583360 -29.834698
-15.997324 -19.051711 -30.270792
-12.574279 -22.783495 -29.093138
-2.192928 -1.355304 -32.755845
-6.655805 -4.113514 -32.590837
-2.199721 -3.639911 -32.699276
-16.431110 -10.154984 -31.520730
-11.351115 -7.015375 -32.215352
-14.084979 -11.229095 -31.743633
-2.222094 -8.256076 -32.267891
-6.708911 -6.487102 -32.512913
-2.207978 -5.953717 -32.536782
-4.497338 -9.835652 -32.154186
-4.439497 -5.048921 -32.630030
-9.347282 -13.114432 -31.734354
-9.123881 -8.029088 -32.331499
-11.705787 -12.222691 -31.811207
-6.876193 -11.459004 -31.980667
-11.544204 -9.585445 -32.084004
-6.811795 -8.948671 -32.312765
-40.639225 -25.116423 -19.788753
-34.448810 -21.290536 -24.816597
-40.422425 -21.501223 -20.920455
-37.498059 -27.385101 -21.134949
-22.013189 -13.604899 -30.299310
-28.095990 -17.364277 -28.209275
-24.497305 -12.343357 -29.716437
-21.874655 -16.882163 -29.952678
-39.077223 -14.386892 -22.552278
-34.091610 -17.871826 -25.572758
-39.893102 -17.889467 -21.845858
-35.826932 -12.710833 -24.717483
-37.290921 -19.707279 -23.470012
-30.207559 -30.650068 -22.972060
-31.270712 -23.183685 -25.797786
-33.958281 -29.243919 -22.204044
-27.105581 -28.294507 -25.181859
-34.396533 -25.290436 -23.690795
-29.227043 -9.503177 -27.912495
-30.763899 -15.958943 -27.327909
-26.925078 -10.964121 -28.918628
-32.502679 -11.067030 -26.495595
-27.593549 -14.132161 -28.666718
-33.393280 -14.432833 -26.151034
-21.072580 -23.448641 -28.423203
-27.984143 -20.973963 -27.580123
-21.565719 -20.201669 -29.330691
-24.028163 -25.863751 -26.998207
-24.899045 -18.905110 -28.912978
-27.721370 -24.671771 -26.556527
-2.232655 17.190252 -29.194269
-6.523992 15.319092 -28.818861
-3.619755 18.757812 -28.113646
-2.214486 14.984819 -30.043545
-14.789522 11.449409 -27.665960
-10.674874 13.418989 -28.309814
-6.381545 21.605701 -25.528164
-7.908630 16.809121 -27.682143
-5.015220 20.239196 -26.882725
-5.797073 17.778960 -27.915326
-2.189788 10.503490 -31.373367
-6.503537 13.156942 -29.681335
-2.202534 12.740954 -30.771450
-4.389415 14.071711 -29.878327
-32.659467 1.620217 -22.806227
-27.851324 4.530550 -24.543649
-32.364827 4.167113 -21.594259
-31.229212 0.000000 -24.527889
-18.966258 9.357879 -26.863159
-23.295832 7.078576 -25.850992
-31.305267 8.943735 -19.009150
-27.627406 6.906315 -23.382389
-31.901077 6.624779 -20.317440
-29.957201 5.588792 -22.553877
-27.779592 -3.157097 -27.452512
-26.390574 2.999238 -26.079849
-29.583206 -1.604410 -26.089400
-28.765800 1.560078 -25.368530
-11.640472 25.924357 -18.834679
-13.418060 21.798416 -21.710876
-10.404156 25.047841 -20.648660
-14.012273 24.860862 -18.156065
-16.280609 12.827182 -26.342578
-14.957339 17.434519 -24.201483
-14.218796 13.834732 -26.731418
-7.797493 22.902603 -23.981209
-12.116024 20.747339 -23.355941
-9.112188 24.034026 -22.377203
-8.595054 20.577435 -25.242753
-11.297398 22.916475 -22.058572
-18.629108 22.581220 -16.741413
-15.783899 20.755346 -21.059390
-16.351222 23.740248 -17.455283
-14.929915 22.833420 -19.663500
-10.084520 15.808063 -27.391255
-12.894433 18.450617 -24.596925
-12.144896 14.830832 -27.082841
-9.359637 18.200749 -26.381205
-13.584149 16.177786 -25.704484
-10.774447 19.522356 -24.928862
-2.188546 1.352596 -32.690402
-6.536929 4.040044 -32.008748
-2.187954 3.620440 -32.524358
-4.397103 0.000000 -32.636439
-14.897828 9.207364 -28.579349
-10.796306 6.672484 -30.640760
-12.824047 10.223831 -28.901842
-2.195279 8.156446 -31.878501
-6.521825 6.306202 -31.606253
-2.188726 5.901807 -32.253095
-4.370267 9.557746 -31.245673
-4.374142 4.974594 -32.149675
-8.952792 -2.748065 -32.391505
-8.809160 2.703978 -31.871842
-6.660412 -1.371219 -32.537950
-6.619955 1.362890 -32.340307
-8.674474 12.170469 -29.450148
-8.709854 7.664741 -30.864349
-10.742083 11.216431 -29.192281
-6.543024 10.903786 -30.431122
-10.784571 8.954703 -29.972810
-6.551019 8.606089 -31.075735
-27.805025 17.184451 -13.539303
-25.338518 15.660065 -18.253629
-28.795860 15.316899 -14.903175
-25.526268 18.642016 -14.387314
-18.758820 11.593588 -25.819944
-22.278787 13.769048 -22.368617
-20.875385 10.518395 -25.322870
-18.094632 13.964861 -24.776741
-30.541047 11.244165 -17.625873
-26.062917 13.662949 -19.550285
-29.718249 13.326705 -16.274007
-28.973196 10.279235 -19.988998
-27.506059 14.536234 -17.311654
-20.996339 21.303914 -15.967167
-22.992892 17.046621 -18.968730
-23.246002 20.018804 -15.199687
-19.648943 20.510800 -18.254428
-24.331555 17.890048 -16.758488
-25.262464 8.214094 -24.126231
-24.420860 12.668456 -21.693318
-23.052746 9.387275 -24.759586
-27.195346 9.259904 -22.169153
-22.707654 11.629828 -23.590801
-26.665794 11.525162 -20.882587
-16.626045 18.500732 -22.425609
-21.437999 16.067664 -21.128489
-17.380028 16.280727 -23.637897
-18.178397 19.567103 -20.425371
-19.829232 15.055750 -23.025869
-20.591939 18.326642 -19.726672
-19.182955 -8.760029 -31.038673
-18.908113 -2.830536 -30.593970
-21.439628 -7.492285 -30.440300
-16.487815 -7.194824 -31.524191
-17.394941 7.943520 -28.145606
-18.285498 2.737331 -29.586556
-19.532102 6.825681 -27.731967
-15.344769 6.696030 -29.338721
-25.724360 -4.703386 -28.675578
-20.910531 -1.480596 -29.758219
-23.642090 -6.131363 -29.649445
-25.271362 -1.540017 -28.148438
-21.220999 -4.424410 -30.176558
-11.435107 -4.225269 -32.175648
-16.287065 -1.448994 -31.042068
-13.893916 -5.675726 -31.896983
-11.352494 -1.403245 -31.991715
-16.434554 -4.270355 -31.356502
-23.977078 4.383916 -26.727840
-20.507592 1.452065 -29.184789
-21.736376 5.637133 -27.259496
-24.677940 1.503854 -27.487457
-20.050697 4.180411 -28.512373
-22.832792 0.000000 -28.721553
-11.085169 4.095967 -31.191008
-16.041293 1.427129 -30.573644
-13.224459 5.402250 -30.360076
-11.234160 1.388618 -31.658244
-15.729267 4.087093 -30.010842
-13.736595 0.000000 -31.384007
-19.472289 27.885128 1.383365
-22.373737 25.388980 4.130003
-18.790607 28.162798 3.626084
-21.023185 26.766980 0.000000
-27.593187 19.481681 9.612187
-25.079188 22.600314 6.867239
-17.178270 28.290077 8.082313
-21.592639 25.512730 6.377687
-18.022273 28.297360 5.876409
-20.226329 26.865634 5.012032
-24.007369 24.293402 -2.760899
-24.007369 24.293402 2.760899
-22.543833 25.562828 -1.386369
-22.543833 25.562828 1.386369
-34.799630 2.661330 20.490817
-33.621555 7.611222 17.872036
-29.896783 15.982064 12.372623
-31.938152 12.043023 15.138838
-13.046930 26.793862 16.559518
-17.645608 24.494503 15.138435
-14.167843 27.375053 14.561153
-26.536603 19.279490 11.915380
-22.103267 22.014504 13.605711
-25.402286 20.940853 10.551382
-16.228641 28.120007 10.352821
-18.722028 24.958749 13.084111
-15.235221 27.821303 12.476048
-18.503270 26.819697 9.515208
-16.477422 26.180567 13.835747
-22.949109 24.029905 7.813327
-21.008838 23.650319 12.268734
-24.199689 22.531446 9.174997
-20.748518 25.452624 8.666515
-23.200936 22.332384 11.437632
-19.785167 25.264455 10.919492
-29.545054 18.259848 -8.338486
-30.447233 18.817425 -2.816960
-28.242349 19.891573 -6.951302
-29.545054 18.259848 8.338486
-30.447233 18.817425 2.816960
-28.242349 19.891573 6.951302
-25.501595 22.877035 -4.182787
-28.908407 20.313384 -1.438314
-26.884967 21.437731 -5.559682
-25.679007 23.054334 -1.404913
-28.684937 20.172049 -4.205712
-25.501595 22.877035 4.182787
-28.908407 20.313384 1.438314
-26.884967 21.437731 5.559682
-25.679007 23.054334 1.404913
-28.684937 20.172049 4.205712
-27.323991 21.721771 0.000000
-31.797200 -45.534915 2.258961
-37.924194 -43.035125 7.000486
-29.992422 -44.951743 5.787734
-35.499343 -45.198203 0.000000
-43.354213 -30.609475 15.102598
-41.781022 -37.651308 11.440572
-25.792117 -42.475813 12.135096
-35.474375 -41.914663 10.477852
-27.943929 -43.875676 9.111500
-32.951559 -43.767929 8.165310
-41.752524 -42.249980 -4.801629
-41.752524 -42.249980 4.801629
-38.930176 -44.143577 -2.394074
-38.930176 -44.143577 2.394074
-36.809002 -2.814998 21.673980
-39.854531 -9.022239 21.185266
-43.371870 -23.185504 17.949215
-42.155138 -15.895575 19.981739
-17.032655 -34.979159 21.618309
-25.014184 -34.723088 21.460048
-19.154153 -37.009584 19.685888
-40.470246 -29.402622 18.171820
-33.116455 -32.983464 20.384902
-39.934469 -32.920732 16.587635
-23.525379 -40.763353 15.007667
-27.526041 -36.695574 19.236901
-21.334612 -38.959507 17.470810
-28.144311 -40.793972 14.473061
-23.302635 -37.024979 19.566735
-37.530452 -39.297961 12.777737
-31.911791 -35.924121 18.635837
-38.974341 -36.287585 14.776614
-32.891935 -40.349198 13.738737
-36.043877 -34.694536 17.768964
-30.207075 -38.572598 16.671375
-46.167104 -28.532840 -13.029719
-49.943778 -30.866952 -4.620769
-45.918967 -32.341519 -11.302056
-46.167104 -28.532840 13.029719
-49.943778 -30.866952 4.620769
-45.918967 -32.341519 11.302056
-43.918891 -39.398869 -7.203603
-49.196184 -34.569216 -2.447716
-45.215299 -36.054104 -9.350307
-45.150945 -40.536028 -2.470233
-47.996321 -33.752354 -7.037098
-43.918891 -39.398869 7.203603
-49.196184 -34.569216 2.447716
-45.215299 -36.054104 9.350307
-45.150945 -40.536028 2.470233
-47.996321 -33.752354 7.037098
-47.674106 -37.899515 0.000000
-2.290861 -17.638402 29.955363
-6.997139 -16.430097 30.908925
-3.790425 -19.642233 29.439190
-2.264542 -15.323533 30.722645
-16.726083 -12.948611 31.288580
-11.834560 -14.876787 31.385308
-7.026235 -23.788395 28.107121
-8.692133 -18.474391 30.424598
-5.377877 -21.702717 28.826648
-6.228131 -19.100966 29.991051
-2.224168 -10.668396 31.865932
-6.904238 -13.967577 31.510083
-2.244706 -12.984908 31.360637
-4.579812 -14.682091 31.174341
-33.724801 -1.673068 23.550154
-30.261264 -4.922573 26.667381
-35.255009 -4.539237 23.522628
-21.547718 -10.631562 30.519451
-26.128482 -7.939293 28.994337
-37.974889 -10.849208 23.059071
-31.470560 -7.867029 26.635034
-36.694240 -7.620158 23.370152
-33.457746 -6.241851 25.189332
-14.581285 -32.473809 23.593015
-16.754992 -27.219457 27.110147
-12.596313 -30.325424 24.999335
-18.325710 -32.513849 23.745097
-18.996046 -14.966624 30.736247
-18.219590 -21.237053 29.479917
-16.437167 -15.993184 30.901970
-8.851043 -25.997062 27.221403
-14.618044 -25.031769 28.179061
-10.671635 -28.147175 26.206806
-9.758278 -23.362312 28.659017
-13.690841 -27.771511 26.731854
-26.132748 -31.676735 23.484706
-20.343214 -26.750707 27.142577
-22.221122 -32.262723 23.721528
-19.440950 -29.732478 25.604776
-11.316476 -17.739226 30.737457
-15.403783 -22.041242 29.383667
-13.855710 -16.920005 30.897916
-10.584883 -20.583360 29.834698
-15.997324 -19.051711 30.270792
-12.574279 -22.783495 29.093138
-2.192928 -1.355304 32.755845
-6.655805 -4.113514 32.590837
-2.199721 -3.639911 32.699276
-16.431110 -10.154984 31.520730
-11.351115 -7.015375 32.215352
-14.084979 -11.229095 31.743633
-2.222094 -8.256076 32.267891
-6.708911 -6.487102 32.512913
-2.207978 -5.953717 32.536782
-4.497338 -9.835652 32.154186
-4.439497 -5.048921 32.630030
-9.347282 -13.114432 31.734354
-9.123881 -8.029088 32.331499
-11.705787 -12.222691 31.811207
-6.876193 -11.459004 31.980667
-11.544204 -9.585445 32.084004
-6.811795 -8.948671 32.312765
-40.639225 -25.116423 19.788753
-34.448810 -21.290536 24.816597
-40.422425 -21.501223 20.920455
-37.498059 -27.385101 21.134949
-22.013189 -13.604899 30.299310
-28.095990 -17.364277 28.209275
-24.497305 -12.343357 29.716437
-21.874655 -16.882163 29.952678
-39.077223 -14.386892 22.552278
-34.091610 -17.871826 25.572758
-39.893102 -17.889467 21.845858
-35.826932 -12.710833 24.717483
-37.290921 -19.707279 23.470012
-30.207559 -30.650068 22.972060
-31.270712 -23.183685 25.797786
-33.958281 -29.243919 22.204044
-27.105581 -28.294507 25.181859
-34.396533 -25.290436 23.690795
-29.227043 -9.503177 27.912495
-30.763899 -15.958943 27.327909
-26.925078 -10.964121 28.918628
-32.502679 -11.067030 26.495595
-27.593549 -14.132161 28.666718
-33.393280 -14.432833 26.151034
-21.072580 -23.448641 28.423203
-27.984143 -20.973963 27.580123
-21.565719 -20.201669 29.330691
-24.028163 -25.863751 26.998207
-24.899045 -18.905110 28.912978
-27.721370 -24.671771 26.556527
-2.232655 17.190252 29.194269
-6.523992 15.319092 28.818861
-3.619755 18.757812 28.113646
-2.214486 14.984819 30.043545
-14.789522 11.449409 27.665960
-10.674874 13.418989 28.309814
-6.381545 21.605701 25.528164
-7.908630 16.809121 27.682143
-5.015220 20.239196 26.882725
-5.797073 17.778960 27.915326
-2.189788 10.503490 31.373367
-6.503537 13.156942 29.681335
-2.202534 12.740954 30.771450
-4.389415 14.071711 29.878327
-32.659467 1.620217 22.806227
-27.851324 4.530550 24.543649
-32.364827 4.167113 21.594259
-31.229212 0.000000 24.527889
-18.966258 9.357879 26.863159
-23.295832 7.078576 25.850992
-31.305267 8.943735 19.009150
-27.627406 6.906315 23.382389
-31.901077 6.624779 20.317440
-29.957201 5.588792 22.553877
-27.779592 -3.157097 27.452512
-26.390574 2.999238 26.079849
-29.583206 -1.604410 26.089400
-28.765800 1.560078 25.368530
-11.640472 25.924357 18.834679
-13.418060 21.798416 21.710876
-10.404156 25.047841 20.648660
-14.012273 24.860862 18.156065
-16.280609 12.827182 26.342578
-14.957339 17.434519 24.201483
-14.218796 13.834732 26.731418
-7.797493 22.902603 23.981209
-12.116024 20.747339 23.355941
-9.112188 24.034026 22.377203
-8.595054 20.577435 25.242753
-11.297398 22.916475 22.058572
-18.629108 22.581220 16.741413
-15.783899 20.755346 21.059390
-16.351222 23.740248 17.455283
-14.929915 22.833420 19.663500
-10.084520 15.808063 27.391255
-12.894433 18.450617 24.596925
-12.144896 14.830832 27.082841
-9.359637 18.200749 26.381205
-13.584149 16.177786 25.704484
-10.774447 19.522356 24.928862
-2.188546 1.352596 32.690402
-6.536929 4.040044 32.008748
-2.187954 3.620440 32.524358
-4.397103 0.000000 32.636439
-14.897828 9.207364 28.579349
-10.796306 6.672484 30.640760
-12.824047 10.223831 28.901842
-2.195279 8.156446 31.878501
-6.521825 6.306202 31.606253
-2.188726 5.901807 32.253095
-4.370267 9.557746 31.245673
-4.374142 4.974594 32.149675
-8.952792 -2.748065 32.391505
-8.809160 2.703978 31.871842
-6.660412 -1.371219 32.537950
-6.619955 1.362890 32.340307
-8.674474 12.170469 29.450148
-8.709854 7.664741 30.864349
-10.742083 11.216431 29.192281
-6.543024 10.903786 30.431122
-10.784571 8.954703 29.972810
-6.551019 8.606089 31.075735
-27.805025 17.184451 13.539303
-25.338518 15.660065 18.253629
-28.795860 15.316899 14.903175
-25.526268 18.642016 14.387314
-18.758820 11.593588 25.819944
-22.278787 13.769048 22.368617
-20.875385 10.518395 25.322870
-18.094632 13.964861 24.776741
-30.541047 11.244165 17.625873
-26.062917 13.662949 19.550285
-29.718249 13.326705 16.274007
-28.973196 10.279235 19.988998
-27.506059 14.536234 17.311654
-20.996339 21.303914 15.967167
-22.992892 17.046621 18.968730
-23.246002 20.018804 15.199687
-19.648943 20.510800 18.254428
-24.331555 17.890048 16.758488
-25.262464 8.214094 24.126231
-24.420860 12.668456 21.693318
-23.052746 9.387275 24.759586
-27.195346 9.259904 22.169153
-22.707654 11.629828 23.590801
-26.665794 11.525162 20.882587
-16.626045 18.500732 22.425609
-21.437999 16.067664 21.128489
-17.380028 16.280727 23.637897
-18.178397 19.567103 20.425371
-19.829232 15.055750 23.025869
-20.591939 18.326642 19.726672
-19.182955 -8.760029 31.038673
-18.908113 -2.830536 30.593970
-21.439628 -7.492285 30.440300
-16.487815 -7.194824 31.524191
-17.394941 7.943520 28.145606
-18.285498 2.737331 29.586556
-19.532102 6.825681 27.731967
-15.344769 6.696030 29.338721
-25.724360 -4.703386 28.675578
-20.910531 -1.480596 29.758219
-23.642090 -6.131363 29.649445
-25.271362 -1.540017 28.148438
-21.220999 -4.424410 30.176558
-11.435107 -4.225269 32.175648
-16.287065 -1.448994 31.042068
-13.893916 -5.675726 31.896983
-11.352494 -1.403245 31.991715
-16.434554 -4.270355 31.356502
-23.977078 4.383916 26.727840
-20.507592 1.452065 29.184789
-21.736376 5.637133 27.259496
-24.677940 1.503854 27.487457
-20.050697 4.180411 28.512373
-22.832792 0.000000 28.721553
-11.085169 4.095967 31.191008
-16.041293 1.427129 30.573644
-13.224459 5.402250 30.360076
-11.234160 1.388618 31.658244
-15.729267 4.087093 30.010842
-13.736595 0.000000 31.384007
-37.426645 0.000000 -19.693438
-41.501875 0.000000 -14.960761
-36.916525 2.721088 -18.412855
-39.190890 -2.888729 -19.547240
-46.222019 0.000000 -3.203530
-44.565434 0.000000 -9.386579
-35.397687 7.756059 -15.690847
-40.626510 2.835636 -13.601350
-36.228861 5.322370 -17.062604
-38.884450 2.783240 -16.100151
-42.393950 -9.289024 -18.792104
-43.408151 -3.029788 -14.532616
-40.877849 -6.005351 -19.252125
-41.423867 -2.965004 -17.151599
-37.426645 0.000000 19.693438
-41.501875 0.000000 14.960761
-36.916525 2.721088 18.412855
-39.190890 -2.888729 19.547240
-46.222019 0.000000 3.203530
-44.565434 0.000000 9.386579
-35.397687 7.756059 15.690847
-40.626510 2.835636 13.601350
-36.228861 5.322370 17.062604
-38.884450 2.783240 16.100151
-42.393950 -9.289024 18.792104
-43.408151 -3.029788 14.532616
-40.877849 -6.005351 19.252125
-41.423867 -2.965004 17.151599
-31.034853 16.177832 -9.998450
-35.633349 12.555450 -7.759695
-32.228168 14.299973 -11.400496
-31.752351 16.607148 -7.246897
-44.570352 2.983881 -1.844140
-40.249232 8.219827 -5.080132
-44.137705 2.969199 -4.913177
-34.416833 10.137400 -14.222984
-37.006162 10.443061 -9.189977
-33.365624 12.277776 -12.819938
-36.983110 7.951773 -13.251431
-34.611621 12.453670 -10.340598
-32.495758 17.049783 -1.516850
-36.215505 12.870857 -4.755778
-32.246458 16.900998 -4.391556
-33.993532 14.807146 -6.048785
-42.156801 2.903084 -10.786256
-39.488769 8.148351 -7.878952
-43.319414 2.939697 -7.926769
-39.592305 5.537693 -12.110900
-41.854234 5.694501 -6.476203
-38.365038 8.087664 -10.624783
-46.016692 -23.987557 -14.825126
-49.102558 -17.301340 -10.692816
-45.560364 -20.215606 -16.116670
-48.370495 -25.298787 -11.039687
-47.971870 -3.211605 -1.984881
-49.671427 -10.144057 -6.269372
-47.470184 -3.193379 -5.284131
-43.765892 -12.891144 -18.086545
