1.9613397 -44.715356 15.867572
5.2894488 -38.839537 20.356559
0 -42.433944 18.573087
-26.065238 44.26669 3.385331
-22.886842 43.055601 9.7468944
-22.612855 45.337241 3.341772
-15.233073 36.808676 19.676987
-19.121307 40.3399 15.211097
-15.844237 47.325894 3.3032373
-19.554643 44.114196 9.6659506
-19.194515 46.357836 3.3181638
-21.168222 44.94628 6.6030427
-1.5301493 21.538428 30.843926
-4.6808558 25.357909 28.77532
-11.498238 33.00737 23.30427
-7.9883563 29.173514 26.289949
-2.1108262 51.015794 3.4153886
-6.0477387 47.915454 9.7854468
-5.5789516 50.118716 3.371549
-12.156152 37.732287 19.669067
-9.4098893 43.211219 15.225521
-14.002941 39.585042 17.564294
-12.357688 48.298555 3.326029
-9.3846958 47.035453 9.7055795
-9.004839 49.211015 3.3395071
-14.360785 46.947511 6.5664498
-7.5523809 48.809328 6.6407805
-17.707964 42.849801 12.621311
-11.119363 44.775407 12.635525
-15.878741 41.326573 15.207221
-16.161238 45.104024 9.6978586
-12.632817 42.284039 15.214296
-12.760983 46.078644 9.713755
34.028728 57.791116 4.4196223
28.209298 53.068408 12.013586
28.710187 57.561978 4.2428477
16.927356 40.902684 21.86554
22.264249 46.970511 17.711323
18.723616 55.926447 3.9035359
23.627553 53.302456 11.679209
23.53308 56.836168 4.0681734
26.257438 55.752164 8.1905314
1.5379293 21.64794 31.000752
4.7734938 25.859763 29.344807
0 23.604346 30.053346
12.316684 35.35684 24.963071
8.3188929 30.380635 27.377756
-3.1647555 27.519104 27.846977
3.2123613 27.933059 28.265864
-1.5726316 25.572656 28.997262
1.5831499 25.743695 29.191206
2.1553224 52.091207 3.487385
6.4190323 50.857165 10.386213
5.900859 53.010583 3.5660885
0 50.740592 6.8362725
13.29656 41.272075 21.514286
10.242256 47.033538 16.572319
15.647868 44.235101 19.627573
14.051124 54.917148 3.7818114
10.303495 51.640413 10.655795
9.8736044 53.958777 3.6616948
16.655585 54.449546 7.6157437
8.1502381 52.673143 7.1664741
-3.954455 46.611247 12.883032
4.1050895 48.386779 13.373777
-2.059807 48.877616 10.005088
2.1013201 49.862687 10.206729
20.80127 50.334994 14.826057
12.362994 49.783256 14.048729
18.176211 47.30605 17.40753
18.971725 52.947746 11.384345
14.125727 47.281045 17.012278
14.4958 52.342898 11.034311
-10.003477 35.444476 21.905891
-3.3694638 36.418995 22.508177
-8.2437383 33.493371 23.589958
-8.7381943 38.286483 20.024636
10.701425 37.917457 23.434277
3.449313 37.282049 23.041574
8.6779888 35.257681 24.832592
9.3359494 40.905553 21.394465
-4.8492807 29.56507 26.522307
-1.7092641 34.354185 24.140028
-6.5178062 31.518169 25.132187
-1.6325867 29.840432 26.790416
-4.9768396 33.944388 23.870642
-5.7657724 43.906668 15.604268
-1.8381733 39.379526 20.661539
-7.3217705 41.147578 17.923356
-1.9613397 44.715356 15.867572
-5.2894488 38.839537 20.356559
4.9737767 30.324097 27.203217
1.727991 34.730574 24.404509
6.7653967 32.715443 26.086878
1.6466776 30.097985 27.021645
5.1366926 35.03466 24.637352
0 32.254278 25.641204
6.0722162 46.240254 16.433616
1.8641123 39.935222 20.9531
7.7829713 43.739478 19.052355
1.9958707 45.502608 16.146934
5.5077382 40.4424 21.19665
0 42.433944 18.573087
0 -17.179472 32.648947
0 -12.32204 34.181934
0 -2.4852349 35.85812
0 -7.4304899 35.278349
0 17.179472 32.648947
0 12.32204 34.181934
0 2.4852349 35.85812
0 7.4304899 35.278349
-34.028728 -57.791116 -4.4196223
-28.209298 -53.068408 -12.013586
-28.710187 -57.561978 -4.2428477
-16.927356 -40.902684 -21.86554
-22.264249 -46.970511 -17.711323
-18.723616 -55.926447 -3.9035359
-23.627553 -53.302456 -11.679209
-23.53308 -56.836168 -4.0681734
-26.257438 -55.752164 -8.1905314
-1.5379293 -21.64794 -31.000752
-4.7734938 -25.859763 -29.344807
-12.316684 -35.35684 -24.963071
-8.3188929 -30.380635 -27.377756
-2.1553224 -52.091207 -3.487385
-6.4190323 -50.857165 -10.386213
-5.900859 -53.010583 -3.5660885
-13.29656 -41.272075 -21.514286
-10.242256 -47.033538 -16.572319
-15.647868 -44.235101 -19.627573
-14.051124 -54.917148 -3.7818114
-10.303495 -51.640413 -10.655795
-9.8736044 -53.958777 -3.6616948
-16.655585 -54.449546 -7.6157437
-8.1502381 -52.673143 -7.1664741
-20.80127 -50.334994 -14.826057
-12.362994 -49.783256 -14.048729
-18.176211 -47.30605 -17.40753
-18.971725 -52.947746 -11.384345
-14.125727 -47.281045 -17.012278
-14.4958 -52.342898 -11.034311
26.065238 -44.26669 -3.385331
22.886842 -43.055601 -9.7468944
22.612855 -45.337241 -3.341772
15.233073 -36.808676 -19.676987
19.121307 -40.3399 -15.211097
15.844237 -47.325894 -3.3032373
19.554643 -44.114196 -9.6659506
19.194515 -46.357836 -3.3181638
21.168222 -44.94628 -6.6030427
1.5301493 -21.538428 -30.843926
4.6808558 -25.357909 -28.77532
0 -23.604346 -30.053346
11.498238 -33.00737 -23.30427
7.9883563 -29.173514 -26.289949
-3.2123613 -27.933059 -28.265864
3.1647555 -27.519104 -27.846977
-1.5831499 -25.743695 -29.191206
1.5726316 -25.572656 -28.997262
2.1108262 -51.015794 -3.4153886
6.0477387 -47.915454 -9.7854468
5.5789516 -50.118716 -3.371549
0 -50.740592 -6.8362725
12.156152 -37.732287 -19.669067
9.4098893 -43.211219 -15.225521
14.002941 -39.585042 -17.564294
12.357688 -48.298555 -3.326029
9.3846958 -47.035453 -9.7055795
9.004839 -49.211015 -3.3395071
14.360785 -46.947511 -6.5664498
7.5523809 -48.809328 -6.6407805
-4.1050895 -48.386779 -13.373777
3.954455 -46.611247 -12.883032
-2.1013201 -49.862687 -10.206729
2.059807 -48.877616 -10.005088
17.707964 -42.849801 -12.621311
11.119363 -44.775407 -12.635525
15.878741 -41.326573 -15.207221
16.161238 -45.104024 -9.6978586
12.632817 -42.284039 -15.214296
12.760983 -46.078644 -9.713755
-10.701425 -37.917457 -23.434277
-3.449313 -37.282049 -23.041574
-8.6779888 -35.257681 -24.832592
-9.3359494 -40.905553 -21.394465
10.003477 -35.444476 -21.905891
3.3694638 -36.418995 -22.508177
8.2437383 -33.493371 -23.589958
8.7381943 -38.286483 -20.024636
-4.9737767 -30.324097 -27.203217
-1.727991 -34.730574 -24.404509
-6.7653967 -32.715443 -26.086878
-1.6466776 -30.097985 -27.021645
-5.1366926 -35.03466 -24.637352
-6.0722162 -46.240254 -16.433616
-1.8641123 -39.935222 -20.9531
-7.7829713 -43.739478 -19.052355
-1.9958707 -45.502608 -16.146934
-5.5077382 -40.4424 -21.19665
4.8492807 -29.56507 -26.522307
1.7092641 -34.354185 -24.140028
6.5178062 -31.518169 -25.132187
1.6325867 -29.840432 -26.790416
4.9768396 -33.944388 -23.870642
0 -32.254278 -25.641204
5.7657724 -43.906668 -15.604268
1.8381733 -39.379526 -20.661539
7.3217705 -41.147578 -17.923356
1.9613397 -44.715356 -15.867572
5.2894488 -38.839537 -20.356559
0 -42.433944 -18.573087
-26.065238 44.26669 -3.385331
-22.886842 43.055601 -9.7468944
-22.612855 45.337241 -3.341772
-15.233073 36.808676 -19.676987
-19.121307 40.3399 -15.211097
-15.844237 47.325894 -3.3032373
-19.554643 44.114196 -9.6659506
-19.194515 46.357836 -3.3181638
-21.168222 44.94628 -6.6030427
-1.5301493 21.538428 -30.843926
-4.6808558 25.357909 -28.77532
-11.498238 33.00737 -23.30427
-7.9883563 29.173514 -26.289949
-2.1108262 51.015794 -3.4153886
-6.0477387 47.915454 -9.7854468
-5.5789516 50.118716 -3.371549
-12.156152 37.732287 -19.669067
-9.4098893 43.211219 -15.225521
-14.002941 39.585042 -17.564294
-12.357688 48.298555 -3.326029
-9.3846958 47.035453 -9.7055795
-9.004839 49.211015 -3.3395071
-14.360785 46.947511 -6.5664498
-7.5523809 48.809328 -6.6407805
-17.707964 42.849801 -12.621311
-11.119363 44.775407 -12.635525
-15.878741 41.326573 -15.207221
-16.161238 45.104024 -9.6978586
-12.632817 42.284039 -15.214296
-12.760983 46.078644 -9.713755
34.028728 57.791116 -4.4196223
28.209298 53.068408 -12.013586
28.710187 57.561978 -4.2428477
16.927356 40.902684 -21.86554
22.264249 46.970511 -17.711323
18.723616 55.926447 -3.9035359
23.627553 53.302456 -11.679209
23.53308 56.836168 -4.0681734
26.257438 55.752164 -8.1905314
1.5379293 21.64794 -31.000752
4.7734938 25.859763 -29.344807
0 23.604346 -30.053346
12.316684 35.35684 -24.963071
8.3188929 30.380635 -27.377756
-3.1647555 27.519104 -27.846977
3.2123613 27.933059 -28.265864
-1.5726316 25.572656 -28.997262
1.5831499 25.743695 -29.191206
2.1553224 52.091207 -3.487385
6.4190323 50.857165 -10.386213
5.900859 53.010583 -3.5660885
0 50.740592 -6.8362725
13.29656 41.272075 -21.514286
10.242256 47.033538 -16.572319
15.647868 44.235101 -19.627573
14.051124 54.917148 -3.7818114
10.303495 51.640413 -10.655795
9.8736044 53.958777 -3.6616948
16.655585 54.449546 -7.6157437
8.1502381 52.673143 -7.1664741
-3.954455 46.611247 -12.883032
4.1050895 48.386779 -13.373777
-2.059807 48.877616 -10.005088
2.1013201 49.862687 -10.206729
20.80127 50.334994 -14.826057
12.362994 49.783256 -14.048729
18.176211 47.30605 -17.40753
18.971725 52.947746 -11.384345
14.125727 47.281045 -17.012278
14.4958 52.342898 -11.034311
-10.003477 35.444476 -21.905891
-3.3694638 36.418995 -22.508177
-8.2437383 33.493371 -23.589958
-8.7381943 38.286483 -20.024636
10.701425 37.917457 -23.434277
3.449313 37.282049 -23.041574
8.6779888 35.257681 -24.832592
9.3359494 40.905553 -21.394465
-4.8492807 29.56507 -26.522307
-1.7092641 34.354185 -24.140028
-6.5178062 31.518169 -25.132187
-1.6325867 29.840432 -26.790416
-4.9768396 33.944388 -23.870642
-5.7657724 43.906668 -15.604268
-1.8381733 39.379526 -20.661539
-7.3217705 41.147578 -17.923356
-1.9613397 44.715356 -15.867572
-5.2894488 38.839537 -20.356559
4.9737767 30.324097 -27.203217
1.727991 34.730574 -24.404509
6.7653967 32.715443 -26.086878
1.6466776 30.097985 -27.021645
5.1366926 35.03466 -24.637352
0 32.254278 -25.641204
6.0722162 46.240254 -16.433616
1.8641123 39.935222 -20.9531
7.7829713 43.739478 -19.052355
1.9958707 45.502608 -16.146934
5.5077382 40.4424 -21.19665
0 42.433944 -18.573087
0 -17.179472 -32.648947
0 -12.32204 -34.181934
0 -2.4852349 -35.85812
0 -7.4304899 -35.278349
0 17.179472 -32.648947
0 12.32204 -34.181934
0 2.4852349 -35.85812
0 7.4304899 -35.278349
40.213954 57.588057 -2.8569101
44.304691 50.275503 -8.1782715
37.231637 55.80166 -7.1847084
45.301666 31.984439 -15.781001
45.14774 40.685253 -12.362454
30.424421 50.104534 -14.314578
40.396633 47.730544 -11.931709
33.815399 53.094664 -11.025974
39.285308 52.180735 -9.7347968
44.499093 3.4031041 -26.202082
45.011021 10.189561 -23.926275
45.306102 24.219496 -18.749687
45.222192 17.052079 -21.435537
18.495049 37.982407 -23.474418
26.557842 36.865896 -22.784377
21.130771 40.828797 -21.717378
41.671286 30.275207 -18.711107
34.324164 34.186323 -21.128309
41.532794 34.238341 -17.251534
27.053639 46.876908 -17.258468
29.608031 39.471121 -20.691924
23.998868 43.824751 -19.652556
31.921048 46.26819 -16.415228
25.412153 40.37674 -21.338054
40.982887 42.91299 -13.953164
33.804493 38.054796 -19.741136
41.32141 38.472855 -15.666474
36.606352 44.905748 -15.290224
37.70814 36.296495 -18.589415
32.994591 42.132087 -18.209813
30.124395 -43.139389 -2.1401201
35.519312 -40.306144 -6.5565648
28.656153 -42.948982 -5.5298698
44.505425 -31.422268 -15.503627
40.377497 -36.386509 -11.056256
25.008765 -41.185747 -11.766532
33.463559 -39.538787 -9.8839292
26.922968 -42.272632 -8.778602
31.142188 -41.36463 -7.7169529
45.674991 -3.4930319 -26.894477
48.387063 -10.953827 -25.72086
47.66196 -25.478878 -19.724646
49.208471 -18.555198 -23.325053
16.735091 -34.368065 -21.240632
23.877447 -33.145143 -20.484825
18.750441 -36.229533 -19.270968
41.002502 -29.789319 -18.410812
31.808359 -31.680621 -19.5797
39.4315 -32.5061 -16.378716
22.90589 -39.68994 -14.612473
26.227525 -34.964494 -18.329417
20.829501 -38.037116 -17.057177
26.933493 -39.038943 -13.850405
22.416268 -35.616652 -18.822471
35.685324 -37.365937 -12.149539
30.404233 -34.227015 -17.755453
37.648054 -35.052728 -14.273769
31.197854 -38.271035 -13.031131
34.729137 -33.429015 -17.120822
28.73558 -36.693588 -15.859252
2.4401288 -18.787687 -31.907198
7.2853624 -17.106879 -32.182113
3.9924434 -20.689107 -31.008213
2.4184775 -16.365174 -32.811064
17.359163 -13.438714 -32.472849
12.208346 -15.34666 -32.37659
7.2288898 -24.474515 -28.917805
8.932639 -18.985566 -31.266427
5.5982405 -22.592007 -30.007848
6.4683766 -19.837771 -31.147933
2.3955944 -11.490657 -34.321981
7.2468509 -14.660698 -33.073726
2.4066108 -13.921472 -33.622591
4.8412241 -15.520134 -32.953749
41.164053 -2.0421249 -28.745012
35.077298 -5.7059931 -30.911454
42.518421 -5.4744332 -28.368877
22.87627 -11.287065 -32.401166
28.829258 -8.7599403 -31.991343
44.337469 -12.666961 -26.92255
35.791472 -8.9471733 -30.292028
43.617024 -9.057787 -27.779196
39.178745 -7.3091559 -29.4965
14.421241 -32.117375 -23.334058
16.352613 -26.565768 -26.459083
12.552919 -30.220953 -24.913212
17.782461 -31.550007 -23.041196
19.467703 -15.338234 -31.499405
18.034565 -21.021384 -29.180539
16.746244 -16.293912 -31.483036
8.9978855 -26.428366 -27.673019
14.427343 -24.705216 -27.811449
10.734878 -28.313983 -26.362115
9.8755718 -23.643124 -29.003496
13.529755 -27.444753 -26.417329
24.94206 -30.233446 -22.414671
19.69189 -25.894236 -26.273559
21.296933 -30.920899 -22.734937
18.771273 -28.708291 -24.722774
11.545876 -18.098823 -31.360545
15.285347 -21.871771 -29.157741
14.096563 -17.214124 -31.435013
10.727812 -20.861301 -30.237561
16.048097 -19.112179 -30.366868
12.569765 -22.775317 -29.082695
2.4021778 -1.4846275 -35.881425
7.2439082 -4.4769815 -35.470546
2.4020742 -3.9747473 -35.707288
17.368684 -10.734437 -33.319331
12.202047 -7.5412797 -34.630364
14.779421 -11.782731 -33.308711
2.4054214 -8.9372183 -34.930055
7.2409426 -7.0015441 -35.09126
2.4012887 -6.4749728 -35.385418
4.8191968 -10.539554 -34.455345
4.823321 -5.4854331 -35.451112
9.7740472 -13.713193 -33.183239
9.7654556 -8.5936791 -34.604992
12.238692 -12.779128 -33.259411
7.282594 -12.136261 -33.870807
12.240633 -10.163708 -34.019542
7.2837871 -9.568728 -34.551729
42.583974 -26.318343 -20.735723
35.384768 -21.868989 -25.490852
43.618317 -23.20116 -22.574475
37.686687 -27.522857 -21.241265
22.85797 -14.127002 -31.46208
28.812327 -17.806997 -28.9285
25.85377 -13.026834 -31.361897
22.180268 -17.118025 -30.37115
44.562496 -16.406381 -25.717943
35.935816 -18.838613 -26.956133
44.313065 -19.871533 -24.266273
40.212799 -14.26687 -27.743352
39.662782 -20.960745 -24.962804
28.999845 -29.424663 -22.053625
31.161274 -23.10255 -25.707502
33.149372 -28.547309 -21.675129
26.073662 -27.217325 -24.223176
34.355301 -25.26012 -23.662396
32.289017 -10.498778 -30.83675
32.308 -16.759954 -28.699551
29.018621 -11.816629 -31.167178
36.110165 -12.295364 -29.436352
29.003945 -14.854502 -30.131967
36.14822 -15.62354 -28.308489
20.603324 -22.926473 -27.790258
27.94915 -20.947736 -27.545635
21.419011 -20.064241 -29.13116
23.257524 -25.034241 -26.132312
25.019921 -18.996888 -29.05334
27.085732 -24.106059 -25.947598
2.4563855 18.912855 -32.119772
7.4071156 17.392769 -32.719941
4.0423888 20.947928 -31.396125
2.4315854 16.453871 -32.988896
17.667552 13.677455 -33.049734
12.46352 15.667429 -33.053312
7.4363678 25.176964 -29.747781
9.1415798 19.429652 -31.997771
5.7094794 23.040918 -30.604113
6.5896171 20.209602 -31.731756
2.4035419 11.528778 -34.435846
7.3428438 14.854896 -33.511826
2.416973 13.981414 -33.767361
4.8892667 15.67415 -33.280771
40.659926 2.0171154 -28.392977
34.43169 5.6009725 -30.342518
41.141567 5.2971571 -27.450221
37.9764 0 -29.827231
23.040372 11.368032 -32.633595
28.606337 8.6922045 -31.743971
41.644366 11.897557 -25.287247
34.845048 8.7105855 -29.491024
41.449003 8.607562 -26.398408
37.918834 7.0741078 -28.547951
32.226522 -3.6624824 -31.847084
31.93629 3.6294981 -31.560269
35.133723 -1.9054352 -30.984395
34.888461 1.8921337 -30.768099
15.614145 34.774077 -25.264217
17.38831 28.248319 -28.134877
13.386359 32.227446 -26.567302
19.423257 34.461139 -25.167217
19.882859 15.665327 -32.171142
18.781054 21.891504 -30.388384
17.171858 16.70803 -32.283193
9.3552068 27.477881 -28.771961
15.17368 25.983234 -29.250155
11.293399 29.787122 -27.733701
10.232206 24.496944 -30.050893
14.337091 29.082412 -27.993681
27.124148 32.878458 -24.375647
20.945707 27.542967 -27.946443
23.306892 33.839146 -24.880611
20.237057 30.950024 -26.653292
11.85032 18.576056 -32.187466
15.939291 22.807499 -30.405181
14.477952 17.67986 -32.285501
11.066073 21.519082 -31.190987
16.593034 19.761161 -31.39802
13.085432 23.70966 -30.275794
2.4030346 1.4851571 -35.894223
7.2660581 4.4906708 -35.579006
2.4044242 3.978636 -35.742222
4.8313075 0 -35.85922
17.577947 10.863769 -33.720773
12.294737 7.5985655 -34.893426
14.996008 11.955402 -33.796838
2.4112624 8.9589202 -35.014874
7.2774929 7.036886 -35.268391
2.4052808 6.4857375 -35.444246
4.8473141 10.601046 -34.656373
4.8363022 5.5001962 -35.546523
9.803924 -3.0093208 -35.47093
9.8280939 3.0167398 -35.558378
7.3113737 -1.5052361 -35.718079
7.3186649 1.5067372 -35.753699
9.9233199 13.922626 -33.690025
9.8439964 8.6627956 -34.88331
12.431408 12.980353 -33.783127
7.3567708 12.259874 -34.215798
12.378841 10.278466 -34.403654
7.3379245 9.6398484 -34.808538
41.768731 25.814495 -20.338751
35.201072 21.755459 -25.358519
41.803059 22.235601 -21.634996
38.25179 27.935556 -21.559773
23.162358 14.315124 -31.881045
29.040463 17.947993 -29.157556
25.964798 13.082777 -31.496579
22.698052 17.517634 -31.080144
41.740726 15.367502 -24.089441
35.25116 18.479696 -26.442559
41.79734 18.743394 -22.888638
38.373702 13.614387 -26.474534
38.454838 20.322378 -24.202553
31.040375 31.495084 -23.605394
31.807212 23.581439 -26.240389
34.668163 29.855249 -22.668209
27.734508 28.951021 -25.766149
34.956298 25.702009 -24.076336
31.744505 10.32173 -30.316728
32.026595 16.613974 -28.449576
28.838519 11.74329 -30.973741
35.034801 11.929207 -28.559735
28.975623 14.839997 -30.102544
35.16078 15.19676 -27.535203
21.608925 24.045461 -29.146637
28.598204 21.434198 -28.185318
22.178367 20.775567 -30.16393
24.571983 26.449115 -27.609247
25.622176 19.454161 -29.752683
28.220999 25.116437 -27.035162
20.557323 -9.3876441 -33.262447
21.151666 -3.1663947 -34.224114
23.334083 -8.1543202 -33.130075
17.78349 -7.7602206 -34.001482
20.705847 9.4554686 -33.502764
21.174356 3.1697914 -34.260828
23.385736 8.1723709 -33.203413
17.909351 7.8151428 -34.242124
29.141519 -5.3281717 -32.48477
23.79804 -1.6850492 -33.867494
26.220591 -6.800074 -32.883132
29.323988 -1.7869806 -32.662445
23.647276 -4.9302696 -33.626758
12.47169 -4.6082858 -35.092345
18.232567 -1.6220775 -34.750067
15.076647 -6.1588772 -34.61224
12.549992 -1.5512644 -35.366305
18.07582 -4.6968214 -34.487974
28.934758 5.2903679 -32.254288
23.791202 1.6845651 -33.857764
26.143303 6.78003 -32.786205
29.239252 1.7818168 -32.568061
23.645714 4.929944 -33.624538
26.498646 0 -33.33286
12.52496 4.627969 -35.242233
18.251943 1.6238013 -34.786996
15.165844 6.1953145 -34.817014
12.567097 1.5533786 -35.414506
18.139205 4.7132914 -34.60891
15.383654 0 -35.147045
40.213954 57.588057 2.8569101
44.304691 50.275503 8.1782715
37.231637 55.80166 7.1847084
44.406171 56.538487 0
45.301666 31.984439 15.781001
45.14774 40.685253 12.362454
30.424421 50.104534 14.314578
40.396633 47.730544 11.931709
33.815399 53.094664 11.025974
39.285308 52.180735 9.7347968
48.578081 49.156858 -5.5865826
48.578081 49.156858 5.5865826
47.231068 53.556096 -2.9045504
47.231068 53.556096 2.9045504
44.499093 3.4031041 26.202082
45.011021 10.189561 23.926275
45.306102 24.219496 18.749687
45.222192 17.052079 21.435537
18.495049 37.982407 23.474418
26.557842 36.865896 22.784377
21.130771 40.828797 21.717378
41.671286 30.275207 18.711107
34.324164 34.186323 21.128309
41.532794 34.238341 17.251534
27.053639 46.876908 17.258468
29.608031 39.471121 20.691924
23.998868 43.824751 19.652556
31.921048 46.26819 16.415228
25.412153 40.37674 21.338054
40.982887 42.91299 13.953164
33.804493 38.054796 19.741136
41.32141 38.472855 15.666474
36.606352 44.905748 15.290224
37.70814 36.296495 18.589415
32.994591 42.132087 18.209813
49.118365 30.356819 -13.862652
56.976206 35.213232 -5.2714047
49.18308 34.640491 -12.105454
49.118365 30.356819 13.862652
56.976206 35.213232 5.2714047
49.18308 34.640491 12.105454
49.099665 44.04645 -8.0533567
56.39 39.624173 -2.8056378
49.203266 39.234059 -10.174999
52.288104 46.943692 -2.8607113
53.224312 37.428823 -7.803613
49.099665 44.04645 8.0533567
56.39 39.624173 2.8056378
49.203266 39.234059 10.174999
52.288104 46.943692 2.8607113
53.224312 37.428823 7.803613
54.9603 43.691826 0
30.124395 -43.139389 2.1401201
35.519312 -40.306144 6.5565648
28.656153 -42.948982 5.5298698
33.172907 -42.236156 0
44.505425 -31.422268 15.503627
40.377497 -36.386509 11.056256
25.008765 -41.185747 11.766532
33.463559 -39.538787 9.8839292
26.922968 -42.272632 8.778602
31.142188 -41.36463 7.7169529
39.133877 -39.600133 -4.5004792
39.133877 -39.600133 4.5004792
36.205984 -41.054569 -2.2265452
36.205984 -41.054569 2.2265452
45.674991 -3.4930319 26.894477
48.387063 -10.953827 25.72086
47.66196 -25.478878 19.724646
49.208471 -18.555198 23.325053
16.735091 -34.368065 21.240632
23.877447 -33.145143 20.484825
18.750441 -36.229533 19.270968
41.002502 -29.789319 18.410812
31.808359 -31.680621 19.5797
39.4315 -32.5061 16.378716
22.90589 -39.68994 14.612473
26.227525 -34.964494 18.329417
20.829501 -38.037116 17.057177
26.933493 -39.038943 13.850405
22.416268 -35.616652 18.822471
35.685324 -37.365937 12.149539
30.404233 -34.227015 17.755453
37.648054 -35.052728 14.273769
31.197854 -38.271035 13.031131
34.729137 -33.429015 17.120822
28.73558 -36.693588 15.859252
49.592292 -30.649722 -13.996408
53.961354 -33.349951 -4.9924724
47.305901 -33.318361 -11.643423
49.592292 -30.649722 13.996408
53.961354 -33.349951 4.9924724
47.305901 -33.318361 11.643423
42.098326 -37.765672 -6.9049929
50.40769 -35.420518 -2.507993
44.775914 -35.703744 -9.2594442
42.926271 -38.53874 -2.3485202
49.353813 -34.70698 -7.2361303
42.098326 -37.765672 6.9049929
50.40769 -35.420518 2.507993
44.775914 -35.703744 9.2594442
42.926271 -38.53874 2.3485202
49.353813 -34.70698 7.2361303
46.728483 -37.147773 0
2.4401288 -18.787687 31.907198
7.2853624 -17.106879 32.182113
3.9924434 -20.689107 31.008213
2.4184775 -16.365174 32.811064
17.359163 -13.438714 32.472849
12.208346 -15.34666 32.37659
7.2288898 -24.474515 28.917805
8.932639 -18.985566 31.266427
5.5982405 -22.592007 30.007848
6.4683766 -19.837771 31.147933
2.3955944 -11.490657 34.321981
7.2468509 -14.660698 33.073726
2.4066108 -13.921472 33.622591
4.8412241 -15.520134 32.953749
41.164053 -2.0421249 28.745012
35.077298 -5.7059931 30.911454
42.518421 -5.4744332 28.368877
22.87627 -11.287065 32.401166
28.829258 -8.7599403 31.991343
44.337469 -12.666961 26.92255
35.791472 -8.9471733 30.292028
43.617024 -9.057787 27.779196
39.178745 -7.3091559 29.4965
14.421241 -32.117375 23.334058
16.352613 -26.565768 26.459083
12.552919 -30.220953 24.913212
17.782461 -31.550007 23.041196
19.467703 -15.338234 31.499405
18.034565 -21.021384 29.180539
16.746244 -16.293912 31.483036
8.9978855 -26.428366 27.673019
14.427343 -24.705216 27.811449
10.734878 -28.313983 26.362115
9.8755718 -23.643124 29.003496
13.529755 -27.444753 26.417329
24.94206 -30.233446 22.414671
19.69189 -25.894236 26.273559
21.296933 -30.920899 22.734937
18.771273 -28.708291 24.722774
11.545876 -18.098823 31.360545
15.285347 -21.871771 29.157741
14.096563 -17.214124 31.435013
10.727812 -20.861301 30.237561
16.048097 -19.112179 30.366868
12.569765 -22.775317 29.082695
2.4021778 -1.4846275 35.881425
7.2439082 -4.4769815 35.470546
2.4020742 -3.9747473 35.707288
17.368684 -10.734437 33.319331
12.202047 -7.5412797 34.630364
14.779421 -11.782731 33.308711
2.4054214 -8.9372183 34.930055
7.2409426 -7.0015441 35.09126
2.4012887 -6.4749728 35.385418
4.8191968 -10.539554 34.455345
4.823321 -5.4854331 35.451112
9.7740472 -13.713193 33.183239
9.7654556 -8.5936791 34.604992
12.238692 -12.779128 33.259411
7.282594 -12.136261 33.870807
12.240633 -10.163708 34.019542
7.2837871 -9.568728 34.551729
42.583974 -26.318343 20.735723
35.384768 -21.868989 25.490852
43.618317 -23.20116 22.574475
37.686687 -27.522857 21.241265
22.85797 -14.127002 31.46208
28.812327 -17.806997 28.9285
25.85377 -13.026834 31.361897
22.180268 -17.118025 30.37115
44.562496 -16.406381 25.717943
35.935816 -18.838613 26.956133
44.313065 -19.871533 24.266273
40.212799 -14.26687 27.743352
39.662782 -20.960745 24.962804
28.999845 -29.424663 22.053625
31.161274 -23.10255 25.707502
33.149372 -28.547309 21.675129
26.073662 -27.217325 24.223176
34.355301 -25.26012 23.662396
32.289017 -10.498778 30.83675
32.308 -16.759954 28.699551
29.018621 -11.816629 31.167178
36.110165 -12.295364 29.436352
29.003945 -14.854502 30.131967
36.14822 -15.62354 28.308489
20.603324 -22.926473 27.790258
27.94915 -20.947736 27.545635
21.419011 -20.064241 29.13116
23.257524 -25.034241 26.132312
25.019921 -18.996888 29.05334
27.085732 -24.106059 25.947598
2.4563855 18.912855 32.119772
7.4071156 17.392769 32.719941
4.0423888 20.947928 31.396125
2.4315854 16.453871 32.988896
17.667552 13.677455 33.049734
12.46352 15.667429 33.053312
7.4363678 25.176964 29.747781
9.1415798 19.429652 31.997771
5.7094794 23.040918 30.604113
6.5896171 20.209602 31.731756
2.4035419 11.528778 34.435846
7.3428438 14.854896 33.511826
2.416973 13.981414 33.767361
4.8892667 15.67415 33.280771
40.659926 2.0171154 28.392977
34.43169 5.6009725 30.342518
41.141567 5.2971571 27.450221
37.9764 0 29.827231
23.040372 11.368032 32.633595
28.606337 8.6922045 31.743971
41.644366 11.897557 25.287247
34.845048 8.7105855 29.491024
41.449003 8.607562 26.398408
37.918834 7.0741078 28.547951
32.226522 -3.6624824 31.847084
31.93629 3.6294981 31.560269
35.133723 -1.9054352 30.984395
34.888461 1.8921337 30.768099
15.614145 34.774077 25.264217
17.38831 28.248319 28.134877
13.386359 32.227446 26.567302
19.423257 34.461139 25.167217
19.882859 15.665327 32.171142
18.781054 21.891504 30.388384
17.171858 16.70803 32.283193
9.3552068 27.477881 28.771961
15.17368 25.983234 29.250155
11.293399 29.787122 27.733701
10.232206 24.496944 30.050893
14.337091 29.082412 27.993681
27.124148 32.878458 24.375647
20.945707 27.542967 27.946443
23.306892 33.839146 24.880611
20.237057 30.950024 26.653292
11.85032 18.576056 32.187466
15.939291 22.807499 30.405181
14.477952 17.67986 32.285501
11.066073 21.519082 31.190987
16.593034 19.761161 31.39802
13.085432 23.70966 30.275794
2.4030346 1.4851571 35.894223
7.2660581 4.4906708 35.579006
2.4044242 3.978636 35.742222
4.8313075 0 35.85922
17.577947 10.863769 33.720773
12.294737 7.5985655 34.893426
14.996008 11.955402 33.796838
2.4112624 8.9589202 35.014874
7.2774929 7.036886 35.268391
2.4052808 6.4857375 35.444246
4.8473141 10.601046 34.656373
4.8363022 5.5001962 35.546523
9.803924 -3.0093208 35.47093
9.8280939 3.0167398 35.558378
7.3113737 -1.5052361 35.718079
7.3186649 1.5067372 35.753699
9.9233199 13.922626 33.690025
9.8439964 8.6627956 34.88331
12.431408 12.980353 33.783127
7.3567708 12.259874 34.215798
12.378841 10.278466 34.403654
7.3379245 9.6398484 34.808538
41.768731 25.814495 20.338751
35.201072 21.755459 25.358519
41.803059 22.235601 21.634996
38.25179 27.935556 21.559773
23.162358 14.315124 31.881045
29.040463 17.947993 29.157556
25.964798 13.082777 31.496579
22.698052 17.517634 31.080144
41.740726 15.367502 24.089441
35.25116 18.479696 26.442559
41.79734 18.743394 22.888638
38.373702 13.614387 26.474534
38.454838 20.322378 24.202553
31.040375 31.495084 23.605394
31.807212 23.581439 26.240389
34.668163 29.855249 22.668209
27.734508 28.951021 25.766149
34.956298 25.702009 24.076336
31.744505 10.32173 30.316728
32.026595 16.613974 28.449576
28.838519 11.74329 30.973741
35.034801 11.929207 28.559735
28.975623 14.839997 30.102544
35.16078 15.19676 27.535203
21.608925 24.045461 29.146637
28.598204 21.434198 28.185318
22.178367 20.775567 30.16393
24.571983 26.449115 27.609247
25.622176 19.454161 29.752683
28.220999 25.116437 27.035162
20.557323 -9.3876441 33.262447
21.151666 -3.1663947 34.224114
23.334083 -8.1543202 33.130075
17.78349 -7.7602206 34.001482
20.705847 9.4554686 33.502764
21.174356 3.1697914 34.260828
23.385736 8.1723709 33.203413
17.909351 7.8151428 34.242124
29.141519 -5.3281717 32.48477
23.79804 -1.6850492 33.867494
26.220591 -6.800074 32.883132
29.323988 -1.7869806 32.662445
23.647276 -4.9302696 33.626758
12.47169 -4.6082858 35.092345
18.232567 -1.6220775 34.750067
15.076647 -6.1588772 34.61224
12.549992 -1.5512644 35.366305
18.07582 -4.6968214 34.487974
28.934758 5.2903679 32.254288
23.791202 1.6845651 33.857764
26.143303 6.78003 32.786205
29.239252 1.7818168 32.568061
23.645714 4.929944 33.624538
26.498646 0 33.33286
12.52496 4.627969 35.242233
18.251943 1.6238013 34.786996
15.165844 6.1953145 34.817014
12.567097 1.5533786 35.414506
18.139205 4.7132914 34.60891
15.383654 0 35.147045
47.882346 0 -25.195098
56.175396 0 -20.250331
48.26284 3.5574156 -24.072056
49.83173 -3.6730573 -24.854572
73.923697 0 -5.1234629
65.312089 0 -13.756336
48.640124 10.657636 -21.560866
56.342158 3.9325516 -18.862792
48.496203 7.1245608 -22.840119
52.218542 3.7376568 -21.621147
53.157602 -11.64747 -23.563343
58.796271 -4.1038429 -19.684405
51.670354 -7.5908742 -24.33504
54.224193 -3.8812156 -22.451589
47.882346 0 25.195098
56.175396 0 20.250331
48.26284 3.5574156 24.072056
49.83173 -3.6730573 24.854572
73.923697 0 5.1234629
65.312089 0 13.756336
48.640124 10.657636 21.560866
56.342158 3.9325516 18.862792
48.496203 7.1245608 22.840119
52.218542 3.7376568 21.621147
53.157602 -11.64747 23.563343
58.796271 -4.1038429 19.684405
51.670354 -7.5908742 24.33504
54.224193 -3.8812156 22.451589
49.026965 25.556751 -15.794941
56.848097 20.030489 -12.379523
48.947392 21.718466 -17.314809
53.042931 27.742569 -12.106086
73.010509 4.8878835 -3.0208781
65.230925 13.321668 -8.2332434
69.828181 4.6974295 -7.7729055
48.775411 14.366686 -20.156762
56.714227 16.004635 -14.084207
48.862068 17.980109 -18.774074
52.512537 11.29077 -18.815785
52.752499 18.980972 -15.760383
60.416022 31.698909 -2.8201232
61.197321 21.749303 -8.0363608
57.210751 29.98527 -7.7913733
57.113161 24.877759 -10.162675
60.878835 4.1923567 -15.576484
61.028204 12.592928 -12.176584
65.41206 4.4389256 -11.969374
56.548039 7.9092555 -17.297493
65.386404 8.8961839 -10.11739
56.667504 11.945973 -15.693453
51.919488 -27.064564 -16.72682
64.02398 -22.55892 -13.942179
53.377626 -23.684206 -18.881974
55.460178 -29.00684 -12.657778
76.62877 -5.1301177 -3.1705871
73.519578 -15.014403 -9.2794113
73.38514 -4.9367106 -8.1688474
54.111824 -15.938514 -22.36207
64.656111 -18.245818 -16.056466
54.164347 -19.931224 -20.811347
58.32105 -12.539664 -20.897036
59.265107 -21.324285 -17.706096
59.326794 -31.127416 -2.7692798
67.632811 -24.036452 -8.8814618
58.03723 -30.418444 -7.9039292
61.636271 -26.847968 -10.967514
63.810535 -4.3942452 -16.32659
69.015039 -14.24098 -13.770148
68.723128 -4.6636179 -12.575247
61.523751 -8.6051979 -18.819515
71.795224 -9.7681396 -11.109042
63.731134 -13.435044 -17.649649
49.026965 25.556751 15.794941
56.848097 20.030489 12.379523
48.947392 21.718466 17.314809
53.042931 27.742569 12.106086
73.010509 4.8878835 3.0208781
65.230925 13.321668 8.2332434
69.828181 4.6974295 7.7729055
71.556102 9.640743 0
48.775411 14.366686 20.156762
56.714227 16.004635 14.084207
48.862068 17.980109 18.774074
52.512537 11.29077 18.815785
52.752499 18.980972 15.760383
60.416022 31.698909 2.8201232
61.197321 21.749303 8.0363608
57.210751 29.98527 7.7913733
63.100565 27.618745 0
57.113161 24.877759 10.162675
60.878835 4.1923567 15.576484
61.028204 12.592928 12.176584
65.41206 4.4389256 11.969374
56.548039 7.9092555 17.297493
65.386404 8.8961839 10.11739
56.667504 11.945973 15.693453
65.363305 18.065973 -5.5453622
65.363305 18.065973 5.5453622
68.885296 14.100594 -2.9029734
64.696548 22.958044 -2.8377703
68.885296 14.100594 2.9029734
64.696548 22.958044 2.8377703
51.919488 -27.064564 16.72682
64.02398 -22.55892 13.942179
53.377626 -23.684206 18.881974
55.460178 -29.00684 12.657778
76.62877 -5.1301177 3.1705871
73.519578 -15.014403 9.2794113
73.38514 -4.9367106 8.1688474
78.041288 -10.514491 0
54.111824 -15.938514 22.36207
64.656111 -18.245818 16.056466
54.164347 -19.931224 20.811347
58.32105 -12.539664 20.897036
59.265107 -21.324285 17.706096
59.326794 -31.127416 2.7692798
67.632811 -24.036452 8.8814618
58.03723 -30.418444 7.9039292
64.682341 -28.311079 0
61.636271 -26.847968 10.967514
63.810535 -4.3942452 16.32659
69.015039 -14.24098 13.770148
68.723128 -4.6636179 12.575247
61.523751 -8.6051979 18.819515
71.795224 -9.7681396 11.109042
63.731134 -13.435044 17.649649
73.129208 -20.212416 -6.2042141
73.129208 -20.212416 6.2042141
76.77536 -15.715664 -3.2354775
69.63862 -24.711774 -3.0545433
76.77536 -15.715664 3.2354775
69.63862 -24.711774 3.0545433
-30.124395 43.139389 -2.1401201
-35.519312 40.306144 -6.5565648
-28.656153 42.948982 -5.5298698
-44.505425 31.422268 -15.503627
-40.377497 36.386509 -11.056256
-25.008765 41.185747 -11.766532
-33.463559 39.538787 -9.8839292
-26.922968 42.272632 -8.778602
-31.142188 41.36463 -7.7169529
-45.674991 3.4930319 -26.894477
-48.387063 10.953827 -25.72086
-47.66196 25.478878 -19.724646
-49.208471 18.555198 -23.325053
-16.735091 34.368065 -21.240632
-23.877447 33.145143 -20.484825
-18.750441 36.229533 -19.270968
-41.002502 29.789319 -18.410812
-31.808359 31.680621 -19.5797
-39.4315 32.5061 -16.378716
-22.90589 39.68994 -14.612473
-26.227525 34.964494 -18.329417
-20.829501 38.037116 -17.057177
-26.933493 39.038943 -13.850405
-22.416268 35.616652 -18.822471
-35.685324 37.365937 -12.149539
-30.404233 34.227015 -17.755453
-37.648054 35.052728 -14.273769
-31.197854 38.271035 -13.031131
-34.729137 33.429015 -17.120822
-28.73558 36.693588 -15.859252
-40.213954 -57.588057 -2.8569101
-44.304691 -50.275503 -8.1782715
-37.231637 -55.80166 -7.1847084
-45.301666 -31.984439 -15.781001
-45.14774 -40.685253 -12.362454
-30.424421 -50.104534 -14.314578
-40.396633 -47.730544 -11.931709
-33.815399 -53.094664 -11.025974
-39.285308 -52.180735 -9.7347968
-44.499093 -3.4031041 -26.202082
-45.011021 -10.189561 -23.926275
-45.306102 -24.219496 -18.749687
-45.222192 -17.052079 -21.435537
-18.495049 -37.982407 -23.474418
-26.557842 -36.865896 -22.784377
-21.130771 -40.828797 -21.717378
-41.671286 -30.275207 -18.711107
-34.324164 -34.186323 -21.128309
-41.532794 -34.238341 -17.251534
-27.053639 -46.876908 -17.258468
-29.608031 -39.471121 -20.691924
-23.998868 -43.824751 -19.652556
-31.921048 -46.26819 -16.415228
-25.412153 -40.37674 -21.338054
-40.982887 -42.91299 -13.953164
-33.804493 -38.054796 -19.741136
-41.32141 -38.472855 -15.666474
-36.606352 -44.905748 -15.290224
-37.70814 -36.296495 -18.589415
-32.994591 -42.132087 -18.209813
-2.4563855 -18.912855 -32.119772
-7.4071156 -17.392769 -32.719941
-4.0423888 -20.947928 -31.396125
-2.4315854 -16.453871 -32.988896
-17.667552 -13.677455 -33.049734
-12.46352 -15.667429 -33.053312
-7.4363678 -25.176964 -29.747781
-9.1415798 -19.429652 -31.997771
-5.7094794 -23.040918 -30.604113
-6.5896171 -20.209602 -31.731756
-2.4035419 -11.528778 -34.435846
-7.3428438 -14.854896 -33.511826
-2.416973 -13.981414 -33.767361
-4.8892667 -15.67415 -33.280771
-40.659926 -2.0171154 -28.392977
-34.43169 -5.6009725 -30.342518
-41.141567 -5.2971571 -27.450221
-23.040372 -11.368032 -32.633595
-28.606337 -8.6922045 -31.743971
-41.644366 -11.897557 -25.287247
-34.845048 -8.7105855 -29.491024
-41.449003 -8.607562 -26.398408
-37.918834 -7.0741078 -28.547951
-15.614145 -34.774077 -25.264217
-17.38831 -28.248319 -28.134877
-13.386359 -32.227446 -26.567302
-19.423257 -34.461139 -25.167217
-19.882859 -15.665327 -32.171142
-18.781054 -21.891504 -30.388384
-17.171858 -16.70803 -32.283193
-9.3552068 -27.477881 -28.771961
-15.17368 -25.983234 -29.250155
-11.293399 -29.787122 -27.733701
-10.232206 -24.496944 -30.050893
-14.337091 -29.082412 -27.993681
-27.124148 -32.878458 -24.375647
-20.945707 -27.542967 -27.946443
-23.306892 -33.839146 -24.880611
-20.237057 -30.950024 -26.653292
-11.85032 -18.576056 -32.187466
-15.939291 -22.807499 -30.405181
-14.477952 -17.67986 -32.285501
-11.066073 -21.519082 -31.190987
-16.593034 -19.761161 -31.39802
-13.085432 -23.70966 -30.275794
-2.4030346 -1.4851571 -35.894223
-7.2660581 -4.4906708 -35.579006
-2.4044242 -3.978636 -35.742222
-17.577947 -10.863769 -33.720773
-12.294737 -7.5985655 -34.893426
-14.996008 -11.955402 -33.796838
-2.4112624 -8.9589202 -35.014874
-7.2774929 -7.036886 -35.268391
-2.4052808 -6.4857375 -35.444246
-4.8473141 -10.601046 -34.656373
-4.8363022 -5.5001962 -35.546523
-9.9233199 -13.922626 -33.690025
-9.8439964 -8.6627956 -34.88331
-12.431408 -12.980353 -33.783127
-7.3567708 -12.259874 -34.215798
-12.378841 -10.278466 -34.403654
-7.3379245 -9.6398484 -34.808538
-41.768731 -25.814495 -20.338751
-35.201072 -21.755459 -25.358519
-41.803059 -22.235601 -21.634996
-38.25179 -27.935556 -21.559773
-23.162358 -14.315124 -31.881045
-29.040463 -17.947993 -29.157556
-25.964798 -13.082777 -31.496579
-22.698052 -17.517634 -31.080144
-41.740726 -15.367502 -24.089441
-35.25116 -18.479696 -26.442559
-41.79734 -18.743394 -22.888638
-38.373702 -13.614387 -26.474534
-38.454838 -20.322378 -24.202553
-31.040375 -31.495084 -23.605394
-31.807212 -23.581439 -26.240389
-34.668163 -29.855249 -22.668209
-27.734508 -28.951021 -25.766149
-34.956298 -25.702009 -24.076336
-31.744505 -10.32173 -30.316728
-32.026595 -16.613974 -28.449576
-28.838519 -11.74329 -30.973741
-35.034801 -11.929207 -28.559735
-28.975623 -14.839997 -30.102544
-35.16078 -15.19676 -27.535203
-21.608925 -24.045461 -29.146637
-28.598204 -21.434198 -28.185318
-22.178367 -20.775567 -30.16393
-24.571983 -26.449115 -27.609247
-25.622176 -19.454161 -29.752683
-28.220999 -25.116437 -27.035162
-2.4401288 18.787687 -31.907198
-7.2853624 17.106879 -32.182113
-3.9924434 20.689107 -31.008213
-2.4184775 16.365174 -32.811064
-17.359163 13.438714 -32.472849
-12.208346 15.34666 -32.37659
-7.2288898 24.474515 -28.917805
-8.932639 18.985566 -31.266427
-5.5982405 22.592007 -30.007848
-6.4683766 19.837771 -31.147933
-2.3955944 11.490657 -34.321981
-7.2468509 14.660698 -33.073726
-2.4066108 13.921472 -33.622591
-4.8412241 15.520134 -32.953749
-41.164053 2.0421249 -28.745012
-35.077298 5.7059931 -30.911454
-42.518421 5.4744332 -28.368877
-37.9764 0 -29.827231
-22.87627 11.287065 -32.401166
-28.829258 8.7599403 -31.991343
-44.337469 12.666961 -26.92255
-35.791472 8.9471733 -30.292028
-43.617024 9.057787 -27.779196
-39.178745 7.3091559 -29.4965
-31.93629 -3.6294981 -31.560269
-32.226522 3.6624824 -31.847084
-34.888461 -1.8921337 -30.768099
-35.133723 1.9054352 -30.984395
-14.421241 32.117375 -23.334058
-16.352613 26.565768 -26.459083
-12.552919 30.220953 -24.913212
-17.782461 31.550007 -23.041196
-19.467703 15.338234 -31.499405
-18.034565 21.021384 -29.180539
-16.746244 16.293912 -31.483036
-8.9978855 26.428366 -27.673019
-14.427343 24.705216 -27.811449
-10.734878 28.313983 -26.362115
-9.8755718 23.643124 -29.003496
-13.529755 27.444753 -26.417329
-24.94206 30.233446 -22.414671
-19.69189 25.894236 -26.273559
-21.296933 30.920899 -22.734937
-18.771273 28.708291 -24.722774
-11.545876 18.098823 -31.360545
-15.285347 21.871771 -29.157741
-14.096563 17.214124 -31.435013
-10.727812 20.861301 -30.237561
-16.048097 19.112179 -30.366868
-12.569765 22.775317 -29.082695
-2.4021778 1.4846275 -35.881425
-7.2439082 4.4769815 -35.470546
-2.4020742 3.9747473 -35.707288
-4.8313075 0 -35.85922
-17.368684 10.734437 -33.319331
-12.202047 7.5412797 -34.630364
-14.779421 11.782731 -33.308711
-2.4054214 8.9372183 -34.930055
-7.2409426 7.0015441 -35.09126
-2.4012887 6.4749728 -35.385418
-4.8191968 10.539554 -34.455345
-4.823321 5.4854331 -35.451112
-9.8280939 -3.0167398 -35.558378
-9.803924 3.0093208 -35.47093
-7.3186649 -1.5067372 -35.753699
-7.3113737 1.5052361 -35.718079
-9.7740472 13.713193 -33.183239
-9.7654556 8.5936791 -34.604992
-12.238692 12.779128 -33.259411
-7.282594 12.136261 -33.870807
-12.240633 10.163708 -34.019542
-7.2837871 9.568728 -34.551729
-42.583974 26.318343 -20.735723
-35.384768 21.868989 -25.490852
-43.618317 23.20116 -22.574475
-37.686687 27.522857 -21.241265
-22.85797 14.127002 -31.46208
-28.812327 17.806997 -28.9285
-25.85377 13.026834 -31.361897
-22.180268 17.118025 -30.37115
-44.562496 16.406381 -25.717943
-35.935816 18.838613 -26.956133
-44.313065 19.871533 -24.266273
-40.212799 14.26687 -27.743352
-39.662782 20.960745 -24.962804
-28.999845 29.424663 -22.053625
-31.161274 23.10255 -25.707502
-33.149372 28.547309 -21.675129
-26.073662 27.217325 -24.223176
-34.355301 25.26012 -23.662396
-32.289017 10.498778 -30.83675
-32.308 16.759954 -28.699551
-29.018621 11.816629 -31.167178
-36.110165 12.295364 -29.436352
-29.003945 14.854502 -30.131967
-36.14822 15.62354 -28.308489
-20.603324 22.926473 -27.790258
-27.94915 20.947736 -27.545635
-21.419011 20.064241 -29.13116
-23.257524 25.034241 -26.132312
-25.019921 18.996888 -29.05334
-27.085732 24.106059 -25.947598
-20.705847 -9.4554686 -33.502764
-21.174356 -3.1697914 -34.260828
-23.385736 -8.1723709 -33.203413
-17.909351 -7.8151428 -34.242124
-20.557323 9.3876441 -33.262447
-21.151666 3.1663947 -34.224114
-23.334083 8.1543202 -33.130075
-17.78349 7.7602206 -34.001482
-28.934758 -5.2903679 -32.254288
-23.791202 -1.6845651 -33.857764
-26.143303 -6.78003 -32.786205
-29.239252 -1.7818168 -32.568061
-23.645714 -4.929944 -33.624538
-12.52496 -4.627969 -35.242233
-18.251943 -1.6238013 -34.786996
-15.165844 -6.1953145 -34.817014
-12.567097 -1.5533786 -35.414506
-18.139205 -4.7132914 -34.60891
-29.141519 5.3281717 -32.48477
-23.79804 1.6850492 -33.867494
-26.220591 6.800074 -32.883132
-29.323988 1.7869806 -32.662445
-23.647276 4.9302696 -33.626758
-26.498646 0 -33.33286
-12.47169 4.6082858 -35.092345
-18.232567 1.6220775 -34.750067
-15.076647 6.1588772 -34.61224
-12.549992 1.5512644 -35.366305
-18.07582 4.6968214 -34.487974
-15.383654 0 -35.147045
-30.124395 43.139389 2.1401201
-35.519312 40.306144 6.5565648
-28.656153 42.948982 5.5298698
-33.172907 42.236156 0
-44.505425 31.422268 15.503627
-40.377497 36.386509 11.056256
-25.008765 41.185747 11.766532
-33.463559 39.538787 9.8839292
-26.922968 42.272632 8.778602
-31.142188 41.36463 7.7169529
-39.133877 39.600133 -4.5004792
-39.133877 39.600133 4.5004792
-36.205984 41.054569 -2.2265452
-36.205984 41.054569 2.2265452
-45.674991 3.4930319 26.894477
-48.387063 10.953827 25.72086
-47.66196 25.478878 19.724646
-49.208471 18.555198 23.325053
-16.735091 34.368065 21.240632
-23.877447 33.145143 20.484825
-18.750441 36.229533 19.270968
-41.002502 29.789319 18.410812
-31.808359 31.680621 19.5797
-39.4315 32.5061 16.378716
-22.90589 39.68994 14.612473
-26.227525 34.964494 18.329417
-20.829501 38.037116 17.057177
-26.933493 39.038943 13.850405
-22.416268 35.616652 18.822471
-35.685324 37.365937 12.149539
-30.404233 34.227015 17.755453
-37.648054 35.052728 14.273769
-31.197854 38.271035 13.031131
-34.729137 33.429015 17.120822
-28.73558 36.693588 15.859252
-49.592292 30.649722 -13.996408
-53.961354 33.349951 -4.9924724
-47.305901 33.318361 -11.643423
-49.592292 30.649722 13.996408
-53.961354 33.349951 4.9924724
-47.305901 33.318361 11.643423
-42.098326 37.765672 -6.9049929
-50.40769 35.420518 -2.507993
-44.775914 35.703744 -9.2594442
-42.926271 38.53874 -2.3485202
-49.353813 34.70698 -7.2361303
-42.098326 37.765672 6.9049929
-50.40769 35.420518 2.507993
-44.775914 35.703744 9.2594442
-42.926271 38.53874 2.3485202
-49.353813 34.70698 7.2361303
-46.728483 37.147773 0
-40.213954 -57.588057 2.8569101
-44.304691 -50.275503 8.1782715
-37.231637 -55.80166 7.1847084
-44.406171 -56.538487 0
-45.301666 -31.984439 15.781001
-45.14774 -40.685253 12.362454
-30.424421 -50.104534 14.314578
-40.396633 -47.730544 11.931709
-33.815399 -53.094664 11.025974
-39.285308 -52.180735 9.7347968
-48.578081 -49.156858 -5.5865826
-48.578081 -49.156858 5.5865826
-47.231068 -53.556096 -2.9045504
-47.231068 -53.556096 2.9045504
-44.499093 -3.4031041 26.202082
-45.011021 -10.189561 23.926275
-45.306102 -24.219496 18.749687
-45.222192 -17.052079 21.435537
-18.495049 -37.982407 23.474418
-26.557842 -36.865896 22.784377
-21.130771 -40.828797 21.717378
-41.671286 -30.275207 18.711107
-34.324164 -34.186323 21.128309
-41.532794 -34.238341 17.251534
-27.053639 -46.876908 17.258468
-29.608031 -39.471121 20.691924
-23.998868 -43.824751 19.652556
-31.921048 -46.26819 16.415228
-25.412153 -40.37674 21.338054
-40.982887 -42.91299 13.953164
-33.804493 -38.054796 19.741136
-41.32141 -38.472855 15.666474
-36.606352 -44.905748 15.290224
-37.70814 -36.296495 18.589415
-32.994591 -42.132087 18.209813
-49.118365 -30.356819 -13.862652
-56.976206 -35.213232 -5.2714047
-49.18308 -34.640491 -12.105454
-49.118365 -30.356819 13.862652
-56.976206 -35.213232 5.2714047
-49.18308 -34.640491 12.105454
-49.099665 -44.04645 -8.0533567
-56.39 -39.624173 -2.8056378
-49.203266 -39.234059 -10.174999
-52.288104 -46.943692 -2.8607113
-53.224312 -37.428823 -7.803613
-49.099665 -44.04645 8.0533567
-56.39 -39.624173 2.8056378
-49.203266 -39.234059 10.174999
-52.288104 -46.943692 2.8607113
-53.224312 -37.428823 7.803613
-54.9603 -43.691826 0
-2.4563855 -18.912855 32.119772
-7.4071156 -17.392769 32.719941
-4.0423888 -20.947928 31.396125
-2.4315854 -16.453871 32.988896
-17.667552 -13.677455 33.049734
-12.46352 -15.667429 33.053312
-7.4363678 -25.176964 29.747781
-9.1415798 -19.429652 31.997771
-5.7094794 -23.040918 30.604113
-6.5896171 -20.209602 31.731756
-2.4035419 -11.528778 34.435846
-7.3428438 -14.854896 33.511826
-2.416973 -13.981414 33.767361
-4.8892667 -15.67415 33.280771
-40.659926 -2.0171154 28.392977
-34.43169 -5.6009725 30.342518
-41.141567 -5.2971571 27.450221
-23.040372 -11.368032 32.633595
-28.606337 -8.6922045 31.743971
-41.644366 -11.897557 25.287247
-34.845048 -8.7105855 29.491024
-41.449003 -8.607562 26.398408
-37.918834 -7.0741078 28.547951
-15.614145 -34.774077 25.264217
-17.38831 -28.248319 28.134877
-13.386359 -32.227446 26.567302
-19.423257 -34.461139 25.167217
-19.882859 -15.665327 32.171142
-18.781054 -21.891504 30.388384
-17.171858 -16.70803 32.283193
-9.3552068 -27.477881 28.771961
-15.17368 -25.983234 29.250155
-11.293399 -29.787122 27.733701
-10.232206 -24.496944 30.050893
-14.337091 -29.082412 27.993681
-27.124148 -32.878458 24.375647
-20.945707 -27.542967 27.946443
-23.306892 -33.839146 24.880611
-20.237057 -30.950024 26.653292
-11.85032 -18.576056 32.187466
-15.939291 -22.807499 30.405181
-14.477952 -17.67986 32.285501
-11.066073 -21.519082 31.190987
-16.593034 -19.761161 31.39802
-13.085432 -23.70966 30.275794
-2.4030346 -1.4851571 35.894223
-7.2660581 -4.4906708 35.579006
-2.4044242 -3.978636 35.742222
-17.577947 -10.863769 33.720773
-12.294737 -7.5985655 34.893426
-14.996008 -11.955402 33.796838
-2.4112624 -8.9589202 35.014874
-7.2774929 -7.036886 35.268391
-2.4052808 -6.4857375 35.444246
-4.8473141 -10.601046 34.656373
-4.8363022 -5.5001962 35.546523
-9.9233199 -13.922626 33.690025
-9.8439964 -8.6627956 34.88331
-12.431408 -12.980353 33.783127
-7.3567708 -12.259874 34.215798
-12.378841 -10.278466 34.403654
-7.3379245 -9.6398484 34.808538
-41.768731 -25.814495 20.338751
-35.201072 -21.755459 25.358519
-41.803059 -22.235601 21.634996
-38.25179 -27.935556 21.559773
-23.162358 -14.315124 31.881045
-29.040463 -17.947993 29.157556
-25.964798 -13.082777 31.496579
-22.698052 -17.517634 31.080144
-41.740726 -15.367502 24.089441
-35.25116 -18.479696 26.442559
-41.79734 -18.743394 22.888638
-38.373702 -13.614387 26.474534
-38.454838 -20.322378 24.202553
-31.040375 -31.495084 23.605394
-31.807212 -23.581439 26.240389
-34.668163 -29.855249 22.668209
-27.734508 -28.951021 25.766149
-34.956298 -25.702009 24.076336
-31.744505 -10.32173 30.316728
-32.026595 -16.613974 28.449576
-28.838519 -11.74329 30.973741
-35.034801 -11.929207 28.559735
-28.975623 -14.839997 30.102544
-35.16078 -15.19676 27.535203
-21.608925 -24.045461 29.146637
-28.598204 -21.434198 28.185318
-22.178367 -20.775567 30.16393
-24.571983 -26.449115 27.609247
-25.622176 -19.454161 29.752683
-28.220999 -25.116437 27.035162
-2.4401288 18.787687 31.907198
-7.2853624 17.106879 32.182113
-3.9924434 20.689107 31.008213
-2.4184775 16.365174 32.811064
-17.359163 13.438714 32.472849
-12.208346 15.34666 32.37659
-7.2288898 24.474515 28.917805
-8.932639 18.985566 31.266427
-5.5982405 22.592007 30.007848
-6.4683766 19.837771 31.147933
-2.3955944 11.490657 34.321981
-7.2468509 14.660698 33.073726
-2.4066108 13.921472 33.622591
-4.8412241 15.520134 32.953749
-41.164053 2.0421249 28.745012
