5.712487 30.946635 -35.117222
0.000000 27.721390 -35.295217
14.892737 42.751776 -30.184134
10.009487 36.554691 -32.941557
-3.601481 31.316642 -31.689761
3.785519 32.916945 -33.309130
-1.819303 29.583798 -33.545562
1.862526 30.286654 -34.342543
2.174489 52.554430 -3.518397
6.743621 53.428840 -10.911408
6.079274 54.613376 -3.673910
0.000000 50.870866 -6.853824
15.684594 48.684452 -25.378206
11.377368 52.246093 -18.408968
18.409348 52.041555 -23.091378
15.104140 59.032733 -4.065227
11.058572 55.424807 -11.436690
10.390328 56.782648 -3.853325
18.270214 59.728005 -8.354031
8.552094 55.270248 -7.519825
-3.972708 46.826397 -12.942498
4.322417 50.948422 -14.081797
-2.062262 48.935879 -10.017014
2.155183 51.140807 -10.468355
24.265886 58.718685 -17.295455
13.649801 54.964962 -15.510996
21.302050 55.441468 -20.401175
21.382889 59.677008 -12.831210
16.088193 53.849731 -19.375769
15.924451 57.501615 -12.121811
-10.437972 36.983984 -22.857359
-3.662278 39.583889 -24.464189
-8.818351 35.827957 -25.234248
-9.024432 39.540635 -20.680584
12.643832 44.799823 -27.687813
3.902738 42.182918 -26.070477
10.255933 41.668687 -29.347974
10.746856 47.087455 -24.627730
-5.414840 33.013169 -29.615536
-1.900930 38.206450 -26.846940
-7.132132 34.488866 -27.500983
-1.856723 33.937196 -30.468446
-5.429388 37.030982 -26.041221
-5.836568 44.445779 -15.795866
-1.981289 42.445510 -22.270191
-7.482729 42.052150 -18.317376
-2.031421 46.313101 -16.434543
-5.582486 40.991261 -21.484319
5.869231 35.783496 -32.100749
1.960504 39.403813 -27.688305
7.991769 38.645815 -30.815681
1.907415 34.863747 -31.300294
5.944353 40.543284 -28.511170
0.000000 36.646303 -29.132736
6.591156 50.192007 -17.838055
2.053868 44.000396 -23.086004
8.703734 48.914068 -21.306340
2.115928 48.239717 -17.118217
6.198840 45.517043 -23.856370
0.000000 45.363714 -19.855430
0.000000 -20.529082 -39.014756
0.000000 -14.875118 -41.264295
0.000000 -3.035347 -43.795399
0.000000 -9.037809 -42.909549
0.000000 20.529082 -39.014756
0.000000 14.875118 -41.264295
0.000000 3.035347 -43.795399
0.000000 9.037809 -42.909549
50.949583 72.961924 -3.619599
63.757899 72.350362 -11.769169
47.075318 70.555073 -9.084275
67.639661 47.755785 -23.562523
68.272461 61.524283 -18.694517
38.541774 63.472618 -18.133763
57.812398 68.308099 -17.075699
42.831698 67.251449 -13.965861
53.015462 70.417821 -13.137093
52.826863 4.039977 -31.105663
58.677219 13.283305 -31.190745
65.819245 35.185303 -27.238941
63.066878 23.780832 -29.894004
23.067047 47.371703 -29.277323
35.681983 49.531443 -30.612116
26.489736 51.183369 -27.225112
62.490612 45.400956 -28.059334
50.030263 49.829348 -30.796231
62.721947 51.706018 -26.052901
34.206892 59.271632 -21.821780
40.459991 53.938108 -28.275945
30.228416 55.200638 -24.753903
42.554462 61.680867 -21.883404
33.161177 52.688973 -27.844747
60.944926 63.815149 -20.749504
48.497761 54.595476 -28.321706
62.362686 58.063618 -23.644000
51.808411 63.554419 -21.640020
56.122901 54.021879 -27.667551
45.934043 58.654980 -25.351135
25.035165 -35.851399 -1.778567
28.909431 -32.805469 -5.336437
24.151267 -36.197195 -4.660547
36.274102 -25.610687 -12.636216
32.645464 -29.418725 -8.939053
22.077782 -36.358851 -10.387515
27.892244 -32.956014 -8.238364
23.162394 -36.368031 -7.552415
26.054817 -34.607326 -6.456316
48.759830 -3.728947 -28.710901
46.223616 -10.464067 -24.570848
39.793693 -21.272701 -16.468406
43.153033 -16.271854 -20.454746
16.719112 -34.335250 -21.220352
22.743836 -31.571536 -19.512282
18.180403 -35.128108 -18.685106
34.856831 -25.324339 -15.651302
28.721879 -28.606535 -17.679811
33.202680 -27.371254 -13.791443
20.854429 -36.135292 -13.303774
24.156527 -32.203600 -16.882075
19.568379 -35.734158 -16.024450
23.829694 -34.540119 -12.254292
21.196094 -33.677949 -17.797917
29.747553 -31.148524 -10.127947
27.208676 -30.629674 -15.889313
31.490521 -29.319674 -11.939221
26.798638 -32.874428 -11.193608
30.175238 -29.045595 -14.875833
25.546252 -32.621010 -14.099052
2.870491 -22.101249 -37.534633
8.411520 -19.751228 -37.156764
4.633574 -24.011490 -35.987701
2.864086 -19.380486 -38.856559
19.327115 -14.962217 -36.154189
13.839408 -17.397008 -36.702174
8.132109 -27.532504 -32.530964
10.160356 -21.594973 -35.563736
6.400874 -25.831079 -34.310147
7.431516 -22.791609 -35.785850
2.871176 -13.771821 -41.135699
8.435852 -17.066100 -38.500181
2.867837 -16.589520 -40.066354
5.683277 -18.219613 -38.685526
45.579907 -2.261193 -31.828618
37.978043 -6.177855 -33.467700
44.768297 -5.764114 -29.870025
25.049726 -12.359440 -35.479576
31.197472 -9.479536 -34.619310
42.570892 -12.162260 -25.849851
37.385658 -9.345689 -31.641263
43.741250 -9.083585 -27.858314
40.956642 -7.640839 -30.835025
14.886801 -33.154218 -24.087349
17.201536 -27.944892 -27.832669
13.282832 -31.978209 -26.361839
17.969772 -31.882337 -23.283899
21.232491 -16.728677 -34.354893
19.297769 -22.493795 -31.224446
18.457926 -17.959360 -34.701009
9.933681 -29.176961 -30.551060
15.517210 -26.571491 -29.912375
11.616988 -30.640610 -28.528352
10.975550 -26.276584 -32.234014
14.438078 -29.287262 -28.190862
24.068306 -29.174328 -21.629455
20.317529 -26.716933 -27.108308
21.041324 -30.549780 -22.462068
19.174744 -29.325350 -25.254168
12.993542 -20.368123 -35.292651
16.570377 -23.710518 -31.609015
15.701984 -19.174597 -35.015065
11.997728 -23.330778 -33.816962
17.534849 -20.882798 -33.180160
13.797712 -25.000249 -31.923798
2.930062 -1.810878 -43.766458
8.709987 -5.383068 -42.649352
2.920456 -4.832522 -43.413134
19.597539 -12.111945 -37.595071
14.284995 -8.828612 -40.541933
16.794771 -13.389447 -37.850752
2.898752 -10.770162 -42.093896
8.638468 -8.352864 -41.863985
2.907540 -7.840058 -42.845546
5.737644 -12.548193 -41.021879
5.817624 -6.616228 -42.759181
11.281579 -15.828292 -38.301363
11.486643 -10.108338 -40.704213
14.014554 -14.633408 -38.085425
8.545450 -14.240778 -39.744256
14.168283 -11.764286 -39.376928
8.617598 -11.320958 -40.878858
36.763096 -22.720843 -17.901321
33.424233 -20.657312 -24.078501
38.305728 -20.375324 -19.824967
33.516965 -24.477680 -18.891094
24.620574 -15.216351 -33.888157
29.286500 -18.100052 -29.404585
27.567344 -13.890246 -33.440546
23.596507 -18.211033 -32.310388
41.195110 -15.166625 -23.774555
34.563504 -18.119206 -25.926735
39.798386 -17.846993 -21.793990
39.002175 -13.837360 -26.908127
36.542165 -19.311580 -22.998763
27.257892 -27.657192 -20.728915
30.110346 -22.323406 -24.840505
30.337793 -26.126056 -19.836743
25.465890 -26.582895 -23.658539
31.913793 -23.464974 -21.980795
33.863699 -11.010786 -32.340607
32.323725 -16.768112 -28.713520
30.657761 -12.484102 -32.927682
36.526717 -12.437198 -29.775918
30.010965 -15.370252 -31.178153
35.573962 -15.375341 -27.858775
21.473729 -23.895022 -28.964281
28.022560 -21.002757 -27.617986
22.543033 -21.117168 -30.659898
23.515917 -25.312374 -26.422645
25.880856 -19.650570 -30.053065
26.791723 -23.844393 -25.665943
2.957314 22.769735 -38.669926
9.146494 21.477031 -40.403411
4.881881 25.298233 -37.916232
2.941936 19.907277 -39.912741
22.710007 17.581106 -42.482383
15.742537 19.789360 -41.749280
9.047000 30.630007 -36.190811
11.350505 24.124535 -39.729550
6.919600 27.924425 -37.090635
8.070904 24.752538 -38.864769
2.929974 14.053849 -41.978101
9.086352 18.382090 -41.468981
2.936577 16.987160 -41.026719
5.985325 19.187924 -40.741532
47.725763 2.367647 -33.327078
42.766981 6.956867 -37.687895
50.579570 6.512341 -33.747387
43.613572 0.000000 -34.254750
29.833997 14.719981 -42.255854
36.684891 11.146921 -40.708607
55.798545 15.941324 -33.881932
44.972285 11.242198 -38.062187
53.328414 11.074516 -33.964272
47.939730 8.943598 -36.092383
36.029089 -4.094637 -35.604879
38.787258 4.408097 -38.330572
39.691002 -2.152594 -35.003455
41.324041 2.241160 -36.443631
19.354657 43.104529 -31.316493
22.298122 36.224592 -36.079119
16.510469 39.748692 -32.767583
24.791171 43.985003 -32.122563
25.925884 20.426512 -41.948961
24.515943 28.576185 -39.667630
22.161333 21.562734 -41.663435
11.432128 33.578163 -35.159538
19.272532 33.002061 -37.151472
13.862258 36.562664 -34.042161
12.662878 30.316219 -37.189515
17.976504 36.464866 -35.099764
37.171972 45.057899 -33.405320
27.591994 36.282633 -36.814136
30.778383 44.686963 -32.856589
26.307955 40.234695 -34.648990
14.919949 23.387876 -40.525097
20.440692 29.248543 -38.991880
18.462510 22.545634 -41.170975
13.833624 26.900863 -38.991646
21.393582 25.478283 -40.481813
16.482834 29.865456 -38.136372
2.938624 1.816169 -43.894339
8.937871 5.523908 -43.765209
2.943078 4.869955 -43.749415
5.894880 0.000000 -43.753334
22.379297 13.831166 -42.931475
15.317800 9.466921 -43.473115
19.020102 15.163568 -42.866029
2.946859 10.948902 -42.792483
8.986339 8.689234 -43.549847
2.943469 7.936939 -43.374991
5.959575 13.033555 -42.608600
5.941344 6.756930 -43.668510
11.777056 -3.614975 -42.609788
12.056088 3.700624 -43.619337
8.867209 -1.825545 -43.318764
8.946317 1.841832 -43.705229
12.403989 17.403057 -42.111986
12.241678 10.772774 -43.379764
15.667365 16.359204 -42.577044
9.112934 15.186476 -42.383583
15.529166 12.894261 -43.159135
9.083119 11.932515 -43.087128
61.765073 38.172914 -30.075714
50.722358 31.348141 -36.539906
60.844731 32.364118 -31.489932
56.825301 41.499924 -32.028320
30.476070 18.835247 -41.947756
39.939116 24.683731 -40.100153
34.286735 17.275918 -41.591498
30.150764 23.269400 -41.285045
57.944161 21.333050 -33.440780
49.913564 26.166160 -37.441104
59.589814 26.722164 -32.631972
52.455547 18.610405 -36.189789
55.437895 29.297481 -34.891283
44.195740 44.843161 -33.609705
45.351765 33.623189 -37.414407
50.795442 43.743610 -33.213231
38.502878 40.191721 -35.770272
50.995986 37.495370 -35.123756
41.569354 13.516281 -39.699684
44.296106 22.978850 -39.348717
38.032340 15.487093 -40.848279
46.899908 15.969227 -38.231956
39.134169 20.042743 -40.656177
48.571245 20.992867 -38.037242
28.711415 31.948801 -38.726646
39.742312 29.786647 -39.168534
29.551304 27.682160 -40.191573
33.321206 35.866720 -37.439934
34.776498 26.404768 -40.382758
39.356995 35.027374 -37.703227
23.025143 -10.514591 -37.255463
24.622058 -3.685911 -39.839327
26.012297 -9.090248 -36.932643
20.350044 -8.880193 -38.908653
26.367803 12.041040 -42.664001
25.842028 3.868540 -41.813280
29.655362 10.363352 -42.105122
22.503232 9.819785 -43.025481
32.419465 -5.927504 -36.138778
27.808980 -1.969049 -39.575548
29.153554 -7.560711 -36.561348
33.721325 -2.054951 -37.560406
26.944196 -5.617651 -38.315025
14.779768 -5.461120 -41.586722
21.622092 -1.923630 -41.210276
17.583032 -7.182746 -40.366277
15.079598 -1.863941 -42.494820
21.035599 -5.465891 -40.135121
35.857379 6.556085 -39.971104
28.603776 2.025325 -40.706640
32.856163 8.520950 -41.204775
34.898427 2.126682 -38.871518
29.227528 6.093708 -41.561955
31.224547 0.000000 -39.277609
15.452861 5.709827 -43.480644
22.104804 1.966575 -42.130293
18.856986 7.703162 -43.290960
15.311345 1.892586 -43.147890
22.401146 5.820714 -42.740532
18.531103 0.000000 -42.338023
50.949583 72.961924 3.619599
63.757899 72.350362 11.769169
47.075318 70.555073 9.084275
59.178921 75.347335 0.000000
67.639661 47.755785 23.562523
68.272461 61.524283 18.694517
38.541774 63.472618 18.133763
57.812398 68.308099 17.075699
42.831698 67.251449 13.965861
53.015462 70.417821 13.137093
71.582791 72.435656 -8.232173
71.582791 72.435656 8.232173
66.779802 75.722732 -4.106731
66.779802 75.722732 4.106731
52.826863 4.039977 31.105663
58.677219 13.283305 31.190745
65.819245 35.185303 27.238941
63.066878 23.780832 29.894004
23.067047 47.371703 29.277323
35.681983 49.531443 30.612116
26.489736 51.183369 27.225112
62.490612 45.400956 28.059334
50.030263 49.829348 30.796231
62.721947 51.706018 26.052901
34.206892 59.271632 21.821780
40.459991 53.938108 28.275945
30.228416 55.200638 24.753903
42.554462 61.680867 21.883404
33.161177 52.688973 27.844747
60.944926 63.815149 20.749504
48.497761 54.595476 28.321706
62.362686 58.063618 23.644000
51.808411 63.554419 21.640020
56.122901 54.021879 27.667551
45.934043 58.654980 25.351135
71.270318 44.047479 -20.114587
77.347024 47.803089 -7.156101
72.255101 50.890512 -17.784180
71.270318 44.047479 20.114587
77.347024 47.803089 7.156101
72.255101 50.890512 17.784180
73.256627 65.717239 -12.015596
77.942022 54.768366 -3.877941
73.059391 58.256629 -15.108331
76.380309 68.573413 -4.178809
75.884551 53.364136 -11.125999
73.256627 65.717239 12.015596
77.942022 54.768366 3.877941
73.059391 58.256629 15.108331
76.380309 68.573413 4.178809
75.884551 53.364136 11.125999
77.973379 61.986549 0.000000
25.035165 -35.851399 1.778567
28.909431 -32.805469 5.336437
24.151267 -36.197195 4.660547
27.081851 -34.480948 0.000000
36.274102 -25.610687 12.636216
32.645464 -29.418725 8.939053
22.077782 -36.358851 10.387515
27.892244 -32.956014 8.238364
23.162394 -36.368031 7.552415
26.054817 -34.607326 6.456316
31.103752 -31.474334 -3.576998
31.103752 -31.474334 3.576998
29.115272 -33.014293 -1.790490
29.115272 -33.014293 1.790490
48.759830 -3.728947 28.710901
46.223616 -10.464067 24.570848
39.793693 -21.272701 16.468406
43.153033 -16.271854 20.454746
16.719112 -34.335250 21.220352
22.743836 -31.571536 19.512282
18.180403 -35.128108 18.685106
34.856831 -25.324339 15.651302
28.721879 -28.606535 17.679811
33.202680 -27.371254 13.791443
20.854429 -36.135292 13.303774
24.156527 -32.203600 16.882075
19.568379 -35.734158 16.024450
23.829694 -34.540119 12.254292
21.196094 -33.677949 17.797917
29.747553 -31.148524 10.127947
27.208676 -30.629674 15.889313
31.490521 -29.319674 11.939221
26.798638 -32.874428 11.193608
30.175238 -29.045595 14.875833
25.546252 -32.621010 14.099052
39.052347 -24.135678 -11.021725
40.191065 -24.839444 -3.718453
37.104257 -26.133167 -9.132487
39.052347 -24.135678 11.021725
40.191065 -24.839444 3.718453
37.104257 -26.133167 9.132487
33.173017 -29.758934 -5.441058
37.934727 -26.656006 -1.887411
35.132418 -28.014143 -7.265216
33.385560 -29.973193 -1.826543
37.658771 -26.482700 -5.521433
33.173017 -29.758934 5.441058
37.934727 -26.656006 1.887411
35.132418 -28.014143 7.265216
33.385560 -29.973193 1.826543
37.658771 -26.482700 5.521433
35.675534 -28.361003 0.000000
2.870491 -22.101249 37.534633
8.411520 -19.751228 37.156764
4.633574 -24.011490 35.987701
2.864086 -19.380486 38.856559
19.327115 -14.962217 36.154189
13.839408 -17.397008 36.702174
8.132109 -27.532504 32.530964
10.160356 -21.594973 35.563736
6.400874 -25.831079 34.310147
7.431516 -22.791609 35.785850
2.871176 -13.771821 41.135699
8.435852 -17.066100 38.500181
2.867837 -16.589520 40.066354
5.683277 -18.219613 38.685526
45.579907 -2.261193 31.828618
37.978043 -6.177855 33.467700
44.768297 -5.764114 29.870025
25.049726 -12.359440 35.479576
31.197472 -9.479536 34.619310
42.570892 -12.162260 25.849851
37.385658 -9.345689 31.641263
43.741250 -9.083585 27.858314
40.956642 -7.640839 30.835025
14.886801 -33.154218 24.087349
17.201536 -27.944892 27.832669
13.282832 -31.978209 26.361839
17.969772 -31.882337 23.283899
21.232491 -16.728677 34.354893
19.297769 -22.493795 31.224446
18.457926 -17.959360 34.701009
9.933681 -29.176961 30.551060
15.517210 -26.571491 29.912375
11.616988 -30.640610 28.528352
10.975550 -26.276584 32.234014
14.438078 -29.287262 28.190862
24.068306 -29.174328 21.629455
20.317529 -26.716933 27.108308
21.041324 -30.549780 22.462068
19.174744 -29.325350 25.254168
12.993542 -20.368123 35.292651
16.570377 -23.710518 31.609015
15.701984 -19.174597 35.015065
11.997728 -23.330778 33.816962
17.534849 -20.882798 33.180160
13.797712 -25.000249 31.923798
2.930062 -1.810878 43.766458
8.709987 -5.383068 42.649352
2.920456 -4.832522 43.413134
19.597539 -12.111945 37.595071
14.284995 -8.828612 40.541933
16.794771 -13.389447 37.850752
2.898752 -10.770162 42.093896
8.638468 -8.352864 41.863985
2.907540 -7.840058 42.845546
5.737644 -12.548193 41.021879
5.817624 -6.616228 42.759181
11.281579 -15.828292 38.301363
11.486643 -10.108338 40.704213
14.014554 -14.633408 38.085425
8.545450 -14.240778 39.744256
14.168283 -11.764286 39.376928
8.617598 -11.320958 40.878858
36.763096 -22.720843 17.901321
33.424233 -20.657312 24.078501
38.305728 -20.375324 19.824967
33.516965 -24.477680 18.891094
24.620574 -15.216351 33.888157
29.286500 -18.100052 29.404585
27.567344 -13.890246 33.440546
23.596507 -18.211033 32.310388
41.195110 -15.166625 23.774555
34.563504 -18.119206 25.926735
39.798386 -17.846993 21.793990
39.002175 -13.837360 26.908127
36.542165 -19.311580 22.998763
27.257892 -27.657192 20.728915
30.110346 -22.323406 24.840505
30.337793 -26.126056 19.836743
25.465890 -26.582895 23.658539
31.913793 -23.464974 21.980795
33.863699 -11.010786 32.340607
32.323725 -16.768112 28.713520
30.657761 -12.484102 32.927682
36.526717 -12.437198 29.775918
30.010965 -15.370252 31.178153
35.573962 -15.375341 27.858775
21.473729 -23.895022 28.964281
28.022560 -21.002757 27.617986
22.543033 -21.117168 30.659898
23.515917 -25.312374 26.422645
25.880856 -19.650570 30.053065
26.791723 -23.844393 25.665943
2.957314 22.769735 38.669926
9.146494 21.477031 40.403411
4.881881 25.298233 37.916232
2.941936 19.907277 39.912741
22.710007 17.581106 42.482383
15.742537 19.789360 41.749280
9.047000 30.630007 36.190811
11.350505 24.124535 39.729550
6.919600 27.924425 37.090635
8.070904 24.752538 38.864769
2.929974 14.053849 41.978101
9.086352 18.382090 41.468981
2.936577 16.987160 41.026719
5.985325 19.187924 40.741532
47.725763 2.367647 33.327078
42.766981 6.956867 37.687895
50.579570 6.512341 33.747387
43.613572 0.000000 34.254750
29.833997 14.719981 42.255854
36.684891 11.146921 40.708607
55.798545 15.941324 33.881932
44.972285 11.242198 38.062187
53.328414 11.074516 33.964272
47.939730 8.943598 36.092383
36.029089 -4.094637 35.604879
38.787258 4.408097 38.330572
39.691002 -2.152594 35.003455
41.324041 2.241160 36.443631
19.354657 43.104529 31.316493
22.298122 36.224592 36.079119
16.510469 39.748692 32.767583
24.791171 43.985003 32.122563
25.925884 20.426512 41.948961
24.515943 28.576185 39.667630
22.161333 21.562734 41.663435
11.432128 33.578163 35.159538
19.272532 33.002061 37.151472
13.862258 36.562664 34.042161
12.662878 30.316219 37.189515
17.976504 36.464866 35.099764
37.171972 45.057899 33.405320
27.591994 36.282633 36.814136
30.778383 44.686963 32.856589
26.307955 40.234695 34.648990
14.919949 23.387876 40.525097
20.440692 29.248543 38.991880
18.462510 22.545634 41.170975
13.833624 26.900863 38.991646
21.393582 25.478283 40.481813
16.482834 29.865456 38.136372
2.938624 1.816169 43.894339
8.937871 5.523908 43.765209
2.943078 4.869955 43.749415
5.894880 0.000000 43.753334
22.379297 13.831166 42.931475
15.317800 9.466921 43.473115
19.020102 15.163568 42.866029
2.946859 10.948902 42.792483
8.986339 8.689234 43.549847
2.943469 7.936939 43.374991
5.959575 13.033555 42.608600
5.941344 6.756930 43.668510
11.777056 -3.614975 42.609788
12.056088 3.700624 43.619337
8.867209 -1.825545 43.318764
8.946317 1.841832 43.705229
12.403989 17.403057 42.111986
12.241678 10.772774 43.379764
15.667365 16.359204 42.577044
9.112934 15.186476 42.383583
15.529166 12.894261 43.159135
9.083119 11.932515 43.087128
61.765073 38.172914 30.075714
50.722358 31.348141 36.539906
60.844731 32.364118 31.489932
56.825301 41.499924 32.028320
30.476070 18.835247 41.947756
39.939116 24.683731 40.100153
34.286735 17.275918 41.591498
30.150764 23.269400 41.285045
57.944161 21.333050 33.440780
49.913564 26.166160 37.441104
59.589814 26.722164 32.631972
52.455547 18.610405 36.189789
55.437895 29.297481 34.891283
44.195740 44.843161 33.609705
45.351765 33.623189 37.414407
50.795442 43.743610 33.213231
38.502878 40.191721 35.770272
50.995986 37.495370 35.123756
41.569354 13.516281 39.699684
44.296106 22.978850 39.348717
38.032340 15.487093 40.848279
46.899908 15.969227 38.231956
39.134169 20.042743 40.656177
48.571245 20.992867 38.037242
28.711415 31.948801 38.726646
39.742312 29.786647 39.168534
29.551304 27.682160 40.191573
33.321206 35.866720 37.439934
34.776498 26.404768 40.382758
39.356995 35.027374 37.703227
23.025143 -10.514591 37.255463
24.622058 -3.685911 39.839327
26.012297 -9.090248 36.932643
20.350044 -8.880193 38.908653
26.367803 12.041040 42.664001
25.842028 3.868540 41.813280
29.655362 10.363352 42.105122
22.503232 9.819785 43.025481
32.419465 -5.927504 36.138778
27.808980 -1.969049 39.575548
29.153554 -7.560711 36.561348
33.721325 -2.054951 37.560406
26.944196 -5.617651 38.315025
14.779768 -5.461120 41.586722
21.622092 -1.923630 41.210276
17.583032 -7.182746 40.366277
15.079598 -1.863941 42.494820
21.035599 -5.465891 40.135121
35.857379 6.556085 39.971104
28.603776 2.025325 40.706640
32.856163 8.520950 41.204775
34.898427 2.126682 38.871518
29.227528 6.093708 41.561955
31.224547 0.000000 39.277609
15.452861 5.709827 43.480644
22.104804 1.966575 42.130293
18.856986 7.703162 43.290960
15.311345 1.892586 43.147890
22.401146 5.820714 42.740532
18.531103 0.000000 42.338023
53.381333 0.000000 -28.088597
60.116884 0.000000 -21.671174
56.739069 4.182192 -28.299745
52.113118 -3.841217 -25.992459
68.082572 0.000000 -4.718629
65.286530 0.000000 -13.750952
62.883721 13.778579 -27.874671
63.836098 4.455611 -21.371689
59.993257 8.813589 -28.254854
60.473953 4.328556 -25.039309
48.924100 -10.719858 -21.686745
58.128887 -4.057261 -19.460971
50.599662 -7.433579 -23.830780
55.285337 -3.957169 -22.890957
53.381333 0.000000 28.088597
60.116884 0.000000 21.671174
56.739069 4.182192 28.299745
52.113118 -3.841217 25.992459
68.082572 0.000000 4.718629
65.286530 0.000000 13.750952
62.883721 13.778579 27.874671
63.836098 4.455611 21.371689
59.993257 8.813589 28.254854
60.473953 4.328556 25.039309
48.924100 -10.719858 21.686745
58.128887 -4.057261 19.460971
50.599662 -7.433579 23.830780
55.285337 -3.957169 22.890957
69.991115 36.484932 -22.548928
73.891867 26.035881 -16.091059
68.776899 30.517024 -24.329362
73.667169 38.529480 -16.813193
71.640202 4.796145 -2.964180
74.822575 15.280505 -9.443871
70.783859 4.761719 -7.879287
65.411188 19.266716 -27.031607
72.354151 20.418188 -17.968169
67.290038 24.761174 -25.854578
66.830742 14.369341 -23.946147
70.948729 25.528190 -21.196705
77.928241 40.887171 -3.637566
76.279101 27.109312 -10.016883
76.427784 40.057292 -10.408488
75.301098 32.800191 -13.399023
66.870038 4.604935 -17.109396
72.922803 15.047332 -14.549840
69.160372 4.693290 -12.655256
67.350193 9.420130 -20.601767
72.434356 9.855097 -11.207936
70.239440 14.807048 -19.452054
41.362294 -21.561316 -13.325626
48.459858 -17.074884 -10.552859
43.290813 -19.208583 -15.313832
42.295276 -22.121319 -9.653128
64.580761 -4.323531 -2.672089
56.298714 -11.497503 -7.105848
63.878316 -4.297175 -7.110598
47.075468 -13.865972 -19.454249
50.896090 -14.362769 -12.639352
45.210994 -16.636598 -17.371236
51.337522 -11.038129 -18.394765
47.000056 -16.911175 -14.041778
43.234739 -22.684281 -2.018128
49.226886 -17.495054 -6.464417
42.923310 -22.496944 -5.845606
45.702701 -19.907509 -8.132306
60.636529 -4.175671 -15.514487
55.157063 -11.381442 -11.005151
62.543349 -4.244252 -11.444445
55.903786 -7.819145 -17.100423
59.467079 -8.090827 -9.201479
53.444110 -11.266456 -14.800769
69.991115 36.484932 22.548928
73.891867 26.035881 16.091059
68.776899 30.517024 24.329362
73.667169 38.529480 16.813193
71.640202 4.796145 2.964180
74.822575 15.280505 9.443871
70.783859 4.761719 7.879287
74.413846 10.025766 0.000000
65.411188 19.266716 27.031607
72.354151 20.418188 17.968169
67.290038 24.761174 25.854578
66.830742 14.369341 23.946147
70.948729 25.528190 21.196705
77.928241 40.887171 3.637566
76.279101 27.109312 10.016883
76.427784 40.057292 10.408488
77.998884 34.139652 0.000000
75.301098 32.800191 13.399023
66.870038 4.604935 17.109396
72.922803 15.047332 14.549840
69.160372 4.693290 12.655256
67.350193 9.420130 20.601767
72.434356 9.855097 11.207936
70.239440 14.807048 19.452054
76.594750 21.170268 -6.498228
76.594750 21.170268 6.498228
76.045546 15.566274 -3.204722
77.578550 27.529317 -3.402811
76.045546 15.566274 3.204722
77.578550 27.529317 3.402811
41.362294 -21.561316 13.325626
48.459858 -17.074884 10.552859
43.290813 -19.208583 15.313832
42.295276 -22.121319 9.653128
64.580761 -4.323531 2.672089
56.298714 -11.497503 7.105848
63.878316 -4.297175 7.110598
60.821298 -8.194444 0.000000
47.075468 -13.865972 19.454249
50.896090 -14.362769 12.639352
45.210994 -16.636598 17.371236
51.337522 -11.038129 18.394765
47.000056 -16.911175 14.041778
43.234739 -22.684281 2.018128
49.226886 -17.495054 6.464417
42.923310 -22.496944 5.845606
46.402699 -20.310188 0.000000
45.702701 -19.907509 8.132306
60.636529 -4.175671 15.514487
55.157063 -11.381442 11.005151
62.543349 -4.244252 11.444445
55.903786 -7.819145 17.100423
59.467079 -8.090827 9.201479
53.444110 -11.266456 14.800769
53.091250 -14.674061 -4.504212
53.091250 -14.674061 4.504212
56.909202 -11.649127 -2.398275
49.713015 -17.641027 -2.180551
56.909202 -11.649127 2.398275
49.713015 -17.641027 2.180551
-25.035165 35.851399 -1.778567
-28.909431 32.805469 -5.336437
-24.151267 36.197195 -4.660547
-36.274102 25.610687 -12.636216
-32.645464 29.418725 -8.939053
-22.077782 36.358851 -10.387515
-27.892244 32.956014 -8.238364
-23.162394 36.368031 -7.552415
-26.054817 34.607326 -6.456316
-48.759830 3.728947 -28.710901
-46.223616 10.464067 -24.570848
-39.793693 21.272701 -16.468406
-43.153033 16.271854 -20.454746
-16.719112 34.335250 -21.220352
-22.743836 31.571536 -19.512282
-18.180403 35.128108 -18.685106
-34.856831 25.324339 -15.651302
-28.721879 28.606535 -17.679811
-33.202680 27.371254 -13.791443
-20.854429 36.135292 -13.303774
-24.156527 32.203600 -16.882075
-19.568379 35.734158 -16.024450
-23.829694 34.540119 -12.254292
-21.196094 33.677949 -17.797917
-29.747553 31.148524 -10.127947
-27.208676 30.629674 -15.889313
-31.490521 29.319674 -11.939221
-26.798638 32.874428 -11.193608
-30.175238 29.045595 -14.875833
-25.546252 32.621010 -14.099052
-50.949583 -72.961924 -3.619599
-63.757899 -72.350362 -11.769169
-47.075318 -70.555073 -9.084275
-67.639661 -47.755785 -23.562523
-68.272461 -61.524283 -18.694517
-38.541774 -63.472618 -18.133763
-57.812398 -68.308099 -17.075699
-42.831698 -67.251449 -13.965861
-53.015462 -70.417821 -13.137093
-52.826863 -4.039977 -31.105663
-58.677219 -13.283305 -31.190745
-65.819245 -35.185303 -27.238941
-63.066878 -23.780832 -29.894004
-23.067047 -47.371703 -29.277323
-35.681983 -49.531443 -30.612116
-26.489736 -51.183369 -27.225112
-62.490612 -45.400956 -28.059334
-50.030263 -49.829348 -30.796231
-62.721947 -51.706018 -26.052901
-34.206892 -59.271632 -21.821780
-40.459991 -53.938108 -28.275945
-30.228416 -55.200638 -24.753903
-42.554462 -61.680867 -21.883404
-33.161177 -52.688973 -27.844747
-60.944926 -63.815149 -20.749504
-48.497761 -54.595476 -28.321706
-62.362686 -58.063618 -23.644000
-51.808411 -63.554419 -21.640020
-56.122901 -54.021879 -27.667551
-45.934043 -58.654980 -25.351135
-2.957314 -22.769735 -38.669926
-9.146494 -21.477031 -40.403411
-4.881881 -25.298233 -37.916232
-2.941936 -19.907277 -39.912741
-22.710007 -17.581106 -42.482383
-15.742537 -19.789360 -41.749280
-9.047000 -30.630007 -36.190811
-11.350505 -24.124535 -39.729550
-6.919600 -27.924425 -37.090635
-8.070904 -24.752538 -38.864769
-2.929974 -14.053849 -41.978101
-9.086352 -18.382090 -41.468981
-2.936577 -16.987160 -41.026719
-5.985325 -19.187924 -40.741532
-47.725763 -2.367647 -33.327078
-42.766981 -6.956867 -37.687895
-50.579570 -6.512341 -33.747387
-29.833997 -14.719981 -42.255854
-36.684891 -11.146921 -40.708607
-55.798545 -15.941324 -33.881932
-44.972285 -11.242198 -38.062187
-53.328414 -11.074516 -33.964272
-47.939730 -8.943598 -36.092383
-19.354657 -43.104529 -31.316493
-22.298122 -36.224592 -36.079119
-16.510469 -39.748692 -32.767583
-24.791171 -43.985003 -32.122563
-25.925884 -20.426512 -41.948961
-24.515943 -28.576185 -39.667630
-22.161333 -21.562734 -41.663435
-11.432128 -33.578163 -35.159538
-19.272532 -33.002061 -37.151472
-13.862258 -36.562664 -34.042161
-12.662878 -30.316219 -37.189515
-17.976504 -36.464866 -35.099764
-37.171972 -45.057899 -33.405320
-27.591994 -36.282633 -36.814136
-30.778383 -44.686963 -32.856589
-26.307955 -40.234695 -34.648990
-14.919949 -23.387876 -40.525097
-20.440692 -29.248543 -38.991880
-18.462510 -22.545634 -41.170975
-13.833624 -26.900863 -38.991646
-21.393582 -25.478283 -40.481813
-16.482834 -29.865456 -38.136372
-2.938624 -1.816169 -43.894339
-8.937871 -5.523908 -43.765209
-2.943078 -4.869955 -43.749415
-22.379297 -13.831166 -42.931475
-15.317800 -9.466921 -43.473115
-19.020102 -15.163568 -42.866029
-2.946859 -10.948902 -42.792483
-8.986339 -8.689234 -43.549847
-2.943469 -7.936939 -43.374991
-5.959575 -13.033555 -42.608600
-5.941344 -6.756930 -43.668510
-12.403989 -17.403057 -42.111986
-12.241678 -10.772774 -43.379764
-15.667365 -16.359204 -42.577044
-9.112934 -15.186476 -42.383583
-15.529166 -12.894261 -43.159135
-9.083119 -11.932515 -43.087128
-61.765073 -38.172914 -30.075714
-50.722358 -31.348141 -36.539906
-60.844731 -32.364118 -31.489932
-56.825301 -41.499924 -32.028320
-30.476070 -18.835247 -41.947756
-39.939116 -24.683731 -40.100153
-34.286735 -17.275918 -41.591498
-30.150764 -23.269400 -41.285045
-57.944161 -21.333050 -33.440780
-49.913564 -26.166160 -37.441104
-59.589814 -26.722164 -32.631972
-52.455547 -18.610405 -36.189789
-55.437895 -29.297481 -34.891283
-44.195740 -44.843161 -33.609705
-45.351765 -33.623189 -37.414407
-50.795442 -43.743610 -33.213231
-38.502878 -40.191721 -35.770272
-50.995986 -37.495370 -35.123756
-41.569354 -13.516281 -39.699684
-44.296106 -22.978850 -39.348717
-38.032340 -15.487093 -40.848279
-46.899908 -15.969227 -38.231956
-39.134169 -20.042743 -40.656177
-48.571245 -20.992867 -38.037242
-28.711415 -31.948801 -38.726646
-39.742312 -29.786647 -39.168534
-29.551304 -27.682160 -40.191573
-33.321206 -35.866720 -37.439934
-34.776498 -26.404768 -40.382758
-39.356995 -35.027374 -37.703227
-2.870491 22.101249 -37.534633
-8.411520 19.751228 -37.156764
-4.633574 24.011490 -35.987701
-2.864086 19.380486 -38.856559
-19.327115 14.962217 -36.154189
-13.839408 17.397008 -36.702174
-8.132109 27.532504 -32.530964
-10.160356 21.594973 -35.563736
-6.400874 25.831079 -34.310147
-7.431516 22.791609 -35.785850
-2.871176 13.771821 -41.135699
-8.435852 17.066100 -38.500181
-2.867837 16.589520 -40.066354
-5.683277 18.219613 -38.685526
-45.579907 2.261193 -31.828618
-37.978043 6.177855 -33.467700
-44.768297 5.764114 -29.870025
-43.613572 0.000000 -34.254750
-25.049726 12.359440 -35.479576
-31.197472 9.479536 -34.619310
-42.570892 12.162260 -25.849851
-37.385658 9.345689 -31.641263
-43.741250 9.083585 -27.858314
-40.956642 7.640839 -30.835025
-38.787258 -4.408097 -38.330572
-36.029089 4.094637 -35.604879
-41.324041 -2.241160 -36.443631
-39.691002 2.152594 -35.003455
-14.886801 33.154218 -24.087349
-17.201536 27.944892 -27.832669
-13.282832 31.978209 -26.361839
-17.969772 31.882337 -23.283899
-21.232491 16.728677 -34.354893
-19.297769 22.493795 -31.224446
-18.457926 17.959360 -34.701009
-9.933681 29.176961 -30.551060
-15.517210 26.571491 -29.912375
-11.616988 30.640610 -28.528352
-10.975550 26.276584 -32.234014
-14.438078 29.287262 -28.190862
-24.068306 29.174328 -21.629455
-20.317529 26.716933 -27.108308
-21.041324 30.549780 -22.462068
-19.174744 29.325350 -25.254168
-12.993542 20.368123 -35.292651
-16.570377 23.710518 -31.609015
-15.701984 19.174597 -35.015065
-11.997728 23.330778 -33.816962
-17.534849 20.882798 -33.180160
-13.797712 25.000249 -31.923798
-2.930062 1.810878 -43.766458
-8.709987 5.383068 -42.649352
-2.920456 4.832522 -43.413134
-5.894880 0.000000 -43.753334
-19.597539 12.111945 -37.595071
-14.284995 8.828612 -40.541933
-16.794771 13.389447 -37.850752
-2.898752 10.770162 -42.093896
-8.638468 8.352864 -41.863985
-2.907540 7.840058 -42.845546
-5.737644 12.548193 -41.021879
-5.817624 6.616228 -42.759181
-12.056088 -3.700624 -43.619337
-11.777056 3.614975 -42.609788
-8.946317 -1.841832 -43.705229
-8.867209 1.825545 -43.318764
-11.281579 15.828292 -38.301363
-11.486643 10.108338 -40.704213
-14.014554 14.633408 -38.085425
-8.545450 14.240778 -39.744256
-14.168283 11.764286 -39.376928
-8.617598 11.320958 -40.878858
-36.763096 22.720843 -17.901321
-33.424233 20.657312 -24.078501
-38.305728 20.375324 -19.824967
-33.516965 24.477680 -18.891094
-24.620574 15.216351 -33.888157
-29.286500 18.100052 -29.404585
-27.567344 13.890246 -33.440546
-23.596507 18.211033 -32.310388
-41.195110 15.166625 -23.774555
-34.563504 18.119206 -25.926735
-39.798386 17.846993 -21.793990
-39.002175 13.837360 -26.908127
-36.542165 19.311580 -22.998763
-27.257892 27.657192 -20.728915
-30.110346 22.323406 -24.840505
-30.337793 26.126056 -19.836743
-25.465890 26.582895 -23.658539
-31.913793 23.464974 -21.980795
-33.863699 11.010786 -32.340607
-32.323725 16.768112 -28.713520
-30.657761 12.484102 -32.927682
-36.526717 12.437198 -29.775918
-30.010965 15.370252 -31.178153
-35.573962 15.375341 -27.858775
-21.473729 23.895022 -28.964281
-28.022560 21.002757 -27.617986
-22.543033 21.117168 -30.659898
-23.515917 25.312374 -26.422645
-25.880856 19.650570 -30.053065
-26.791723 23.844393 -25.665943
-26.367803 -12.041040 -42.664001
-25.842028 -3.868540 -41.813280
-29.655362 -10.363352 -42.105122
-22.503232 -9.819785 -43.025481
-23.025143 10.514591 -37.255463
-24.622058 3.685911 -39.839327
-26.012297 9.090248 -36.932643
-20.350044 8.880193 -38.908653
-35.857379 -6.556085 -39.971104
-28.603776 -2.025325 -40.706640
-32.856163 -8.520950 -41.204775
-34.898427 -2.126682 -38.871518
-29.227528 -6.093708 -41.561955
-15.452861 -5.709827 -43.480644
-22.104804 -1.966575 -42.130293
-18.856986 -7.703162 -43.290960
-15.311345 -1.892586 -43.147890
-22.401146 -5.820714 -42.740532
-32.419465 5.927504 -36.138778
-27.808980 1.969049 -39.575548
-29.153554 7.560711 -36.561348
-33.721325 2.054951 -37.560406
-26.944196 5.617651 -38.315025
-31.224547 0.000000 -39.277609
-14.779768 5.461120 -41.586722
-21.622092 1.923630 -41.210276
-17.583032 7.182746 -40.366277
-15.079598 1.863941 -42.494820
-21.035599 5.465891 -40.135121
-18.531103 0.000000 -42.338023
-25.035165 35.851399 1.778567
-28.909431 32.805469 5.336437
-24.151267 36.197195 4.660547
-27.081851 34.480948 0.000000
-36.274102 25.610687 12.636216
-32.645464 29.418725 8.939053
-22.077782 36.358851 10.387515
-27.892244 32.956014 8.238364
-23.162394 36.368031 7.552415
-26.054817 34.607326 6.456316
-31.103752 31.474334 -3.576998
-31.103752 31.474334 3.576998
-29.115272 33.014293 -1.790490
-29.115272 33.014293 1.790490
-48.759830 3.728947 28.710901
-46.223616 10.464067 24.570848
-39.793693 21.272701 16.468406
-43.153033 16.271854 20.454746
-16.719112 34.335250 21.220352
-22.743836 31.571536 19.512282
-18.180403 35.128108 18.685106
-34.856831 25.324339 15.651302
-28.721879 28.606535 17.679811
-33.202680 27.371254 13.791443
-20.854429 36.135292 13.303774
-24.156527 32.203600 16.882075
-19.568379 35.734158 16.024450
-23.829694 34.540119 12.254292
-21.196094 33.677949 17.797917
-29.747553 31.148524 10.127947
-27.208676 30.629674 15.889313
-31.490521 29.319674 11.939221
-26.798638 32.874428 11.193608
-30.175238 29.045595 14.875833
-25.546252 32.621010 14.099052
-39.052347 24.135678 -11.021725
-40.191065 24.839444 -3.718453
-37.104257 26.133167 -9.132487
-39.052347 24.135678 11.021725
-40.191065 24.839444 3.718453
-37.104257 26.133167 9.132487
-33.173017 29.758934 -5.441058
-37.934727 26.656006 -1.887411
-35.132418 28.014143 -7.265216
-33.385560 29.973193 -1.826543
-37.658771 26.482700 -5.521433
-33.173017 29.758934 5.441058
-37.934727 26.656006 1.887411
-35.132418 28.014143 7.265216
-33.385560 29.973193 1.826543
-37.658771 26.482700 5.521433
-35.675534 28.361003 0.000000
-50.949583 -72.961924 3.619599
-63.757899 -72.350362 11.769169
-47.075318 -70.555073 9.084275
-59.178921 -75.347335 0.000000
-67.639661 -47.755785 23.562523
-68.272461 -61.524283 18.694517
-38.541774 -63.472618 18.133763
-57.812398 -68.308099 17.075699
-42.831698 -67.251449 13.965861
-53.015462 -70.417821 13.137093
-71.582791 -72.435656 -8.232173
-71.582791 -72.435656 8.232173
-66.779802 -75.722732 -4.106731
-66.779802 -75.722732 4.106731
-52.826863 -4.039977 31.105663
-58.677219 -13.283305 31.190745
-65.819245 -35.185303 27.238941
-63.066878 -23.780832 29.894004
-23.067047 -47.371703 29.277323
-35.681983 -49.531443 30.612116
-26.489736 -51.183369 27.225112
-62.490612 -45.400956 28.059334
-50.030263 -49.829348 30.796231
-62.721947 -51.706018 26.052901
-34.206892 -59.271632 21.821780
-40.459991 -53.938108 28.275945
-30.228416 -55.200638 24.753903
-42.554462 -61.680867 21.883404
-33.161177 -52.688973 27.844747
-60.944926 -63.815149 20.749504
-48.497761 -54.595476 28.321706
-62.362686 -58.063618 23.644000
-51.808411 -63.554419 21.640020
-56.122901 -54.021879 27.667551
-45.934043 -58.654980 25.351135
-71.270318 -44.047479 -20.114587
-77.347024 -47.803089 -7.156101
-72.255101 -50.890512 -17.784180
-71.270318 -44.047479 20.114587
-77.347024 -47.803089 7.156101
-72.255101 -50.890512 17.784180
-73.256627 -65.717239 -12.015596
-77.942022 -54.768366 -3.877941
-73.059391 -58.256629 -15.108331
-76.380309 -68.573413 -4.178809
-75.884551 -53.364136 -11.125999
-73.256627 -65.717239 12.015596
-77.942022 -54.768366 3.877941
-73.059391 -58.256629 15.108331
-76.380309 -68.573413 4.178809
-75.884551 -53.364136 11.125999
-77.973379 -61.986549 0.000000
-2.957314 -22.769735 38.669926
-9.146494 -21.477031 40.403411
-4.881881 -25.298233 37.916232
-2.941936 -19.907277 39.912741
-22.710007 -17.581106 42.482383
-15.742537 -19.789360 41.749280
-9.047000 -30.630007 36.190811
-11.350505 -24.124535 39.729550
-6.919600 -27.924425 37.090635
-8.070904 -24.752538 38.864769
-2.929974 -14.053849 41.978101
-9.086352 -18.382090 41.468981
-2.936577 -16.987160 41.026719
-5.985325 -19.187924 40.741532
-47.725763 -2.367647 33.327078
-42.766981 -6.956867 37.687895
-50.579570 -6.512341 33.747387
-29.833997 -14.719981 42.255854
-36.684891 -11.146921 40.708607
-55.798545 -15.941324 33.881932
-44.972285 -11.242198 38.062187
-53.328414 -11.074516 33.964272
-47.939730 -8.943598 36.092383
-19.354657 -43.104529 31.316493
-22.298122 -36.224592 36.079119
-16.510469 -39.748692 32.767583
-24.791171 -43.985003 32.122563
-25.925884 -20.426512 41.948961
-24.515943 -28.576185 39.667630
-22.161333 -21.562734 41.663435
-11.432128 -33.578163 35.159538
-19.272532 -33.002061 37.151472
-13.862258 -36.562664 34.042161
-12.662878 -30.316219 37.189515
-17.976504 -36.464866 35.099764
-37.171972 -45.057899 33.405320
-27.591994 -36.282633 36.814136
-30.778383 -44.686963 32.856589
-26.307955 -40.234695 34.648990
-14.919949 -23.387876 40.525097
-20.440692 -29.248543 38.991880
-18.462510 -22.545634 41.170975
-13.833624 -26.900863 38.991646
-21.393582 -25.478283 40.481813
-16.482834 -29.865456 38.136372
-2.938624 -1.816169 43.894339
-8.937871 -5.523908 43.765209
-2.943078 -4.869955 43.749415
-22.379297 -13.831166 42.931475
-15.317800 -9.466921 43.473115
-19.020102 -15.163568 42.866029
-2.946859 -10.948902 42.792483
-8.986339 -8.689234 43.549847
-2.943469 -7.936939 43.374991
-5.959575 -13.033555 42.608600
-5.941344 -6.756930 43.668510
-12.403989 -17.403057 42.111986
-12.241678 -10.772774 43.379764
-15.667365 -16.359204 42.577044
-9.112934 -15.186476 42.383583
-15.529166 -12.894261 43.159135
-9.083119 -11.932515 43.087128
-61.765073 -38.172914 30.075714
-50.722358 -31.348141 36.539906
-60.844731 -32.364118 31.489932
-56.825301 -41.499924 32.028320
-30.476070 -18.835247 41.947756
-39.939116 -24.683731 40.100153
-34.286735 -17.275918 41.591498
-30.150764 -23.269400 41.285045
-57.944161 -21.333050 33.440780
-49.913564 -26.166160 37.441104
-59.589814 -26.722164 32.631972
-52.455547 -18.610405 36.189789
-55.437895 -29.297481 34.891283
-44.195740 -44.843161 33.609705
-45.351765 -33.623189 37.414407
-50.795442 -43.743610 33.213231
-38.502878 -40.191721 35.770272
-50.995986 -37.495370 35.123756
-41.569354 -13.516281 39.699684
-44.296106 -22.978850 39.348717
-38.032340 -15.487093 40.848279
-46.899908 -15.969227 38.231956
-39.134169 -20.042743 40.656177
-48.571245 -20.992867 38.037242
-28.711415 -31.948801 38.726646
-39.742312 -29.786647 39.168534
-29.551304 -27.682160 40.191573
-33.321206 -35.866720 37.439934
-34.776498 -26.404768 40.382758
-39.356995 -35.027374 37.703227
-2.870491 22.101249 37.534633
-8.411520 19.751228 37.156764
-4.633574 24.011490 35.987701
-2.864086 19.380486 38.856559
-19.327115 14.962217 36.154189
-13.839408 17.397008 36.702174
-8.132109 27.532504 32.530964
-10.160356 21.594973 35.563736
-6.400874 25.831079 34.310147
-7.431516 22.791609 35.785850
-2.871176 13.771821 41.135699
-8.435852 17.066100 38.500181
-2.867837 16.589520 40.066354
-5.683277 18.219613 38.685526
-45.579907 2.261193 31.828618
-37.978043 6.177855 33.467700
-44.768297 5.764114 29.870025
-43.613572 0.000000 34.254750
-25.049726 12.359440 35.479576
-31.197472 9.479536 34.619310
-42.570892 12.162260 25.849851
-37.385658 9.345689 31.641263
-43.741250 9.083585 27.858314
-40.956642 7.640839 30.835025
-38.787258 -4.408097 38.330572
-36.029089 4.094637 35.604879
-41.324041 -2.241160 36.443631
-39.691002 2.152594 35.003455
-14.886801 33.154218 24.087349
-17.201536 27.944892 27.832669
-13.282832 31.978209 26.361839
-17.969772 31.882337 23.283899
-21.232491 16.728677 34.354893
-19.297769 22.493795 31.224446
-18.457926 17.959360 34.701009
-9.933681 29.176961 30.551060
-15.517210 26.571491 29.912375
-11.616988 30.640610 28.528352
-10.975550 26.276584 32.234014
-14.438078 29.287262 28.190862
-24.068306 29.174328 21.629455
-20.317529 26.716933 27.108308
-21.041324 30.549780 22.462068
-19.174744 29.325350 25.254168
-12.993542 20.368123 35.292651
-16.570377 23.710518 31.609015
-15.701984 19.174597 35.015065
-11.997728 23.330778 33.816962
-17.534849 20.882798 33.180160
-13.797712 25.000249 31.923798
-2.930062 1.810878 43.766458
-8.709987 5.383068 42.649352
-2.920456 4.832522 43.413134
-5.894880 0.000000 43.753334
-19.597539 12.111945 37.595071
-14.284995 8.828612 40.541933
-16.794771 13.389447 37.850752
-2.898752 10.770162 42.093896
-8.638468 8.352864 41.863985
-2.907540 7.840058 42.845546
-5.737644 12.548193 41.021879
-5.817624 6.616228 42.759181
-12.056088 -3.700624 43.619337
-11.777056 3.614975 42.609788
-8.946317 -1.841832 43.705229
-8.867209 1.825545 43.318764
-11.281579 15.828292 38.301363
-11.486643 10.108338 40.704213
-14.014554 14.633408 38.085425
-8.545450 14.240778 39.744256
-14.168283 11.764286 39.376928
-8.617598 11.320958 40.878858
-36.763096 22.720843 17.901321
-33.424233 20.657312 24.078501
-38.305728 20.375324 19.824967
-33.516965 24.477680 18.891094
-24.620574 15.216351 33.888157
-29.286500 18.100052 29.404585
-27.567344 13.890246 33.440546
-23.596507 18.211033 32.310388
-41.195110 15.166625 23.774555
-34.563504 18.119206 25.926735
-39.798386 17.846993 21.793990
-39.002175 13.837360 26.908127
-36.542165 19.311580 22.998763
-27.257892 27.657192 20.728915
-30.110346 22.323406 24.840505
-30.337793 26.126056 19.836743
-25.465890 26.582895 23.658539
-31.913793 23.464974 21.980795
-33.863699 11.010786 32.340607
-32.323725 16.768112 28.713520
-30.657761 12.484102 32.927682
-36.526717 12.437198 29.775918
-30.010965 15.370252 31.178153
-35.573962 15.375341 27.858775
-21.473729 23.895022 28.964281
-28.022560 21.002757 27.617986
-22.543033 21.117168 30.659898
-23.515917 25.312374 26.422645
-25.880856 19.650570 30.053065
-26.791723 23.844393 25.665943
-26.367803 -12.041040 42.664001
-25.842028 -3.868540 41.813280
-29.655362 -10.363352 42.105122
-22.503232 -9.819785 43.025481
-23.025143 10.514591 37.255463
-24.622058 3.685911 39.839327
-26.012297 9.090248 36.932643
-20.350044 8.880193 38.908653
-35.857379 -6.556085 39.971104
-28.603776 -2.025325 40.706640
-32.856163 -8.520950 41.204775
-34.898427 -2.126682 38.871518
-29.227528 -6.093708 41.561955
-15.452861 -5.709827 43.480644
-22.104804 -1.966575 42.130293
-18.856986 -7.703162 43.290960
-15.311345 -1.892586 43.147890
-22.401146 -5.820714 42.740532
-32.419465 5.927504 36.138778
-27.808980 1.969049 39.575548
-29.153554 7.560711 36.561348
-33.721325 2.054951 37.560406
-26.944196 5.617651 38.315025
-31.224547 0.000000 39.277609
-14.779768 5.461120 41.586722
-21.622092 1.923630 41.210276
-17.583032 7.182746 40.366277
-15.079598 1.863941 42.494820
-21.035599 5.465891 40.135121
-18.531103 0.000000 42.338023
-53.381333 0.000000 -28.088597
-60.116884 0.000000 -21.671174
-52.113118 3.841217 -25.992459
-56.739069 -4.182192 -28.299745
-68.082572 0.000000 -4.718629
-65.286530 0.000000 -13.750952
-48.924100 10.719858 -21.686745
-58.128887 4.057261 -19.460971
-50.599662 7.433579 -23.830780
-55.285337 3.957169 -22.890957
-62.883721 -13.778579 -27.874671
-63.836098 -4.455611 -21.371689
-59.993257 -8.813589 -28.254854
-60.473953 -4.328556 -25.039309
-53.381333 0.000000 28.088597
-60.116884 0.000000 21.671174
-52.113118 3.841217 25.992459
-56.739069 -4.182192 28.299745
-68.082572 0.000000 4.718629
-65.286530 0.000000 13.750952
-48.924100 10.719858 21.686745
-58.128887 4.057261 19.460971
-50.599662 7.433579 23.830780
-55.285337 3.957169 22.890957
-62.883721 -13.778579 27.874671
-63.836098 -4.455611 21.371689
-59.993257 -8.813589 28.254854
-60.473953 -4.328556 25.039309
-41.362294 21.561316 -13.325626
-48.459858 17.074884 -10.552859
-43.290813 19.208583 -15.313832
-42.295276 22.121319 -9.653128
-64.580761 4.323531 -2.672089
-56.298714 11.497503 -7.105848
-63.878316 4.297175 -7.110598
-47.075468 13.865972 -19.454249
-50.896090 14.362769 -12.639352
-45.210994 16.636598 -17.371236
-51.337522 11.038129 -18.394765
-47.000056 16.911175 -14.041778
-43.234739 22.684281 -2.018128
-49.226886 17.495054 -6.464417
-42.923310 22.496944 -5.845606
-45.702701 19.907509 -8.132306
-60.636529 4.175671 -15.514487
-55.157063 11.381442 -11.005151
-62.543349 4.244252 -11.444445
-55.903786 7.819145 -17.100423
-59.467079 8.090827 -9.201479
-53.444110 11.266456 -14.800769
-69.991115 -36.484932 -22.548928
-73.891867 -26.035881 -16.091059
-68.776899 -30.517024 -24.329362
-73.667169 -38.529480 -16.813193
-71.640202 -4.796145 -2.964180
-74.822575 -15.280505 -9.443871
-70.783859 -4.761719 -7.879287
-65.411188 -19.266716 -27.031607
-72.354151 -20.418188 -17.968169
-67.290038 -24.761174 -25.854578
-66.830742 -14.369341 -23.946147
-70.948729 -25.528190 -21.196705
-77.928241 -40.887171 -3.637566
-76.279101 -27.109312 -10.016883
-76.427784 -40.057292 -10.408488
-75.301098 -32.800191 -13.399023
-66.870038 -4.604935 -17.109396
-72.922803 -15.047332 -14.549840
-69.160372 -4.693290 -12.655256
-67.350193 -9.420130 -20.601767
-72.434356 -9.855097 -11.207936
-70.239440 -14.807048 -19.452054
-41.362294 21.561316 13.325626
-48.459858 17.074884 10.552859
-43.290813 19.208583 15.313832
-42.295276 22.121319 9.653128
-64.580761 4.323531 2.672089
-56.298714 11.497503 7.105848
-63.878316 4.297175 7.110598
-60.821298 8.194444 0.000000
-47.075468 13.865972 19.454249
-50.896090 14.362769 12.639352
-45.210994 16.636598 17.371236
-51.337522 11.038129 18.394765
-47.000056 16.911175 14.041778
-43.234739 22.684281 2.018128
-49.226886 17.495054 6.464417
-42.923310 22.496944 5.845606
-46.402699 20.310188 0.000000
-45.702701 19.907509 8.132306
-60.636529 4.175671 15.514487
-55.157063 11.381442 11.005151
-62.543349 4.244252 11.444445
-55.903786 7.819145 17.100423
-59.467079 8.090827 9.201479
-53.444110 11.266456 14.800769
-53.091250 14.674061 -4.504212
-53.091250 14.674061 4.504212
-56.909202 11.649127 -2.398275
-49.713015 17.641027 -2.180551
-56.909202 11.649127 2.398275
-49.713015 17.641027 2.180551
-69.991115 -36.484932 22.548928
-73.891867 -26.035881 16.091059
-68.776899 -30.517024 24.329362
-73.667169 -38.529480 16.813193
-71.640202 -4.796145 2.964180
-74.822575 -15.280505 9.443871
-70.783859 -4.761719 7.879287
-74.413846 -10.025766 0.000000
-65.411188 -19.266716 27.031607
-72.354151 -20.418188 17.968169
-67.290038 -24.761174 25.854578
-66.830742 -14.369341 23.946147
-70.948729 -25.528190 21.196705
-77.928241 -40.887171 3.637566
-76.279101 -27.109312 10.016883
-76.427784 -40.057292 10.408488
-77.998884 -34.139652 0.000000
-75.301098 -32.800191 13.399023
-66.870038 -4.604935 17.109396
-72.922803 -15.047332 14.549840
-69.160372 -4.693290 12.655256
-67.350193 -9.420130 20.601767
-72.434356 -9.855097 11.207936
