-6.657730516 -24.85402053 10.77243426
-6.216622083 -27.29319776 3.750371579
-8.591910587 -26.13130625 7.531646496
9.824124087 -17.54013773 2.660648239
7.764219047 -17.47103928 7.941746019
7.635089134 -19.70011384 2.806029313
1.710651313 -12.98800064 16.5364832
4.981838996 -15.94138172 12.75107363
0 -15.82150664 16.01001015
2.091102846 -25.11303489 3.383475479
5.254058861 -19.61396402 8.501245815
5.061283569 -22.22084784 3.053377509
0 -25.72626415 7.110564529
6.534212905 -19.8730558 5.727874055
-4.306453758 -23.12909249 14.29456529
3.490471247 -18.7466154 11.58604549
-1.998211567 -19.21343138 15.2741142
-2.263346774 -25.10090036 10.98651603
1.823135947 -17.53002435 13.935855
1.986729734 -22.03317038 9.643788707
-9.824124087 17.54013773 2.660648239
-7.764219047 17.47103928 7.941746019
-7.635089134 19.70011384 2.806029313
-1.710651313 12.98800064 16.5364832
-4.981838996 15.94138172 12.75107363
-2.091102846 25.11303489 3.383475479
-5.254058861 19.61396402 8.501245815
-5.061283569 22.22084784 3.053377509
-6.534212905 19.8730558 5.727874055
15.09698119 26.95437548 4.088685777
10.70167351 24.0808969 10.94636466
10.53522085 27.1830553 3.87187864
1.819927009 13.81766874 17.59282689
6.521067767 20.86675836 16.6907472
0 15.82150664 16.01001015
2.277685667 27.3537955 3.685372824
6.657730516 24.85402053 10.77243426
6.216622083 27.29319776 3.750371579
0 25.72626415 7.110564529
8.591910587 26.13130625 7.531646496
-3.490471247 18.7466154 11.58604549
4.306453758 23.12909249 14.29456529
-1.823135947 17.53002435 13.935855
-1.986729734 22.03317038 9.643788707
1.998211567 19.21343138 15.2741142
2.263346774 25.10090036 10.98651603
0 -8.219556833 18.64671296
0 -2.707329101 19.43748044
0 8.219556833 18.64671296
0 2.707329101 19.43748044
-15.09698119 -26.95437548 -4.088685777
-10.70167351 -24.0808969 -10.94636466
-10.53522085 -27.1830553 -3.87187864
-1.819927009 -13.81766874 -17.59282689
-6.521067767 -20.86675836 -16.6907472
-2.277685667 -27.3537955 -3.685372824
-6.657730516 -24.85402053 -10.77243426
-6.216622083 -27.29319776 -3.750371579
-8.591910587 -26.13130625 -7.531646496
9.824124087 -17.54013773 -2.660648239
7.764219047 -17.47103928 -7.941746019
7.635089134 -19.70011384 -2.806029313
1.710651313 -12.98800064 -16.5364832
4.981838996 -15.94138172 -12.75107363
0 -15.82150664 -16.01001015
2.091102846 -25.11303489 -3.383475479
5.254058861 -19.61396402 -8.501245815
5.061283569 -22.22084784 -3.053377509
0 -25.72626415 -7.110564529
6.534212905 -19.8730558 -5.727874055
-4.306453758 -23.12909249 -14.29456529
3.490471247 -18.7466154 -11.58604549
-1.998211567 -19.21343138 -15.2741142
-2.263346774 -25.10090036 -10.98651603
1.823135947 -17.53002435 -13.935855
1.986729734 -22.03317038 -9.643788707
-9.824124087 17.54013773 -2.660648239
-7.764219047 17.47103928 -7.941746019
-7.635089134 19.70011384 -2.806029313
-1.710651313 12.98800064 -16.5364832
-4.981838996 15.94138172 -12.75107363
-2.091102846 25.11303489 -3.383475479
-5.254058861 19.61396402 -8.501245815
-5.061283569 22.22084784 -3.053377509
-6.534212905 19.8730558 -5.727874055
15.09698119 26.95437548 -4.088685777
10.70167351 24.0808969 -10.94636466
10.53522085 27.1830553 -3.87187864
1.819927009 13.81766874 -17.59282689
6.521067767 20.86675836 -16.6907472
0 15.82150664 -16.01001015
2.277685667 27.3537955 -3.685372824
6.657730516 24.85402053 -10.77243426
6.216622083 27.29319776 -3.750371579
0 25.72626415 -7.110564529
8.591910587 26.13130625 -7.531646496
-3.490471247 18.7466154 -11.58604549
4.306453758 23.12909249 -14.29456529
-1.823135947 17.53002435 -13.935855
-1.986729734 22.03317038 -9.643788707
1.998211567 19.21343138 -15.2741142
2.263346774 25.10090036 -10.98651603
0 -8.219556833 -18.64671296
0 -2.707329101 -19.43748044
0 8.219556833 -18.64671296
0 2.707329101 -19.43748044
21.21584907 27.01228169 -2.794342337
24.17628766 19.33794884 -7.555328313
18.16007233 25.19829415 -6.77199022
23.79910532 3.61006559 -13.32973364
24.15833604 10.98156589 -10.73608786
12.92261721 21.5742605 -13.33362627
21.17421282 18.01186125 -11.13194245
15.35113978 23.30240793 -10.29571928
20.18448855 21.89605288 -9.228593678
12.110388 -15.41909592 -1.595060833
14.90377367 -11.92111943 -4.657576246
11.29670704 -15.67492363 -4.212603794
19.76110815 -2.997545311 -11.06807606
17.43207083 -7.924032271 -7.746901266
9.079297881 -15.15785343 -9.368068615
13.84954219 -11.78112426 -7.281135218
10.26572151 -15.58294913 -6.885025373
12.65447953 -13.72752905 -5.785781963
2.646427816 -9.771616883 -17.44639058
7.492698879 -7.325209748 -16.48318092
4.300931078 -11.53356945 -16.00358578
2.605080781 -7.08831653 -18.2893271
17.64203178 -1.825017112 -13.85631499
12.2793144 -4.797522864 -15.35158871
16.97270979 -4.56138118 -12.23200411
7.473987686 -14.21636938 -12.09316611
9.149626178 -8.867588933 -14.80440614
5.968618471 -13.05437377 -14.16133272
10.07178026 -12.68504279 -11.06995772
6.810261074 -10.15424633 -15.41373432
2.600761915 -1.60735926 -19.30353127
7.584198108 -4.687292208 -17.49816345
2.59859824 -4.307440706 -18.91120764
5.159721871 -5.886079358 -17.90183228
15.12392307 -9.347098501 -9.05897417
11.90640557 -7.358563329 -13.99681921
16.09058068 -7.109312577 -10.60013857
12.65010135 -11.0394651 -10.04403715
14.32094927 -6.035892525 -13.20151345
11.02788428 -10.03350057 -12.63683091
2.846405379 10.51001002 -18.7647287
8.878144175 8.679685291 -19.53102067
4.999954479 13.40810191 -18.60462281
2.741143235 7.458536814 -19.24457223
19.35066585 2.00177036 -15.19830168
14.77026357 5.770735635 -18.4657713
21.89471091 5.884158956 -15.77922424
16.07333979 0 -15.88409063
10.30323401 19.59791568 -16.67098282
12.07005107 11.69799172 -19.52975287
7.760592671 16.97372313 -18.41302732
14.40380002 18.14106492 -15.83130818
8.529843276 12.71818052 -19.3056825
2.629738902 1.625268023 -19.51860601
8.408097235 5.196489872 -19.39905282
2.678374543 4.439678037 -19.49177689
5.298143364 0 -19.16886277
5.62712144 6.419276887 -19.52349114
21.68742556 13.40356612 -12.99040117
16.19262785 10.00759438 -19.03557569
21.85356714 9.655576934 -14.39667372
18.39767658 16.05524754 -14.60754677
19.36643672 8.162428932 -17.8526067
15.63695194 14.22696886 -17.91835248
10.49311955 -3.161210795 -16.97822408
11.54489571 3.478074253 -18.68003365
13.1036452 -1.71426343 -16.48318092
8.009104124 -1.649966189 -18.29840544
13.95085188 1.82509789 -17.54888904
8.301847363 1.710274613 -18.96723611
21.21584907 27.01228169 2.794342337
24.17628766 19.33794884 7.555328313
18.16007233 25.19829415 6.77199022
27.29652598 27.62174728 0
23.79910532 3.61006559 13.32973364
24.15833604 10.98156589 10.73608786
12.92261721 21.5742605 13.33362627
21.17421282 18.01186125 11.13194245
15.35113978 23.30240793 10.29571928
20.18448855 21.89605288 9.228593678
26.53429098 16.39909369 -4.940474735
26.53429098 16.39909369 4.940474735
26.983605 21.45117424 -2.80631557
26.983605 21.45117424 2.80631557
12.110388 -15.41909592 1.595060833
14.90377367 -11.92111943 4.657576246
11.29670704 -15.67492363 4.212603794
13.72908683 -13.89266045 0
19.76110815 -2.997545311 11.06807606
17.43207083 -7.924032271 7.746901266
9.079297881 -15.15785343 9.368068615
13.84954219 -11.78112426 7.281135218
10.26572151 -15.58294913 6.885025373
12.65447953 -13.72752905 5.785781963
16.84951865 -10.41357522 -3.137246864
16.84951865 -10.41357522 3.137246864
15.33701054 -12.19247337 -1.595060833
15.33701054 -12.19247337 1.595060833
2.646427816 -9.771616883 17.44639058
7.492698879 -7.325209748 16.48318092
4.300931078 -11.53356945 16.00358578
2.605080781 -7.08831653 18.2893271
17.64203178 -1.825017112 13.85631499
12.2793144 -4.797522864 15.35158871
16.97270979 -4.56138118 12.23200411
7.473987686 -14.21636938 12.09316611
9.149626178 -8.867588933 14.80440614
5.968618471 -13.05437377 14.16133272
10.07178026 -12.68504279 11.06995772
6.810261074 -10.15424633 15.41373432
2.600761915 -1.60735926 19.30353127
7.584198108 -4.687292208 17.49816345
2.59859824 -4.307440706 18.91120764
5.159721871 -5.886079358 17.90183228
15.12392307 -9.347098501 9.05897417
11.90640557 -7.358563329 13.99681921
16.09058068 -7.109312577 10.60013857
12.65010135 -11.0394651 10.04403715
14.32094927 -6.035892525 13.20151345
11.02788428 -10.03350057 12.63683091
2.846405379 10.51001002 18.7647287
8.878144175 8.679685291 19.53102067
4.999954479 13.40810191 18.60462281
2.741143235 7.458536814 19.24457223
19.35066585 2.00177036 15.19830168
14.77026357 5.770735635 18.4657713
21.89471091 5.884158956 15.77922424
16.07333979 0 15.88409063
10.30323401 19.59791568 16.67098282
12.07005107 11.69799172 19.52975287
7.760592671 16.97372313 18.41302732
14.40380002 18.14106492 15.83130818
8.529843276 12.71818052 19.3056825
2.629738902 1.625268023 19.51860601
8.408097235 5.196489872 19.39905282
2.678374543 4.439678037 19.49177689
5.298143364 0 19.16886277
5.62712144 6.419276887 19.52349114
21.68742556 13.40356612 12.99040117
16.19262785 10.00759438 19.03557569
21.85356714 9.655576934 14.39667372
18.39767658 16.05524754 14.60754677
19.36643672 8.162428932 17.8526067
15.63695194 14.22696886 17.91835248
10.49311955 -3.161210795 16.97822408
11.54489571 3.478074253 18.68003365
13.1036452 -1.71426343 16.48318092
8.009104124 -1.649966189 18.29840544
13.95085188 1.82509789 17.54888904
8.301847363 1.710274613 18.96723611
23.44012092 0 -10.33251311
27.1009908 0 -3.774733114
25.57339821 3.642603571 -9.911372919
21.79894889 -3.104981528 -8.448525686
23.44012092 0 10.33251311
27.1009908 0 3.774733114
25.57339821 3.642603571 9.911372919
21.79894889 -3.104981528 8.448525686
26.12007492 11.32117798 -6.996872786
27.51202468 3.706691019 -2.290861035
25.83373873 7.44588066 -8.494071104
27.4259514 12.00417715 -2.472996495
26.84091446 3.688223111 -6.11360468
18.63007917 -8.074802341 -4.990502299
24.21210746 -3.26209366 -2.016084756
20.16812216 -5.812919001 -6.631230014
19.13740285 -8.376328341 -1.725618539
23.36582091 -3.210708816 -5.322076202
26.12007492 11.32117798 6.996872786
27.51202468 3.706691019 2.290861035
25.83373873 7.44588066 8.494071104
27.4259514 12.00417715 2.472996495
26.84091446 3.688223111 6.11360468
27.62174728 7.634463182 0
18.63007917 -8.074802341 4.990502299
24.21210746 -3.26209366 2.016084756
20.16812216 -5.812919001 6.631230014
19.13740285 -8.376328341 1.725618539
23.36582091 -3.210708816 5.322076202
21.64046881 -5.981278472 0
-12.110388 15.41909592 -1.595060833
-14.90377367 11.92111943 -4.657576246
-11.29670704 15.67492363 -4.212603794
-19.76110815 2.997545311 -11.06807606
-17.43207083 7.924032271 -7.746901266
-9.079297881 15.15785343 -9.368068615
-13.84954219 11.78112426 -7.281135218
-10.26572151 15.58294913 -6.885025373
-12.65447953 13.72752905 -5.785781963
-21.21584907 -27.01228169 -2.794342337
-24.17628766 -19.33794884 -7.555328313
-18.16007233 -25.19829415 -6.77199022
-23.79910532 -3.61006559 -13.32973364
-24.15833604 -10.98156589 -10.73608786
-12.92261721 -21.5742605 -13.33362627
-21.17421282 -18.01186125 -11.13194245
-15.35113978 -23.30240793 -10.29571928
-20.18448855 -21.89605288 -9.228593678
-2.846405379 -10.51001002 -18.7647287
-8.878144175 -8.679685291 -19.53102067
-4.999954479 -13.40810191 -18.60462281
-2.741143235 -7.458536814 -19.24457223
-19.35066585 -2.00177036 -15.19830168
-14.77026357 -5.770735635 -18.4657713
-21.89471091 -5.884158956 -15.77922424
-10.30323401 -19.59791568 -16.67098282
-12.07005107 -11.69799172 -19.52975287
-7.760592671 -16.97372313 -18.41302732
-14.40380002 -18.14106492 -15.83130818
-8.529843276 -12.71818052 -19.3056825
-2.629738902 -1.625268023 -19.51860601
-8.408097235 -5.196489872 -19.39905282
-2.678374543 -4.439678037 -19.49177689
-5.62712144 -6.419276887 -19.52349114
-21.68742556 -13.40356612 -12.99040117
-16.19262785 -10.00759438 -19.03557569
-21.85356714 -9.655576934 -14.39667372
-18.39767658 -16.05524754 -14.60754677
-19.36643672 -8.162428932 -17.8526067
-15.63695194 -14.22696886 -17.91835248
-2.646427816 9.771616883 -17.44639058
-7.492698879 7.325209748 -16.48318092
-4.300931078 11.53356945 -16.00358578
-2.605080781 7.08831653 -18.2893271
-17.64203178 1.825017112 -13.85631499
-12.2793144 4.797522864 -15.35158871
-16.97270979 4.56138118 -12.23200411
-16.07333979 0 -15.88409063
-7.473987686 14.21636938 -12.09316611
-9.149626178 8.867588933 -14.80440614
-5.968618471 13.05437377 -14.16133272
-10.07178026 12.68504279 -11.06995772
-6.810261074 10.15424633 -15.41373432
-2.600761915 1.60735926 -19.30353127
-7.584198108 4.687292208 -17.49816345
-2.59859824 4.307440706 -18.91120764
-5.298143364 0 -19.16886277
-5.159721871 5.886079358 -17.90183228
-15.12392307 9.347098501 -9.05897417
-11.90640557 7.358563329 -13.99681921
-16.09058068 7.109312577 -10.60013857
-12.65010135 11.0394651 -10.04403715
-14.32094927 6.035892525 -13.20151345
-11.02788428 10.03350057 -12.63683091
-11.54489571 -3.478074253 -18.68003365
-10.49311955 3.161210795 -16.97822408
-13.95085188 -1.82509789 -17.54888904
-8.301847363 -1.710274613 -18.96723611
-13.1036452 1.71426343 -16.48318092
-8.009104124 1.649966189 -18.29840544
-12.110388 15.41909592 1.595060833
-14.90377367 11.92111943 4.657576246
-11.29670704 15.67492363 4.212603794
-13.72908683 13.89266045 0
-19.76110815 2.997545311 11.06807606
-17.43207083 7.924032271 7.746901266
-9.079297881 15.15785343 9.368068615
-13.84954219 11.78112426 7.281135218
-10.26572151 15.58294913 6.885025373
-12.65447953 13.72752905 5.785781963
-16.84951865 10.41357522 -3.137246864
-16.84951865 10.41357522 3.137246864
-15.33701054 12.19247337 -1.595060833
-15.33701054 12.19247337 1.595060833
-21.21584907 -27.01228169 2.794342337
-24.17628766 -19.33794884 7.555328313
-18.16007233 -25.19829415 6.77199022
-27.29652598 -27.62174728 0
-23.79910532 -3.61006559 13.32973364
-24.15833604 -10.98156589 10.73608786
-12.92261721 -21.5742605 13.33362627
-21.17421282 -18.01186125 11.13194245
-15.35113978 -23.30240793 10.29571928
-20.18448855 -21.89605288 9.228593678
-26.53429098 -16.39909369 -4.940474735
-26.53429098 -16.39909369 4.940474735
-26.983605 -21.45117424 -2.80631557
-26.983605 -21.45117424 2.80631557
-2.846405379 -10.51001002 18.7647287
-8.878144175 -8.679685291 19.53102067
-4.999954479 -13.40810191 18.60462281
-2.741143235 -7.458536814 19.24457223
-19.35066585 -2.00177036 15.19830168
-14.77026357 -5.770735635 18.4657713
-21.89471091 -5.884158956 15.77922424
-10.30323401 -19.59791568 16.67098282
-12.07005107 -11.69799172 19.52975287
-7.760592671 -16.97372313 18.41302732
-14.40380002 -18.14106492 15.83130818
-8.529843276 -12.71818052 19.3056825
-2.629738902 -1.625268023 19.51860601
-8.408097235 -5.196489872 19.39905282
-2.678374543 -4.439678037 19.49177689
-5.62712144 -6.419276887 19.52349114
-21.68742556 -13.40356612 12.99040117
-16.19262785 -10.00759438 19.03557569
-21.85356714 -9.655576934 14.39667372
-18.39767658 -16.05524754 14.60754677
-19.36643672 -8.162428932 17.8526067
-15.63695194 -14.22696886 17.91835248
-2.646427816 9.771616883 17.44639058
-7.492698879 7.325209748 16.48318092
-4.300931078 11.53356945 16.00358578
-2.605080781 7.08831653 18.2893271
-17.64203178 1.825017112 13.85631499
-12.2793144 4.797522864 15.35158871
-16.97270979 4.56138118 12.23200411
-16.07333979 0 15.88409063
-7.473987686 14.21636938 12.09316611
-9.149626178 8.867588933 14.80440614
-5.968618471 13.05437377 14.16133272
-10.07178026 12.68504279 11.06995772
-6.810261074 10.15424633 15.41373432
-2.600761915 1.60735926 19.30353127
-7.584198108 4.687292208 17.49816345
-2.59859824 4.307440706 18.91120764
-5.298143364 0 19.16886277
-5.159721871 5.886079358 17.90183228
-15.12392307 9.347098501 9.05897417
-11.90640557 7.358563329 13.99681921
-16.09058068 7.109312577 10.60013857
-12.65010135 11.0394651 10.04403715
-14.32094927 6.035892525 13.20151345
-11.02788428 10.03350057 12.63683091
-11.54489571 -3.478074253 18.68003365
-10.49311955 3.161210795 16.97822408
-13.95085188 -1.82509789 17.54888904
-8.301847363 -1.710274613 18.96723611
-13.1036452 1.71426343 16.48318092
-8.009104124 1.649966189 18.29840544
-23.44012092 0 -10.33251311
-27.1009908 0 -3.774733114
-21.79894889 3.104981528 -8.448525686
-25.57339821 -3.642603571 -9.911372919
-23.44012092 0 10.33251311
-27.1009908 0 3.774733114
-21.79894889 3.104981528 8.448525686
-25.57339821 -3.642603571 9.911372919
-18.63007917 8.074802341 -4.990502299
-24.21210746 3.26209366 -2.016084756
-20.16812216 5.812919001 -6.631230014
-19.13740285 8.376328341 -1.725618539
-23.36582091 3.210708816 -5.322076202
-26.12007492 -11.32117798 -6.996872786
-27.51202468 -3.706691019 -2.290861035
-25.83373873 -7.44588066 -8.494071104
-27.4259514 -12.00417715 -2.472996495
-26.84091446 -3.688223111 -6.11360468
-18.63007917 8.074802341 4.990502299
-24.21210746 3.26209366 2.016084756
-20.16812216 5.812919001 6.631230014
-19.13740285 8.376328341 1.725618539
-23.36582091 3.210708816 5.322076202
-21.64046881 5.981278472 0
-26.12007492 -11.32117798 6.996872786
-27.51202468 -3.706691019 2.290861035
-25.83373873 -7.44588066 8.494071104
-27.4259514 -12.00417715 2.472996495
-26.84091446 -3.688223111 6.11360468
-27.62174728 -7.634463182 0
-9.523220762 18.09852652 0
-7.318864248 20.30288303 0
-1.790310966 25.83143631 0
-4.805635531 22.81611175 0
14.53422172 27.62174728 0
9.957197621 27.62174728 0
1.914392852 27.62174728 0
5.817820828 27.62174728 0
-14.53422172 -27.62174728 0
-9.957197621 -27.62174728 0
-1.914392852 -27.62174728 0
-5.817820828 -27.62174728 0
9.523220762 -18.09852652 0
7.318864248 -20.30288303 0
1.790310966 -25.83143631 0
4.805635531 -22.81611175 0
-16.15136846 -27.4299291 2.097726009
-13.99056152 -26.31957804 5.958206243
-13.7034161 -27.47441993 2.025117681
-9.644624361 -23.30494052 12.45823148
-11.77927316 -24.85053431 9.370471675
-9.213929647 -27.52151805 1.920937949
-11.77064315 -26.55392189 5.818283507
-11.38739854 -27.50239642 1.968544381
-12.75802519 -27.08899074 3.979634433
-0.8807151455 -12.39697318 17.75298177
-2.832510103 -15.3447441 17.41270977
-7.574502554 -21.74371524 15.35176516
-5.156423 -18.8312807 16.96996155
-1.140216604 -27.55748192 1.84490922
-3.407124058 -26.99420432 5.51284253
-3.066920933 -27.55179658 1.85344398
-7.659450808 -23.77467765 12.39325174
-5.607831597 -25.75176318 9.073662127
-8.667911318 -24.50339842 10.87241213
-7.044958989 -27.5343844 1.896126333
-5.37276101 -26.92791042 5.556467701
-5.040187856 -27.54438623 1.86918869
-8.334070029 -27.2452956 3.810742303
-4.228263112 -27.32630708 3.717896078
-10.70397086 -25.90151049 7.629230814
-6.534782892 -26.31423727 7.425822115
-9.690254172 -25.22019818 9.280448391
-9.569875864 -26.70834352 5.74258604
-7.622769744 -25.51461805 9.180460776
-7.430169123 -26.82960498 5.655900136
10.21307324 -17.34490025 1.326465272
9.383938977 -17.65342397 3.996368816
9.169984415 -18.38519686 1.355158264
7.129842389 -17.22830735 9.209817153
8.352685785 -17.62152061 6.644604003
6.909178602 -20.6373492 1.440438974
8.294463311 -18.71185186 4.099991689
8.067334991 -19.48390971 1.394603597
8.756882766 -18.59340397 2.731550665
0.8565415261 -12.05670458 17.26570297
2.556201698 -13.84788032 15.71411811
0 -13.41092313 17.07495335
5.734964191 -16.46305185 11.62344627
4.197516345 -15.32934915 13.81416749
-1.887880985 -16.41605261 16.61163977
1.750982429 -15.22565242 15.40705669
-0.9142113545 -14.86604533 16.85685693
0.8832846806 -14.36314484 16.28660968
1.092959118 -26.41533286 1.768445001
2.998580894 -23.75736954 4.851805805
2.756647092 -24.76444016 1.665935011
0 -27.13360537 3.655706642
5.87848351 -18.24661507 9.511586122
4.571500114 -20.99281804 7.396842565
6.5484691 -18.51192767 8.213934394
5.610621335 -21.92844625 1.510079317
4.464279833 -22.37466495 4.616923525
4.25854648 -23.27275339 1.579311555
6.397117774 -20.91311498 2.925073491
3.650933647 -23.59515748 3.21025242
-2.253293931 -26.5596248 7.340899749
2.032246548 -23.95413447 6.620759934
-1.139657257 -27.04317851 5.535649972
1.076218386 -25.53782354 5.227508745
7.747471124 -18.74736089 5.521992372
5.233938383 -21.07600187 5.947603162
7.176683997 -18.67829155 6.873178378
7.110389759 -19.84422107 4.266724621
5.916105983 -19.80214405 7.125045193
5.833649109 -21.06472929 4.440617198
-6.460820561 -22.89208031 14.1480837
-2.028306276 -21.92303627 13.54918155
-5.442422885 -22.11194479 15.57382359
-5.488522477 -24.04801445 12.57761759
5.023672378 -17.79995442 11.00097683
1.82654212 -19.74225965 12.20138748
4.261627112 -17.31450595 12.19490478
4.396956883 -19.26530921 10.07616212
-2.98192228 -18.18016871 16.30911138
-0.9995251279 -20.08927204 14.11634665
-4.143051524 -20.03456305 15.9753057
-0.9546945407 -17.44991431 15.66634366
-3.090374371 -21.07780719 14.82250288
-3.398021098 -25.87611396 9.196275725
-1.067285896 -22.86466342 11.99656734
-4.457648302 -25.05151337 10.91211735
-1.12199124 -25.57957577 9.077099805
-3.304884095 -24.26721097 12.71891849
2.631339621 -16.04273813 14.39165979
0.9507339492 -19.1086271 13.42726623
3.458349004 -16.72354562 13.33514252
0.9155491558 -16.73441466 15.02397584
2.668181129 -18.19825064 12.79751827
0 -18.35765017 14.59379325
2.930073904 -22.31267083 7.929841144
1.004934938 -21.52890729 11.29572657
3.697456504 -20.77931564 9.051202909
1.046049974 -23.8482384 8.462722058
2.772939412 -20.36123016 10.67171778
0 -23.48638378 10.27985164
-10.21307324 17.34490025 1.326465272
-9.383938977 17.65342397 3.996368816
-9.169984415 18.38519686 1.355158264
-7.129842389 17.22830735 9.209817153
-8.352685785 17.62152061 6.644604003
-6.909178602 20.6373492 1.440438974
-8.294463311 18.71185186 4.099991689
-8.067334991 19.48390971 1.394603597
-8.756882766 18.59340397 2.731550665
-0.8565415261 12.05670458 17.26570297
-2.556201698 13.84788032 15.71411811
-5.734964191 16.46305185 11.62344627
-4.197516345 15.32934915 13.81416749
-1.092959118 26.41533286 1.768445001
-2.998580894 23.75736954 4.851805805
-2.756647092 24.76444016 1.665935011
-5.87848351 18.24661507 9.511586122
-4.571500114 20.99281804 7.396842565
-6.5484691 18.51192767 8.213934394
-5.610621335 21.92844625 1.510079317
-4.464279833 22.37466495 4.616923525
-4.25854648 23.27275339 1.579311555
-6.397117774 20.91311498 2.925073491
-3.650933647 23.59515748 3.21025242
-7.747471124 18.74736089 5.521992372
-5.233938383 21.07600187 5.947603162
-7.176683997 18.67829155 6.873178378
-7.110389759 19.84422107 4.266724621
-5.916105983 19.80214405 7.125045193
-5.833649109 21.06472929 4.440617198
16.15136846 27.4299291 2.097726009
13.99056152 26.31957804 5.958206243
13.7034161 27.47441993 2.025117681
9.644624361 23.30494052 12.45823148
11.77927316 24.85053431 9.370471675
9.213929647 27.52151805 1.920937949
11.77064315 26.55392189 5.818283507
11.38739854 27.50239642 1.968544381
12.75802519 27.08899074 3.979634433
0.8807151455 12.39697318 17.75298177
2.832510103 15.3447441 17.41270977
0 13.41092313 17.07495335
7.574502554 21.74371524 15.35176516
5.156423 18.8312807 16.96996155
-1.750982429 15.22565242 15.40705669
1.887880985 16.41605261 16.61163977
-0.8832846806 14.36314484 16.28660968
0.9142113545 14.86604533 16.85685693
1.140216604 27.55748192 1.84490922
3.407124058 26.99420432 5.51284253
3.066920933 27.55179658 1.85344398
0 27.13360537 3.655706642
7.659450808 23.77467765 12.39325174
5.607831597 25.75176318 9.073662127
8.667911318 24.50339842 10.87241213
7.044958989 27.5343844 1.896126333
5.37276101 26.92791042 5.556467701
5.040187856 27.54438623 1.86918869
8.334070029 27.2452956 3.810742303
4.228263112 27.32630708 3.717896078
-2.032246548 23.95413447 6.620759934
2.253293931 26.5596248 7.340899749
-1.076218386 25.53782354 5.227508745
1.139657257 27.04317851 5.535649972
10.70397086 25.90151049 7.629230814
6.534782892 26.31423727 7.425822115
9.690254172 25.22019818 9.280448391
9.569875864 26.70834352 5.74258604
7.622769744 25.51461805 9.180460776
7.430169123 26.82960498 5.655900136
-5.023672378 17.79995442 11.00097683
-1.82654212 19.74225965 12.20138748
-4.261627112 17.31450595 12.19490478
-4.396956883 19.26530921 10.07616212
6.460820561 22.89208031 14.1480837
2.028306276 21.92303627 13.54918155
5.442422885 22.11194479 15.57382359
5.488522477 24.04801445 12.57761759
-2.631339621 16.04273813 14.39165979
-0.9507339492 19.1086271 13.42726623
-3.458349004 16.72354562 13.33514252
-0.9155491558 16.73441466 15.02397584
-2.668181129 18.19825064 12.79751827
-2.930073904 22.31267083 7.929841144
-1.004934938 21.52890729 11.29572657
-3.697456504 20.77931564 9.051202909
-1.046049974 23.8482384 8.462722058
-2.772939412 20.36123016 10.67171778
2.98192228 18.18016871 16.30911138
0.9995251279 20.08927204 14.11634665
4.143051524 20.03456305 15.9753057
0.9546945407 17.44991431 15.66634366
3.090374371 21.07780719 14.82250288
0 18.35765017 14.59379325
3.398021098 25.87611396 9.196275725
1.067285896 22.86466342 11.99656734
4.457648302 25.05151337 10.91211735
1.12199124 25.57957577 9.077099805
3.304884095 24.26721097 12.71891849
0 23.48638378 10.27985164
0 -9.632130042 18.30550455
0 -6.822641543 18.92633727
0 -1.352057482 19.50811194
0 -4.068940726 19.31844513
0 9.632130042 18.30550455
0 6.822641543 18.92633727
0 1.352057482 19.50811194
0 4.068940726 19.31844513
-16.15136846 -27.4299291 -2.097726009
-13.99056152 -26.31957804 -5.958206243
-13.7034161 -27.47441993 -2.025117681
-9.644624361 -23.30494052 -12.45823148
-11.77927316 -24.85053431 -9.370471675
-9.213929647 -27.52151805 -1.920937949
-11.77064315 -26.55392189 -5.818283507
-11.38739854 -27.50239642 -1.968544381
-12.75802519 -27.08899074 -3.979634433
-0.8807151455 -12.39697318 -17.75298177
-2.832510103 -15.3447441 -17.41270977
-7.574502554 -21.74371524 -15.35176516
-5.156423 -18.8312807 -16.96996155
-1.140216604 -27.55748192 -1.84490922
-3.407124058 -26.99420432 -5.51284253
-3.066920933 -27.55179658 -1.85344398
-7.659450808 -23.77467765 -12.39325174
-5.607831597 -25.75176318 -9.073662127
-8.667911318 -24.50339842 -10.87241213
-7.044958989 -27.5343844 -1.896126333
-5.37276101 -26.92791042 -5.556467701
-5.040187856 -27.54438623 -1.86918869
-8.334070029 -27.2452956 -3.810742303
-4.228263112 -27.32630708 -3.717896078
-10.70397086 -25.90151049 -7.629230814
-6.534782892 -26.31423727 -7.425822115
-9.690254172 -25.22019818 -9.280448391
-9.569875864 -26.70834352 -5.74258604
-7.622769744 -25.51461805 -9.180460776
-7.430169123 -26.82960498 -5.655900136
10.21307324 -17.34490025 -1.326465272
9.383938977 -17.65342397 -3.996368816
9.169984415 -18.38519686 -1.355158264
7.129842389 -17.22830735 -9.209817153
8.352685785 -17.62152061 -6.644604003
6.909178602 -20.6373492 -1.440438974
8.294463311 -18.71185186 -4.099991689
8.067334991 -19.48390971 -1.394603597
8.756882766 -18.59340397 -2.731550665
0.8565415261 -12.05670458 -17.26570297
2.556201698 -13.84788032 -15.71411811
0 -13.41092313 -17.07495335
5.734964191 -16.46305185 -11.62344627
4.197516345 -15.32934915 -13.81416749
-1.887880985 -16.41605261 -16.61163977
1.750982429 -15.22565242 -15.40705669
-0.9142113545 -14.86604533 -16.85685693
0.8832846806 -14.36314484 -16.28660968
1.092959118 -26.41533286 -1.768445001
2.998580894 -23.75736954 -4.851805805
2.756647092 -24.76444016 -1.665935011
0 -27.13360537 -3.655706642
5.87848351 -18.24661507 -9.511586122
4.571500114 -20.99281804 -7.396842565
6.5484691 -18.51192767 -8.213934394
5.610621335 -21.92844625 -1.510079317
4.464279833 -22.37466495 -4.616923525
4.25854648 -23.27275339 -1.579311555
6.397117774 -20.91311498 -2.925073491
3.650933647 -23.59515748 -3.21025242
-2.253293931 -26.5596248 -7.340899749
2.032246548 -23.95413447 -6.620759934
-1.139657257 -27.04317851 -5.535649972
1.076218386 -25.53782354 -5.227508745
7.747471124 -18.74736089 -5.521992372
5.233938383 -21.07600187 -5.947603162
7.176683997 -18.67829155 -6.873178378
7.110389759 -19.84422107 -4.266724621
5.916105983 -19.80214405 -7.125045193
5.833649109 -21.06472929 -4.440617198
-6.460820561 -22.89208031 -14.1480837
-2.028306276 -21.92303627 -13.54918155
-5.442422885 -22.11194479 -15.57382359
-5.488522477 -24.04801445 -12.57761759
5.023672378 -17.79995442 -11.00097683
1.82654212 -19.74225965 -12.20138748
4.261627112 -17.31450595 -12.19490478
4.396956883 -19.26530921 -10.07616212
-2.98192228 -18.18016871 -16.30911138
-0.9995251279 -20.08927204 -14.11634665
-4.143051524 -20.03456305 -15.9753057
-0.9546945407 -17.44991431 -15.66634366
-3.090374371 -21.07780719 -14.82250288
-3.398021098 -25.87611396 -9.196275725
-1.067285896 -22.86466342 -11.99656734
-4.457648302 -25.05151337 -10.91211735
-1.12199124 -25.57957577 -9.077099805
-3.304884095 -24.26721097 -12.71891849
2.631339621 -16.04273813 -14.39165979
0.9507339492 -19.1086271 -13.42726623
3.458349004 -16.72354562 -13.33514252
0.9155491558 -16.73441466 -15.02397584
2.668181129 -18.19825064 -12.79751827
0 -18.35765017 -14.59379325
2.930073904 -22.31267083 -7.929841144
1.004934938 -21.52890729 -11.29572657
3.697456504 -20.77931564 -9.051202909
1.046049974 -23.8482384 -8.462722058
2.772939412 -20.36123016 -10.67171778
0 -23.48638378 -10.27985164
-10.21307324 17.34490025 -1.326465272
-9.383938977 17.65342397 -3.996368816
-9.169984415 18.38519686 -1.355158264
-7.129842389 17.22830735 -9.209817153
-8.352685785 17.62152061 -6.644604003
-6.909178602 20.6373492 -1.440438974
-8.294463311 18.71185186 -4.099991689
-8.067334991 19.48390971 -1.394603597
-8.756882766 18.59340397 -2.731550665
-0.8565415261 12.05670458 -17.26570297
-2.556201698 13.84788032 -15.71411811
-5.734964191 16.46305185 -11.62344627
-4.197516345 15.32934915 -13.81416749
-1.092959118 26.41533286 -1.768445001
-2.998580894 23.75736954 -4.851805805
-2.756647092 24.76444016 -1.665935011
-5.87848351 18.24661507 -9.511586122
-4.571500114 20.99281804 -7.396842565
-6.5484691 18.51192767 -8.213934394
-5.610621335 21.92844625 -1.510079317
-4.464279833 22.37466495 -4.616923525
-4.25854648 23.27275339 -1.579311555
-6.397117774 20.91311498 -2.925073491
-3.650933647 23.59515748 -3.21025242
-7.747471124 18.74736089 -5.521992372
-5.233938383 21.07600187 -5.947603162
-7.176683997 18.67829155 -6.873178378
-7.110389759 19.84422107 -4.266724621
-5.916105983 19.80214405 -7.125045193
-5.833649109 21.06472929 -4.440617198
16.15136846 27.4299291 -2.097726009
13.99056152 26.31957804 -5.958206243
13.7034161 27.47441993 -2.025117681
9.644624361 23.30494052 -12.45823148
11.77927316 24.85053431 -9.370471675
9.213929647 27.52151805 -1.920937949
11.77064315 26.55392189 -5.818283507
11.38739854 27.50239642 -1.968544381
12.75802519 27.08899074 -3.979634433
0.8807151455 12.39697318 -17.75298177
2.832510103 15.3447441 -17.41270977
0 13.41092313 -17.07495335
7.574502554 21.74371524 -15.35176516
5.156423 18.8312807 -16.96996155
-1.750982429 15.22565242 -15.40705669
1.887880985 16.41605261 -16.61163977
-0.8832846806 14.36314484 -16.28660968
0.9142113545 14.86604533 -16.85685693
1.140216604 27.55748192 -1.84490922
3.407124058 26.99420432 -5.51284253
3.066920933 27.55179658 -1.85344398
0 27.13360537 -3.655706642
7.659450808 23.77467765 -12.39325174
5.607831597 25.75176318 -9.073662127
8.667911318 24.50339842 -10.87241213
7.044958989 27.5343844 -1.896126333
5.37276101 26.92791042 -5.556467701
5.040187856 27.54438623 -1.86918869
8.334070029 27.2452956 -3.810742303
4.228263112 27.32630708 -3.717896078
-2.032246548 23.95413447 -6.620759934
2.253293931 26.5596248 -7.340899749
-1.076218386 25.53782354 -5.227508745
1.139657257 27.04317851 -5.535649972
10.70397086 25.90151049 -7.629230814
6.534782892 26.31423727 -7.425822115
9.690254172 25.22019818 -9.280448391
9.569875864 26.70834352 -5.74258604
7.622769744 25.51461805 -9.180460776
7.430169123 26.82960498 -5.655900136
-5.023672378 17.79995442 -11.00097683
-1.82654212 19.74225965 -12.20138748
-4.261627112 17.31450595 -12.19490478
-4.396956883 19.26530921 -10.07616212
6.460820561 22.89208031 -14.1480837
2.028306276 21.92303627 -13.54918155
5.442422885 22.11194479 -15.57382359
5.488522477 24.04801445 -12.57761759
-2.631339621 16.04273813 -14.39165979
-0.9507339492 19.1086271 -13.42726623
-3.458349004 16.72354562 -13.33514252
-0.9155491558 16.73441466 -15.02397584
-2.668181129 18.19825064 -12.79751827
-2.930073904 22.31267083 -7.929841144
-1.004934938 21.52890729 -11.29572657
-3.697456504 20.77931564 -9.051202909
-1.046049974 23.8482384 -8.462722058
-2.772939412 20.36123016 -10.67171778
2.98192228 18.18016871 -16.30911138
0.9995251279 20.08927204 -14.11634665
4.143051524 20.03456305 -15.9753057
0.9546945407 17.44991431 -15.66634366
3.090374371 21.07780719 -14.82250288
0 18.35765017 -14.59379325
3.398021098 25.87611396 -9.196275725
1.067285896 22.86466342 -11.99656734
4.457648302 25.05151337 -10.91211735
1.12199124 25.57957577 -9.077099805
3.304884095 24.26721097 -12.71891849
0 23.48638378 -10.27985164
0 -9.632130042 -18.30550455
0 -6.822641543 -18.92633727
0 -1.352057482 -19.50811194
0 -4.068940726 -19.31844513
0 9.632130042 -18.30550455
0 6.822641543 -18.92633727
0 1.352057482 -19.50811194
0 4.068940726 -19.31844513
19.21104318 27.51101375 -1.364805461
22.74749323 25.81310547 -4.198995043
18.01034756 26.9933684 -3.475514526
24.23257919 17.10898349 -8.441507394
24.01038557 21.63715396 -6.57457697
15.45343834 25.44953387 -7.270785908
20.94935156 24.75265588 -6.187683435
16.7232043 26.25764979 -5.452829563
19.67071848 26.12764411 -4.874352748
22.21269426 1.698733756 -13.07934148
23.96589977 5.425382331 -12.73942898
24.20474335 12.9392433 -10.01700293
24.10097699 9.087833662 -11.42397937
10.75820021 22.0936071 -13.65460012
15.08567715 20.94097088 -12.94223176
11.85757545 22.91116339 -12.18675132
22.84757431 16.5993208 -10.25894444
19.27200312 19.19460926 -11.86292092
22.66412491 18.68359822 -9.414028647
14.18321296 24.57581343 -9.047970658
16.36314852 21.81407507 -11.43558054
13.00254607 23.74417634 -10.6477218
16.71822285 24.23234693 -8.597256489
14.11305256 22.42387965 -11.85043518
21.82777444 22.85576105 -7.431553637
18.65628491 21.0019747 -10.89489072
22.35078858 20.81000259 -8.474010256
19.31967553 23.6998343 -8.069696763
20.76238178 19.98511953 -10.23546979
17.79107856 22.71812548 -9.818949177
11.34775308 -16.25045491 -0.8061756578
12.84332624 -14.57418325 -2.370769503
10.98879413 -16.46967485 -2.120542843
15.55507721 -10.98238685 -5.418667911
14.23657781 -12.82940772 -3.898291277
10.12080212 -16.66746847 -4.761800176
12.4356324 -14.6932915 -3.673037628
10.57829647 -16.60932912 -3.449198293
11.7315892 -15.58249068 -2.907057213
20.29571232 -1.552131011 -11.95057875
19.20248487 -4.347044055 -10.20736524
16.81799056 -8.990472177 -6.960034989
18.03498002 -6.800508485 -8.548667539
7.798065995 -16.01451943 -9.89751732
10.31177015 -14.31413892 -8.846624371
8.44012968 -16.30798732 -8.674434495
15.01510421 -10.90883996 -6.742033873
12.68473224 -12.633792 -7.808112864
14.41178328 -11.88062497 -5.986242186
9.598184579 -16.63115361 -6.123019705
10.90120096 -14.53263202 -7.618433664
9.043866089 -16.51516172 -7.405977997
10.81027195 -15.66902551 -5.559124409
9.697874321 -15.4087123 -8.143102322
13.13471571 -13.75329971 -4.471887163
12.11200525 -13.63487045 -7.073164582
13.78248378 -12.83236706 -5.225449138
11.98995907 -14.70832379 -5.008124164
13.26234921 -12.76585881 -6.538092602
11.47559399 -14.65363572 -6.333414459
1.351596531 -10.40657049 -17.67351735
3.897113588 -9.150876151 -17.21497729
2.191498236 -11.3564897 -17.02076593
1.334462434 -9.029941406 -18.10442012
8.671576253 -6.713159548 -16.22144918
6.310251993 -7.932384247 -16.73481753
3.858789935 -13.06452533 -15.43635843
4.718279012 -10.02830158 -16.51513372
3.035156891 -12.24854249 -16.26913421
3.482334118 -10.67992025 -16.76889194
1.310673318 -6.286747448 -18.77818043
3.875549911 -7.840407734 -17.68752752
1.322226804 -7.648658433 -18.47273857
2.629368348 -8.429303789 -17.89785872
19.16635729 -0.9508318863 -13.38393855
16.20619305 -2.636247095 -14.28151554
18.77495392 -2.417357631 -12.52690811
11.05540814 -5.454696334 -15.65850205
13.5380657 -4.113621186 -15.02296364
17.86538095 -5.104036902 -10.84819723
15.9605693 -3.989832476 -13.50818995
18.33435763 -3.807428621 -11.67694789
17.32614292 -3.232351604 -13.0443326
6.982190091 -15.54995329 -11.29742088
7.932708736 -12.88714546 -12.83539236
6.256913824 -15.06342096 -12.41781477
8.307861525 -14.73997789 -10.76471136
9.511975981 -7.494305293 -15.39070044
8.767279227 -10.21928415 -14.18575578
8.342871777 -8.11752279 -15.68464748
4.708183967 -13.82876081 -14.4800311
7.182593617 -12.29939026 -13.84581574
5.49222924 -14.48613477 -13.48751078
5.149637343 -12.32875602 -15.12393282
6.739729604 -13.67136458 -13.15956224
10.82680684 -13.12368261 -9.729721933
9.248737025 -12.16180772 -12.33996549
9.592855954 -13.92781403 -10.24058119
8.793438921 -13.4484543 -11.58143145
5.978299888 -9.371327966 -16.2380702
7.606426116 -10.88401938 -14.50972688
7.160812036 -8.74447982 -15.96844723
5.573633526 -10.83848638 -15.70992112
7.986589866 -9.51147876 -15.11255301
6.402352445 -11.6005036 -14.8131377
1.303771068 -0.8057748333 -19.47447995
3.884170512 -2.400549395 -19.01924313
1.303557749 -2.157016124 -19.37763339
8.744291627 -5.404269433 -16.77467053
6.382815396 -3.944796859 -18.11492959
7.54889892 -6.018276862 -17.01312235
1.310904341 -4.870597049 -19.03614934
3.873873018 -3.745795896 -18.77367263
1.305057514 -3.519032117 -19.23134267
2.605470645 -5.69814831 -18.62808142
2.602918077 -2.96022865 -19.13128748
5.144593845 -7.217973074 -17.46607944
5.160572012 -4.541344671 -18.28706832
6.345406537 -6.625606822 -17.24403861
3.891841862 -6.485657026 -18.10066904
6.370762719 -5.289806087 -17.70581907
3.892409344 -5.113467181 -18.46422366
15.70774585 -9.707920819 -7.648686511
14.4460957 -8.928178148 -10.40683056
16.2693085 -8.653860714 -8.420111617
14.49902459 -10.58874144 -8.172053545
10.91242243 -6.744247961 -15.02003518
12.83110346 -7.930058052 -12.88283927
12.10759532 -6.100604813 -14.68710949
10.52376899 -8.12190988 -14.41005868
17.33820493 -6.383331721 -10.0062386
14.8739982 -7.797387871 -11.15726616
16.81717021 -7.541409202 -9.20924893
16.54441301 -5.869698156 -11.41421359
15.61657473 -8.252952193 -9.828697956
12.09498112 -12.27215994 -9.197917139
13.17771016 -9.769777226 -10.87137861
13.2910068 -11.44584208 -8.690489919
11.36826119 -11.8669047 -10.56143904
13.88062696 -10.20588637 -9.560355606
14.59822041 -4.746613237 -13.9416343
14.01413149 -7.269908347 -12.448907
13.34000675 -5.43216434 -14.32770944
15.62278963 -5.319496048 -12.73541505
13.10102462 -6.709749295 -13.61055031
15.25671992 -6.594072104 -11.94788288
9.703860873 -10.79802979 -13.0888006
12.34862524 -9.255227466 -12.17034245
10.11946618 -9.479401566 -13.76309024
10.56422471 -11.37125967 -11.8700347
11.47738088 -8.714436394 -13.32762991
11.8782409 -10.57152816 -11.37912105
1.404368185 10.812884 -18.3635611
4.322040205 10.14865329 -19.09203371
2.350180732 12.17879295 -18.25320937
1.378723705 9.329445288 -18.70490509
10.40321906 8.053722568 -19.46073982
7.347576747 9.236366806 -19.48580759
4.49885206 15.23155385 -17.99680576
5.441191339 11.56479037 -19.04550416
3.382654281 13.65088731 -18.1317996
3.88121623 11.90324605 -18.68967576
1.339935055 6.427103666 -19.19741699
4.226823642 8.551049923 -19.29069711
1.35873828 7.859865621 -18.98283785
2.796881613 8.966322578 -19.03810549
20.15327962 0.9997925317 -14.07311009
18.39699114 2.992622282 -16.21213038
21.50729845 2.769158968 -14.34996605
18.48134414 0 -14.51552344
13.36892958 6.596179018 -18.93529472
16.08906721 4.888758055 -17.85376708
22.99242567 6.568804184 -13.96143577
19.55531006 4.88844788 -16.55059027
22.94861361 4.76565419 -14.61571607
20.61489594 3.845898784 -15.52033597
15.45699157 -1.756657432 -15.27499936
16.69056132 1.896850267 -16.49404493
16.91405477 -0.9173134104 -14.91648805
17.64701157 0.9570644407 -15.56288192
9.486160464 21.12651621 -15.34893005
11.05642357 17.96180139 -17.88966913
8.437542254 20.31324938 -16.7456097
11.59725157 20.576081 -15.02685923
12.01961332 9.470025144 -19.44814288
12.03965293 14.03361649 -19.48056765
10.38854069 10.10793622 -19.53051694
5.801290925 17.03940737 -17.84188417
9.802914325 16.78639715 -18.89698244
7.193799234 18.9741434 -17.66613164
6.304725131 15.09415377 -18.51630183
9.24563342 18.75452469 -18.05242875
15.78095857 19.12884332 -14.18186738
13.06620812 17.18166604 -17.43335948
13.71562077 19.91363327 -14.64172179
12.37052504 18.91915576 -16.29264603
7.113607002 11.15098698 -19.32175569
10.11083392 14.46757132 -19.2870392
8.737163486 10.66945333 -19.48367494
6.742742349 13.11193511 -19.00518753
10.29572858 12.26150401 -19.48200002
8.193212478 14.84538561 -18.95665471
1.307376378 0.8080030374 -19.52833261
3.98273619 2.461466334 -19.50188018
1.313273492 2.173092905 -19.52205974
2.619618387 0 -19.44348891
10.08194832 6.230986734 -19.34077322
6.851000431 4.234151123 -19.44367535
8.648856746 6.895206173 -19.4921219
1.333411781 4.954222275 -19.36298859
4.03020592 3.896960155 -19.53129755
1.321058276 3.562177491 -19.46713008
2.713201078 5.933754106 -19.39831128
2.657140885 3.02189479 -19.52982178
5.230447915 -1.605489374 -18.92393833
5.349531157 1.642042052 -19.35478555
3.938496594 -0.810841771 -19.24064328
3.971886908 0.8177160338 -19.40376418
5.732805124 8.043245836 -19.46307769
5.510175736 4.848998747 -19.5259285
7.186674075 7.504023028 -19.53023569
4.178097265 6.962694489 -19.43202178
7.021133922 5.829825815 -19.51335066
4.112910851 5.403140521 -19.51020541
22.96542632 14.19341403 -11.18272146
20.41465591 12.61695122 -14.70652482
23.01128964 12.2400098 -11.90939537
21.48059435 15.68743181 -12.10706045
13.92457736 8.605862088 -19.16601407
17.88725301 11.05493033 -17.95937553
15.46732845 7.79345988 -18.76263126
14.165962 10.93283849 -19.39726572
23.01501283 8.473337469 -13.28244248
20.56060091 10.77847247 -15.42289394
23.02568119 10.32552337 -12.60909102
21.88283485 7.763686469 -15.09726279
21.7860301 11.51334834 -13.71160534
17.87687395 18.13875147 -13.59489558
18.81329912 13.94792715 -15.52064017
19.75637555 17.01363622 -12.9179516
16.44915575 17.17066141 -15.28173507
20.12774225 14.79914782 -13.86308947
18.29471558 5.948529115 -17.47187172
19.28866333 10.00610096 -17.13433159
16.94066675 6.898383752 -18.19496462
20.70092769 7.048581311 -16.87502119
17.84245405 9.138093926 -18.53638365
20.63807144 8.919933769 -16.16214114
13.72983016 15.27795142 -18.51912466
17.45106507 13.07947837 -17.199116
14.3073181 13.40236839 -19.45882387
15.06401746 16.21480599 -16.92603242
16.15771048 12.26807246 -18.76246749
17.00198019 15.1316103 -16.28756247
10.18295192 -4.650115628 -16.47636231
10.78622595 -1.614693087 -17.45248019
11.41746534 -3.989943403 -16.21068596
9.021506038 -3.936734305 -17.24883953
11.74459233 5.363249553 -19.00314957
11.31518298 1.693877713 -18.30835066
13.08668639 4.573268798 -18.58067065
10.00044717 4.363916986 -19.12054458
14.01500414 -2.562472726 -15.62287079
12.11623051 -0.8579044671 -17.24286438
12.69854395 -3.293252902 -15.92519005
14.54400059 -0.8862998456 -16.19979554
11.77292243 -2.454561016 -16.74126097
6.563592391 -2.425245403 -18.46837456
9.501599703 -0.8453187539 -18.10942022
7.804859593 -3.188319736 -17.91802069
6.670844855 -0.8245617708 -18.79866754
9.275607877 -2.410174181 -17.69750576
15.55574451 2.844178328 -17.34037208
12.46051029 0.8822816167 -17.73281624
14.37134857 3.727079703 -18.02304723
15.06184732 0.9178570136 -16.7765977
12.78081777 2.664699208 -18.1745023
13.53508823 0 -17.02589659
6.855905554 2.533255028 -19.29087369
9.708199303 0.8636990816 -18.50318538
8.369911359 3.419145886 -19.21523932
6.769162648 0.8367145184 -19.07573042
9.872169549 2.56518478 -18.83572266
8.166642806 0 -18.65833417
19.21104318 27.51101375 1.364805461
22.74749323 25.81310547 4.198995043
18.01034756 26.9933684 3.475514526
21.69453244 27.62174728 0
24.23257919 17.10898349 8.441507394
24.01038557 21.63715396 6.57457697
15.45343834 25.44953387 7.270785908
20.94935156 24.75265588 6.187683435
16.7232043 26.25764979 5.452829563
19.67071848 26.12764411 4.874352748
25.39945058 25.70206939 -2.920990868
25.39945058 25.70206939 2.920990868
24.08597888 27.31149348 -1.481205989
24.08597888 27.31149348 1.481205989
22.21269426 1.698733756 13.07934148
23.96589977 5.425382331 12.73942898
24.20474335 12.9392433 10.01700293
24.10097699 9.087833662 11.42397937
10.75820021 22.0936071 13.65460012
15.08567715 20.94097088 12.94223176
11.85757545 22.91116339 12.18675132
22.84757431 16.5993208 10.25894444
19.27200312 19.19460926 11.86292092
22.66412491 18.68359822 9.414028647
14.18321296 24.57581343 9.047970658
16.36314852 21.81407507 11.43558054
13.00254607 23.74417634 10.6477218
16.71822285 24.23234693 8.597256489
14.11305256 22.42387965 11.85043518
21.82777444 22.85576105 7.431553637
18.65628491 21.0019747 10.89489072
22.35078858 20.81000259 8.474010256
19.31967553 23.6998343 8.069696763
20.76238178 19.98511953 10.23546979
17.79107856 22.71812548 9.818949177
25.45211216 15.7302704 -7.183337091
27.32407186 16.88720512 -2.528006876
25.56347421 18.00479521 -6.291949369
25.45211216 15.7302704 7.183337091
27.32407186 16.88720512 2.528006876
25.56347421 18.00479521 6.291949369
25.68450397 23.04111929 -4.212787892
27.50878834 19.32989863 -1.368677029
25.65683512 20.45843392 -5.305710416
27.26750759 24.48047234 -1.491820542
26.74893333 18.81059723 -3.921860433
25.68450397 23.04111929 4.212787892
27.50878834 19.32989863 1.368677029
25.65683512 20.45843392 5.305710416
27.26750759 24.48047234 1.491820542
26.74893333 18.81059723 3.921860433
27.62174728 21.95847863 0
11.34775308 -16.25045491 0.8061756578
12.84332624 -14.57418325 2.370769503
10.98879413 -16.46967485 2.120542843
12.15097521 -15.47077207 0
15.55507721 -10.98238685 5.418667911
14.23657781 -12.82940772 3.898291277
10.12080212 -16.66746847 4.761800176
12.4356324 -14.6932915 3.673037628
10.57829647 -16.60932912 3.449198293
11.7315892 -15.58249068 2.907057213
13.68444805 -13.84748983 -1.573740647
13.68444805 -13.84748983 1.573740647
12.93341753 -14.66541801 -0.7953613013
12.93341753 -14.66541801 0.7953613013
20.29571232 -1.552131011 11.95057875
19.20248487 -4.347044055 10.20736524
16.81799056 -8.990472177 6.960034989
18.03498002 -6.800508485 8.548667539
7.798065995 -16.01451943 9.89751732
10.31177015 -14.31413892 8.846624371
8.44012968 -16.30798732 8.674434495
15.01510421 -10.90883996 6.742033873
12.68473224 -12.633792 7.808112864
14.41178328 -11.88062497 5.986242186
9.598184579 -16.63115361 6.123019705
10.90120096 -14.53263202 7.618433664
9.043866089 -16.51516172 7.405977997
10.81027195 -15.66902551 5.559124409
9.697874321 -15.4087123 8.143102322
13.13471571 -13.75329971 4.471887163
12.11200525 -13.63487045 7.073164582
13.78248378 -12.83236706 5.225449138
11.98995907 -14.70832379 5.008124164
13.26234921 -12.76585881 6.538092602
11.47559399 -14.65363572 6.333414459
16.57435156 -10.2435126 -4.677771084
17.01563552 -10.51624109 -1.574276478
15.87913733 -11.18394993 -3.90833919
16.57435156 -10.2435126 4.677771084
17.01563552 -10.51624109 1.574276478
15.87913733 -11.18394993 3.90833919
14.4524843 -12.96507089 -2.370505225
16.20867006 -11.38952197 -0.806448983
15.16824741 -12.09496751 -3.136720796
14.54261653 -13.05620326 -0.7956346578
16.09844066 -11.32087323 -2.360312341
14.4524843 -12.96507089 2.370505225
16.20867006 -11.38952197 0.806448983
15.16824741 -12.09496751 3.136720796
14.54261653 -13.05620326 0.7956346578
16.09844066 -11.32087323 2.360312341
15.38841158 -12.2333357 0
1.351596531 -10.40657049 17.67351735
3.897113588 -9.150876151 17.21497729
2.191498236 -11.3564897 17.02076593
1.334462434 -9.029941406 18.10442012
8.671576253 -6.713159548 16.22144918
6.310251993 -7.932384247 16.73481753
3.858789935 -13.06452533 15.43635843
4.718279012 -10.02830158 16.51513372
3.035156891 -12.24854249 16.26913421
3.482334118 -10.67992025 16.76889194
1.310673318 -6.286747448 18.77818043
3.875549911 -7.840407734 17.68752752
1.322226804 -7.648658433 18.47273857
2.629368348 -8.429303789 17.89785872
19.16635729 -0.9508318863 13.38393855
16.20619305 -2.636247095 14.28151554
18.77495392 -2.417357631 12.52690811
11.05540814 -5.454696334 15.65850205
13.5380657 -4.113621186 15.02296364
17.86538095 -5.104036902 10.84819723
15.9605693 -3.989832476 13.50818995
18.33435763 -3.807428621 11.67694789
17.32614292 -3.232351604 13.0443326
6.982190091 -15.54995329 11.29742088
7.932708736 -12.88714546 12.83539236
6.256913824 -15.06342096 12.41781477
8.307861525 -14.73997789 10.76471136
9.511975981 -7.494305293 15.39070044
8.767279227 -10.21928415 14.18575578
8.342871777 -8.11752279 15.68464748
4.708183967 -13.82876081 14.4800311
7.182593617 -12.29939026 13.84581574
