3.5155907 19.212535 1.3037812
5.8131124 19.003916 2.6580378
2.9492635 19.060422 2.5932765
-1.417516 16.708292 4.6180584
1.5716992 18.525653 5.1203644
-0.75067506 17.812934 3.6462492
0.79492442 18.862937 3.8611813
7.4661463 18.06661 5.3214788
4.5580884 18.354492 5.1795988
6.7590669 17.591387 6.4732226
6.6751016 18.629386 4.0055217
5.3169721 17.796748 6.40348
5.1826309 18.713967 3.9450573
-3.5040709 12.415679 7.6733115
-1.2740347 13.77046 8.5106121
-2.9725353 12.077073 8.5060904
-3.0669294 13.437781 7.0282423
4.5064988 15.967497 9.8684558
1.4147676 15.291577 9.4507144
3.7961544 15.423343 10.862926
3.8283094 16.773775 8.7730371
-1.8353905 11.19 10.038353
-0.66314818 13.328493 9.3656771
-2.4122393 11.664871 9.3014197
-0.63860637 11.672452 10.479401
-1.8610879 12.693495 8.9264204
-2.0437612 15.563352 5.531158
-0.70095401 15.016668 7.8789029
-2.5790197 14.493818 6.3133211
-0.72963223 16.634428 5.9028488
-1.934158 14.202199 7.4436494
2.0799261 12.680883 11.375798
0.6971806 14.012505 9.8463188
2.8898275 13.974345 11.142965
0.66591074 12.171522 10.92746
2.1555727 14.70202 10.338871
0 12.804678 10.179343
2.3701599 18.048896 6.4145111
0.74444454 15.948373 8.3677477
3.1092624 17.473727 7.611331
0.78260216 17.842057 6.3313845
2.3051958 16.926667 8.8715961
0 16.382031 7.1703181
0 -6.7185247 12.768306
0 -4.7588732 13.201344
0 -0.94307609 13.607139
0 -2.8381343 13.474844
0 6.7185247 12.768306
0 4.7588732 13.201344
0 0.94307609 13.607139
0 2.8381343 13.474844
-11.265771 -19.1327 -1.4631887
-9.7585822 -18.358217 -4.1559193
-9.5582949 -19.163733 -1.4125435
-6.7272396 -16.255472 -8.6897638
-8.2161824 -17.333542 -6.5360149
-6.4268249 -19.196584 -1.3398769
-8.2101629 -18.521675 -4.0583216
-7.9428452 -19.183247 -1.373083
-8.8988735 -18.894892 -2.7758421
-0.61430923 -8.6470355 -12.382915
-1.9757093 -10.703141 -12.145571
-5.2833051 -15.166499 -10.708038
-3.596666 -13.135041 -11.836749
-0.79531457 -19.22167 -1.286846
-2.3765093 -18.828777 -3.8452729
-2.1392136 -19.217704 -1.2927991
-5.3425576 -16.583119 -8.6444397
-3.9115289 -17.962159 -6.3289867
-6.0459707 -17.09141 -7.5836361
-4.9139422 -19.205559 -1.3225706
-3.7475644 -18.782536 -3.875702
-3.5155907 -19.212535 -1.3037812
-5.8131124 -19.003916 -2.6580378
-2.9492635 -19.060422 -2.5932765
-7.4661463 -18.06661 -5.3214788
-4.5580884 -18.354492 -5.1795988
-6.7590669 -17.591387 -6.4732226
-6.6751016 -18.629386 -4.0055217
-5.3169721 -17.796748 -6.40348
-5.1826309 -18.713967 -3.9450573
7.1237394 -12.098273 -0.92522522
6.5454085 -12.313472 -2.7875145
6.3961726 -12.823892 -0.94523892
4.9731494 -12.016948 -6.4239564
5.8260972 -12.291219 -4.6346899
4.8192338 -14.394795 -1.0047232
5.7854863 -13.051738 -2.8597927
5.6270616 -13.590258 -0.97275251
6.1080293 -12.969119 -1.9052889
0.59744785 -8.4096941 -12.043032
1.7829809 -9.6590604 -10.960783
0 -9.3542775 -11.909982
4.0002054 -11.483173 -8.1074913
2.9278173 -10.692402 -9.6355453
-1.3168193 -11.450391 -11.586815
1.221331 -10.620073 -10.746604
-0.63767324 -10.369243 -11.757857
0.61610151 -10.018463 -11.360103
0.76235192 -18.425007 -1.2335113
2.0915457 -16.571046 -3.384192
1.922794 -17.27349 -1.1620094
0 -18.926011 -2.5498986
4.1003118 -12.72723 -6.6344439
3.1886754 -14.642739 -5.1593852
4.5676347 -12.912289 -5.7293164
3.9134748 -15.295351 -1.0532982
3.113888 -15.606594 -3.2203588
2.9703866 -16.233021 -1.1015885
4.4620653 -14.587145 -2.0402734
2.5465694 -16.457901 -2.239189
-1.5716992 -18.525653 -5.1203644
1.417516 -16.708292 -4.6180584
-0.79492442 -18.862937 -3.8611813
0.75067506 -17.812934 -3.6462492
5.4039528 -13.076506 -3.851655
3.6507339 -14.700761 -4.1485236
5.005822 -13.028329 -4.7941232
4.959581 -13.841579 -2.9760909
4.1265539 -13.81223 -4.9698033
4.0690393 -14.692898 -3.097383
-4.5064988 -15.967497 -9.8684558
-1.4147676 -15.291577 -9.4507144
-3.7961544 -15.423343 -10.862926
-3.8283094 -16.773775 -8.7730371
3.5040709 -12.415679 -7.6733115
1.2740347 -13.77046 -8.5106121
2.9725353 -12.077073 -8.5060904
3.0669294 -13.437781 -7.0282423
-2.0799261 -12.680883 -11.375798
-0.6971806 -14.012505 -9.8463188
-2.8898275 -13.974345 -11.142965
-0.66591074 -12.171522 -10.92746
-2.1555727 -14.70202 -10.338871
-2.3701599 -18.048896 -6.4145111
-0.74444454 -15.948373 -8.3677477
-3.1092624 -17.473727 -7.611331
-0.78260216 -17.842057 -6.3313845
-2.3051958 -16.926667 -8.8715961
1.8353905 -11.19 -10.038353
0.66314818 -13.328493 -9.3656771
2.4122393 -11.664871 -9.3014197
0.63860637 -11.672452 -10.479401
1.8610879 -12.693495 -8.9264204
0 -12.804678 -10.179343
2.0437612 -15.563352 -5.531158
0.70095401 -15.016668 -7.8789029
2.5790197 -14.493818 -6.3133211
0.72963223 -16.634428 -5.9028488
1.934158 -14.202199 -7.4436494
0 -16.382031 -7.1703181
-7.1237394 12.098273 -0.92522522
-6.5454085 12.313472 -2.7875145
-6.3961726 12.823892 -0.94523892
-4.9731494 12.016948 -6.4239564
-5.8260972 12.291219 -4.6346899
-4.8192338 14.394795 -1.0047232
-5.7854863 13.051738 -2.8597927
-5.6270616 13.590258 -0.97275251
-6.1080293 12.969119 -1.9052889
-0.59744785 8.4096941 -12.043032
-1.7829809 9.6590604 -10.960783
-4.0002054 11.483173 -8.1074913
-2.9278173 10.692402 -9.6355453
-0.76235192 18.425007 -1.2335113
-2.0915457 16.571046 -3.384192
-1.922794 17.27349 -1.1620094
-4.1003118 12.72723 -6.6344439
-3.1886754 14.642739 -5.1593852
-4.5676347 12.912289 -5.7293164
-3.9134748 15.295351 -1.0532982
-3.113888 15.606594 -3.2203588
-2.9703866 16.233021 -1.1015885
-4.4620653 14.587145 -2.0402734
-2.5465694 16.457901 -2.239189
-5.4039528 13.076506 -3.851655
-3.6507339 14.700761 -4.1485236
-5.005822 13.028329 -4.7941232
-4.959581 13.841579 -2.9760909
-4.1265539 13.81223 -4.9698033
-4.0690393 14.692898 -3.097383
11.265771 19.1327 -1.4631887
9.7585822 18.358217 -4.1559193
9.5582949 19.163733 -1.4125435
6.7272396 16.255472 -8.6897638
8.2161824 17.333542 -6.5360149
6.4268249 19.196584 -1.3398769
8.2101629 18.521675 -4.0583216
7.9428452 19.183247 -1.373083
8.8988735 18.894892 -2.7758421
0.61430923 8.6470355 -12.382915
1.9757093 10.703141 -12.145571
0 9.3542775 -11.909982
5.2833051 15.166499 -10.708038
3.596666 13.135041 -11.836749
-1.221331 10.620073 -10.746604
1.3168193 11.450391 -11.586815
-0.61610151 10.018463 -11.360103
0.63767324 10.369243 -11.757857
0.79531457 19.22167 -1.286846
2.3765093 18.828777 -3.8452729
2.1392136 19.217704 -1.2927991
0 18.926011 -2.5498986
5.3425576 16.583119 -8.6444397
3.9115289 17.962159 -6.3289867
6.0459707 17.09141 -7.5836361
4.9139422 19.205559 -1.3225706
3.7475644 18.782536 -3.875702
3.5155907 19.212535 -1.3037812
5.8131124 19.003916 -2.6580378
2.9492635 19.060422 -2.5932765
-1.417516 16.708292 -4.6180584
1.5716992 18.525653 -5.1203644
-0.75067506 17.812934 -3.6462492
0.79492442 18.862937 -3.8611813
7.4661463 18.06661 -5.3214788
4.5580884 18.354492 -5.1795988
6.7590669 17.591387 -6.4732226
6.6751016 18.629386 -4.0055217
5.3169721 17.796748 -6.40348
5.1826309 18.713967 -3.9450573
-3.5040709 12.415679 -7.6733115
-1.2740347 13.77046 -8.5106121
-2.9725353 12.077073 -8.5060904
-3.0669294 13.437781 -7.0282423
4.5064988 15.967497 -9.8684558
1.4147676 15.291577 -9.4507144
3.7961544 15.423343 -10.862926
3.8283094 16.773775 -8.7730371
-1.8353905 11.19 -10.038353
-0.66314818 13.328493 -9.3656771
-2.4122393 11.664871 -9.3014197
-0.63860637 11.672452 -10.479401
-1.8610879 12.693495 -8.9264204
-2.0437612 15.563352 -5.531158
-0.70095401 15.016668 -7.8789029
-2.5790197 14.493818 -6.3133211
-0.72963223 16.634428 -5.9028488
-1.934158 14.202199 -7.4436494
2.0799261 12.680883 -11.375798
0.6971806 14.012505 -9.8463188
2.8898275 13.974345 -11.142965
0.66591074 12.171522 -10.92746
2.1555727 14.70202 -10.338871
0 12.804678 -10.179343
2.3701599 18.048896 -6.4145111
0.74444454 15.948373 -8.3677477
3.1092624 17.473727 -7.611331
0.78260216 17.842057 -6.3313845
2.3051958 16.926667 -8.8715961
0 16.382031 -7.1703181
0 -6.7185247 -12.768306
0 -4.7588732 -13.201344
0 -0.94307609 -13.607139
0 -2.8381343 -13.474844
0 6.7185247 -12.768306
0 4.7588732 -13.201344
0 0.94307609 -13.607139
0 2.8381343 -13.474844
13.39993 19.189258 -0.95196796
15.866646 18.004946 -2.9288487
12.56243 18.828194 -2.4242125
16.902511 11.933718 -5.8880513
16.747528 15.092171 -4.5858452
10.778956 17.751351 -5.0714592
14.612421 17.26527 -4.3159824
11.664633 18.315021 -3.8034131
13.720559 18.224341 -3.3999187
15.493617 1.1848869 -9.1229954
16.716499 3.7842684 -8.8859024
16.883095 9.0252753 -6.9869781
16.810717 6.3388715 -7.9683608
7.5039719 15.410552 -9.5242451
10.522438 14.606575 -9.0273598
8.2707992 15.980808 -8.5004032
15.936453 11.578223 -7.1557351
13.44245 13.388467 -8.2745277
15.808495 13.032031 -6.5663964
9.8929588 17.141921 -6.3110666
11.41349 15.215575 -7.9764527
9.0694297 16.561844 -7.4269119
11.661158 16.902349 -5.9966881
9.8440211 15.640921 -8.2658187
15.225131 15.942164 -5.1835966
13.012979 14.649126 -7.5993152
15.589939 14.515223 -5.9107224
13.475702 16.530915 -5.628709
14.482007 13.939857 -7.1393613
12.409488 15.846161 -6.8488332
7.915192 -11.334885 -0.56231706
8.958372 -10.165665 -1.6536398
7.6648139 -11.487793 -1.4791037
10.84985 -7.6603448 -3.779585
9.9301815 -8.9486637 -2.7191043
7.0593792 -11.625756 -3.321412
8.6740007 -10.248745 -2.5619872
7.3784869 -11.585204 -2.4058566
8.1829223 -10.868972 -2.0277068
14.156499 -1.0826297 -8.3356701
13.39396 -3.0321147 -7.119758
11.730747 -6.2709607 -4.8547067
12.579612 -4.7434351 -5.9627967
5.4392433 -11.170317 -6.9036354
7.1925817 -9.9842812 -6.1706252
5.8870903 -11.375014 -6.0505207
10.473213 -7.6090449 -4.7026484
8.8477508 -8.8122194 -5.4462511
10.052389 -8.2868765 -4.1754747
6.6948473 -11.600426 -4.2708787
7.6037166 -10.136683 -5.3139476
6.3082036 -11.519521 -5.1657573
7.5402926 -10.929331 -3.877555
6.7643821 -10.747759 -5.6799102
9.1616196 -9.5930893 -3.1191942
8.448267 -9.5104835 -4.933616
9.6134455 -8.9507278 -3.6448126
8.3631383 -10.25923 -3.4932259
9.2506455 -8.9043376 -4.5603969
8.0043626 -10.221084 -4.4176315
0.94275457 -7.258706 -12.327487
2.7182828 -6.3828444 -12.00765
1.5285959 -7.9212859 -11.872186
0.93080334 -6.298491 -12.628047
6.048527 -4.6825082 -11.314653
4.4014754 -5.5329319 -11.672733
2.6915516 -9.112661 -10.767043
3.2910554 -6.994859 -11.519501
2.1170578 -8.5435033 -11.347914
2.4289692 -7.4493707 -11.696501
0.91421015 -4.3850807 -13.098003
2.7032419 -5.4687772 -12.33726
0.92226884 -5.3350297 -12.884954
1.8340155 -5.8795391 -12.483968
13.368761 -0.66321649 -9.3354555
11.304011 -1.8388135 -9.9615261
13.095752 -1.6861355 -8.7376666
7.711278 -3.8047152 -10.92199
9.442961 -2.8692994 -10.478695
12.461315 -3.5601261 -7.5667459
11.132686 -2.7829554 -9.4221223
12.788431 -2.6557265 -8.1448093
12.08519 -2.2546035 -9.0985763
4.8701602 -10.846276 -7.8800847
5.5331582 -8.9889364 -8.952838
4.3642714 -10.506914 -8.6615727
5.7948317 -10.281309 -7.5085135
6.6347158 -5.2273666 -10.735196
6.115281 -7.1280716 -9.8947325
5.8192518 -5.6620682 -10.940227
3.284014 -9.6457243 -10.099993
5.009944 -8.5789702 -9.6576203
3.8308949 -10.10425 -9.4076983
3.591933 -8.5994532 -10.549122
4.7010411 -9.5359385 -9.1789504
7.5518259 -9.1539239 -6.7865962
6.4511035 -8.4830048 -8.6072719
6.6911305 -9.7148151 -7.1429265
6.1335277 -9.380456 -8.0781855
4.1699349 -6.5366121 -11.326246
5.3055722 -7.5917323 -10.120706
4.9947511 -6.0993781 -11.138181
3.8876753 -7.5599725 -10.957856
5.5707409 -6.634369 -10.541185
4.4657166 -8.0914885 -10.332339
0.90939574 -0.56203748 -13.58368
2.7092549 -1.6744116 -13.266147
0.90924695 -1.5045443 -13.516129
6.0992469 -3.7695419 -11.700531
4.4520893 -2.7515425 -12.635378
5.2654463 -4.1978193 -11.866854
0.91437129 -3.3972991 -13.277939
2.7020723 -2.612737 -13.094859
0.91029306 -2.4545665 -13.414089
1.8173466 -3.9745259 -12.993307
1.8155662 -2.0647945 -13.344299
3.5884151 -5.0346216 -12.182797
3.59956 -3.1676416 -12.755447
4.4259961 -4.6214391 -12.027921
2.7146057 -4.5238225 -12.625431
4.4436824 -3.6897023 -12.350018
2.7150016 -3.5667039 -12.879014
10.956339 -6.7713896 -5.3350493
10.076323 -6.2275099 -7.2588874
11.348035 -6.0361702 -5.8731275
10.113241 -7.3857724 -5.700104
7.6115437 -4.7041927 -10.476652
8.9498465 -5.5313093 -8.9859328
8.445191 -4.255244 -10.244433
7.3404534 -5.6651282 -10.051186
12.093603 -4.4524494 -6.9794698
10.37479 -5.4387703 -7.7823251
11.730175 -5.2602221 -6.4235601
11.539924 -4.0941839 -7.961549
10.892746 -5.7565318 -6.8556331
8.4363924 -8.5599768 -6.415656
9.1916087 -6.8145352 -7.5829152
9.2706345 -7.9836103 -6.0617195
7.9294967 -8.2773064 -7.3667287
9.6819015 -7.1187265 -6.6684611
10.182431 -3.3108189 -9.7244549
9.7750225 -5.0708471 -8.6832599
9.3048125 -3.7889989 -9.9937468
10.897081 -3.7104114 -8.8831027
9.1381197 -4.6801295 -9.4935199
10.641743 -4.5994433 -8.3337897
6.7685578 -7.5317535 -9.1295933
8.6133122 -6.4556307 -8.4889578
7.0584474 -6.6119947 -9.5999183
7.3686717 -7.9315882 -8.2794896
8.0056089 -6.0784225 -9.2961795
8.2852136 -7.373766 -7.9370716
0.97956342 7.5421145 -12.808801
3.0146742 7.0788057 -13.316919
1.6392789 8.4948522 -12.731829
0.9616761 6.5073985 -13.046893
7.2563684 5.6175668 -13.574096
5.1250217 6.4424751 -13.591581
3.1380025 10.624189 -12.552985
3.7952953 8.0665781 -13.284464
2.3594414 9.5216554 -12.647145
2.7071942 8.3026549 -13.03627
0.93462055 4.4829808 -13.390425
2.9482595 5.9644585 -13.455489
0.94773603 5.4823493 -13.240754
1.950858 6.2541161 -13.279304
14.057151 0.69736712 -9.8161608
12.832119 2.0873894 -11.308153
15.001595 1.9315211 -10.009271
12.890956 0 -10.124749
9.3249866 4.6009129 -13.207592
11.222315 3.4099666 -12.453214
16.037489 4.5818186 -9.7382666
13.64006 3.4097502 -11.544233
16.006929 3.3241002 -10.194635
14.379134 2.6825599 -10.825618
10.781434 -1.2252893 -10.654493
11.641864 1.3230755 -11.504791
11.797753 -0.63983696 -10.404427
12.308999 0.66756377 -10.855294
6.6167092 14.735995 -10.70606
7.7119862 12.528569 -12.478256
5.8852855 14.168732 -11.680261
8.0892202 14.35206 -10.481412
8.3838225 6.6054546 -13.56531
8.3978004 9.7886135 -13.587926
7.24613 7.0504051 -13.622767
4.0464691 11.885188 -12.444925
6.8376487 11.708711 -13.180869
5.0177601 13.234689 -12.322336
4.3976204 10.528351 -12.91534
6.4489387 13.081503 -12.591783
11.007405 13.342595 -9.8920203
9.1138348 11.984415 -12.159974
9.5668078 13.889995 -10.212774
8.6285876 13.196335 -11.364313
4.961825 7.7779453 -13.477153
7.0524263 10.091302 -13.452938
6.0942749 7.4420699 -13.590094
4.7031426 9.1457299 -13.256343
7.1813925 8.5525441 -13.588926
5.7148626 10.354832 -13.222491
0.91191049 0.56359168 -13.621243
2.7780056 1.7169019 -13.602792
0.9160238 1.515758 -13.616868
1.8272148 0 -13.562064
7.0322782 4.346187 -13.490418
4.7786539 2.9533705 -13.562194
6.0326799 4.8094879 -13.595986
0.93007049 3.4556286 -13.505914
2.8111163 2.7181758 -13.623311
0.92145378 2.4846609 -13.578554
1.8924899 4.1388637 -13.530552
1.8533872 2.1078074 -13.622282
3.6482993 -1.1198478 -13.199671
3.7313613 1.1453438 -13.500192
2.747148 -0.56557173 -13.420576
2.7704381 0.57036661 -13.534355
3.9986994 5.6102591 -13.575727
3.8434128 3.382234 -13.619566
5.0127902 5.2341448 -13.62257
2.9142723 4.8565618 -13.554065
4.897324 4.0663725 -13.610793
2.868804 3.7687544 -13.608599
16.018657 9.9000742 -7.8000805
14.239464 8.8004727 -10.257975
16.050647 8.5375516 -8.3069442
14.982969 10.942169 -8.4448179
9.7125575 6.0026906 -13.368522
12.476571 7.7109447 -12.526877
10.788645 5.4360305 -13.087157
9.8809261 7.6257842 -13.529822
16.053244 5.9102531 -9.2646608
14.341262 7.5181121 -10.757651
16.060685 7.2021747 -8.7949902
15.263536 5.4152632 -10.530519
15.196014 8.0306967 -9.5640069
12.469331 12.651994 -9.4826005
13.122499 9.7288442 -10.82583
13.780306 11.867213 -9.0104241
11.473481 11.976739 -10.659191
14.039338 10.322581 -9.6696689
12.760781 4.1491694 -12.186837
13.454071 6.9793738 -11.951399
11.816315 4.8117043 -12.691203
14.439142 4.9164689 -11.770527
12.445323 6.3739286 -12.929347
14.395299 6.2217593 -11.273285
9.576719 10.656552 -12.917309
12.172324 9.1230909 -11.996587
9.9795236 9.3483105 -13.57276
10.50733 11.310019 -11.806108
11.270194 8.5571257 -13.087043
11.859082 10.554477 -11.360768
7.1027294 -3.2435107 -11.492458
7.5235202 -1.1262675 -12.173311
7.9638172 -2.7830327 -11.307145
6.2926072 -2.7459188 -12.03127
8.1919921 3.74093 -13.254922
7.892474 1.1814997 -12.770291
9.1281186 3.1899091 -12.960238
6.9754302 3.0438837 -13.336806
9.7756312 -1.787355 -10.897137
8.4512141 -0.59839852 -12.027102
8.8573846 -2.2970829 -11.108008
10.144612 -0.61820463 -11.299549
8.2117527 -1.7120853 -11.677228
4.5781833 -1.6916374 -12.88191
6.6274782 -0.58961983 -12.631535
5.4439819 -2.2238907 -12.498031
4.6529932 -0.57514159 -13.112293
6.4698462 -1.681125 -12.34422
10.850316 1.983848 -12.095115
8.6913533 0.61540187 -12.368849
10.024186 2.5996822 -12.571289
10.505817 0.64021613 -11.701875
8.9147716 1.8586592 -12.67693
9.4408842 0 -11.875764
4.7820752 1.7669754 -13.455613
6.7715839 0.60244033 -12.906191
5.8381122 2.3848947 -13.402857
4.721571 0.58361828 -13.305548
6.8859551 1.7892467 -13.138139
5.69633 0 -13.014409
13.39993 19.189258 0.95196796
15.866646 18.004946 2.9288487
12.56243 18.828194 2.4242125
15.132193 19.266496 0
16.902511 11.933718 5.8880513
16.747528 15.092171 4.5858452
10.778956 17.751351 5.0714592
14.612421 17.26527 4.3159824
11.664633 18.315021 3.8034131
13.720559 18.224341 3.3999187
17.716417 17.927497 -2.0374257
17.716417 17.927497 2.0374257
16.800255 19.05009 -1.0331587
16.800255 19.05009 1.0331587
15.493617 1.1848869 9.1229954
16.716499 3.7842684 8.8859024
16.883095 9.0252753 6.9869781
16.810717 6.3388715 7.9683608
7.5039719 15.410552 9.5242451
10.522438 14.606575 9.0273598
8.2707992 15.980808 8.5004032
15.936453 11.578223 7.1557351
13.44245 13.388467 8.2745277
15.808495 13.032031 6.5663964
9.8929588 17.141921 6.3110666
11.41349 15.215575 7.9764527
9.0694297 16.561844 7.4269119
11.661158 16.902349 5.9966881
9.8440211 15.640921 8.2658187
15.225131 15.942164 5.1835966
13.012979 14.649126 7.5993152
15.589939 14.515223 5.9107224
13.475702 16.530915 5.628709
14.482007 13.939857 7.1393613
12.409488 15.846161 6.8488332
17.753149 10.97205 -5.0104626
19.058863 11.779025 -1.7633147
17.830826 12.558558 -4.3887091
17.753149 10.97205 5.0104626
19.058863 11.779025 1.7633147
17.830826 12.558558 4.3887091
17.915245 16.071453 -2.9384694
19.187705 13.482833 -0.95466842
17.895946 14.27 -3.7007958
19.019409 17.075419 -1.0405625
18.657697 13.120614 -2.7355441
17.915245 16.071453 2.9384694
19.187705 13.482833 0.95466842
17.895946 14.27 3.7007958
19.019409 17.075419 1.0405625
18.657697 13.120614 2.7355441
19.266496 15.316299 0
7.915192 -11.334885 0.56231706
8.958372 -10.165665 1.6536398
7.6648139 -11.487793 1.4791037
8.475449 -10.791047 0
10.84985 -7.6603448 3.779585
9.9301815 -8.9486637 2.7191043
7.0593792 -11.625756 3.321412
8.6740007 -10.248745 2.5619872
7.3784869 -11.585204 2.4058566
8.1829223 -10.868972 2.0277068
9.5450644 -9.658788 -1.0977027
9.5450644 -9.658788 1.0977027
9.0212117 -10.229303 -0.55477392
9.0212117 -10.229303 0.55477392
14.156499 -1.0826297 8.3356701
13.39396 -3.0321147 7.119758
11.730747 -6.2709607 4.8547067
12.579612 -4.7434351 5.9627967
5.4392433 -11.170317 6.9036354
7.1925817 -9.9842812 6.1706252
5.8870903 -11.375014 6.0505207
10.473213 -7.6090449 4.7026484
8.8477508 -8.8122194 5.4462511
10.052389 -8.2868765 4.1754747
6.6948473 -11.600426 4.2708787
7.6037166 -10.136683 5.3139476
6.3082036 -11.519521 5.1657573
7.5402926 -10.929331 3.877555
6.7643821 -10.747759 5.6799102
9.1616196 -9.5930893 3.1191942
8.448267 -9.5104835 4.933616
9.6134455 -8.9507278 3.6448126
8.3631383 -10.25923 3.4932259
9.2506455 -8.9043376 4.5603969
8.0043626 -10.221084 4.4176315
11.560806 -7.1449712 -3.2628007
11.868607 -7.3352026 -1.0980765
11.075886 -7.8009374 -2.7261128
11.560806 -7.1449712 3.2628007
11.868607 -7.3352026 1.0980765
11.075886 -7.8009374 2.7261128
10.080779 -9.0432903 -1.6534554
11.305739 -7.9443263 -0.56250771
10.580032 -8.4363829 -2.1878999
10.143647 -9.1068562 -0.55496459
11.228853 -7.896443 -1.6463458
10.080779 -9.0432903 1.6534554
11.305739 -7.9443263 0.56250771
10.580032 -8.4363829 2.1878999
10.143647 -9.1068562 0.55496459
11.228853 -7.896443 1.6463458
10.733599 -8.5328964 0
0.94275457 -7.258706 12.327487
2.7182828 -6.3828444 12.00765
1.5285959 -7.9212859 11.872186
0.93080334 -6.298491 12.628047
6.048527 -4.6825082 11.314653
4.4014754 -5.5329319 11.672733
2.6915516 -9.112661 10.767043
3.2910554 -6.994859 11.519501
2.1170578 -8.5435033 11.347914
2.4289692 -7.4493707 11.696501
0.91421015 -4.3850807 13.098003
2.7032419 -5.4687772 12.33726
0.92226884 -5.3350297 12.884954
1.8340155 -5.8795391 12.483968
13.368761 -0.66321649 9.3354555
11.304011 -1.8388135 9.9615261
13.095752 -1.6861355 8.7376666
7.711278 -3.8047152 10.92199
9.442961 -2.8692994 10.478695
12.461315 -3.5601261 7.5667459
11.132686 -2.7829554 9.4221223
12.788431 -2.6557265 8.1448093
12.08519 -2.2546035 9.0985763
4.8701602 -10.846276 7.8800847
5.5331582 -8.9889364 8.952838
4.3642714 -10.506914 8.6615727
5.7948317 -10.281309 7.5085135
6.6347158 -5.2273666 10.735196
6.115281 -7.1280716 9.8947325
5.8192518 -5.6620682 10.940227
3.284014 -9.6457243 10.099993
5.009944 -8.5789702 9.6576203
3.8308949 -10.10425 9.4076983
3.591933 -8.5994532 10.549122
4.7010411 -9.5359385 9.1789504
7.5518259 -9.1539239 6.7865962
6.4511035 -8.4830048 8.6072719
6.6911305 -9.7148151 7.1429265
6.1335277 -9.380456 8.0781855
4.1699349 -6.5366121 11.326246
5.3055722 -7.5917323 10.120706
4.9947511 -6.0993781 11.138181
3.8876753 -7.5599725 10.957856
5.5707409 -6.634369 10.541185
4.4657166 -8.0914885 10.332339
0.90939574 -0.56203748 13.58368
2.7092549 -1.6744116 13.266147
0.90924695 -1.5045443 13.516129
6.0992469 -3.7695419 11.700531
4.4520893 -2.7515425 12.635378
5.2654463 -4.1978193 11.866854
0.91437129 -3.3972991 13.277939
2.7020723 -2.612737 13.094859
0.91029306 -2.4545665 13.414089
1.8173466 -3.9745259 12.993307
1.8155662 -2.0647945 13.344299
3.5884151 -5.0346216 12.182797
3.59956 -3.1676416 12.755447
4.4259961 -4.6214391 12.027921
2.7146057 -4.5238225 12.625431
4.4436824 -3.6897023 12.350018
2.7150016 -3.5667039 12.879014
10.956339 -6.7713896 5.3350493
10.076323 -6.2275099 7.2588874
11.348035 -6.0361702 5.8731275
10.113241 -7.3857724 5.700104
7.6115437 -4.7041927 10.476652
8.9498465 -5.5313093 8.9859328
8.445191 -4.255244 10.244433
7.3404534 -5.6651282 10.051186
12.093603 -4.4524494 6.9794698
10.37479 -5.4387703 7.7823251
11.730175 -5.2602221 6.4235601
11.539924 -4.0941839 7.961549
10.892746 -5.7565318 6.8556331
8.4363924 -8.5599768 6.415656
9.1916087 -6.8145352 7.5829152
9.2706345 -7.9836103 6.0617195
7.9294967 -8.2773064 7.3667287
9.6819015 -7.1187265 6.6684611
10.182431 -3.3108189 9.7244549
9.7750225 -5.0708471 8.6832599
9.3048125 -3.7889989 9.9937468
10.897081 -3.7104114 8.8831027
9.1381197 -4.6801295 9.4935199
10.641743 -4.5994433 8.3337897
6.7685578 -7.5317535 9.1295933
8.6133122 -6.4556307 8.4889578
7.0584474 -6.6119947 9.5999183
7.3686717 -7.9315882 8.2794896
8.0056089 -6.0784225 9.2961795
8.2852136 -7.373766 7.9370716
0.97956342 7.5421145 12.808801
3.0146742 7.0788057 13.316919
1.6392789 8.4948522 12.731829
0.9616761 6.5073985 13.046893
7.2563684 5.6175668 13.574096
5.1250217 6.4424751 13.591581
3.1380025 10.624189 12.552985
3.7952953 8.0665781 13.284464
2.3594414 9.5216554 12.647145
2.7071942 8.3026549 13.03627
0.93462055 4.4829808 13.390425
2.9482595 5.9644585 13.455489
0.94773603 5.4823493 13.240754
1.950858 6.2541161 13.279304
14.057151 0.69736712 9.8161608
12.832119 2.0873894 11.308153
15.001595 1.9315211 10.009271
12.890956 0 10.124749
9.3249866 4.6009129 13.207592
11.222315 3.4099666 12.453214
16.037489 4.5818186 9.7382666
13.64006 3.4097502 11.544233
16.006929 3.3241002 10.194635
14.379134 2.6825599 10.825618
10.781434 -1.2252893 10.654493
11.641864 1.3230755 11.504791
11.797753 -0.63983696 10.404427
12.308999 0.66756377 10.855294
6.6167092 14.735995 10.70606
7.7119862 12.528569 12.478256
5.8852855 14.168732 11.680261
8.0892202 14.35206 10.481412
8.3838225 6.6054546 13.56531
8.3978004 9.7886135 13.587926
7.24613 7.0504051 13.622767
4.0464691 11.885188 12.444925
6.8376487 11.708711 13.180869
5.0177601 13.234689 12.322336
4.3976204 10.528351 12.91534
6.4489387 13.081503 12.591783
11.007405 13.342595 9.8920203
9.1138348 11.984415 12.159974
9.5668078 13.889995 10.212774
8.6285876 13.196335 11.364313
4.961825 7.7779453 13.477153
7.0524263 10.091302 13.452938
6.0942749 7.4420699 13.590094
4.7031426 9.1457299 13.256343
7.1813925 8.5525441 13.588926
5.7148626 10.354832 13.222491
0.91191049 0.56359168 13.621243
2.7780056 1.7169019 13.602792
0.9160238 1.515758 13.616868
1.8272148 0 13.562064
7.0322782 4.346187 13.490418
4.7786539 2.9533705 13.562194
6.0326799 4.8094879 13.595986
0.93007049 3.4556286 13.505914
2.8111163 2.7181758 13.623311
0.92145378 2.4846609 13.578554
1.8924899 4.1388637 13.530552
1.8533872 2.1078074 13.622282
3.6482993 -1.1198478 13.199671
3.7313613 1.1453438 13.500192
2.747148 -0.56557173 13.420576
2.7704381 0.57036661 13.534355
3.9986994 5.6102591 13.575727
3.8434128 3.382234 13.619566
5.0127902 5.2341448 13.62257
2.9142723 4.8565618 13.554065
4.897324 4.0663725 13.610793
2.868804 3.7687544 13.608599
16.018657 9.9000742 7.8000805
14.239464 8.8004727 10.257975
16.050647 8.5375516 8.3069442
14.982969 10.942169 8.4448179
9.7125575 6.0026906 13.368522
12.476571 7.7109447 12.526877
10.788645 5.4360305 13.087157
9.8809261 7.6257842 13.529822
16.053244 5.9102531 9.2646608
14.341262 7.5181121 10.757651
16.060685 7.2021747 8.7949902
15.263536 5.4152632 10.530519
15.196014 8.0306967 9.5640069
12.469331 12.651994 9.4826005
13.122499 9.7288442 10.82583
13.780306 11.867213 9.0104241
11.473481 11.976739 10.659191
14.039338 10.322581 9.6696689
12.760781 4.1491694 12.186837
13.454071 6.9793738 11.951399
11.816315 4.8117043 12.691203
14.439142 4.9164689 11.770527
12.445323 6.3739286 12.929347
14.395299 6.2217593 11.273285
9.576719 10.656552 12.917309
12.172324 9.1230909 11.996587
9.9795236 9.3483105 13.57276
10.50733 11.310019 11.806108
11.270194 8.5571257 13.087043
11.859082 10.554477 11.360768
7.1027294 -3.2435107 11.492458
7.5235202 -1.1262675 12.173311
7.9638172 -2.7830327 11.307145
6.2926072 -2.7459188 12.03127
8.1919921 3.74093 13.254922
7.892474 1.1814997 12.770291
9.1281186 3.1899091 12.960238
6.9754302 3.0438837 13.336806
9.7756312 -1.787355 10.897137
8.4512141 -0.59839852 12.027102
8.8573846 -2.2970829 11.108008
10.144612 -0.61820463 11.299549
8.2117527 -1.7120853 11.677228
4.5781833 -1.6916374 12.88191
6.6274782 -0.58961983 12.631535
5.4439819 -2.2238907 12.498031
4.6529932 -0.57514159 13.112293
6.4698462 -1.681125 12.34422
10.850316 1.983848 12.095115
8.6913533 0.61540187 12.368849
10.024186 2.5996822 12.571289
10.505817 0.64021613 11.701875
8.9147716 1.8586592 12.67693
9.4408842 0 11.875764
4.7820752 1.7669754 13.455613
6.7715839 0.60244033 12.906191
5.8381122 2.3848947 13.402857
4.721571 0.58361828 13.305548
6.8859551 1.7892467 13.138139
5.69633 0 13.014409
15.456551 0 -8.133046
17.164657 0 -6.1875841
16.547932 1.2197349 -8.2536119
14.997154 -1.1054283 -7.4801303
19.17461 0 -1.3289433
18.464754 0 -3.8891324
17.353332 3.8023236 -7.6922677
18.231299 1.2725023 -6.1036571
17.285459 2.5394009 -8.1408835
17.552421 1.2563531 -7.2675999
14.054465 -3.0795023 -6.2299684
16.46868 -1.1494755 -5.5135496
14.526704 -2.1341132 -6.8416008
15.777617 -1.1293176 -6.5327405
15.456551 0 8.133046
17.164657 0 6.1875841
16.547932 1.2197349 8.2536119
14.997154 -1.1054283 7.4801303
19.17461 0 1.3289433
18.464754 0 3.8891324
17.353332 3.8023236 7.6922677
18.231299 1.2725023 6.1036571
17.285459 2.5394009 8.1408835
17.552421 1.2563531 7.2675999
14.054465 -3.0795023 6.2299684
16.46868 -1.1494755 5.5135496
14.526704 -2.1341132 6.8416008
15.777617 -1.1293176 6.5327405
17.658217 9.2048661 -5.6889201
18.619534 6.5606132 -4.0546819
17.580048 7.8004499 -6.2188231
18.358266 9.6017593 -4.1899407
19.248854 1.2886659 -0.79643934
19.077878 3.8961452 -2.4079501
19.140252 1.2875888 -2.1305921
17.430695 5.1341715 -7.2033502
18.513807 5.2245572 -4.5976522
17.503293 6.4408062 -6.7252191
17.927782 3.8546692 -6.4237097
18.117347 6.5188353 -5.4127545
19.222648 10.085685 -0.89728243
19.017189 6.758639 -2.4973151
18.911928 9.9121102 -2.575563
18.764024 8.1733677 -3.3388569
18.63446 1.2832424 -4.7678206
18.808803 3.881122 -3.7528052
18.932766 1.2847958 -3.4643973
18.325847 2.5631978 -5.6056979
19.00722 2.586038 -2.9410314
18.420634 3.8832203 -5.1013955
12.132236 -6.3242856 -3.9086234
13.891029 -4.8945195 -3.0249794
12.609546 -5.5949863 -4.4605415
12.37533 -6.472558 -2.8244443
18.030487 -1.2070991 -0.74602829
15.826192 -3.2320755 -1.9975325
17.858881 -1.2013894 -1.9879566
13.564538 -3.9954037 -5.6056353
14.492342 -4.0897083 -3.598976
13.089148 -4.8165031 -5.0291901
14.635259 -3.1467408 -5.2439648
13.530415 -4.8684032 -4.0423588
12.624615 -6.6238475 -0.58929682
14.083077 -5.0050737 -1.8493732
12.54133 -6.5731554 -1.7079689
13.219086 -5.7580639 -2.3521946
17.073416 -1.1757428 -4.3684114
15.551205 -3.2089296 -3.1028367
17.534617 -1.1899161 -3.2085582
15.802636 -2.2102816 -4.8338722
16.653001 -2.2657334 -2.5767575
15.139772 -3.1915878 -4.1927963
17.658217 9.2048661 5.6889201
18.619534 6.5606132 4.0546819
17.580048 7.8004499 6.2188231
18.358266 9.6017593 4.1899407
19.248854 1.2886659 0.79643934
19.077878 3.8961452 2.4079501
19.140252 1.2875888 2.1305921
19.266496 2.5957721 0
17.430695 5.1341715 7.2033502
18.513807 5.2245572 4.5976522
17.503293 6.4408062 6.7252191
17.927782 3.8546692 6.4237097
18.117347 6.5188353 5.4127545
19.222648 10.085685 0.89728243
19.017189 6.758639 2.4973151
18.911928 9.9121102 2.575563
19.266496 8.4328314 0
18.764024 8.1733677 3.3388569
18.63446 1.2832424 4.7678206
18.808803 3.881122 3.7528052
18.932766 1.2847958 3.4643973
18.325847 2.5631978 5.6056979
19.00722 2.586038 2.9410314
18.420634 3.8832203 5.1013955
19.171792 5.2989529 -1.626517
19.171792 5.2989529 1.626517
19.245038 3.9393962 -0.81102697
19.237876 6.8267012 -0.84382667
19.245038 3.9393962 0.81102697
19.237876 6.8267012 0.84382667
12.132236 -6.3242856 3.9086234
13.891029 -4.8945195 3.0249794
12.609546 -5.5949863 4.4605415
12.37533 -6.472558 2.8244443
18.030487 -1.2070991 0.74602829
15.826192 -3.2320755 1.9975325
17.858881 -1.2013894 1.9879566
16.978927 -2.2875683 0
13.564538 -3.9954037 5.6056353
14.492342 -4.0897083 3.598976
13.089148 -4.8165031 5.0291901
14.635259 -3.1467408 5.2439648
13.530415 -4.8684032 4.0423588
12.624615 -6.6238475 0.58929682
14.083077 -5.0050737 1.8493732
12.54133 -6.5731554 1.7079689
13.40097 -5.8655255 0
13.219086 -5.7580639 2.3521946
17.073416 -1.1757428 4.3684114
15.551205 -3.2089296 3.1028367
17.534617 -1.1899161 3.2085582
15.802636 -2.2102816 4.8338722
16.653001 -2.2657334 2.5767575
15.139772 -3.1915878 4.1927963
15.028235 -4.1537019 -1.2749815
15.028235 -4.1537019 1.2749815
15.973283 -3.2696787 -0.67314825
14.205432 -5.0409017 -0.62308971
15.973283 -3.2696787 0.67314825
14.205432 -5.0409017 0.62308971
-7.915192 11.334885 -0.56231706
-8.958372 10.165665 -1.6536398
-7.6648139 11.487793 -1.4791037
-10.84985 7.6603448 -3.779585
-9.9301815 8.9486637 -2.7191043
-7.0593792 11.625756 -3.321412
-8.6740007 10.248745 -2.5619872
-7.3784869 11.585204 -2.4058566
-8.1829223 10.868972 -2.0277068
-14.156499 1.0826297 -8.3356701
-13.39396 3.0321147 -7.119758
-11.730747 6.2709607 -4.8547067
-12.579612 4.7434351 -5.9627967
-5.4392433 11.170317 -6.9036354
-7.1925817 9.9842812 -6.1706252
-5.8870903 11.375014 -6.0505207
-10.473213 7.6090449 -4.7026484
-8.8477508 8.8122194 -5.4462511
-10.052389 8.2868765 -4.1754747
-6.6948473 11.600426 -4.2708787
-7.6037166 10.136683 -5.3139476
-6.3082036 11.519521 -5.1657573
-7.5402926 10.929331 -3.877555
-6.7643821 10.747759 -5.6799102
-9.1616196 9.5930893 -3.1191942
-8.448267 9.5104835 -4.933616
-9.6134455 8.9507278 -3.6448126
-8.3631383 10.25923 -3.4932259
-9.2506455 8.9043376 -4.5603969
-8.0043626 10.221084 -4.4176315
-13.39993 -19.189258 -0.95196796
-15.866646 -18.004946 -2.9288487
-12.56243 -18.828194 -2.4242125
-16.902511 -11.933718 -5.8880513
-16.747528 -15.092171 -4.5858452
-10.778956 -17.751351 -5.0714592
-14.612421 -17.26527 -4.3159824
-11.664633 -18.315021 -3.8034131
-13.720559 -18.224341 -3.3999187
-15.493617 -1.1848869 -9.1229954
-16.716499 -3.7842684 -8.8859024
-16.883095 -9.0252753 -6.9869781
-16.810717 -6.3388715 -7.9683608
-7.5039719 -15.410552 -9.5242451
-10.522438 -14.606575 -9.0273598
-8.2707992 -15.980808 -8.5004032
-15.936453 -11.578223 -7.1557351
-13.44245 -13.388467 -8.2745277
-15.808495 -13.032031 -6.5663964
-9.8929588 -17.141921 -6.3110666
-11.41349 -15.215575 -7.9764527
-9.0694297 -16.561844 -7.4269119
-11.661158 -16.902349 -5.9966881
-9.8440211 -15.640921 -8.2658187
-15.225131 -15.942164 -5.1835966
-13.012979 -14.649126 -7.5993152
-15.589939 -14.515223 -5.9107224
-13.475702 -16.530915 -5.628709
-14.482007 -13.939857 -7.1393613
-12.409488 -15.846161 -6.8488332
-0.97956342 -7.5421145 -12.808801
-3.0146742 -7.0788057 -13.316919
-1.6392789 -8.4948522 -12.731829
-0.9616761 -6.5073985 -13.046893
-7.2563684 -5.6175668 -13.574096
-5.1250217 -6.4424751 -13.591581
-3.1380025 -10.624189 -12.552985
-3.7952953 -8.0665781 -13.284464
-2.3594414 -9.5216554 -12.647145
-2.7071942 -8.3026549 -13.03627
-0.93462055 -4.4829808 -13.390425
-2.9482595 -5.9644585 -13.455489
-0.94773603 -5.4823493 -13.240754
-1.950858 -6.2541161 -13.279304
-14.057151 -0.69736712 -9.8161608
-12.832119 -2.0873894 -11.308153
-15.001595 -1.9315211 -10.009271
-9.3249866 -4.6009129 -13.207592
-11.222315 -3.4099666 -12.453214
-16.037489 -4.5818186 -9.7382666
-13.64006 -3.4097502 -11.544233
-16.006929 -3.3241002 -10.194635
-14.379134 -2.6825599 -10.825618
-6.6167092 -14.735995 -10.70606
-7.7119862 -12.528569 -12.478256
-5.8852855 -14.168732 -11.680261
-8.0892202 -14.35206 -10.481412
-8.3838225 -6.6054546 -13.56531
-8.3978004 -9.7886135 -13.587926
-7.24613 -7.0504051 -13.622767
-4.0464691 -11.885188 -12.444925
-6.8376487 -11.708711 -13.180869
-5.0177601 -13.234689 -12.322336
-4.3976204 -10.528351 -12.91534
-6.4489387 -13.081503 -12.591783
-11.007405 -13.342595 -9.8920203
-9.1138348 -11.984415 -12.159974
-9.5668078 -13.889995 -10.212774
-8.6285876 -13.196335 -11.364313
-4.961825 -7.7779453 -13.477153
-7.0524263 -10.091302 -13.452938
-6.0942749 -7.4420699 -13.590094
-4.7031426 -9.1457299 -13.256343
-7.1813925 -8.5525441 -13.588926
-5.7148626 -10.354832 -13.222491
-0.91191049 -0.56359168 -13.621243
-2.7780056 -1.7169019 -13.602792
-0.9160238 -1.515758 -13.616868
-7.0322782 -4.346187 -13.490418
-4.7786539 -2.9533705 -13.562194
-6.0326799 -4.8094879 -13.595986
-0.93007049 -3.4556286 -13.505914
-2.8111163 -2.7181758 -13.623311
-0.92145378 -2.4846609 -13.578554
-1.8924899 -4.1388637 -13.530552
-1.8533872 -2.1078074 -13.622282
-3.9986994 -5.6102591 -13.575727
-3.8434128 -3.382234 -13.619566
-5.0127902 -5.2341448 -13.62257
-2.9142723 -4.8565618 -13.554065
-4.897324 -4.0663725 -13.610793
-2.868804 -3.7687544 -13.608599
-16.018657 -9.9000742 -7.8000805
-14.239464 -8.8004727 -10.257975
-16.050647 -8.5375516 -8.3069442
-14.982969 -10.942169 -8.4448179
-9.7125575 -6.0026906 -13.368522
-12.476571 -7.7109447 -12.526877
-10.788645 -5.4360305 -13.087157
-9.8809261 -7.6257842 -13.529822
-16.053244 -5.9102531 -9.2646608
-14.341262 -7.5181121 -10.757651
-16.060685 -7.2021747 -8.7949902
-15.263536 -5.4152632 -10.530519
-15.196014 -8.0306967 -9.5640069
-12.469331 -12.651994 -9.4826005
-13.122499 -9.7288442 -10.82583
-13.780306 -11.867213 -9.0104241
-11.473481 -11.976739 -10.659191
-14.039338 -10.322581 -9.6696689
-12.760781 -4.1491694 -12.186837
-13.454071 -6.9793738 -11.951399
-11.816315 -4.8117043 -12.691203
-14.439142 -4.9164689 -11.770527
-12.445323 -6.3739286 -12.929347
-14.395299 -6.2217593 -11.273285
-9.576719 -10.656552 -12.917309
-12.172324 -9.1230909 -11.996587
-9.9795236 -9.3483105 -13.57276
-10.50733 -11.310019 -11.806108
-11.270194 -8.5571257 -13.087043
-11.859082 -10.554477 -11.360768
-0.94275457 7.258706 -12.327487
-2.7182828 6.3828444 -12.00765
-1.5285959 7.9212859 -11.872186
-0.93080334 6.298491 -12.628047
-6.048527 4.6825082 -11.314653
-4.4014754 5.5329319 -11.672733
-2.6915516 9.112661 -10.767043
-3.2910554 6.994859 -11.519501
-2.1170578 8.5435033 -11.347914
-2.4289692 7.4493707 -11.696501
-0.91421015 4.3850807 -13.098003
-2.7032419 5.4687772 -12.33726
-0.92226884 5.3350297 -12.884954
-1.8340155 5.8795391 -12.483968
-13.368761 0.66321649 -9.3354555
-11.304011 1.8388135 -9.9615261
-13.095752 1.6861355 -8.7376666
-12.890956 0 -10.124749
-7.711278 3.8047152 -10.92199
-9.442961 2.8692994 -10.478695
-12.461315 3.5601261 -7.5667459
-11.132686 2.7829554 -9.4221223
-12.788431 2.6557265 -8.1448093
-12.08519 2.2546035 -9.0985763
-11.641864 -1.3230755 -11.504791
-10.781434 1.2252893 -10.654493
-12.308999 -0.66756377 -10.855294
-11.797753 0.63983696 -10.404427
-4.8701602 10.846276 -7.8800847
-5.5331582 8.9889364 -8.952838
-4.3642714 10.506914 -8.6615727
-5.7948317 10.281309 -7.5085135
-6.6347158 5.2273666 -10.735196
-6.115281 7.1280716 -9.8947325
-5.8192518 5.6620682 -10.940227
-3.284014 9.6457243 -10.099993
-5.009944 8.5789702 -9.6576203
-3.8308949 10.10425 -9.4076983
-3.591933 8.5994532 -10.549122
-4.7010411 9.5359385 -9.1789504
-7.5518259 9.1539239 -6.7865962
-6.4511035 8.4830048 -8.6072719
-6.6911305 9.7148151 -7.1429265
-6.1335277 9.380456 -8.0781855
-4.1699349 6.5366121 -11.326246
-5.3055722 7.5917323 -10.120706
-4.9947511 6.0993781 -11.138181
-3.8876753 7.5599725 -10.957856
-5.5707409 6.634369 -10.541185
-4.4657166 8.0914885 -10.332339
-0.90939574 0.56203748 -13.58368
-2.7092549 1.6744116 -13.266147
-0.90924695 1.5045443 -13.516129
-1.8272148 0 -13.562064
-6.0992469 3.7695419 -11.700531
-4.4520893 2.7515425 -12.635378
-5.2654463 4.1978193 -11.866854
-0.91437129 3.3972991 -13.277939
-2.7020723 2.612737 -13.094859
-0.91029306 2.4545665 -13.414089
-1.8173466 3.9745259 -12.993307
-1.8155662 2.0647945 -13.344299
-3.7313613 -1.1453438 -13.500192
-3.6482993 1.1198478 -13.199671
-2.7704381 -0.57036661 -13.534355
-2.747148 0.56557173 -13.420576
-3.5884151 5.0346216 -12.182797
-3.59956 3.1676416 -12.755447
-4.4259961 4.6214391 -12.027921
-2.7146057 4.5238225 -12.625431
-4.4436824 3.6897023 -12.350018
-2.7150016 3.5667039 -12.879014
-10.956339 6.7713896 -5.3350493
-10.076323 6.2275099 -7.2588874
-11.348035 6.0361702 -5.8731275
-10.113241 7.3857724 -5.700104
-7.6115437 4.7041927 -10.476652
-8.9498465 5.5313093 -8.9859328
-8.445191 4.255244 -10.244433
-7.3404534 5.6651282 -10.051186
-12.093603 4.4524494 -6.9794698
-10.37479 5.4387703 -7.7823251
-11.730175 5.2602221 -6.4235601
-11.539924 4.0941839 -7.961549
-10.892746 5.7565318 -6.8556331
-8.4363924 8.5599768 -6.415656
-9.1916087 6.8145352 -7.5829152
-9.2706345 7.9836103 -6.0617195
-7.9294967 8.2773064 -7.3667287
-9.6819015 7.1187265 -6.6684611
-10.182431 3.3108189 -9.7244549
-9.7750225 5.0708471 -8.6832599
-9.3048125 3.7889989 -9.9937468
-10.897081 3.7104114 -8.8831027
-9.1381197 4.6801295 -9.4935199
-10.641743 4.5994433 -8.3337897
-6.7685578 7.5317535 -9.1295933
-8.6133122 6.4556307 -8.4889578
-7.0584474 6.6119947 -9.5999183
-7.3686717 7.9315882 -8.2794896
-8.0056089 6.0784225 -9.2961795
-8.2852136 7.373766 -7.9370716
-8.1919921 -3.74093 -13.254922
-7.892474 -1.1814997 -12.770291
-9.1281186 -3.1899091 -12.960238
-6.9754302 -3.0438837 -13.336806
-7.1027294 3.2435107 -11.492458
-7.5235202 1.1262675 -12.173311
-7.9638172 2.7830327 -11.307145
-6.2926072 2.7459188 -12.03127
-10.850316 -1.983848 -12.095115
-8.6913533 -0.61540187 -12.368849
-10.024186 -2.5996822 -12.571289
-10.505817 -0.64021613 -11.701875
-8.9147716 -1.8586592 -12.67693
-4.7820752 -1.7669754 -13.455613
-6.7715839 -0.60244033 -12.906191
-5.8381122 -2.3848947 -13.402857
-4.721571 -0.58361828 -13.305548
-6.8859551 -1.7892467 -13.138139
-9.7756312 1.787355 -10.897137
-8.4512141 0.59839852 -12.027102
-8.8573846 2.2970829 -11.108008
-10.144612 0.61820463 -11.299549
-8.2117527 1.7120853 -11.677228
-9.4408842 0 -11.875764
-4.5781833 1.6916374 -12.88191
-6.6274782 0.58961983 -12.631535
-5.4439819 2.2238907 -12.498031
-4.6529932 0.57514159 -13.112293
-6.4698462 1.681125 -12.34422
-5.69633 0 -13.014409
-7.915192 11.334885 0.56231706
-8.958372 10.165665 1.6536398
-7.6648139 11.487793 1.4791037
-8.475449 10.791047 0
-10.84985 7.6603448 3.779585
-9.9301815 8.9486637 2.7191043
-7.0593792 11.625756 3.321412
-8.6740007 10.248745 2.5619872
-7.3784869 11.585204 2.4058566
-8.1829223 10.868972 2.0277068
-9.5450644 9.658788 -1.0977027
-9.5450644 9.658788 1.0977027
-9.0212117 10.229303 -0.55477392
-9.0212117 10.229303 0.55477392
-14.156499 1.0826297 8.3356701
-13.39396 3.0321147 7.119758
-11.730747 6.2709607 4.8547067
-12.579612 4.7434351 5.9627967
-5.4392433 11.170317 6.9036354
-7.1925817 9.9842812 6.1706252
-5.8870903 11.375014 6.0505207
-10.473213 7.6090449 4.7026484
-8.8477508 8.8122194 5.4462511
-10.052389 8.2868765 4.1754747
-6.6948473 11.600426 4.2708787
-7.6037166 10.136683 5.3139476
-6.3082036 11.519521 5.1657573
-7.5402926 10.929331 3.877555
-6.7643821 10.747759 5.6799102
-9.1616196 9.5930893 3.1191942
-8.448267 9.5104835 4.933616
-9.6134455 8.9507278 3.6448126
-8.3631383 10.25923 3.4932259
-9.2506455 8.9043376 4.5603969
-8.0043626 10.221084 4.4176315
-11.560806 7.1449712 -3.2628007
-11.868607 7.3352026 -1.0980765
-11.075886 7.8009374 -2.7261128
-11.560806 7.1449712 3.2628007
-11.868607 7.3352026 1.0980765
-11.075886 7.8009374 2.7261128
-10.080779 9.0432903 -1.6534554
-11.305739 7.9443263 -0.56250771
-10.580032 8.4363829 -2.1878999
-10.143647 9.1068562 -0.55496459
-11.228853 7.896443 -1.6463458
-10.080779 9.0432903 1.6534554
-11.305739 7.9443263 0.56250771
-10.580032 8.4363829 2.1878999
-10.143647 9.1068562 0.55496459
-11.228853 7.896443 1.6463458
-10.733599 8.5328964 0
-13.39993 -19.189258 0.95196796
-15.866646 -18.004946 2.9288487
-12.56243 -18.828194 2.4242125
-15.132193 -19.266496 0
-16.902511 -11.933718 5.8880513
-16.747528 -15.092171 4.5858452
-10.778956 -17.751351 5.0714592
-14.612421 -17.26527 4.3159824
-11.664633 -18.315021 3.8034131
-13.720559 -18.224341 3.3999187
-17.716417 -17.927497 -2.0374257
-17.716417 -17.927497 2.0374257
-16.800255 -19.05009 -1.0331587
-16.800255 -19.05009 1.0331587
-15.493617 -1.1848869 9.1229954
-16.716499 -3.7842684 8.8859024
-16.883095 -9.0252753 6.9869781
-16.810717 -6.3388715 7.9683608
-7.5039719 -15.410552 9.5242451
-10.522438 -14.606575 9.0273598
-8.2707992 -15.980808 8.5004032
-15.936453 -11.578223 7.1557351
-13.44245 -13.388467 8.2745277
-15.808495 -13.032031 6.5663964
-9.8929588 -17.141921 6.3110666
-11.41349 -15.215575 7.9764527
-9.0694297 -16.561844 7.4269119
-11.661158 -16.902349 5.9966881
-9.8440211 -15.640921 8.2658187
-15.225131 -15.942164 5.1835966
-13.012979 -14.649126 7.5993152
-15.589939 -14.515223 5.9107224
-13.475702 -16.530915 5.628709
-14.482007 -13.939857 7.1393613
-12.409488 -15.846161 6.8488332
-17.753149 -10.97205 -5.0104626
-19.058863 -11.779025 -1.7633147
-17.830826 -12.558558 -4.3887091
-17.753149 -10.97205 5.0104626
-19.058863 -11.779025 1.7633147
-17.830826 -12.558558 4.3887091
-17.915245 -16.071453 -2.9384694
-19.187705 -13.482833 -0.95466842
-17.895946 -14.27 -3.7007958
-19.019409 -17.075419 -1.0405625
-18.657697 -13.120614 -2.7355441
-17.915245 -16.071453 2.9384694
-19.187705 -13.482833 0.95466842
-17.895946 -14.27 3.7007958
-19.019409 -17.075419 1.0405625
-18.657697 -13.120614 2.7355441
-19.266496 -15.316299 0
-0.97956342 -7.5421145 12.808801
-3.0146742 -7.0788057 13.316919
-1.6392789 -8.4948522 12.731829
-0.9616761 -6.5073985 13.046893
-7.2563684 -5.6175668 13.574096
-5.1250217 -6.4424751 13.591581
-3.1380025 -10.624189 12.552985
-3.7952953 -8.0665781 13.284464
-2.3594414 -9.5216554 12.647145
-2.7071942 -8.3026549 13.03627
-0.93462055 -4.4829808 13.390425
-2.9482595 -5.9644585 13.455489
-0.94773603 -5.4823493 13.240754
-1.950858 -6.2541161 13.279304
-14.057151 -0.69736712 9.8161608
-12.832119 -2.0873894 11.308153
-15.001595 -1.9315211 10.009271
-9.3249866 -4.6009129 13.207592
-11.222315 -3.4099666 12.453214
-16.037489 -4.5818186 9.7382666
-13.64006 -3.4097502 11.544233
-16.006929 -3.3241002 10.194635
-14.379134 -2.6825599 10.825618
-6.6167092 -14.735995 10.70606
-7.7119862 -12.528569 12.478256
-5.8852855 -14.168732 11.680261
-8.0892202 -14.35206 10.481412
-8.3838225 -6.6054546 13.56531
-8.3978004 -9.7886135 13.587926
-7.24613 -7.0504051 13.622767
-4.0464691 -11.885188 12.444925
-6.8376487 -11.708711 13.180869
-5.0177601 -13.234689 12.322336
-4.3976204 -10.528351 12.91534
-6.4489387 -13.081503 12.591783
-11.007405 -13.342595 9.8920203
-9.1138348 -11.984415 12.159974
-9.5668078 -13.889995 10.212774
-8.6285876 -13.196335 11.364313
-4.961825 -7.7779453 13.477153
-7.0524263 -10.091302 13.452938
-6.0942749 -7.4420699 13.590094
-4.7031426 -9.1457299 13.256343
-7.1813925 -8.5525441 13.588926
-5.7148626 -10.354832 13.222491
-0.91191049 -0.56359168 13.621243
-2.7780056 -1.7169019 13.602792
-0.9160238 -1.515758 13.616868
-7.0322782 -4.346187 13.490418
-4.7786539 -2.9533705 13.562194
-6.0326799 -4.8094879 13.595986
-0.93007049 -3.4556286 13.505914
-2.8111163 -2.7181758 13.623311
-0.92145378 -2.4846609 13.578554
-1.8924899 -4.1388637 13.530552
-1.8533872 -2.1078074 13.622282
-3.9986994 -5.6102591 13.575727
-3.8434128 -3.382234 13.619566
-5.0127902 -5.2341448 13.62257
-2.9142723 -4.8565618 13.554065
-4.897324 -4.0663725 13.610793
-2.868804 -3.7687544 13.608599
-16.018657 -9.9000742 7.8000805
-14.239464 -8.8004727 10.257975
-16.050647 -8.5375516 8.3069442
-14.982969 -10.942169 8.4448179
-9.7125575 -6.0026906 13.368522
-12.476571 -7.7109447 12.526877
-10.788645 -5.4360305 13.087157
-9.8809261 -7.6257842 13.529822
-16.053244 -5.9102531 9.2646608
-14.341262 -7.5181121 10.757651
-16.060685 -7.2021747 8.7949902
-15.263536 -5.4152632 10.530519
-15.196014 -8.0306967 9.5640069
-12.469331 -12.651994 9.4826005
-13.122499 -9.7288442 10.82583
-13.780306 -11.867213 9.0104241
-11.473481 -11.976739 10.659191
-14.039338 -10.322581 9.6696689
-12.760781 -4.1491694 12.186837
-13.454071 -6.9793738 11.951399
-11.816315 -4.8117043 12.691203
-14.439142 -4.9164689 11.770527
-12.445323 -6.3739286 12.929347
-14.395299 -6.2217593 11.273285
-9.576719 -10.656552 12.917309
-12.172324 -9.1230909 11.996587
-9.9795236 -9.3483105 13.57276
-10.50733 -11.310019 11.806108
-11.270194 -8.5571257 13.087043
-11.859082 -10.554477 11.360768
-0.94275457 7.258706 12.327487
-2.7182828 6.3828444 12.00765
-1.5285959 7.9212859 11.872186
-0.93080334 6.298491 12.628047
-6.048527 4.6825082 11.314653
-4.4014754 5.5329319 11.672733
-2.6915516 9.112661 10.767043
-3.2910554 6.994859 11.519501
-2.1170578 8.5435033 11.347914
-2.4289692 7.4493707 11.696501
-0.91421015 4.3850807 13.098003
-2.7032419 5.4687772 12.33726
-0.92226884 5.3350297 12.884954
-1.8340155 5.8795391 12.483968
-13.368761 0.66321649 9.3354555
-11.304011 1.8388135 9.9615261
-13.095752 1.6861355 8.7376666
-12.890956 0 10.124749
-7.711278 3.8047152 10.92199
-9.442961 2.8692994 10.478695
-12.461315 3.5601261 7.5667459
-11.132686 2.7829554 9.4221223
-12.788431 2.6557265 8.1448093
-12.08519 2.2546035 9.0985763
-11.641864 -1.3230755 11.504791
-10.781434 1.2252893 10.654493
-12.308999 -0.66756377 10.855294
-11.797753 0.63983696 10.404427
-4.8701602 10.846276 7.8800847
-5.5331582 8.9889364 8.952838
-4.3642714 10.506914 8.6615727
-5.7948317 10.281309 7.5085135
-6.6347158 5.2273666 10.735196
-6.115281 7.1280716 9.8947325
-5.8192518 5.6620682 10.940227
-3.284014 9.6457243 10.099993
-5.009944 8.5789702 9.6576203
-3.8308949 10.10425 9.4076983
-3.591933 8.5994532 10.549122
-4.7010411 9.5359385 9.1789504
-7.5518259 9.1539239 6.7865962
-6.4511035 8.4830048 8.6072719
-6.6911305 9.7148151 7.1429265
-6.1335277 9.380456 8.0781855
-4.1699349 6.5366121 11.326246
-5.3055722 7.5917323 10.120706
-4.9947511 6.0993781 11.138181
-3.8876753 7.5599725 10.957856
-5.5707409 6.634369 10.541185
-4.4657166 8.0914885 10.332339
-0.90939574 0.56203748 13.58368
-2.7092549 1.6744116 13.266147
-0.90924695 1.5045443 13.516129
-1.8272148 0 13.562064
-6.0992469 3.7695419 11.700531
-4.4520893 2.7515425 12.635378
-5.2654463 4.1978193 11.866854
-0.91437129 3.3972991 13.277939
-2.7020723 2.612737 13.094859
-0.91029306 2.4545665 13.414089
-1.8173466 3.9745259 12.993307
-1.8155662 2.0647945 13.344299
-3.7313613 -1.1453438 13.500192
-3.6482993 1.1198478 13.199671
