-14.75637617 3.039980674 -33.7139023
-17.30856425 22.03747828 2.279713328
-24.01602184 19.20975661 7.505243662
-15.77926779 21.89477133 5.884175193
-20.8682823 21.11691503 0
-33.38116623 5.063560077 18.69658747
-31.46801457 14.30429955 13.98454632
-12.26070394 20.46919879 12.65066058
-21.85612023 18.59192634 11.49044239
-14.05061948 21.32827083 9.4234849
-18.79547252 20.38925382 8.593518654
-29.13412071 18.00587683 -5.42454243
-29.13412071 18.00587683 5.42454243
-24.88898977 19.7860166 -2.588473983
-24.88898977 19.7860166 2.588473983
-17.64561815 -22.46661947 2.324106741
-22.16985036 -17.73305472 6.928296867
-15.77319325 -21.88634252 5.881909967
-20.89122463 -21.14013071 0
-28.89589828 -4.383193682 16.18441626
-25.60840627 -11.64071898 11.38050648
-11.77790186 -19.66316255 12.15250278
-19.75741873 -16.80666422 10.38708972
-13.71578004 -20.81999813 9.198914415
-17.93725396 -19.45826174 8.20113069
-26.02913105 -16.08688769 -4.846417958
-26.02913105 -16.08688769 4.846417958
-23.78697049 -18.9099436 -2.473863135
-23.78697049 -18.9099436 2.473863135
-3.712409508 -13.70762626 24.47380045
-11.08335156 -10.83559825 24.38225424
-5.736446562 -15.38311207 21.34507923
-4.006245085 -10.90082637 28.12639336
-26.27262083 -2.717826563 20.6349084
-18.4524711 -7.209372537 23.06926412
-24.83816383 -6.675205932 17.90053125
-9.575312377 -18.21332646 15.49318088
-12.95526293 -12.55591693 20.96205576
-7.722058005 -16.88944132 18.32159875
-13.4902423 -16.99047203 14.82721109
-9.415616811 -14.03888799 21.31046291
-4.913011528 -3.036408112 36.46564921
-12.04007216 -7.441173821 27.77869823
-4.442286232 -7.363540947 32.32858241
-8.116783853 -9.259420387 28.1614604
-21.69284869 -13.4069178 12.99364953
-17.16902498 -10.61104099 20.18339936
-23.24928338 -10.27224723 15.31614244
-17.60284145 -15.36161241 13.97645668
-20.84909796 -8.787330516 19.21937171
-15.30705995 -13.92682321 17.54032989
-3.837518804 14.16957731 25.29857475
-12.40159274 12.12437194 27.28225172
-5.996749778 16.08115284 22.31365668
-4.177137318 11.36581703 29.32616574
-28.81805108 2.981143954 22.6341273
-22.01694147 8.602009582 27.52556203
-30.34709596 8.155720218 21.87074468
-24.77752707 0 24.48579391
-10.05913762 19.13361677 16.27602657
-14.59531815 14.14541744 23.61572084
-8.117371991 17.75405959 19.2595332
-14.60614907 18.39591623 16.05371132
-10.19932003 15.20740641 23.0842265
-5.086360033 3.143543379 37.75228689
-13.65699583 8.440487609 31.50924355
-4.667753183 7.737275335 33.96941024
-9.899812795 0 35.81785917
-8.861666698 10.10916377 30.74585702
-25.6620342 15.86000936 15.37112454
-20.31739737 12.55684214 23.88453308
-28.75173459 12.70339911 18.9410424
-19.84561204 17.31882895 15.75719112
-25.50920298 10.75143866 23.51520698
-17.34692737 15.78275591 19.87780997
-16.64298829 -5.013951666 26.92892073
-19.03240491 5.733799521 30.79507802
-20.59513109 -2.694325093 25.90678142
-13.71037031 -2.824491616 31.32409203
-22.45478072 2.937610782 28.24604967
-14.75637617 3.039980674 33.7139023
-33.65142933 0 -14.83370482
-38.51790769 0 -5.364926423
-36.70992247 5.22885905 -14.22750815
-31.90909096 -4.545041988 -12.36687034
-33.65142933 0 14.83370482
-38.51790769 0 5.364926423
-36.70992247 5.22885905 14.22750815
-31.90909096 -4.545041988 12.36687034
-34.30665526 14.86947305 -9.189839742
-40.83431614 5.501601378 -3.400176644
-37.29234961 10.74851719 -12.26163478
-35.54790797 15.55910963 -3.205352862
-39.38542413 5.411970286 -8.970890825
-28.25579624 -12.2468599 -7.568975677
-36.29680713 -4.89026346 -3.022349032
-30.0481358 -8.660567313 -9.879754715
-30.06501217 -13.15927848 -2.710960457
-34.60270217 -4.754774134 -7.881521406
-34.30665526 14.86947305 9.189839742
-40.83431614 5.501601378 3.400176644
-37.29234961 10.74851719 12.26163478
-35.54790797 15.55910963 3.205352862
-39.38542413 5.411970286 8.970890825
-40.44226307 11.1779666 0
-28.25579624 -12.2468599 7.568975677
-36.29680713 -4.89026346 3.022349032
-30.0481358 -8.660567313 9.879754715
-30.06501217 -13.15927848 2.710960457
-34.60270217 -4.754774134 7.881521406
-33.61656365 -9.291389677 0
-12.34614234 23.46338388 0
-8.76452152 24.31320615 0
-1.76726821 25.49896476 0
-5.266304079 25.00326577 0
12.85913586 24.43830897 0
9.107175012 25.26374349 0
1.784448844 25.74685491 0
5.41016937 25.68630686 0
-12.85913586 -24.43830897 0
-9.107175012 -25.26374349 0
-1.784448844 -25.74685491 0
-5.41016937 -25.68630686 0
12.34614234 -23.46338388 0
8.76452152 -24.31320615 0
1.76726821 -25.49896476 0
5.266304079 -25.00326577 0
-14.08543867 -23.92135287 1.829404804
-12.42908088 -23.38206109 5.29321337
-12.20538253 -24.47096421 1.803735345
-8.780367544 -21.2165799 11.34184673
-10.60849503 -22.3805634 8.439111721
-8.453386062 -25.2498148 1.762378345
-10.5994862 -23.91185639 5.239375195
-10.31591158 -24.91458332 1.78331598
-11.43266005 -24.27485584 3.56621083
-1.113597882 -15.67503766 22.44730661
-3.184757383 -17.25299656 19.57813176
-6.960109226 -19.98000951 14.10653196
-5.112309975 -18.67017973 16.8247841
-1.060665566 -25.63484172 1.716192937
-3.153262311 -24.98289045 5.102085594
-2.857743243 -25.67264114 1.727030832
-6.989807478 -21.69612728 11.30974607
-5.139470964 -23.601001 8.315838703
-7.888200931 -22.29922794 9.894398821
-6.522259129 -25.49147415 1.755443474
-4.962739851 -24.87291244 5.132427004
-4.68932874 -25.62695789 1.739070149
-7.658043499 -25.03526586 3.501630082
-3.926866667 -25.3784501 3.452879301
-9.679329842 -23.42208016 6.898920267
-5.997333848 -24.15003963 6.81509012
-8.791921312 -22.88216531 8.420106485
-8.71750132 -24.32947127 5.231102482
-6.95832953 -23.29063139 8.380244119
-6.826721554 -24.65061556 5.196551348
13.59034478 -23.08053307 1.76510243
12.19830782 -22.94792201 5.194933292
11.74615912 -23.55025243 1.73587041
8.93176385 -21.58240875 11.53740958
10.62920961 -22.42426461 8.455590277
8.161560838 -24.37814836 1.701538055
10.36835496 -23.39043707 5.125125953
9.931213259 -23.98547508 1.716813018
11.07934676 -23.52466918 3.456001163
1.123149554 -15.80948729 22.63984408
3.250271139 -17.60790855 19.9808742
0 -16.65422079 21.20436008
7.135295415 -20.48290703 14.46159385
5.245752381 -19.15751201 17.26394754
-2.093685807 -18.20562665 18.42253548
2.118456442 -18.42101949 18.6404946
-1.073440027 -17.45527227 19.79282457
1.080724595 -17.57372707 19.92714245
1.054769327 -25.49233764 1.706652621
3.117522241 -24.69972649 5.044256947
2.816231134 -25.29971559 1.701943661
0 -25.33609167 3.413527886
7.064201391 -21.92704349 11.43011795
5.109864971 -23.46504711 8.267935201
7.926564968 -22.40767958 9.942519943
6.330736089 -24.74292913 1.703895711
4.880447693 -24.46046978 5.047321093
4.583064626 -25.04622958 1.699661364
7.442169907 -24.32954347 3.402922173
3.859576701 -24.94357029 3.393711483
-2.075166436 -24.46003212 6.760586606
2.063979151 -24.32816736 6.72414008
-1.052954953 -24.9858004 5.114511418
1.048804894 -24.88732274 5.094353364
9.565867902 -23.14752451 6.818050528
5.922656655 -23.84932982 6.730230445
8.767827843 -22.81945879 8.397031941
8.524253851 -23.79014141 5.115140663
6.922001784 -23.16903667 8.336492903
6.688067543 -24.14994965 5.09100688
-5.913911067 -20.95426205 12.95044615
-1.979143187 -21.39165489 13.2207698
-4.999274198 -20.31148211 14.30572671
-5.015839149 -21.97694786 11.49440619
6.003323393 -21.2710692 13.14624374
1.987932966 -21.4866596 13.27948594
5.083749907 -20.6546973 14.54745908
5.048668775 -22.12079118 11.56963928
-3.109317945 -18.95687396 17.00588007
-1.030358933 -20.70899503 14.55181412
-4.06198589 -19.64255379 15.6627225
-1.046615682 -19.13004965 17.17475093
-3.013818853 -20.55566254 14.45531618
-3.117447843 -23.73953349 8.436942885
-1.040118419 -22.28264952 11.69119793
-4.077925198 -22.91750958 9.982572716
-1.044413758 -23.81093534 8.449484795
-3.019808329 -22.17394732 11.62179819
3.156791825 -19.24631247 17.2655303
1.03366715 -20.77548627 14.59853624
4.13077079 -19.97517708 15.92795208
1.051881814 -19.22630405 17.26116708
3.042985473 -20.75459261 14.59520936
0 -19.99206445 15.89310465
3.1050024 -23.64476076 8.403261007
1.041276157 -22.30745196 11.7042112
4.07809946 -22.91848891 9.9829993
1.042884509 -23.77607095 8.437112912
3.030298023 -22.25097138 11.662168
0 -23.0835791 10.10354641
-13.59034478 23.08053307 1.76510243
-12.19830782 22.94792201 5.194933292
-11.74615912 23.55025243 1.73587041
-8.93176385 21.58240875 11.53740958
-10.62920961 22.42426461 8.455590277
-8.161560838 24.37814836 1.701538055
-10.36835496 23.39043707 5.125125953
-9.931213259 23.98547508 1.716813018
-11.07934676 23.52466918 3.456001163
-1.123149554 15.80948729 22.63984408
-3.250271139 17.60790855 19.9808742
-7.135295415 20.48290703 14.46159385
-5.245752381 19.15751201 17.26394754
-1.054769327 25.49233764 1.706652621
-3.117522241 24.69972649 5.044256947
-2.816231134 25.29971559 1.701943661
-7.064201391 21.92704349 11.43011795
-5.109864971 23.46504711 8.267935201
-7.926564968 22.40767958 9.942519943
-6.330736089 24.74292913 1.703895711
-4.880447693 24.46046978 5.047321093
-4.583064626 25.04622958 1.699661364
-7.442169907 24.32954347 3.402922173
-3.859576701 24.94357029 3.393711483
-9.565867902 23.14752451 6.818050528
-5.922656655 23.84932982 6.730230445
-8.767827843 22.81945879 8.397031941
-8.524253851 23.79014141 5.115140663
-6.922001784 23.16903667 8.336492903
-6.688067543 24.14994965 5.09100688
14.08543867 23.92135287 1.829404804
12.42908088 23.38206109 5.29321337
12.20538253 24.47096421 1.803735345
8.780367544 21.2165799 11.34184673
10.60849503 22.3805634 8.439111721
8.453386062 25.2498148 1.762378345
10.5994862 23.91185639 5.239375195
10.31591158 24.91458332 1.78331598
11.43266005 24.27485584 3.56621083
1.113597882 15.67503766 22.44730661
3.184757383 17.25299656 19.57813176
0 16.65422079 21.20436008
6.960109226 19.98000951 14.10653196
5.112309975 18.67017973 16.8247841
-2.118456442 18.42101949 18.6404946
2.093685807 18.20562665 18.42253548
-1.080724595 17.57372707 19.92714245
1.073440027 17.45527227 19.79282457
1.060665566 25.63484172 1.716192937
3.153262311 24.98289045 5.102085594
2.857743243 25.67264114 1.727030832
0 25.33609167 3.413527886
6.989807478 21.69612728 11.30974607
5.139470964 23.601001 8.315838703
7.888200931 22.29922794 9.894398821
6.522259129 25.49147415 1.755443474
4.962739851 24.87291244 5.132427004
4.68932874 25.62695789 1.739070149
7.658043499 25.03526586 3.501630082
3.926866667 25.3784501 3.452879301
-2.063979151 24.32816736 6.72414008
2.075166436 24.46003212 6.760586606
-1.048804894 24.88732274 5.094353364
1.052954953 24.9858004 5.114511418
9.679329842 23.42208016 6.898920267
5.997333848 24.15003963 6.81509012
8.791921312 22.88216531 8.420106485
8.71750132 24.32947127 5.231102482
6.95832953 23.29063139 8.380244119
6.826721554 24.65061556 5.196551348
-6.003323393 21.2710692 13.14624374
-1.987932966 21.4866596 13.27948594
-5.083749907 20.6546973 14.54745908
-5.048668775 22.12079118 11.56963928
5.913911067 20.95426205 12.95044615
1.979143187 21.39165489 13.2207698
4.999274198 20.31148211 14.30572671
5.015839149 21.97694786 11.49440619
-3.156791825 19.24631247 17.2655303
-1.03366715 20.77548627 14.59853624
-4.13077079 19.97517708 15.92795208
-1.051881814 19.22630405 17.26116708
-3.042985473 20.75459261 14.59520936
-3.1050024 23.64476076 8.403261007
-1.041276157 22.30745196 11.7042112
-4.07809946 22.91848891 9.9829993
-1.042884509 23.77607095 8.437112912
-3.030298023 22.25097138 11.662168
3.109317945 18.95687396 17.00588007
1.030358933 20.70899503 14.55181412
4.06198589 19.64255379 15.6627225
1.046615682 19.13004965 17.17475093
3.013818853 20.55566254 14.45531618
0 19.99206445 15.89310465
3.117447843 23.73953349 8.436942885
1.040118419 22.28264952 11.69119793
4.077925198 22.91750958 9.982572716
1.044413758 23.81093534 8.449484795
3.019808329 22.17394732 11.62179819
0 23.0835791 10.10354641
0 -13.55011999 25.75149859
0 -10.69728671 29.67479016
0 -2.643273375 38.13837325
0 -7.176382216 34.07190111
0 13.55011999 25.75149859
0 10.69728671 29.67479016
0 2.643273375 38.13837325
0 7.176382216 34.07190111
-14.08543867 -23.92135287 -1.829404804
-12.42908088 -23.38206109 -5.29321337
-12.20538253 -24.47096421 -1.803735345
-8.780367544 -21.2165799 -11.34184673
-10.60849503 -22.3805634 -8.439111721
-8.453386062 -25.2498148 -1.762378345
-10.5994862 -23.91185639 -5.239375195
-10.31591158 -24.91458332 -1.78331598
-11.43266005 -24.27485584 -3.56621083
-1.113597882 -15.67503766 -22.44730661
-3.184757383 -17.25299656 -19.57813176
-6.960109226 -19.98000951 -14.10653196
-5.112309975 -18.67017973 -16.8247841
-1.060665566 -25.63484172 -1.716192937
-3.153262311 -24.98289045 -5.102085594
-2.857743243 -25.67264114 -1.727030832
-6.989807478 -21.69612728 -11.30974607
-5.139470964 -23.601001 -8.315838703
-7.888200931 -22.29922794 -9.894398821
-6.522259129 -25.49147415 -1.755443474
-4.962739851 -24.87291244 -5.132427004
-4.68932874 -25.62695789 -1.739070149
-7.658043499 -25.03526586 -3.501630082
-3.926866667 -25.3784501 -3.452879301
-9.679329842 -23.42208016 -6.898920267
-5.997333848 -24.15003963 -6.81509012
-8.791921312 -22.88216531 -8.420106485
-8.71750132 -24.32947127 -5.231102482
-6.95832953 -23.29063139 -8.380244119
-6.826721554 -24.65061556 -5.196551348
13.59034478 -23.08053307 -1.76510243
12.19830782 -22.94792201 -5.194933292
11.74615912 -23.55025243 -1.73587041
8.93176385 -21.58240875 -11.53740958
10.62920961 -22.42426461 -8.455590277
8.161560838 -24.37814836 -1.701538055
10.36835496 -23.39043707 -5.125125953
9.931213259 -23.98547508 -1.716813018
11.07934676 -23.52466918 -3.456001163
1.123149554 -15.80948729 -22.63984408
3.250271139 -17.60790855 -19.9808742
0 -16.65422079 -21.20436008
7.135295415 -20.48290703 -14.46159385
5.245752381 -19.15751201 -17.26394754
-2.093685807 -18.20562665 -18.42253548
2.118456442 -18.42101949 -18.6404946
-1.073440027 -17.45527227 -19.79282457
1.080724595 -17.57372707 -19.92714245
1.054769327 -25.49233764 -1.706652621
3.117522241 -24.69972649 -5.044256947
2.816231134 -25.29971559 -1.701943661
0 -25.33609167 -3.413527886
7.064201391 -21.92704349 -11.43011795
5.109864971 -23.46504711 -8.267935201
7.926564968 -22.40767958 -9.942519943
6.330736089 -24.74292913 -1.703895711
4.880447693 -24.46046978 -5.047321093
4.583064626 -25.04622958 -1.699661364
7.442169907 -24.32954347 -3.402922173
3.859576701 -24.94357029 -3.393711483
-2.075166436 -24.46003212 -6.760586606
2.063979151 -24.32816736 -6.72414008
-1.052954953 -24.9858004 -5.114511418
1.048804894 -24.88732274 -5.094353364
9.565867902 -23.14752451 -6.818050528
5.922656655 -23.84932982 -6.730230445
8.767827843 -22.81945879 -8.397031941
8.524253851 -23.79014141 -5.115140663
6.922001784 -23.16903667 -8.336492903
6.688067543 -24.14994965 -5.09100688
-5.913911067 -20.95426205 -12.95044615
-1.979143187 -21.39165489 -13.2207698
-4.999274198 -20.31148211 -14.30572671
-5.015839149 -21.97694786 -11.49440619
6.003323393 -21.2710692 -13.14624374
1.987932966 -21.4866596 -13.27948594
5.083749907 -20.6546973 -14.54745908
5.048668775 -22.12079118 -11.56963928
-3.109317945 -18.95687396 -17.00588007
-1.030358933 -20.70899503 -14.55181412
-4.06198589 -19.64255379 -15.6627225
-1.046615682 -19.13004965 -17.17475093
-3.013818853 -20.55566254 -14.45531618
-3.117447843 -23.73953349 -8.436942885
-1.040118419 -22.28264952 -11.69119793
-4.077925198 -22.91750958 -9.982572716
-1.044413758 -23.81093534 -8.449484795
-3.019808329 -22.17394732 -11.62179819
3.156791825 -19.24631247 -17.2655303
1.03366715 -20.77548627 -14.59853624
4.13077079 -19.97517708 -15.92795208
1.051881814 -19.22630405 -17.26116708
3.042985473 -20.75459261 -14.59520936
0 -19.99206445 -15.89310465
3.1050024 -23.64476076 -8.403261007
1.041276157 -22.30745196 -11.7042112
4.07809946 -22.91848891 -9.9829993
1.042884509 -23.77607095 -8.437112912
3.030298023 -22.25097138 -11.662168
0 -23.0835791 -10.10354641
-13.59034478 23.08053307 -1.76510243
-12.19830782 22.94792201 -5.194933292
-11.74615912 23.55025243 -1.73587041
-8.93176385 21.58240875 -11.53740958
-10.62920961 22.42426461 -8.455590277
-8.161560838 24.37814836 -1.701538055
-10.36835496 23.39043707 -5.125125953
-9.931213259 23.98547508 -1.716813018
-11.07934676 23.52466918 -3.456001163
-1.123149554 15.80948729 -22.63984408
-3.250271139 17.60790855 -19.9808742
-7.135295415 20.48290703 -14.46159385
-5.245752381 19.15751201 -17.26394754
-1.054769327 25.49233764 -1.706652621
-3.117522241 24.69972649 -5.044256947
-2.816231134 25.29971559 -1.701943661
-7.064201391 21.92704349 -11.43011795
-5.109864971 23.46504711 -8.267935201
-7.926564968 22.40767958 -9.942519943
-6.330736089 24.74292913 -1.703895711
-4.880447693 24.46046978 -5.047321093
-4.583064626 25.04622958 -1.699661364
-7.442169907 24.32954347 -3.402922173
-3.859576701 24.94357029 -3.393711483
-9.565867902 23.14752451 -6.818050528
-5.922656655 23.84932982 -6.730230445
-8.767827843 22.81945879 -8.397031941
-8.524253851 23.79014141 -5.115140663
-6.922001784 23.16903667 -8.336492903
-6.688067543 24.14994965 -5.09100688
14.08543867 23.92135287 -1.829404804
12.42908088 23.38206109 -5.29321337
12.20538253 24.47096421 -1.803735345
8.780367544 21.2165799 -11.34184673
10.60849503 22.3805634 -8.439111721
8.453386062 25.2498148 -1.762378345
10.5994862 23.91185639 -5.239375195
10.31591158 24.91458332 -1.78331598
11.43266005 24.27485584 -3.56621083
1.113597882 15.67503766 -22.44730661
3.184757383 17.25299656 -19.57813176
0 16.65422079 -21.20436008
6.960109226 19.98000951 -14.10653196
5.112309975 18.67017973 -16.8247841
-2.118456442 18.42101949 -18.6404946
2.093685807 18.20562665 -18.42253548
-1.080724595 17.57372707 -19.92714245
1.073440027 17.45527227 -19.79282457
1.060665566 25.63484172 -1.716192937
3.153262311 24.98289045 -5.102085594
2.857743243 25.67264114 -1.727030832
0 25.33609167 -3.413527886
6.989807478 21.69612728 -11.30974607
5.139470964 23.601001 -8.315838703
7.888200931 22.29922794 -9.894398821
6.522259129 25.49147415 -1.755443474
4.962739851 24.87291244 -5.132427004
4.68932874 25.62695789 -1.739070149
7.658043499 25.03526586 -3.501630082
3.926866667 25.3784501 -3.452879301
-2.063979151 24.32816736 -6.72414008
2.075166436 24.46003212 -6.760586606
-1.048804894 24.88732274 -5.094353364
1.052954953 24.9858004 -5.114511418
9.679329842 23.42208016 -6.898920267
5.997333848 24.15003963 -6.81509012
8.791921312 22.88216531 -8.420106485
8.71750132 24.32947127 -5.231102482
6.95832953 23.29063139 -8.380244119
6.826721554 24.65061556 -5.196551348
-6.003323393 21.2710692 -13.14624374
-1.987932966 21.4866596 -13.27948594
-5.083749907 20.6546973 -14.54745908
-5.048668775 22.12079118 -11.56963928
5.913911067 20.95426205 -12.95044615
1.979143187 21.39165489 -13.2207698
4.999274198 20.31148211 -14.30572671
5.015839149 21.97694786 -11.49440619
-3.156791825 19.24631247 -17.2655303
-1.03366715 20.77548627 -14.59853624
-4.13077079 19.97517708 -15.92795208
-1.051881814 19.22630405 -17.26116708
-3.042985473 20.75459261 -14.59520936
-3.1050024 23.64476076 -8.403261007
-1.041276157 22.30745196 -11.7042112
-4.07809946 22.91848891 -9.9829993
-1.042884509 23.77607095 -8.437112912
-3.030298023 22.25097138 -11.662168
3.109317945 18.95687396 -17.00588007
1.030358933 20.70899503 -14.55181412
4.06198589 19.64255379 -15.6627225
1.046615682 19.13004965 -17.17475093
3.013818853 20.55566254 -14.45531618
0 19.99206445 -15.89310465
3.117447843 23.73953349 -8.436942885
1.040118419 22.28264952 -11.69119793
4.077925198 22.91750958 -9.982572716
1.044413758 23.81093534 -8.449484795
3.019808329 22.17394732 -11.62179819
0 23.0835791 -10.10354641
0 -13.55011999 -25.75149859
0 -10.69728671 -29.67479016
0 -2.643273375 -38.13837325
0 -7.176382216 -34.07190111
0 13.55011999 -25.75149859
0 10.69728671 -29.67479016
0 2.643273375 -38.13837325
0 7.176382216 -34.07190111
16.24189228 23.25906602 -1.153868796
18.93968983 21.49213569 -3.49610671
15.46665755 23.18096216 -2.984650508
23.0824808 16.29697689 -8.040866424
21.18897003 19.09461244 -5.802010717
13.63571741 22.45601556 -6.415554891
17.93657486 21.19291682 -5.297817778
14.57574109 22.8858476 -4.752619803
16.75835671 22.25929776 -4.152677095
29.69178113 2.270702972 -17.48319857
28.07523537 6.355650628 -14.92380718
24.7852442 13.24956437 -10.25724008
26.42807906 9.965321596 -12.52703698
9.823953782 20.17498939 -12.46882917
13.73962374 19.07246574 -11.78743208
10.75108181 20.77320048 -11.04954053
21.83307761 15.86226417 -9.803418393
17.72075491 17.64959066 -10.90804692
20.96543283 17.2832494 -8.708440585
12.64825422 21.91612978 -8.06876646
14.73561422 19.64437312 -10.29815888
11.69707197 21.36022728 -9.578675398
14.74895431 21.37797665 -7.584570698
12.74280034 20.24671984 -10.69986304
19.05048473 19.94767392 -6.485988731
16.82094756 18.93587694 -9.823091067
20.03932225 18.65788075 -7.597647917
16.89285731 20.72280762 -7.056031338
18.86830396 18.16194857 -9.301724493
15.8117742 20.19067417 -8.726565213
15.74289755 -22.54448479 -1.118418836
18.90958102 -21.45796921 -3.490548878
15.06889142 -22.58480221 -2.907892301
25.84265348 -18.24574793 -9.002382647
22.25468322 -20.05498853 -6.093826663
13.56685862 -22.34261529 -6.383157085
18.0978248 -21.3834413 -5.345445198
14.33891012 -22.51399155 -4.675397824
16.57600324 -22.01708665 -4.10749038
32.0421738 -2.450451152 -18.86716343
34.13296151 -7.726994106 -18.14388123
29.63255264 -15.8408128 -12.26327263
33.03518149 -12.45668316 -15.6588354
10.12514673 -20.7935351 -12.85111144
14.47315292 -20.09070398 -12.41673792
11.01505007 -21.28323897 -11.32083676
24.67783033 -17.9290465 -11.08076012
19.23803837 -19.1607809 -11.84201385
22.97534537 -18.94015867 -9.543300716
12.73190849 -22.06108084 -8.122132463
15.39908818 -20.52886492 -10.76183553
11.8892573 -21.71118027 -9.736055034
14.94037643 -21.6554348 -7.683008498
13.17309744 -20.93040823 -11.06117452
19.71291007 -20.64129641 -6.711520174
17.81689774 -20.05704981 -10.4047057
21.31270801 -19.8434837 -8.080435535
17.26727033 -21.18210759 -7.212421102
20.2984913 -19.5385953 -10.00678037
16.3600506 -20.89078979 -9.029160588
1.885288057 -14.51570983 -24.65208398
5.860531077 -13.76120887 -25.88811107
2.993507626 -15.51255573 -23.24975297
1.955124775 -13.22979329 -26.52483832
14.75020128 -11.41896833 -27.5924046
10.1377386 -12.74377601 -26.88532976
5.107394429 -17.2918674 -20.43116427
6.943008415 -14.7567751 -24.30223226
4.073804667 -16.44006269 -21.83652353
4.943600878 -15.16145819 -23.80550117
2.138935029 -10.25956975 -30.64478946
6.114838496 -12.37058692 -27.90736195
2.042064063 -11.81268634 -28.52953476
4.003558837 -12.83472272 -27.25184187
29.7144385 -1.474116087 -20.74970288
27.64891541 -4.497624623 -24.36527898
31.13786791 -4.009137008 -20.77561478
19.62070253 -9.680780016 -27.79009215
24.22998793 -7.362424878 -26.88760978
32.27642191 -9.221188678 -19.59885389
28.28413268 -7.070484077 -23.93820857
32.09648712 -6.665359437 -20.44189467
29.90694747 -5.579416614 -22.51604247
9.040013853 -20.13290835 -14.62704967
11.11324856 -18.05411688 -17.9816139
8.106425803 -19.51609177 -16.08845781
11.18106609 -19.8376762 -14.48759692
15.87737708 -12.50948397 -25.69013576
13.37205395 -15.58668493 -21.63643779
13.53450861 -13.16892852 -25.44495494
6.16585204 -18.1101872 -18.96309275
10.12850868 -17.34394115 -19.5246275
7.142382618 -18.83852852 -17.53986558
7.079225183 -16.94838574 -20.79092546
9.104965029 -18.46918255 -17.7777687
15.72486031 -19.06084397 -14.13145358
13.43601433 -17.66794995 -17.92676694
13.41547219 -19.47784922 -14.32130669
12.28819446 -18.79324154 -16.18421224
9.111087527 -14.28215227 -24.74724949
11.23148864 -16.07111385 -21.4247572
11.26764988 -13.75957594 -25.12660178
8.060996875 -15.67541253 -22.7208381
12.35066327 -14.70878978 -23.37043176
9.128636744 -16.5402927 -21.120948
2.583961406 -1.596975975 -38.59673362
7.453765 -4.606680114 -36.49813218
2.512702496 -4.157805667 -37.35179956
15.46524575 -9.558047519 -29.66785798
11.72986118 -7.249452894 -33.29026396
13.05779391 -10.41018297 -29.42864221
2.27140111 -8.439272951 -32.9838947
7.155359622 -6.918790724 -34.67650553
2.393391336 -6.453678011 -35.26904251
4.420551827 -9.667719716 -31.60519177
4.918139322 -5.593267439 -36.14802097
8.403785177 -11.79068688 -28.53115016
9.306435816 -8.189738 -32.97840379
10.68267491 -11.15440017 -29.03083634
6.471692695 -10.78491385 -30.09936472
11.23985629 -9.332738145 -31.23815321
6.832715708 -8.976154468 -32.41200498
26.76097516 -16.53919222 -13.03091556
24.45396849 -15.11338369 -17.61640737
28.51727186 -15.16871468 -14.75899311
23.72636511 -17.32753427 -13.37283932
18.78453907 -11.60948361 -25.85534417
21.77382652 -13.45696485 -21.86161995
21.29546396 -10.73005881 -25.8324467
17.38045443 -13.41368141 -23.79882799
31.53141669 -11.60878495 -18.19743624
25.91366106 -13.58470424 -19.43832517
30.18934556 -13.53796183 -16.53198456
29.89841257 -10.60748768 -20.62731792
27.26424212 -14.40844043 -17.15946072
18.28513778 -18.55299593 -13.90536955
21.475157 -15.92139281 -17.716626
20.89167173 -17.99132143 -13.66027911
17.14304798 -17.89498968 -15.92638076
22.64482749 -16.64986292 -15.59674531
26.16115555 -8.506303081 -24.98450177
24.42393578 -12.67005199 -21.69605053
23.81255453 -9.696674971 -25.57565139
28.08799757 -9.563848429 -22.89682672
22.90345921 -11.73011072 -23.79422166
27.19038494 -11.75189424 -21.29340623
14.7103052 -16.36898095 -19.84161295
20.154466 -15.10566266 -19.86348669
16.00173273 -14.9896099 -21.76333097
15.94295438 -17.16088772 -17.91361192
18.81371956 -14.28470173 -21.84664727
18.62936365 -16.57996702 -17.84656379
1.855450188 14.2859742 -24.2619231
5.566061768 13.06976067 -24.58733234
2.924326744 15.1540558 -22.71244403
1.920216829 12.9935808 -26.05124829
12.9123446 9.996179115 -24.1544254
9.251522577 11.62974665 -24.53508076
4.939929231 16.72488828 -19.76125146
6.558415248 13.93935497 -22.95606185
3.956630053 15.96719809 -21.20844084
4.751550928 14.57246297 -22.88070052
2.09124921 10.03084098 -29.96158877
5.771376274 11.67574775 -26.33984311
2.001076785 11.57558807 -27.95690437
3.856430557 12.3630547 -26.25035374
28.33357407 1.405612202 -19.78544012
24.25183588 3.945024699 -21.37164291
27.61731314 3.555850147 -18.4266521
27.65425533 0 -21.72006476
16.58848545 8.184695639 -23.49536356
20.34582149 6.182197974 -22.57741565
26.05954641 7.445062994 -15.8238495
23.58082871 5.894749391 -19.95757842
26.84275616 5.574336451 -17.09585202
25.56535558 4.769452642 -19.24738834
25.76236054 -2.927842841 -25.45903185
23.55371839 2.676834898 -23.27639448
26.81064093 -1.454042854 -23.64427752
25.58088597 1.387348573 -22.55975784
8.73041112 19.44339575 -14.12610193
10.41286203 16.91629835 -16.84836469
7.813018303 18.80971786 -15.50614517
10.67776109 18.94470219 -13.83545161
13.83651757 10.90152951 -22.38795571
12.095501 14.09871392 -19.57093173
12.04321506 11.71791624 -22.64131438
5.946852356 17.46694678 -18.2895587
9.488884061 16.24865535 -18.29162936
6.881079171 18.14932259 -16.89817112
6.747566463 16.154361 -19.81687935
8.657301498 17.56110883 -16.9036897
14.59990155 17.69722847 -13.12048737
12.37800045 16.2766939 -16.51513044
12.64429813 18.3581859 -13.4980617
11.5323089 17.63721003 -15.18867034
8.441082001 13.23188018 -22.92740154
10.34855218 14.80772188 -19.74050144
10.23561506 12.4992988 -22.82518771
7.580448696 14.74093866 -21.36635831
11.18625868 13.32206407 -21.16709762
8.56073852 15.51131071 -19.80700056
2.557321974 1.5805119 -38.19881937
7.004789174 4.329197794 -34.29967555
2.458291603 4.067771164 -36.5429713
5.121518244 0 -38.01324028
13.43784145 8.305042752 -25.77857333
10.52510259 6.504871135 -29.8710648
11.55571674 9.212668418 -26.04337729
2.215776673 8.23260324 -32.17615071
6.661549972 6.441307298 -32.28339128
2.333359308 6.291804199 -34.38440984
4.219911895 9.228921416 -30.17069585
4.688434673 5.332030527 -34.45970596
10.01174527 -3.073111692 -36.22283467
9.444196745 2.898902305 -34.16942482
7.63833544 -1.572549649 -37.31537757
7.436845006 1.531067612 -36.33104117
7.758301303 10.88505946 -26.3397094
8.486870757 7.468514188 -30.07418267
9.653172665 10.07943719 -26.23309967
6.065727715 10.10838337 -28.21125158
10.08270105 8.371922754 -28.02215187
6.367868436 8.365483529 -30.20693268
22.82054023 14.1038695 -11.11217102
20.57114212 12.71366502 -14.81925601
23.62760156 12.56783428 -12.22836499
20.73526514 15.14311255 -11.68697218
15.98240848 9.877671665 -21.9984462
18.32034452 11.3225956 -18.39421329
17.80571188 8.971691629 -21.59920555
15.0523379 11.61691519 -20.6109686
25.22346679 9.286414385 -14.55698718
21.32685723 11.1801666 -15.99767724
24.43234348 10.95632009 -13.37939322
24.04009359 8.529048021 -16.58558468
22.46951267 11.87455105 -14.14177289
16.67141702 16.91563585 -12.67817708
18.52527572 13.73439047 -15.28302594
18.67435452 16.08183006 -12.2104587
15.53439221 16.21577379 -14.43189364
19.62521627 14.42965997 -13.51697203
21.56150951 7.01072758 -20.59173462
20.14538569 10.45053043 -17.89536747
19.67336032 8.011159844 -21.12998858
22.81678495 7.769022067 -18.5998297
18.99198022 9.726828977 -19.73061725
22.05877078 9.533970988 -17.27472296
13.27476309 14.77157279 -17.90531926
17.3606997 13.01175001 -17.11005528
14.14680136 13.25200446 -19.24051133
14.39889158 15.49886901 -16.17869245
16.22930551 12.32243245 -18.84560423
16.45720299 14.64676346 -15.76567662
18.32217813 -8.366949736 -29.64590697
19.04524713 -2.851064777 -30.81585718
20.60141587 -7.199363505 -29.25019458
16.45257795 -7.179447396 -31.45681837
15.68221359 7.161391614 -25.3743546
17.59943772 2.63462777 -28.47648841
17.58243136 6.144350247 -24.96379577
14.33804895 6.256725755 -27.41390456
24.34977272 -4.452059225 -27.14329222
20.48390559 -1.450387899 -29.15108011
22.65389261 -5.875082836 -28.41015054
23.73477747 -1.446378489 -26.43691739
20.90457476 -4.358438153 -29.72659879
12.35719758 -4.565980768 -34.77018985
16.78093064 -1.492931277 -31.98334323
14.45635856 -5.905486546 -33.18821162
12.38629355 -1.531030081 -34.90499621
16.94936386 -4.404123126 -32.33873926
21.47534242 3.926504671 -23.93909387
19.60704358 1.388300615 -27.90319919
19.52224436 5.062918094 -24.48276377
22.67481799 1.381785401 -25.2562844
18.60848379 3.879721382 -26.46152518
21.66299585 0 -27.25005711
11.29697518 4.17422891 -31.78697831
16.10037132 1.432384677 -30.68624221
12.87845909 5.260907615 -29.56574601
11.94611154 1.476620593 -33.66454834
15.24884879 3.962261248 -29.09422141
14.41096767 0 -32.92474729
16.24189228 23.25906602 1.153868796
18.93968983 21.49213569 3.49610671
15.46665755 23.18096216 2.984650508
17.81342517 22.68027345 0
23.0824808 16.29697689 8.040866424
21.18897003 19.09461244 5.802010717
13.63571741 22.45601556 6.415554891
17.93657486 21.19291682 5.297817778
14.57574109 22.8858476 4.752619803
16.75835671 22.25929776 4.152677095
20.67951382 20.92589749 -2.378188096
20.67951382 20.92589749 2.378188096
19.31206637 21.8982744 -1.187626565
19.31206637 21.8982744 1.187626565
29.69178113 2.270702972 17.48319857
28.07523537 6.355650628 14.92380718
24.7852442 13.24956437 10.25724008
26.42807906 9.965321596 12.52703698
9.823953782 20.17498939 12.46882917
13.73962374 19.07246574 11.78743208
10.75108181 20.77320048 11.04954053
21.83307761 15.86226417 9.803418393
17.72075491 17.64959066 10.90804692
20.96543283 17.2832494 8.708440585
12.64825422 21.91612978 8.06876646
14.73561422 19.64437312 10.29815888
11.69707197 21.36022728 9.578675398
14.74895431 21.37797665 7.584570698
12.74280034 20.24671984 10.69986304
19.05048473 19.94767392 6.485988731
16.82094756 18.93587694 9.823091067
20.03932225 18.65788075 7.597647917
16.89285731 20.72280762 7.056031338
18.86830396 18.16194857 9.301724493
15.8117742 20.19067417 8.726565213
25.04445975 15.47832736 -7.068285553
26.75102157 16.53304056 -2.474988604
24.11025567 16.98126836 -5.934268038
25.04445975 15.47832736 7.068285553
26.75102157 16.53304056 2.474988604
24.11025567 16.98126836 5.934268038
21.97981135 19.71770434 -3.605141966
25.48485471 17.90771924 -1.267977884
23.09075373 18.41227326 -4.775057094
22.41928146 20.12778755 -1.226571388
24.97296194 17.56168453 -3.661472034
21.97981135 19.71770434 3.605141966
25.48485471 17.90771924 1.267977884
23.09075373 18.41227326 4.775057094
22.41928146 20.12778755 1.226571388
24.97296194 17.56168453 3.661472034
24.04612262 19.11596194 0
15.74289755 -22.54448479 1.118418836
18.90958102 -21.45796921 3.490548878
15.06889142 -22.58480221 2.907892301
17.37240003 -22.11875479 0
25.84265348 -18.24574793 9.002382647
22.25468322 -20.05498853 6.093826663
13.56685862 -22.34261529 6.383157085
18.0978248 -21.3834413 5.345445198
14.33891012 -22.51399155 4.675397824
16.57600324 -22.01708665 4.10749038
20.78882706 -21.03651314 -2.390759352
20.78882706 -21.03651314 2.390759352
19.06203577 -21.61476053 -1.172250531
19.06203577 -21.61476053 1.172250531
32.0421738 -2.450451152 18.86716343
34.13296151 -7.726994106 18.14388123
29.63255264 -15.8408128 12.26327263
33.03518149 -12.45668316 15.6588354
10.12514673 -20.7935351 12.85111144
14.47315292 -20.09070398 12.41673792
11.01505007 -21.28323897 11.32083676
24.67783033 -17.9290465 11.08076012
19.23803837 -19.1607809 11.84201385
22.97534537 -18.94015867 9.543300716
12.73190849 -22.06108084 8.122132463
15.39908818 -20.52886492 10.76183553
11.8892573 -21.71118027 9.736055034
14.94037643 -21.6554348 7.683008498
13.17309744 -20.93040823 11.06117452
19.71291007 -20.64129641 6.711520174
17.81689774 -20.05704981 10.4047057
21.31270801 -19.8434837 8.080435535
17.26727033 -21.18210759 7.212421102
20.2984913 -19.5385953 10.00678037
16.3600506 -20.89078979 9.029160588
28.52852018 -17.63159512 -8.051590212
29.51248998 -18.2397219 -2.730478019
26.50650912 -18.66899094 -6.524058974
28.52852018 -17.63159512 8.051590212
29.51248998 -18.2397219 2.730478019
26.50650912 -18.66899094 6.524058974
22.67081472 -20.33759137 -3.718480757
27.21538857 -19.12373223 -1.354079166
24.53927096 -19.56730248 -5.07460351
22.83797878 -20.50368945 -1.249478552
26.97401299 -18.96887953 -3.954861039
22.67081472 -20.33759137 3.718480757
27.21538857 -19.12373223 1.354079166
24.53927096 -19.56730248 5.07460351
22.83797878 -20.50368945 1.249478552
26.97401299 -18.96887953 3.954861039
24.99368509 -19.86924631 0
1.885288057 -14.51570983 24.65208398
5.860531077 -13.76120887 25.88811107
2.993507626 -15.51255573 23.24975297
1.955124775 -13.22979329 26.52483832
14.75020128 -11.41896833 27.5924046
10.1377386 -12.74377601 26.88532976
5.107394429 -17.2918674 20.43116427
6.943008415 -14.7567751 24.30223226
4.073804667 -16.44006269 21.83652353
4.943600878 -15.16145819 23.80550117
2.138935029 -10.25956975 30.64478946
6.114838496 -12.37058692 27.90736195
2.042064063 -11.81268634 28.52953476
4.003558837 -12.83472272 27.25184187
29.7144385 -1.474116087 20.74970288
27.64891541 -4.497624623 24.36527898
31.13786791 -4.009137008 20.77561478
19.62070253 -9.680780016 27.79009215
24.22998793 -7.362424878 26.88760978
32.27642191 -9.221188678 19.59885389
28.28413268 -7.070484077 23.93820857
32.09648712 -6.665359437 20.44189467
29.90694747 -5.579416614 22.51604247
9.040013853 -20.13290835 14.62704967
11.11324856 -18.05411688 17.9816139
8.106425803 -19.51609177 16.08845781
11.18106609 -19.8376762 14.48759692
15.87737708 -12.50948397 25.69013576
13.37205395 -15.58668493 21.63643779
13.53450861 -13.16892852 25.44495494
6.16585204 -18.1101872 18.96309275
10.12850868 -17.34394115 19.5246275
7.142382618 -18.83852852 17.53986558
7.079225183 -16.94838574 20.79092546
9.104965029 -18.46918255 17.7777687
15.72486031 -19.06084397 14.13145358
13.43601433 -17.66794995 17.92676694
13.41547219 -19.47784922 14.32130669
12.28819446 -18.79324154 16.18421224
9.111087527 -14.28215227 24.74724949
11.23148864 -16.07111385 21.4247572
11.26764988 -13.75957594 25.12660178
8.060996875 -15.67541253 22.7208381
12.35066327 -14.70878978 23.37043176
9.128636744 -16.5402927 21.120948
2.583961406 -1.596975975 38.59673362
7.453765 -4.606680114 36.49813218
2.512702496 -4.157805667 37.35179956
15.46524575 -9.558047519 29.66785798
11.72986118 -7.249452894 33.29026396
13.05779391 -10.41018297 29.42864221
2.27140111 -8.439272951 32.9838947
7.155359622 -6.918790724 34.67650553
2.393391336 -6.453678011 35.26904251
4.420551827 -9.667719716 31.60519177
4.918139322 -5.593267439 36.14802097
8.403785177 -11.79068688 28.53115016
9.306435816 -8.189738 32.97840379
10.68267491 -11.15440017 29.03083634
6.471692695 -10.78491385 30.09936472
11.23985629 -9.332738145 31.23815321
6.832715708 -8.976154468 32.41200498
26.76097516 -16.53919222 13.03091556
24.45396849 -15.11338369 17.61640737
28.51727186 -15.16871468 14.75899311
23.72636511 -17.32753427 13.37283932
18.78453907 -11.60948361 25.85534417
21.77382652 -13.45696485 21.86161995
21.29546396 -10.73005881 25.8324467
17.38045443 -13.41368141 23.79882799
31.53141669 -11.60878495 18.19743624
25.91366106 -13.58470424 19.43832517
30.18934556 -13.53796183 16.53198456
29.89841257 -10.60748768 20.62731792
27.26424212 -14.40844043 17.15946072
18.28513778 -18.55299593 13.90536955
21.475157 -15.92139281 17.716626
20.89167173 -17.99132143 13.66027911
17.14304798 -17.89498968 15.92638076
22.64482749 -16.64986292 15.59674531
26.16115555 -8.506303081 24.98450177
24.42393578 -12.67005199 21.69605053
23.81255453 -9.696674971 25.57565139
28.08799757 -9.563848429 22.89682672
22.90345921 -11.73011072 23.79422166
27.19038494 -11.75189424 21.29340623
14.7103052 -16.36898095 19.84161295
20.154466 -15.10566266 19.86348669
16.00173273 -14.9896099 21.76333097
15.94295438 -17.16088772 17.91361192
18.81371956 -14.28470173 21.84664727
18.62936365 -16.57996702 17.84656379
1.855450188 14.2859742 24.2619231
5.566061768 13.06976067 24.58733234
2.924326744 15.1540558 22.71244403
1.920216829 12.9935808 26.05124829
12.9123446 9.996179115 24.1544254
9.251522577 11.62974665 24.53508076
4.939929231 16.72488828 19.76125146
6.558415248 13.93935497 22.95606185
3.956630053 15.96719809 21.20844084
4.751550928 14.57246297 22.88070052
2.09124921 10.03084098 29.96158877
5.771376274 11.67574775 26.33984311
2.001076785 11.57558807 27.95690437
3.856430557 12.3630547 26.25035374
28.33357407 1.405612202 19.78544012
24.25183588 3.945024699 21.37164291
27.61731314 3.555850147 18.4266521
27.65425533 0 21.72006476
16.58848545 8.184695639 23.49536356
20.34582149 6.182197974 22.57741565
26.05954641 7.445062994 15.8238495
23.58082871 5.894749391 19.95757842
26.84275616 5.574336451 17.09585202
25.56535558 4.769452642 19.24738834
25.76236054 -2.927842841 25.45903185
23.55371839 2.676834898 23.27639448
26.81064093 -1.454042854 23.64427752
25.58088597 1.387348573 22.55975784
8.73041112 19.44339575 14.12610193
10.41286203 16.91629835 16.84836469
7.813018303 18.80971786 15.50614517
10.67776109 18.94470219 13.83545161
13.83651757 10.90152951 22.38795571
12.095501 14.09871392 19.57093173
12.04321506 11.71791624 22.64131438
5.946852356 17.46694678 18.2895587
9.488884061 16.24865535 18.29162936
6.881079171 18.14932259 16.89817112
6.747566463 16.154361 19.81687935
8.657301498 17.56110883 16.9036897
14.59990155 17.69722847 13.12048737
12.37800045 16.2766939 16.51513044
12.64429813 18.3581859 13.4980617
11.5323089 17.63721003 15.18867034
8.441082001 13.23188018 22.92740154
10.34855218 14.80772188 19.74050144
10.23561506 12.4992988 22.82518771
7.580448696 14.74093866 21.36635831
11.18625868 13.32206407 21.16709762
8.56073852 15.51131071 19.80700056
2.557321974 1.5805119 38.19881937
7.004789174 4.329197794 34.29967555
2.458291603 4.067771164 36.5429713
5.121518244 0 38.01324028
13.43784145 8.305042752 25.77857333
10.52510259 6.504871135 29.8710648
11.55571674 9.212668418 26.04337729
2.215776673 8.23260324 32.17615071
6.661549972 6.441307298 32.28339128
2.333359308 6.291804199 34.38440984
4.219911895 9.228921416 30.17069585
4.688434673 5.332030527 34.45970596
10.01174527 -3.073111692 36.22283467
9.444196745 2.898902305 34.16942482
7.63833544 -1.572549649 37.31537757
7.436845006 1.531067612 36.33104117
7.758301303 10.88505946 26.3397094
8.486870757 7.468514188 30.07418267
9.653172665 10.07943719 26.23309967
6.065727715 10.10838337 28.21125158
10.08270105 8.371922754 28.02215187
6.367868436 8.365483529 30.20693268
22.82054023 14.1038695 11.11217102
20.57114212 12.71366502 14.81925601
23.62760156 12.56783428 12.22836499
20.73526514 15.14311255 11.68697218
15.98240848 9.877671665 21.9984462
18.32034452 11.3225956 18.39421329
17.80571188 8.971691629 21.59920555
15.0523379 11.61691519 20.6109686
25.22346679 9.286414385 14.55698718
21.32685723 11.1801666 15.99767724
24.43234348 10.95632009 13.37939322
24.04009359 8.529048021 16.58558468
22.46951267 11.87455105 14.14177289
16.67141702 16.91563585 12.67817708
18.52527572 13.73439047 15.28302594
18.67435452 16.08183006 12.2104587
15.53439221 16.21577379 14.43189364
19.62521627 14.42965997 13.51697203
21.56150951 7.01072758 20.59173462
20.14538569 10.45053043 17.89536747
19.67336032 8.011159844 21.12998858
22.81678495 7.769022067 18.5998297
18.99198022 9.726828977 19.73061725
22.05877078 9.533970988 17.27472296
13.27476309 14.77157279 17.90531926
17.3606997 13.01175001 17.11005528
14.14680136 13.25200446 19.24051133
14.39889158 15.49886901 16.17869245
16.22930551 12.32243245 18.84560423
16.45720299 14.64676346 15.76567662
18.32217813 -8.366949736 29.64590697
19.04524713 -2.851064777 30.81585718
20.60141587 -7.199363505 29.25019458
16.45257795 -7.179447396 31.45681837
15.68221359 7.161391614 25.3743546
17.59943772 2.63462777 28.47648841
17.58243136 6.144350247 24.96379577
14.33804895 6.256725755 27.41390456
24.34977272 -4.452059225 27.14329222
20.48390559 -1.450387899 29.15108011
22.65389261 -5.875082836 28.41015054
23.73477747 -1.446378489 26.43691739
20.90457476 -4.358438153 29.72659879
12.35719758 -4.565980768 34.77018985
16.78093064 -1.492931277 31.98334323
14.45635856 -5.905486546 33.18821162
12.38629355 -1.531030081 34.90499621
16.94936386 -4.404123126 32.33873926
21.47534242 3.926504671 23.93909387
19.60704358 1.388300615 27.90319919
19.52224436 5.062918094 24.48276377
22.67481799 1.381785401 25.2562844
18.60848379 3.879721382 26.46152518
21.66299585 0 27.25005711
11.29697518 4.17422891 31.78697831
16.10037132 1.432384677 30.68624221
12.87845909 5.260907615 29.56574601
11.94611154 1.476620593 33.66454834
15.24884879 3.962261248 29.09422141
14.41096767 0 32.92474729
32.06609804 0 -16.87278411
35.13993864 0 -12.66738523
31.2782437 2.305494512 -15.60064924
33.73220003 -2.486373685 -16.824609
39.07841957 0 -2.708425587
37.63364511 0 -7.926573297
29.55735765 6.476372387 -13.10198587
34.2522697 2.390728759 -11.46731814
30.42420562 4.469609719 -14.32880188
32.81668784 2.348926453 -13.58778696
35.88579996 -7.863010177 -15.90721503
36.80307585 -2.568769095 -12.32130259
35.11588093 -5.158862145 -16.53842691
35.34330655 -2.529774732 -14.63393631
32.06609804 0 16.87278411
35.13993864 0 12.66738523
31.2782437 2.305494512 15.60064924
33.73220003 -2.486373685 16.824609
39.07841957 0 2.708425587
37.63364511 0 7.926573297
29.55735765 6.476372387 13.10198587
34.2522697 2.390728759 11.46731814
30.42420562 4.469609719 14.32880188
32.81668784 2.348926453 13.58778696
35.88579996 -7.863010177 15.90721503
36.80307585 -2.568769095 12.32130259
35.11588093 -5.158862145 16.53842691
35.34330655 -2.529774732 14.63393631
26.0950761 13.60282785 -8.407009955
30.40024762 10.71156074 -6.62010861
26.95246803 11.95908973 -9.534253115
27.18492882 14.21828982 -6.204466202
37.9163184 2.538409192 -1.568823158
34.46992224 7.039557495 -4.350685797
37.4755636 2.521028258 -4.171582428
28.667039 8.443810927 -11.84684384
31.34791574 8.846315537 -7.784828472
27.81029361 10.23354348 -10.68543601
30.98439152 6.661983139 -11.10202811
29.15939454 10.49189438 -8.711686375
28.64301751 15.02833792 -1.337010218
31.3302187 11.13464449 -4.114247771
28.10186104 14.72873337 -3.827114443
29.30904101 12.76664169 -5.215229712
35.59120998 2.450951126 -9.106381718
33.56322244 6.925638065 -6.696664169
36.6726218 2.488639585 -6.710510865
33.32746644 4.66144277 -10.19454673
35.60042758 4.843636196 -5.508537039
32.34875465 6.819382022 -8.958637974
30.98163546 -16.150091 -9.981305159
37.34899987 -13.15996125 -8.133303343
32.97022232 -14.62922976 -11.66299296
31.77274889 -16.61781626 -7.251552798
40.28422087 -2.696934746 -1.666797338
40.70268439 -8.312432068 -5.137365547
39.89288148 -2.68364427 -4.440665527
35.75191081 -10.53064375 -14.77471407
38.58506434 -10.88862357 -9.582075884
34.68056171 -12.7616429 -13.32517118
37.49476684 -8.061785055 -13.43476296
36.14215464 -13.0043739 -10.79786193
32.62537141 -17.11778818 -1.522900125
38.03971908 -13.51917625 -4.995331534
32.33555302 -16.94769389 -4.403689201
35.08689997 -15.28340281 -6.243337787
38.13623815 -2.626211806 -9.75755368
39.96133619 -8.245863504 -7.973240611
39.15846453 -2.657331277 -7.165380843
38.17654432 -5.339673115 -11.67783233
40.26972421 -5.478919975 -6.231028178
38.87777179 -8.195752228 -10.76677871
26.0950761 13.60282785 8.407009955
30.40024762 10.71156074 6.62010861
26.95246803 11.95908973 9.534253115
27.18492882 14.21828982 6.204466202
37.9163184 2.538409192 1.568823158
34.46992224 7.039557495 4.350685797
37.4755636 2.521028258 4.171582428
36.59009072 4.929777515 0
28.667039 8.443810927 11.84684384
31.34791574 8.846315537 7.784828472
27.81029361 10.23354348 10.68543601
30.98439152 6.661983139 11.10202811
29.15939454 10.49189438 8.711686375
28.64301751 15.02833792 1.337010218
31.3302187 11.13464449 4.114247771
28.10186104 14.72873337 3.827114443
30.37784789 13.29620483 0
29.30904101 12.76664169 5.215229712
35.59120998 2.450951126 9.106381718
33.56322244 6.925638065 6.696664169
36.6726218 2.488639585 6.710510865
33.32746644 4.66144277 10.19454673
35.60042758 4.843636196 5.508537039
32.34875465 6.819382022 8.958637974
33.31457112 9.207920993 -2.82637731
33.31457112 9.207920993 2.82637731
35.03873823 7.172314833 -1.476607208
31.93458855 11.33222264 -1.400739751
35.03873823 7.172314833 1.476607208
31.93458855 11.33222264 1.400739751
30.98163546 -16.150091 9.981305159
37.34899987 -13.15996125 8.133303343
32.97022232 -14.62922976 11.66299296
31.77274889 -16.61781626 7.251552798
40.28422087 -2.696934746 1.666797338
40.70268439 -8.312432068 5.137365547
39.89288148 -2.68364427 4.440665527
41.07504389 -5.534034592 0
35.75191081 -10.53064375 14.77471407
38.58506434 -10.88862357 9.582075884
34.68056171 -12.7616429 13.32517118
37.49476684 -8.061785055 13.43476296
36.14215464 -13.0043739 10.79786193
32.62537141 -17.11778818 1.522900125
38.03971908 -13.51917625 4.995331534
32.33555302 -16.94769389 4.403689201
35.73869066 -15.64261409 0
35.08689997 -15.28340281 6.243337787
38.13623815 -2.626211806 9.75755368
39.96133619 -8.245863504 7.973240611
39.15846453 -2.657331277 7.165380843
38.17654432 -5.339673115 11.67783233
40.26972421 -5.478919975 6.231028178
38.87777179 -8.195752228 10.76677871
40.22739124 -11.11857748 -3.412854557
40.22739124 -11.11857748 3.412854557
41.15096689 -8.423467998 -1.734189568
38.46845357 -13.65081249 -1.687333219
41.15096689 -8.423467998 1.734189568
38.46845357 -13.65081249 1.687333219
-15.74289755 22.54448479 -1.118418836
-18.90958102 21.45796921 -3.490548878
-15.06889142 22.58480221 -2.907892301
-25.84265348 18.24574793 -9.002382647
-22.25468322 20.05498853 -6.093826663
-13.56685862 22.34261529 -6.383157085
-18.0978248 21.3834413 -5.345445198
-14.33891012 22.51399155 -4.675397824
-16.57600324 22.01708665 -4.10749038
-32.0421738 2.450451152 -18.86716343
-34.13296151 7.726994106 -18.14388123
-29.63255264 15.8408128 -12.26327263
-33.03518149 12.45668316 -15.6588354
-10.12514673 20.7935351 -12.85111144
-14.47315292 20.09070398 -12.41673792
-11.01505007 21.28323897 -11.32083676
-24.67783033 17.9290465 -11.08076012
-19.23803837 19.1607809 -11.84201385
-22.97534537 18.94015867 -9.543300716
-12.73190849 22.06108084 -8.122132463
-15.39908818 20.52886492 -10.76183553
-11.8892573 21.71118027 -9.736055034
-14.94037643 21.6554348 -7.683008498
-13.17309744 20.93040823 -11.06117452
-19.71291007 20.64129641 -6.711520174
-17.81689774 20.05704981 -10.4047057
-21.31270801 19.8434837 -8.080435535
-17.26727033 21.18210759 -7.212421102
-20.2984913 19.5385953 -10.00678037
-16.3600506 20.89078979 -9.029160588
-16.24189228 -23.25906602 -1.153868796
-18.93968983 -21.49213569 -3.49610671
-15.46665755 -23.18096216 -2.984650508
-23.0824808 -16.29697689 -8.040866424
-21.18897003 -19.09461244 -5.802010717
-13.63571741 -22.45601556 -6.415554891
-17.93657486 -21.19291682 -5.297817778
