0 17.022543 -27.543054
37.143472 0 -22.955928
37.143472 0 22.955928
-37.143472 0 -22.955928
-37.143472 0 22.955928
0 62.948358 0
0 -62.948358 0
-14.436577 -37.795449 23.358872
13.311414 -34.849734 21.53832
-13.311414 34.849734 21.53832
14.436577 37.795449 23.358872
0 0 28.856649
-14.436577 -37.795449 -23.358872
13.311414 -34.849734 -21.53832
-13.311414 34.849734 -21.53832
14.436577 37.795449 -23.358872
0 0 -28.856649
45.283397 27.986678 -17.296718
41.346813 -25.553735 -15.793077
16.782045 -10.371875 -27.15392
17.30571 10.695517 -28.001226
45.283397 27.986678 17.296718
41.346813 -25.553735 15.793077
16.782045 -10.371875 27.15392
17.30571 10.695517 28.001226
56.780383 0 0
-41.346813 25.553735 -15.793077
-45.283397 -27.986678 -17.296718
-17.30571 -10.695517 -28.001226
-16.782045 10.371875 -27.15392
-41.346813 25.553735 15.793077
-45.283397 -27.986678 17.296718
-17.30571 -10.695517 28.001226
-16.782045 10.371875 27.15392
-56.780383 0 0
-16.351064 57.55815 0
18.5239 65.206852 0
-18.5239 -65.206852 0
16.351064 -57.55815 0
-27.006661 -53.695342 16.176533
-5.9908077 -25.876309 26.184609
-9.3935821 -54.990987 15.199135
22.893822 -45.518089 13.713012
5.8338209 -25.198231 25.498452
8.7723205 -51.354059 14.193913
0 -36.802134 22.744969
-22.893822 45.518089 13.713012
-5.8338209 25.198231 25.498452
-8.7723205 51.354059 14.193913
27.006661 53.695342 16.176533
5.9908077 25.876309 26.184609
9.3935821 54.990987 15.199135
0 36.802134 22.744969
0 -8.1123222 28.556567
0 8.1123222 28.556567
-27.006661 -53.695342 -16.176533
-5.9908077 -25.876309 -26.184609
-9.3935821 -54.990987 -15.199135
22.893822 -45.518089 -13.713012
5.8338209 -25.198231 -25.498452
8.7723205 -51.354059 -14.193913
0 -36.802134 -22.744969
-22.893822 45.518089 -13.713012
-5.8338209 25.198231 -25.498452
-8.7723205 51.354059 -14.193913
27.006661 53.695342 -16.176533
5.9908077 25.876309 -26.184609
9.3935821 54.990987 -15.199135
0 36.802134 -22.744969
0 -8.1123222 -28.556567
0 8.1123222 -28.556567
48.211013 48.785418 -11.161673
41.435545 12.483084 -20.840462
30.868571 36.141552 -22.336708
39.390035 -39.859343 -9.1194661
39.913829 -12.024644 -20.075098
27.062927 -31.685827 -19.582918
8.2869986 -13.835113 -27.507329
26.37031 -6.0332944 -26.059823
15.578935 -21.529558 -25.207246
7.8758288 -4.8675299 -28.495016
27.847285 -17.210569 -23.784421
8.4650562 14.132379 -28.098362
26.99131 6.1753737 -26.673512
16.541312 22.859531 -26.764405
7.9322403 4.9023941 -28.699115
29.835627 18.439431 -25.482667
17.329884 0 -28.040342
48.211013 48.785418 11.161673
41.435545 12.483084 20.840462
30.868571 36.141552 22.336708
58.251325 36.001299 0
39.390035 -39.859343 9.1194661
39.913829 -12.024644 20.075098
27.062927 -31.685827 19.582918
50.596366 -31.270274 0
8.2869986 -13.835113 27.507329
26.37031 -6.0332944 26.059823
15.578935 -21.529558 25.207246
7.8758288 -4.8675299 28.495016
27.847285 -17.210569 23.784421
8.4650562 14.132379 28.098362
26.99131 6.1753737 26.673512
16.541312 22.859531 26.764405
7.9322403 4.9023941 28.699115
29.835627 18.439431 25.482667
17.329884 0 28.040342
49.453455 0 -14.04869
49.453455 0 14.04869
54.084893 14.948697 -9.2388026
52.199403 -14.42756 -8.9167225
54.084893 14.948697 9.2388026
52.199403 -14.42756 8.9167225
-39.390035 39.859343 -9.1194661
-39.913829 12.024644 -20.075098
-27.062927 31.685827 -19.582918
-48.211013 -48.785418 -11.161673
-41.435545 -12.483084 -20.840462
-30.868571 -36.141552 -22.336708
-8.4650562 -14.132379 -28.098362
-26.99131 -6.1753737 -26.673512
-16.541312 -22.859531 -26.764405
-7.9322403 -4.9023941 -28.699115
-29.835627 -18.439431 -25.482667
-8.2869986 13.835113 -27.507329
-26.37031 6.0332944 -26.059823
-15.578935 21.529558 -25.207246
-7.8758288 4.8675299 -28.495016
-27.847285 17.210569 -23.784421
-17.329884 0 -28.040342
-39.390035 39.859343 9.1194661
-39.913829 12.024644 20.075098
-27.062927 31.685827 19.582918
-50.596366 31.270274 0
-48.211013 -48.785418 11.161673
-41.435545 -12.483084 20.840462
-30.868571 -36.141552 22.336708
-58.251325 -36.001299 0
-8.4650562 -14.132379 28.098362
-26.99131 -6.1753737 26.673512
-16.541312 -22.859531 26.764405
-7.9322403 -4.9023941 28.699115
-29.835627 -18.439431 25.482667
-8.2869986 13.835113 27.507329
-26.37031 6.0332944 26.059823
-15.578935 21.529558 25.207246
-7.8758288 4.8675299 28.495016
-27.847285 17.210569 23.784421
-17.329884 0 28.040342
-49.453455 0 -14.04869
-49.453455 0 14.04869
-52.199403 14.42756 -8.9167225
-54.084893 -14.948697 -9.2388026
-52.199403 14.42756 8.9167225
-54.084893 -14.948697 9.2388026
-23.847858 54.100747 0
-8.4348501 60.558664 0
28.637261 64.965886 0
8.9886594 64.534781 0
-28.637261 -64.965886 0
-8.9886594 -64.534781 0
23.847858 -54.100747 0
8.4348501 -60.558664 0
-34.035248 -60.76704 9.2176994
-20.189021 -45.429318 20.650638
-24.122416 -62.240838 8.8654115
-2.7903717 -21.185703 26.973899
-9.7892258 -31.324534 25.055635
-5.1069411 -61.331651 8.2632042
-12.437589 -46.43085 20.124441
-14.192429 -62.309846 8.5620262
-18.051107 -54.900363 15.823554
27.694707 -49.446543 7.5005032
17.882836 -40.239944 18.291723
20.581175 -53.103701 7.5639432
2.7611226 -20.963631 26.691154
9.3158426 -29.809756 23.844005
0 -25.599153 25.904151
4.9170671 -59.051365 7.9559817
11.459006 -42.777694 18.541061
12.841958 -56.380795 7.7473125
0 -53.475827 14.780355
15.972007 -48.57702 14.00102
-6.9741236 -37.456608 23.149457
6.6902615 -35.932042 22.207223
-3.238661 -31.140742 24.755976
-4.0933194 -45.395608 19.86939
3.18376 -30.612852 24.336319
3.9786226 -44.1236 19.31264
-27.694707 49.446543 7.5005032
-17.882836 40.239944 18.291723
-20.581175 53.103701 7.5639432
-2.7611226 20.963631 26.691154
-9.3158426 29.809756 23.844005
-4.9170671 59.051365 7.9559817
-11.459006 42.777694 18.541061
-12.841958 56.380795 7.7473125
-15.972007 48.57702 14.00102
34.035248 60.76704 9.2176994
20.189021 45.429318 20.650638
24.122416 62.240838 8.8654115
2.7903717 21.185703 26.973899
9.7892258 31.324534 25.055635
0 25.599153 25.904151
5.1069411 61.331651 8.2632042
12.437589 46.43085 20.124441
14.192429 62.309846 8.5620262
0 53.475827 14.780355
18.051107 54.900363 15.823554
-6.6902615 35.932042 22.207223
6.9741236 37.456608 23.149457
-3.18376 30.612852 24.336319
-3.9786226 44.1236 19.31264
3.238661 31.140742 24.755976
4.0933194 45.395608 19.86939
0 -12.411289 28.155989
0 -4.0090451 28.783252
0 12.411289 28.155989
0 4.0090451 28.783252
-34.035248 -60.76704 -9.2176994
-20.189021 -45.429318 -20.650638
-24.122416 -62.240838 -8.8654115
-2.7903717 -21.185703 -26.973899
-9.7892258 -31.324534 -25.055635
-5.1069411 -61.331651 -8.2632042
-12.437589 -46.43085 -20.124441
-14.192429 -62.309846 -8.5620262
-18.051107 -54.900363 -15.823554
27.694707 -49.446543 -7.5005032
17.882836 -40.239944 -18.291723
20.581175 -53.103701 -7.5639432
2.7611226 -20.963631 -26.691154
9.3158426 -29.809756 -23.844005
0 -25.599153 -25.904151
4.9170671 -59.051365 -7.9559817
11.459006 -42.777694 -18.541061
12.841958 -56.380795 -7.7473125
0 -53.475827 -14.780355
15.972007 -48.57702 -14.00102
-6.9741236 -37.456608 -23.149457
6.6902615 -35.932042 -22.207223
-3.238661 -31.140742 -24.755976
-4.0933194 -45.395608 -19.86939
3.18376 -30.612852 -24.336319
3.9786226 -44.1236 -19.31264
-27.694707 49.446543 -7.5005032
-17.882836 40.239944 -18.291723
-20.581175 53.103701 -7.5639432
-2.7611226 20.963631 -26.691154
-9.3158426 29.809756 -23.844005
-4.9170671 59.051365 -7.9559817
-11.459006 42.777694 -18.541061
-12.841958 56.380795 -7.7473125
-15.972007 48.57702 -14.00102
34.035248 60.76704 -9.2176994
20.189021 45.429318 -20.650638
24.122416 62.240838 -8.8654115
2.7903717 21.185703 -26.973899
9.7892258 31.324534 -25.055635
0 25.599153 -25.904151
5.1069411 61.331651 -8.2632042
12.437589 46.43085 -20.124441
14.192429 62.309846 -8.5620262
0 53.475827 -14.780355
18.051107 54.900363 -15.823554
-6.6902615 35.932042 -22.207223
6.9741236 37.456608 -23.149457
-3.18376 30.612852 -24.336319
-3.9786226 44.1236 -19.31264
3.238661 31.140742 -24.755976
4.0933194 45.395608 -19.86939
0 -12.411289 -28.155989
0 -4.0090451 -28.783252
0 12.411289 -28.155989
0 4.0090451 -28.783252
46.320208 58.975462 -6.1008408
47.095412 37.670327 -14.717781
38.115589 52.887885 -14.213511
39.383252 5.9740113 -22.058319
43.379585 19.718898 -19.278109
22.486634 37.541351 -23.201831
38.751903 32.964338 -20.373081
29.653125 45.012241 -19.88779
39.227047 42.553345 -17.935083
36.039541 -45.885989 -4.7467727
41.022734 -32.812959 -12.820009
31.19739 -43.288429 -11.633677
38.655859 -5.8636736 -21.65091
40.865031 -18.575867 -18.160628
20.057813 -33.486443 -20.69576
34.289678 -29.168542 -18.02715
25.380161 -38.526055 -17.021994
33.334317 -36.160934 -15.240855
4.1800238 -15.434236 -27.556515
12.447808 -12.169554 -27.38392
7.1697004 -19.22659 -26.678157
4.0105855 -10.912636 -28.156866
31.677994 -3.2769968 -24.88037
21.398408 -8.3603488 -26.752272
32.960601 -8.8580944 -23.754263
14.624894 -27.818201 -23.663575
16.277645 -15.775887 -26.337783
10.70479 -23.413178 -25.398522
20.904453 -26.328402 -22.976217
11.736283 -17.499051 -26.56285
3.8761439 -2.3955887 -28.769748
12.130147 -7.496843 -27.986517
3.924141 -6.5046626 -28.557799
8.1007116 -9.2410855 -28.105697
34.395229 -21.25742 -20.60216
21.980259 -13.584547 -25.839345
33.885862 -14.971814 -22.323298
27.70429 -24.176925 -21.996893
27.208959 -11.46784 -25.082097
21.530758 -19.589331 -24.672054
4.2302902 15.619839 -27.887893
12.797419 12.51135 -28.15303
7.3538157 19.720321 -27.363242
4.0435065 11.002213 -28.387992
32.076148 3.3181846 -25.193085
22.039085 8.6106609 -27.553245
34.084218 9.1600642 -24.564038
26.813098 0 -26.497398
15.723573 29.908013 -25.441276
17.039068 16.513839 -27.569791
11.203543 24.504036 -26.581881
22.948777 28.903154 -25.223146
12.185621 18.169025 -27.579843
3.8829078 2.399769 -28.819952
12.33355 7.622553 -28.455806
3.942979 6.5358885 -28.694892
7.9336556 0 -28.704236
8.2143647 9.3707382 -28.500021
37.38011 23.102178 -22.390054
23.088171 14.269274 -27.141773
35.872194 15.849437 -23.631852
30.584646 26.690547 -24.283862
28.464193 11.996887 -26.239212
23.104998 21.021622 -26.475972
17.127081 -5.159792 -27.712199
17.393218 5.2399697 -28.142818
21.689869 -2.8375424 -27.283861
12.409779 -2.5565551 -28.352631
21.907215 2.8659764 -27.557263
12.481416 2.5713131 -28.516299
46.320208 58.975462 6.1008408
47.095412 37.670327 14.717781
38.115589 52.887885 14.213511
54.387848 55.035846 0
39.383252 5.9740113 22.058319
43.379585 19.718898 19.278109
22.486634 37.541351 23.201831
38.751903 32.964338 20.373081
29.653125 45.012241 19.88779
39.227047 42.553345 17.935083
53.330377 32.959986 -9.9296936
53.330377 32.959986 9.9296936
55.60951 44.207929 -5.7834316
55.60951 44.207929 5.7834316
36.039541 -45.885989 4.7467727
41.022734 -32.812959 12.820009
31.19739 -43.288429 11.633677
41.94549 -42.445245 0
38.655859 -5.8636736 21.65091
40.865031 -18.575867 18.160628
20.057813 -33.486443 20.69576
34.289678 -29.168542 18.02715
25.380161 -38.526055 17.021994
33.334317 -36.160934 15.240855
47.673102 -29.463597 -8.8763538
47.673102 -29.463597 8.8763538
46.047882 -36.606715 -4.789015
46.047882 -36.606715 4.789015
4.1800238 -15.434236 27.556515
12.447808 -12.169554 27.38392
7.1697004 -19.22659 26.678157
4.0105855 -10.912636 28.156866
31.677994 -3.2769968 24.88037
21.398408 -8.3603488 26.752272
32.960601 -8.8580944 23.754263
14.624894 -27.818201 23.663575
16.277645 -15.775887 26.337783
10.70479 -23.413178 25.398522
20.904453 -26.328402 22.976217
11.736283 -17.499051 26.56285
3.8761439 -2.3955887 28.769748
12.130147 -7.496843 27.986517
3.924141 -6.5046626 28.557799
8.1007116 -9.2410855 28.105697
34.395229 -21.25742 20.60216
21.980259 -13.584547 25.839345
33.885862 -14.971814 22.323298
27.70429 -24.176925 21.996893
27.208959 -11.46784 25.082097
21.530758 -19.589331 24.672054
4.2302902 15.619839 27.887893
12.797419 12.51135 28.15303
7.3538157 19.720321 27.363242
4.0435065 11.002213 28.387992
32.076148 3.3181846 25.193085
22.039085 8.6106609 27.553245
34.084218 9.1600642 24.564038
26.813098 0 26.497398
15.723573 29.908013 25.441276
17.039068 16.513839 27.569791
11.203543 24.504036 26.581881
22.948777 28.903154 25.223146
12.185621 18.169025 27.579843
3.8829078 2.399769 28.819952
12.33355 7.622553 28.455806
3.942979 6.5358885 28.694892
7.9336556 0 28.704236
8.2143647 9.3707382 28.500021
37.38011 23.102178 22.390054
23.088171 14.269274 27.141773
35.872194 15.849437 23.631852
30.584646 26.690547 24.283862
28.464193 11.996887 26.239212
23.104998 21.021622 26.475972
17.127081 -5.159792 27.712199
17.393218 5.2399697 28.142818
21.689869 -2.8375424 27.283861
12.409779 -2.5565551 28.352631
21.907215 2.8659764 27.557263
12.481416 2.5713131 28.516299
43.499179 0 -19.174638
54.505106 0 -7.5916866
45.736241 6.5145427 -17.7258
45.044282 -6.415982 -17.45762
43.499179 0 19.174638
54.505106 0 7.5916866
45.736241 6.5145427 17.7258
45.044282 -6.415982 17.45762
50.34285 21.820013 -13.485509
56.345795 7.5914607 -4.6917807
48.034868 13.844759 -15.793749
56.837255 24.877331 -5.125012
51.829718 7.1219468 -11.805351
47.502447 -20.588902 -12.724641
55.326124 -7.4540806 -4.6068751
46.484269 -13.397841 -15.283916
52.669531 -23.053143 -4.7492086
51.073934 -7.0180941 -11.633204
50.34285 21.820013 13.485509
56.345795 7.5914607 4.6917807
48.034868 13.844759 15.793749
56.837255 24.877331 5.125012
51.829718 7.1219468 11.805351
57.708267 15.950173 0
47.502447 -20.588902 12.724641
55.326124 -7.4540806 4.6068751
46.484269 -13.397841 15.283916
52.669531 -23.053143 4.7492086
51.073934 -7.0180941 11.633204
55.227285 -15.264446 0
-36.039541 45.885989 -4.7467727
-41.022734 32.812959 -12.820009
-31.19739 43.288429 -11.633677
-38.655859 5.8636736 -21.65091
-40.865031 18.575867 -18.160628
-20.057813 33.486443 -20.69576
-34.289678 29.168542 -18.02715
-25.380161 38.526055 -17.021994
-33.334317 36.160934 -15.240855
-46.320208 -58.975462 -6.1008408
-47.095412 -37.670327 -14.717781
-38.115589 -52.887885 -14.213511
-39.383252 -5.9740113 -22.058319
-43.379585 -19.718898 -19.278109
-22.486634 -37.541351 -23.201831
-38.751903 -32.964338 -20.373081
-29.653125 -45.012241 -19.88779
-39.227047 -42.553345 -17.935083
-4.2302902 -15.619839 -27.887893
-12.797419 -12.51135 -28.15303
-7.3538157 -19.720321 -27.363242
-4.0435065 -11.002213 -28.387992
-32.076148 -3.3181846 -25.193085
-22.039085 -8.6106609 -27.553245
-34.084218 -9.1600642 -24.564038
-15.723573 -29.908013 -25.441276
-17.039068 -16.513839 -27.569791
-11.203543 -24.504036 -26.581881
-22.948777 -28.903154 -25.223146
-12.185621 -18.169025 -27.579843
-3.8829078 -2.399769 -28.819952
-12.33355 -7.622553 -28.455806
-3.942979 -6.5358885 -28.694892
-8.2143647 -9.3707382 -28.500021
-37.38011 -23.102178 -22.390054
-23.088171 -14.269274 -27.141773
-35.872194 -15.849437 -23.631852
-30.584646 -26.690547 -24.283862
-28.464193 -11.996887 -26.239212
-23.104998 -21.021622 -26.475972
-4.1800238 15.434236 -27.556515
-12.447808 12.169554 -27.38392
-7.1697004 19.22659 -26.678157
-4.0105855 10.912636 -28.156866
-31.677994 3.2769968 -24.88037
-21.398408 8.3603488 -26.752272
-32.960601 8.8580944 -23.754263
-26.813098 0 -26.497398
-14.624894 27.818201 -23.663575
-16.277645 15.775887 -26.337783
-10.70479 23.413178 -25.398522
-20.904453 26.328402 -22.976217
-11.736283 17.499051 -26.56285
-3.8761439 2.3955887 -28.769748
-12.130147 7.496843 -27.986517
-3.924141 6.5046626 -28.557799
-7.9336556 0 -28.704236
-8.1007116 9.2410855 -28.105697
-34.395229 21.25742 -20.60216
-21.980259 13.584547 -25.839345
-33.885862 14.971814 -22.323298
-27.70429 24.176925 -21.996893
-27.208959 11.46784 -25.082097
-21.530758 19.589331 -24.672054
-17.393218 -5.2399697 -28.142818
-17.127081 5.159792 -27.712199
-21.907215 -2.8659764 -27.557263
-12.481416 -2.5713131 -28.516299
-21.689869 2.8375424 -27.283861
-12.409779 2.5565551 -28.352631
-36.039541 45.885989 4.7467727
-41.022734 32.812959 12.820009
-31.19739 43.288429 11.633677
-41.94549 42.445245 0
-38.655859 5.8636736 21.65091
-40.865031 18.575867 18.160628
-20.057813 33.486443 20.69576
-34.289678 29.168542 18.02715
-25.380161 38.526055 17.021994
-33.334317 36.160934 15.240855
-47.673102 29.463597 -8.8763538
-47.673102 29.463597 8.8763538
-46.047882 36.606715 -4.789015
-46.047882 36.606715 4.789015
-46.320208 -58.975462 6.1008408
-47.095412 -37.670327 14.717781
-38.115589 -52.887885 14.213511
-54.387848 -55.035846 0
-39.383252 -5.9740113 22.058319
-43.379585 -19.718898 19.278109
-22.486634 -37.541351 23.201831
-38.751903 -32.964338 20.373081
-29.653125 -45.012241 19.88779
-39.227047 -42.553345 17.935083
-53.330377 -32.959986 -9.9296936
-53.330377 -32.959986 9.9296936
-55.60951 -44.207929 -5.7834316
-55.60951 -44.207929 5.7834316
-4.2302902 -15.619839 27.887893
-12.797419 -12.51135 28.15303
-7.3538157 -19.720321 27.363242
-4.0435065 -11.002213 28.387992
-32.076148 -3.3181846 25.193085
-22.039085 -8.6106609 27.553245
-34.084218 -9.1600642 24.564038
-15.723573 -29.908013 25.441276
-17.039068 -16.513839 27.569791
-11.203543 -24.504036 26.581881
-22.948777 -28.903154 25.223146
-12.185621 -18.169025 27.579843
-3.8829078 -2.399769 28.819952
-12.33355 -7.622553 28.455806
-3.942979 -6.5358885 28.694892
-8.2143647 -9.3707382 28.500021
-37.38011 -23.102178 22.390054
-23.088171 -14.269274 27.141773
-35.872194 -15.849437 23.631852
-30.584646 -26.690547 24.283862
-28.464193 -11.996887 26.239212
-23.104998 -21.021622 26.475972
-4.1800238 15.434236 27.556515
-12.447808 12.169554 27.38392
-7.1697004 19.22659 26.678157
-4.0105855 10.912636 28.156866
-31.677994 3.2769968 24.88037
-21.398408 8.3603488 26.752272
-32.960601 8.8580944 23.754263
-26.813098 0 26.497398
-14.624894 27.818201 23.663575
-16.277645 15.775887 26.337783
-10.70479 23.413178 25.398522
-20.904453 26.328402 22.976217
-11.736283 17.499051 26.56285
-3.8761439 2.3955887 28.769748
-12.130147 7.496843 27.986517
-3.924141 6.5046626 28.557799
-7.9336556 0 28.704236
-8.1007116 9.2410855 28.105697
-34.395229 21.25742 20.60216
-21.980259 13.584547 25.839345
-33.885862 14.971814 22.323298
-27.70429 24.176925 21.996893
-27.208959 11.46784 25.082097
-21.530758 19.589331 24.672054
-17.393218 -5.2399697 28.142818
-17.127081 5.159792 27.712199
-21.907215 -2.8659764 27.557263
-12.481416 -2.5713131 28.516299
-21.689869 2.8375424 27.283861
-12.409779 2.5565551 28.352631
-43.499179 0 -19.174638
-54.505106 0 -7.5916866
-45.044282 6.415982 -17.45762
-45.736241 -6.5145427 -17.7258
-43.499179 0 19.174638
-54.505106 0 7.5916866
-45.044282 6.415982 17.45762
-45.736241 -6.5145427 17.7258
-47.502447 20.588902 -12.724641
-55.326124 7.4540806 -4.6068751
-46.484269 13.397841 -15.283916
-52.669531 23.053143 -4.7492086
-51.073934 7.0180941 -11.633204
-50.34285 -21.820013 -13.485509
-56.345795 -7.5914607 -4.6917807
-48.034868 -13.844759 -15.793749
-56.837255 -24.877331 -5.125012
-51.829718 -7.1219468 -11.805351
-47.502447 20.588902 12.724641
-55.326124 7.4540806 4.6068751
-46.484269 13.397841 15.283916
-52.669531 23.053143 4.7492086
-51.073934 7.0180941 11.633204
-55.227285 15.264446 0
-50.34285 -21.820013 13.485509
-56.345795 -7.5914607 4.6917807
-48.034868 -13.844759 15.793749
-56.837255 -24.877331 5.125012
-51.829718 -7.1219468 11.805351
-57.708267 -15.950173 0
-27.474514 52.214291 0
-20.144331 55.881348 0
-4.2861411 61.842431 0
-12.452737 59.122885 0
33.926448 64.475952 0
23.503614 65.200161 0
4.4254224 63.852046 0
13.687784 64.98662 0
-33.926448 -64.475952 0
-23.503614 -65.200161 0
-4.4254224 -63.852046 0
-13.687784 -64.98662 0
27.474514 -52.214291 0
20.144331 -55.881348 0
4.2861411 -61.842431 0
12.452737 -59.122885 0
-37.085796 -62.982945 4.8166717
-30.585492 -57.538594 13.025543
-31.833031 -63.823068 4.7043477
-17.164012 -41.47453 22.171234
-23.494575 -49.56611 18.690054
-21.596264 -64.506893 4.5024311
-25.937139 -58.512756 12.820848
-26.625382 -64.304574 4.602741
-29.056764 -61.695944 9.0637302
-1.3533956 -19.050438 27.28102
-4.3290378 -23.451983 26.612537
-11.989153 -34.416615 24.299242
-7.8009975 -28.489279 25.673345
-2.5998079 -62.833815 4.2065775
-7.3983009 -58.615783 11.970702
-7.0798377 -63.601982 4.2785852
-13.545625 -42.045166 21.917282
-11.067167 -50.821615 17.907052
-16.284872 -46.035853 20.426586
-16.488511 -64.443385 4.4378258
-11.777927 -59.030165 12.180641
-11.737619 -64.145531 4.3529777
-19.091986 -62.414497 8.7297847
-9.5826435 -61.930455 8.4259829
-22.509922 -54.469596 16.043895
-13.672777 -55.057483 15.537105
-19.313658 -50.266408 18.496873
-21.128085 -58.965879 12.678309
-15.136332 -50.663701 18.229398
-16.372356 -59.118956 12.462759
29.631007 -50.32245 3.8484501
25.389345 -47.763404 10.812643
26.076111 -52.280834 3.8535788
15.52598 -37.516448 20.055344
20.357717 -42.948333 16.194668
18.704816 -55.870291 3.8996164
21.960856 -49.54248 10.855353
22.415124 -54.136124 3.8749119
24.172608 -51.325464 7.5402064
1.3470988 -18.961804 27.154093
4.252771 -23.038817 26.14369
0 -21.086295 26.847332
11.243494 -32.27609 22.787962
7.5170386 -27.45226 24.738827
-2.9618029 -25.754331 26.061178
2.9226378 -25.413772 25.716561
-1.4363378 -23.356375 26.484183
1.4277984 -23.217515 26.326728
2.5505798 -61.644038 4.1269248
7.0028747 -55.482873 11.330889
6.7277577 -60.439058 4.0658114
0 -60.311584 8.1257708
12.467995 -38.700236 20.173639
10.243048 -47.037173 16.5736
14.692368 -41.533989 18.429062
14.726838 -57.558096 3.9636775
10.817604 -54.217089 11.187482
10.807392 -59.061884 4.0079966
16.76063 -54.792954 7.6637755
8.9399685 -57.776992 7.8608812
-4.6087822 -54.323816 15.014734
4.4522413 -52.478666 14.504746
-2.4337579 -57.751178 11.821477
2.3890336 -56.689906 11.604238
19.458984 -47.086926 13.869347
12.416416 -49.998372 14.109435
17.054554 -44.386786 16.333308
18.333984 -51.167888 11.001656
13.668738 -45.751433 16.461906
14.603475 -52.731703 11.116274
-10.63364 -37.67728 23.28584
-3.4379913 -37.159678 22.965944
-8.4524347 -34.34128 24.187155
-9.5277708 -41.74602 21.834047
9.9965699 -35.420003 21.890765
3.3669736 -36.39208 22.491542
8.0678119 -32.778602 23.086534
8.9716654 -39.309439 20.559664
-4.6682482 -28.461352 25.532181
-1.6876969 -33.920709 23.835433
-6.4647021 -31.261374 24.927422
-1.5465544 -28.267934 25.378644
-5.0096856 -34.168413 24.028182
-6.5871323 -50.161367 17.827165
-1.9100793 -40.919982 21.469781
-8.1806544 -45.974415 20.025864
-2.1729102 -49.538818 17.579212
-5.6328874 -41.36135 21.67829
4.5637065 -27.823983 24.960408
1.671501 -33.595193 23.606698
6.2515864 -30.23081 24.105663
1.5348546 -28.054085 25.186653
4.8704044 -33.21845 23.360142
0 -30.89735 24.562487
6.282202 -47.839307 17.001914
1.8862233 -40.408912 21.201634
7.7387078 -43.490722 18.944
2.1384026 -48.752102 17.300041
5.4314484 -39.882217 20.903048
0 -44.804367 19.610607
-29.631007 50.32245 3.8484501
-25.389345 47.763404 10.812643
-26.076111 52.280834 3.8535788
-15.52598 37.516448 20.055344
-20.357717 42.948333 16.194668
-18.704816 55.870291 3.8996164
-21.960856 49.54248 10.855353
-22.415124 54.136124 3.8749119
-24.172608 51.325464 7.5402064
-1.3470988 18.961804 27.154093
-4.252771 23.038817 26.14369
-11.243494 32.27609 22.787962
-7.5170386 27.45226 24.738827
-2.5505798 61.644038 4.1269248
-7.0028747 55.482873 11.330889
-6.7277577 60.439058 4.0658114
-12.467995 38.700236 20.173639
-10.243048 47.037173 16.5736
-14.692368 41.533989 18.429062
-14.726838 57.558096 3.9636775
-10.817604 54.217089 11.187482
-10.807392 59.061884 4.0079966
-16.76063 54.792954 7.6637755
-8.9399685 57.776992 7.8608812
-19.458984 47.086926 13.869347
-12.416416 49.998372 14.109435
-17.054554 44.386786 16.333308
-18.333984 51.167888 11.001656
-13.668738 45.751433 16.461906
-14.603475 52.731703 11.116274
37.085796 62.982945 4.8166717
30.585492 57.538594 13.025543
31.833031 63.823068 4.7043477
17.164012 41.47453 22.171234
23.494575 49.56611 18.690054
21.596264 64.506893 4.5024311
25.937139 58.512756 12.820848
26.625382 64.304574 4.602741
29.056764 61.695944 9.0637302
1.3533956 19.050438 27.28102
4.3290378 23.451983 26.612537
0 21.086295 26.847332
11.989153 34.416615 24.299242
7.8009975 28.489279 25.673345
-2.9226378 25.413772 25.716561
2.9618029 25.754331 26.061178
-1.4277984 23.217515 26.326728
1.4363378 23.356375 26.484183
2.5998079 62.833815 4.2065775
7.3983009 58.615783 11.970702
7.0798377 63.601982 4.2785852
0 60.311584 8.1257708
13.545625 42.045166 21.917282
11.067167 50.821615 17.907052
16.284872 46.035853 20.426586
16.488511 64.443385 4.4378258
11.777927 59.030165 12.180641
11.737619 64.145531 4.3529777
19.091986 62.414497 8.7297847
9.5826435 61.930455 8.4259829
-4.4522413 52.478666 14.504746
4.6087822 54.323816 15.014734
-2.3890336 56.689906 11.604238
2.4337579 57.751178 11.821477
22.509922 54.469596 16.043895
13.672777 55.057483 15.537105
19.313658 50.266408 18.496873
21.128085 58.965879 12.678309
15.136332 50.663701 18.229398
16.372356 59.118956 12.462759
-9.9965699 35.420003 21.890765
-3.3669736 36.39208 22.491542
-8.0678119 32.778602 23.086534
-8.9716654 39.309439 20.559664
10.63364 37.67728 23.28584
3.4379913 37.159678 22.965944
8.4524347 34.34128 24.187155
9.5277708 41.74602 21.834047
-4.5637065 27.823983 24.960408
-1.671501 33.595193 23.606698
-6.2515864 30.23081 24.105663
-1.5348546 28.054085 25.186653
-4.8704044 33.21845 23.360142
-6.282202 47.839307 17.001914
-1.8862233 40.408912 21.201634
-7.7387078 43.490722 18.944
-2.1384026 48.752102 17.300041
-5.4314484 39.882217 20.903048
4.6682482 28.461352 25.532181
1.6876969 33.920709 23.835433
6.4647021 31.261374 24.927422
1.5465544 28.267934 25.378644
5.0096856 34.168413 24.028182
0 30.89735 24.562487
6.5871323 50.161367 17.827165
1.9100793 40.919982 21.469781
8.1806544 45.974415 20.025864
2.1729102 49.538818 17.579212
5.6328874 41.36135 21.67829
0 44.804367 19.610607
0 -14.669764 27.87934
0 -10.230512 28.379934
0 -1.9987159 28.838399
0 -6.0428208 28.689998
0 14.669764 27.87934
0 10.230512 28.379934
0 1.9987159 28.838399
0 6.0428208 28.689998
-37.085796 -62.982945 -4.8166717
-30.585492 -57.538594 -13.025543
-31.833031 -63.823068 -4.7043477
-17.164012 -41.47453 -22.171234
-23.494575 -49.56611 -18.690054
-21.596264 -64.506893 -4.5024311
-25.937139 -58.512756 -12.820848
-26.625382 -64.304574 -4.602741
-29.056764 -61.695944 -9.0637302
-1.3533956 -19.050438 -27.28102
-4.3290378 -23.451983 -26.612537
-11.989153 -34.416615 -24.299242
-7.8009975 -28.489279 -25.673345
-2.5998079 -62.833815 -4.2065775
-7.3983009 -58.615783 -11.970702
-7.0798377 -63.601982 -4.2785852
-13.545625 -42.045166 -21.917282
-11.067167 -50.821615 -17.907052
-16.284872 -46.035853 -20.426586
-16.488511 -64.443385 -4.4378258
-11.777927 -59.030165 -12.180641
-11.737619 -64.145531 -4.3529777
-19.091986 -62.414497 -8.7297847
-9.5826435 -61.930455 -8.4259829
-22.509922 -54.469596 -16.043895
-13.672777 -55.057483 -15.537105
-19.313658 -50.266408 -18.496873
-21.128085 -58.965879 -12.678309
-15.136332 -50.663701 -18.229398
-16.372356 -59.118956 -12.462759
29.631007 -50.32245 -3.8484501
25.389345 -47.763404 -10.812643
26.076111 -52.280834 -3.8535788
15.52598 -37.516448 -20.055344
20.357717 -42.948333 -16.194668
18.704816 -55.870291 -3.8996164
21.960856 -49.54248 -10.855353
22.415124 -54.136124 -3.8749119
24.172608 -51.325464 -7.5402064
1.3470988 -18.961804 -27.154093
4.252771 -23.038817 -26.14369
0 -21.086295 -26.847332
11.243494 -32.27609 -22.787962
7.5170386 -27.45226 -24.738827
-2.9618029 -25.754331 -26.061178
2.9226378 -25.413772 -25.716561
-1.4363378 -23.356375 -26.484183
1.4277984 -23.217515 -26.326728
2.5505798 -61.644038 -4.1269248
7.0028747 -55.482873 -11.330889
6.7277577 -60.439058 -4.0658114
0 -60.311584 -8.1257708
12.467995 -38.700236 -20.173639
10.243048 -47.037173 -16.5736
14.692368 -41.533989 -18.429062
14.726838 -57.558096 -3.9636775
10.817604 -54.217089 -11.187482
10.807392 -59.061884 -4.0079966
16.76063 -54.792954 -7.6637755
8.9399685 -57.776992 -7.8608812
-4.6087822 -54.323816 -15.014734
4.4522413 -52.478666 -14.504746
-2.4337579 -57.751178 -11.821477
2.3890336 -56.689906 -11.604238
19.458984 -47.086926 -13.869347
12.416416 -49.998372 -14.109435
17.054554 -44.386786 -16.333308
18.333984 -51.167888 -11.001656
13.668738 -45.751433 -16.461906
14.603475 -52.731703 -11.116274
-10.63364 -37.67728 -23.28584
-3.4379913 -37.159678 -22.965944
-8.4524347 -34.34128 -24.187155
-9.5277708 -41.74602 -21.834047
9.9965699 -35.420003 -21.890765
3.3669736 -36.39208 -22.491542
8.0678119 -32.778602 -23.086534
8.9716654 -39.309439 -20.559664
-4.6682482 -28.461352 -25.532181
-1.6876969 -33.920709 -23.835433
-6.4647021 -31.261374 -24.927422
-1.5465544 -28.267934 -25.378644
-5.0096856 -34.168413 -24.028182
-6.5871323 -50.161367 -17.827165
-1.9100793 -40.919982 -21.469781
-8.1806544 -45.974415 -20.025864
-2.1729102 -49.538818 -17.579212
-5.6328874 -41.36135 -21.67829
4.5637065 -27.823983 -24.960408
1.671501 -33.595193 -23.606698
6.2515864 -30.23081 -24.105663
1.5348546 -28.054085 -25.186653
4.8704044 -33.21845 -23.360142
0 -30.89735 -24.562487
6.282202 -47.839307 -17.001914
1.8862233 -40.408912 -21.201634
7.7387078 -43.490722 -18.944
2.1384026 -48.752102 -17.300041
5.4314484 -39.882217 -20.903048
0 -44.804367 -19.610607
-29.631007 50.32245 -3.8484501
-25.389345 47.763404 -10.812643
-26.076111 52.280834 -3.8535788
-15.52598 37.516448 -20.055344
-20.357717 42.948333 -16.194668
-18.704816 55.870291 -3.8996164
-21.960856 49.54248 -10.855353
-22.415124 54.136124 -3.8749119
-24.172608 51.325464 -7.5402064
-1.3470988 18.961804 -27.154093
-4.252771 23.038817 -26.14369
-11.243494 32.27609 -22.787962
-7.5170386 27.45226 -24.738827
-2.5505798 61.644038 -4.1269248
-7.0028747 55.482873 -11.330889
-6.7277577 60.439058 -4.0658114
-12.467995 38.700236 -20.173639
-10.243048 47.037173 -16.5736
-14.692368 41.533989 -18.429062
-14.726838 57.558096 -3.9636775
-10.817604 54.217089 -11.187482
-10.807392 59.061884 -4.0079966
-16.76063 54.792954 -7.6637755
-8.9399685 57.776992 -7.8608812
-19.458984 47.086926 -13.869347
-12.416416 49.998372 -14.109435
-17.054554 44.386786 -16.333308
-18.333984 51.167888 -11.001656
-13.668738 45.751433 -16.461906
-14.603475 52.731703 -11.116274
37.085796 62.982945 -4.8166717
30.585492 57.538594 -13.025543
31.833031 63.823068 -4.7043477
17.164012 41.47453 -22.171234
23.494575 49.56611 -18.690054
21.596264 64.506893 -4.5024311
25.937139 58.512756 -12.820848
26.625382 64.304574 -4.602741
29.056764 61.695944 -9.0637302
1.3533956 19.050438 -27.28102
4.3290378 23.451983 -26.612537
0 21.086295 -26.847332
11.989153 34.416615 -24.299242
7.8009975 28.489279 -25.673345
-2.9226378 25.413772 -25.716561
2.9618029 25.754331 -26.061178
-1.4277984 23.217515 -26.326728
1.4363378 23.356375 -26.484183
2.5998079 62.833815 -4.2065775
7.3983009 58.615783 -11.970702
7.0798377 63.601982 -4.2785852
0 60.311584 -8.1257708
13.545625 42.045166 -21.917282
11.067167 50.821615 -17.907052
16.284872 46.035853 -20.426586
16.488511 64.443385 -4.4378258
11.777927 59.030165 -12.180641
11.737619 64.145531 -4.3529777
19.091986 62.414497 -8.7297847
9.5826435 61.930455 -8.4259829
-4.4522413 52.478666 -14.504746
4.6087822 54.323816 -15.014734
-2.3890336 56.689906 -11.604238
2.4337579 57.751178 -11.821477
22.509922 54.469596 -16.043895
13.672777 55.057483 -15.537105
19.313658 50.266408 -18.496873
21.128085 58.965879 -12.678309
15.136332 50.663701 -18.229398
16.372356 59.118956 -12.462759
-9.9965699 35.420003 -21.890765
-3.3669736 36.39208 -22.491542
-8.0678119 32.778602 -23.086534
-8.9716654 39.309439 -20.559664
10.63364 37.67728 -23.28584
3.4379913 37.159678 -22.965944
8.4524347 34.34128 -24.187155
9.5277708 41.74602 -21.834047
-4.5637065 27.823983 -24.960408
-1.671501 33.595193 -23.606698
-6.2515864 30.23081 -24.105663
-1.5348546 28.054085 -25.186653
-4.8704044 33.21845 -23.360142
-6.282202 47.839307 -17.001914
-1.8862233 40.408912 -21.201634
-7.7387078 43.490722 -18.944
-2.1384026 48.752102 -17.300041
-5.4314484 39.882217 -20.903048
4.6682482 28.461352 -25.532181
1.6876969 33.920709 -23.835433
6.4647021 31.261374 -24.927422
1.5465544 28.267934 -25.378644
5.0096856 34.168413 -24.028182
0 30.89735 -24.562487
6.5871323 50.161367 -17.827165
1.9100793 40.919982 -21.469781
8.1806544 45.974415 -20.025864
2.1729102 49.538818 -17.579212
5.6328874 41.36135 -21.67829
0 44.804367 -19.610607
0 -14.669764 -27.87934
0 -10.230512 -28.379934
0 -1.9987159 -28.838399
0 -6.0428208 -28.689998
0 14.669764 -27.87934
0 10.230512 -28.379934
0 1.9987159 -28.838399
0 6.0428208 -28.689998
43.363978 62.099022 -3.0806965
47.866455 54.317275 -8.8357431
40.230439 60.296175 -7.7633969
46.215897 32.629916 -16.099476
47.828696 43.101218 -13.096559
32.562316 53.625332 -15.32045
43.432604 51.317688 -12.828426
36.469749 57.262345 -11.891461
42.361151 56.266225 -10.496983
38.290997 2.928335 -22.546613
40.428198 9.152105 -21.490207
44.334616 23.700164 -18.347643
42.415911 15.993905 -20.105346
18.391681 37.770125 -23.343221
26.675415 37.029102 -22.885244
21.458569 41.462168 -22.054276
42.211414 30.667623 -18.953634
34.938795 34.798486 -21.506647
42.885492 35.353463 -17.813406
28.548215 49.466619 -18.211911
30.399584 40.526358 -21.24511
24.875286 45.425194 -20.370251
33.806577 49.001183 -17.384851
25.918928 41.181943 -21.763582
43.667866 45.724419 -14.867301
34.944756 39.338426 -20.407027
43.41918 40.426012 -16.461816
38.951322 47.78237 -16.269702
39.090845 37.627437 -19.271063
34.557743 44.128137 -19.072521
33.718095 -48.285716 -2.3954264
37.939154 -43.052101 -7.0032473
31.917354 -47.836772 -6.1591941
41.314447 -29.169334 -14.392038
40.402924 -36.409423 -11.063218
27.035459 -44.523414 -12.720084
35.340871 -41.756921 -10.43842
29.611913 -46.494632 -9.6553692
33.833602 -44.939502 -8.3838783
37.931044 -2.9008073 -22.334665
39.318013 -8.9007822 -20.900072
41.180881 -22.014257 -17.042486
40.434622 -15.246814 -19.166206
16.658384 -34.210535 -21.143274
23.524356 -32.655005 -20.181903
19.047186 -36.802903 -19.575951
37.881104 -27.521547 -17.009252
30.662681 -30.539543 -18.874476
37.683379 -31.065003 -15.652597
24.253332 -42.024706 -15.472054
26.307017 -35.070467 -18.384971
21.604788 -39.45288 -17.692056
28.308694 -41.032238 -14.557594
22.654021 -35.994412 -19.022108
36.479352 -38.19736 -12.419876
30.155299 -33.946781 -17.610081
37.233341 -34.666603 -14.116536
32.420417 -39.770777 -13.541787
33.916151 -32.646463 -16.720035
29.339394 -37.464622 -16.192499
2.1074863 -16.226517 -27.557555
6.2344999 -14.639331 -27.540068
3.4975318 -18.124442 -27.16437
2.0556742 -13.910183 -27.888974
14.586052 -11.291891 -27.285339
10.353053 -13.01444 -27.456344
6.5344719 -22.123457 -26.139917
7.7508319 -16.473735 -27.129813
4.9798127 -20.096308 -26.692933
5.6393554 -17.295258 -27.155849
1.9811754 -9.5028634 -28.384548
6.1060828 -12.352874 -27.867402
2.0158935 -11.661298 -28.163908
4.0966252 -13.133077 -27.885336
34.408346 -1.7069781 -24.027476
28.989212 -4.7156495 -25.546399
35.151638 -4.5259274 -23.453657
19.049049 -9.3987282 -26.980421
23.838052 -7.2433329 -26.452685
36.415983 -10.403838 -22.112474
29.599368 -7.3992675 -25.051355
35.82172 -7.4389649 -22.814454
32.346595 -6.0345552 -24.352779
14.022025 -31.228287 -22.688113
15.139041 -24.59425 -24.495483
11.974813 -28.829173 -23.765872
17.235281 -30.579188 -22.3322
16.551466 -13.040586 -26.780834
15.955638 -18.598153 -25.816765
14.314313 -13.927669 -26.910991
8.2777986 -24.313344 -25.458389
13.132941 -22.488697 -25.316243
10.052132 -26.513193 -24.685466
8.8848877 -21.271326 -26.093963
12.601254 -25.561313 -24.604398
23.878722 -28.944523 -21.459081
18.142591 -23.856956 -24.206435
20.538414 -29.819608 -21.925201
17.728298 -27.113192 -23.34912
9.9693118 -15.627468 -27.078331
13.601435 -19.462265 -25.945576
12.111755 -14.790362 -27.008938
9.4483254 -18.373211 -26.631182
13.986152 -16.656544 -26.46517
11.250059 -20.384125 -26.029288
1.9304452 -1.1930807 -28.835136
5.8526046 -3.6171086 -28.657885
1.9363422 -3.2040938 -28.784094
14.397043 -8.897862 -27.618664
9.9625083 -6.1571688 -28.274378
12.297049 -9.8036871 -27.714133
1.9670808 -7.3085865 -28.564741
5.888109 -5.6934376 -28.53512
1.9472082 -5.2505643 -28.694083
3.9697185 -8.6817501 -28.381913
3.9025762 -4.4382948 -28.683694
8.1987746 -11.503053 -27.835132
7.9930676 -7.0339635 -28.324336
10.224192 -10.675672 -27.784881
6.0504156 -10.082866 -28.140036
10.0953 -8.3823841 -28.057168
5.9790326 -7.854669 -28.362432
37.857786 -23.397398 -18.434366
31.043602 -19.186001 -22.363517
37.666863 -20.035504 -19.494325
34.434785 -25.14797 -19.408403
19.303937 -11.930489 -26.570252
24.825344 -15.342906 -24.925441
21.707274 -10.937556 -26.331993
19.079112 -14.724652 -26.124778
36.928645 -13.595859 -21.312289
30.843246 -16.168938 -23.1361
37.350346 -16.749206 -20.45342
33.457053 -11.870038 -23.082472
34.183003 -18.064825 -21.513963
27.458123 -27.860355 -20.881185
27.827587 -20.630999 -22.957269
30.92277 -26.629822 -20.219238
24.261135 -25.325295 -22.539286
31.040439 -22.82283 -21.379268
26.813284 -8.7183427 -25.607299
27.554999 -14.294308 -24.477408
24.223532 -9.8640284 -26.017058
30.056629 -10.234159 -24.50162
24.552948 -12.574904 -25.507863
30.472163 -13.170304 -23.863441
18.513678 -20.601206 -24.971693
24.642019 -18.469059 -24.28625
18.816707 -17.626534 -25.591867
21.262186 -22.886473 -23.890337
21.788264 -16.543186 -25.300713
24.511057 -21.814621 -23.48111
2.1208172 16.329158 -27.73187
6.3410353 14.889489 -28.010674
3.5385432 18.336966 -27.482895
2.0666037 13.984141 -28.037254
15.025561 11.63214 -28.107506
10.613688 13.342074 -28.147549
6.7092108 22.715063 -26.838927
7.9359753 16.867242 -27.77786
5.0720011 20.468339 -27.187085
5.7418607 17.60963 -27.649455
1.9881629 9.5363795 -28.484658
6.1924861 12.527672 -28.261736
2.0247424 11.712486 -28.287535
4.1378543 13.265251 -28.165978
34.621981 1.7175765 -24.176658
29.525709 4.802921 -26.019181
35.724337 4.599665 -23.83577
31.918242 0 -25.069063
19.642987 9.691775 -27.821655
24.491224 7.4418031 -27.177499
37.765542 10.789399 -22.931951
30.467382 7.6162541 -25.785997
36.77357 7.6366321 -23.420677
33.096244 6.1744093 -24.917168
26.624654 -3.0258408 -26.311173
26.935808 3.0612029 -26.618663
29.225442 -1.5850067 -25.773888
29.404928 1.5947409 -25.932176
15.151325 33.743337 -24.515358
16.179991 26.285333 -26.179775
12.737578 30.665516 -25.279696
18.897901 33.529043 -24.4865
17.197359 13.549473 -27.825912
16.823554 19.60981 -27.221083
14.839566 14.438736 -27.898471
8.5859058 25.218309 -26.405974
13.85333 23.722282 -26.704929
10.547235 27.819062 -25.901313
9.1974824 22.019709 -27.01202
13.353941 27.088118 -26.074045
26.715156 32.382699 -24.008098
19.568879 25.732481 -26.109434
22.793578 33.093869 -24.332638
19.284443 29.49312 -25.398648
10.259786 16.082803 -27.867308
14.269397 20.41805 -27.219755
12.51547 15.283361 -27.909213
9.7547634 18.96911 -27.494912
14.58872 17.374161 -27.605375
11.730968 21.255489 -27.141967
1.9312818 1.1935978 -28.847632
5.8758358 3.6314662 -28.771638
1.9386031 3.2078349 -28.817702
3.8830505 0 -28.821011
14.733248 9.1056479 -28.263625
10.07608 6.2273599 -28.596704
12.571244 10.022286 -28.332093
1.9723917 7.328319 -28.641863
5.9251726 5.7292758 -28.714738
1.9509525 5.2606605 -28.749258
3.9954256 8.7379713 -28.565708
3.9152892 4.452753 -28.777135
7.9121534 -2.4286406 -28.62644
7.9404554 2.4373279 -28.728837
5.8846253 -1.2115029 -28.748019
5.8924692 1.2131178 -28.786339
8.3437496 11.706456 -28.327327
8.0771931 7.1079946 -28.622444
10.432489 10.893166 -28.35094
6.1197419 10.198397 -28.462468
10.254466 8.5145436 -28.499526
6.0317861 7.9239713 -28.612676
41.305015 25.527903 -20.11295
33.535995 20.726385 -24.159013
40.488254 21.536239 -20.954524
38.113132 27.834293 -21.481621
20.081682 12.411162 -27.640753
26.34122 16.279769 -26.447429
22.573337 11.373935 -27.382569
20.026872 15.456102 -27.422532
38.727719 14.258216 -22.350572
32.893788 17.243892 -24.67425
39.626076 17.769723 -21.699632
34.995033 12.415689 -24.143545
36.643134 19.36494 -23.062311
30.806017 31.257293 -23.427171
30.251753 22.428243 -24.957163
34.565582 29.766909 -22.601135
26.775955 27.950422 -24.875626
34.082095 25.059242 -23.474224
27.739803 9.0196004 -26.492146
29.16352 15.128738 -25.906276
25.14381 10.238774 -27.005474
31.288799 10.653708 -25.506062
25.762307 13.194282 -26.764256
32.099199 13.873522 -25.13761
19.78616 22.017169 -26.688048
26.470514 19.839506 -26.088347
19.931374 18.670698 -27.107883
23.078726 24.841784 -25.931414
23.1316 17.563141 -26.860606
26.682479 23.747168 -25.56129
16.973054 -7.7508628 -27.462978
17.245769 -2.5816837 -27.90424
19.217744 -6.7158259 -27.285636
14.578799 -6.3617822 -27.874211
17.369635 7.9319642 -28.10466
17.379347 2.6016804 -28.120375
19.644763 6.8650518 -27.891924
14.823412 6.4685246 -28.341903
23.988771 -4.3860544 -26.740874
19.471822 -1.3787261 -27.710763
21.568683 -5.5936434 -27.049193
24.194095 -1.474369 -26.948527
19.359388 -4.0362791 -27.529322
10.107369 -3.7346696 -28.439711
14.808621 -1.3174629 -28.224252
12.282059 -5.0172755 -28.196559
10.135374 -1.2528011 -28.561828
14.71567 -3.8237201 -28.076937
24.38316 4.4581636 -27.180509
19.55963 1.3849435 -27.835725
21.998203 5.7050355 -27.587852
24.326617 1.4824447 -27.096136
19.616694 4.0899253 -27.895215
21.823799 0 -27.452332
10.177922 3.7607393 -28.638232
14.859969 1.3220311 -28.322117
12.420764 5.0739373 -28.514993
10.159035 1.2557258 -28.628507
14.864194 3.8623125 -28.360314
12.458187 0 -28.463228
43.363978 62.099022 3.0806965
47.866455 54.317275 8.8357431
40.230439 60.296175 7.7633969
47.828663 60.896046 0
46.215897 32.629916 16.099476
47.828696 43.101218 13.096559
32.562316 53.625332 15.32045
43.432604 51.317688 12.828426
36.469749 57.262345 11.891461
42.361151 56.266225 10.496983
52.407924 53.032332 -6.0270228
52.407924 53.032332 6.0270228
51.028928 57.862554 -3.138106
51.028928 57.862554 3.138106
38.290997 2.928335 22.546613
40.428198 9.152105 21.490207
44.334616 23.700164 18.347643
42.415911 15.993905 20.105346
18.391681 37.770125 23.343221
26.675415 37.029102 22.885244
21.458569 41.462168 22.054276
42.211414 30.667623 18.953634
34.938795 34.798486 21.506647
42.885492 35.353463 17.813406
28.548215 49.466619 18.211911
30.399584 40.526358 21.24511
24.875286 45.425194 20.370251
33.806577 49.001183 17.384851
25.918928 41.181943 21.763582
43.667866 45.724419 14.867301
34.944756 39.338426 20.407027
43.41918 40.426012 16.461816
38.951322 47.78237 16.269702
39.090845 37.627437 19.271063
34.557743 44.128137 19.072521
49.320661 30.481845 -13.919746
56.767734 35.084389 -5.2521169
50.460292 35.540053 -12.419814
49.320661 30.481845 13.919746
56.767734 35.084389 5.2521169
50.460292 35.540053 12.419814
52.360803 46.97196 -8.5882506
57.594388 40.470473 -2.8655612
51.545575 41.101786 -10.659378
55.84732 50.139117 -3.055438
54.609588 38.402988 -8.0067187
52.360803 46.97196 8.5882506
57.594388 40.470473 2.8655612
51.545575 41.101786 10.659378
55.84732 50.139117 3.055438
54.609588 38.402988 8.0067187
57.540602 45.74309 0
33.718095 -48.285716 2.3954264
37.939154 -43.052101 7.0032473
31.917354 -47.836772 6.1591941
36.625078 -46.631502 0
41.314447 -29.169334 14.392038
40.402924 -36.409423 11.063218
27.035459 -44.523414 12.720084
35.340871 -41.756921 10.43842
29.611913 -46.494632 9.6553692
33.833602 -44.939502 8.3838783
41.259601 -41.751184 -4.7449419
41.259601 -41.751184 4.7449419
39.184974 -44.432496 -2.4097429
39.184974 -44.432496 2.4097429
37.931044 -2.9008073 22.334665
39.318013 -8.9007822 20.900072
41.180881 -22.014257 17.042486
40.434622 -15.246814 19.166206
16.658384 -34.210535 21.143274
23.524356 -32.655005 20.181903
19.047186 -36.802903 19.575951
37.881104 -27.521547 17.009252
30.662681 -30.539543 18.874476
37.683379 -31.065003 15.652597
24.253332 -42.024706 15.472054
26.307017 -35.070467 18.384971
21.604788 -39.45288 17.692056
28.308694 -41.032238 14.557594
22.654021 -35.994412 19.022108
36.479352 -38.19736 12.419876
30.155299 -33.946781 17.610081
37.233341 -34.666603 14.116536
32.420417 -39.770777 13.541787
33.916151 -32.646463 16.720035
29.339394 -37.464622 16.192499
44.709192 -27.6318 -12.618253
49.804055 -30.780599 -4.6078415
44.510917 -31.349806 -10.955492
44.709192 -27.6318 12.618253
49.804055 -30.780599 4.6078415
44.510917 -31.349806 10.955492
42.900329 -38.485135 -7.036538
48.660142 -34.19255 -2.4210451
43.930946 -35.029977 -9.0847089
44.313633 -39.784299 -2.4244236
47.135846 -33.147243 -6.9109375
42.900329 -38.485135 7.036538
48.660142 -34.19255 2.4210451
43.930946 -35.029977 9.0847089
44.313633 -39.784299 2.4244236
47.135846 -33.147243 6.9109375
46.841661 -37.237746 0
2.1074863 -16.226517 27.557555
6.2344999 -14.639331 27.540068
3.4975318 -18.124442 27.16437
2.0556742 -13.910183 27.888974
14.586052 -11.291891 27.285339
10.353053 -13.01444 27.456344
6.5344719 -22.123457 26.139917
7.7508319 -16.473735 27.129813
4.9798127 -20.096308 26.692933
5.6393554 -17.295258 27.155849
1.9811754 -9.5028634 28.384548
6.1060828 -12.352874 27.867402
2.0158935 -11.661298 28.163908
4.0966252 -13.133077 27.885336
34.408346 -1.7069781 24.027476
28.989212 -4.7156495 25.546399
35.151638 -4.5259274 23.453657
19.049049 -9.3987282 26.980421
23.838052 -7.2433329 26.452685
36.415983 -10.403838 22.112474
29.599368 -7.3992675 25.051355
35.82172 -7.4389649 22.814454
32.346595 -6.0345552 24.352779
14.022025 -31.228287 22.688113
15.139041 -24.59425 24.495483
11.974813 -28.829173 23.765872
17.235281 -30.579188 22.3322
16.551466 -13.040586 26.780834
15.955638 -18.598153 25.816765
14.314313 -13.927669 26.910991
8.2777986 -24.313344 25.458389
13.132941 -22.488697 25.316243
10.052132 -26.513193 24.685466
8.8848877 -21.271326 26.093963
12.601254 -25.561313 24.604398
23.878722 -28.944523 21.459081
18.142591 -23.856956 24.206435
20.538414 -29.819608 21.925201
17.728298 -27.113192 23.34912
9.9693118 -15.627468 27.078331
13.601435 -19.462265 25.945576
12.111755 -14.790362 27.008938
9.4483254 -18.373211 26.631182
13.986152 -16.656544 26.46517
11.250059 -20.384125 26.029288
1.9304452 -1.1930807 28.835136
5.8526046 -3.6171086 28.657885
1.9363422 -3.2040938 28.784094
14.397043 -8.897862 27.618664
9.9625083 -6.1571688 28.274378
12.297049 -9.8036871 27.714133
1.9670808 -7.3085865 28.564741
5.888109 -5.6934376 28.53512
1.9472082 -5.2505643 28.694083
3.9697185 -8.6817501 28.381913
3.9025762 -4.4382948 28.683694
8.1987746 -11.503053 27.835132
7.9930676 -7.0339635 28.324336
10.224192 -10.675672 27.784881
6.0504156 -10.082866 28.140036
10.0953 -8.3823841 28.057168
5.9790326 -7.854669 28.362432
37.857786 -23.397398 18.434366
31.043602 -19.186001 22.363517
37.666863 -20.035504 19.494325
34.434785 -25.14797 19.408403
19.303937 -11.930489 26.570252
24.825344 -15.342906 24.925441
21.707274 -10.937556 26.331993
19.079112 -14.724652 26.124778
36.928645 -13.595859 21.312289
30.843246 -16.168938 23.1361
37.350346 -16.749206 20.45342
33.457053 -11.870038 23.082472
34.183003 -18.064825 21.513963
27.458123 -27.860355 20.881185
27.827587 -20.630999 22.957269
30.92277 -26.629822 20.219238
24.261135 -25.325295 22.539286
31.040439 -22.82283 21.379268
26.813284 -8.7183427 25.607299
27.554999 -14.294308 24.477408
24.223532 -9.8640284 26.017058
30.056629 -10.234159 24.50162
24.552948 -12.574904 25.507863
30.472163 -13.170304 23.863441
18.513678 -20.601206 24.971693
24.642019 -18.469059 24.28625
18.816707 -17.626534 25.591867
21.262186 -22.886473 23.890337
21.788264 -16.543186 25.300713
24.511057 -21.814621 23.48111
2.1208172 16.329158 27.73187
6.3410353 14.889489 28.010674
3.5385432 18.336966 27.482895
2.0666037 13.984141 28.037254
15.025561 11.63214 28.107506
10.613688 13.342074 28.147549
6.7092108 22.715063 26.838927
7.9359753 16.867242 27.77786
5.0720011 20.468339 27.187085
5.7418607 17.60963 27.649455
1.9881629 9.5363795 28.484658
6.1924861 12.527672 28.261736
2.0247424 11.712486 28.287535
4.1378543 13.265251 28.165978
34.621981 1.7175765 24.176658
29.525709 4.802921 26.019181
35.724337 4.599665 23.83577
31.918242 0 25.069063
19.642987 9.691775 27.821655
24.491224 7.4418031 27.177499
37.765542 10.789399 22.931951
30.467382 7.6162541 25.785997
36.77357 7.6366321 23.420677
33.096244 6.1744093 24.917168
26.624654 -3.0258408 26.311173
26.935808 3.0612029 26.618663
29.225442 -1.5850067 25.773888
29.404928 1.5947409 25.932176
15.151325 33.743337 24.515358
16.179991 26.285333 26.179775
12.737578 30.665516 25.279696
18.897901 33.529043 24.4865
17.197359 13.549473 27.825912
16.823554 19.60981 27.221083
14.839566 14.438736 27.898471
8.5859058 25.218309 26.405974
