14.974556 26.735795 4.0555295
10.032735 22.575653 10.262131
10.146435 26.179906 3.7289929
1.7387582 13.2014 16.808186
5.6127009 17.960076 14.365772
0 15.095899 15.275757
2.0137727 24.184341 3.2583526
5.9806303 22.326333 9.676863
5.747729 25.234589 3.4674971
0 22.559784 6.2353709
8.0113835 24.3657 7.0227579
-3.3913183 18.214085 11.256924
3.6790235 19.759291 12.211914
-1.7495528 16.8225 13.373394
-1.8474239 20.488245 8.9675838
1.8190849 17.491073 13.904889
1.9364761 21.475849 9.3998524
0 -8.1742029 18.543824
0 -2.7267918 19.577214
0 8.1742029 18.543824
0 2.7267918 19.577214
-14.974556 -26.735795 -4.0555295
-10.032735 -22.575653 -10.262131
-10.146435 -26.179906 -3.7289929
-1.7387582 -13.2014 -16.808186
-5.6127009 -17.960076 -14.365772
-2.0137727 -24.184341 -3.2583526
-5.9806303 -22.326333 -9.676863
-5.747729 -25.234589 -3.4674971
-8.0113835 -24.3657 -7.0227579
10.657154 -19.027441 -2.886256
8.098066 -18.222261 -8.2832263
7.896845 -20.375498 -2.9022292
1.6844379 -12.788977 -16.283084
5.0073529 -16.023024 -12.816377
0 -15.095899 -15.275757
1.903365 -22.858403 -3.0797093
5.2127665 -19.459815 -8.4344333
4.9364144 -21.672627 -2.9780463
0 -22.559784 -6.2353709
6.6169378 -20.124654 -5.8003905
-3.6790235 -19.759291 -12.211914
3.3913183 -18.214085 -11.256924
-1.8190849 -17.491073 -13.904889
-1.9364761 -21.475849 -9.3998524
1.7495528 -16.8225 -13.373394
1.8474239 -20.488245 -8.9675838
-10.657154 19.027441 -2.886256
-8.098066 18.222261 -8.2832263
-7.896845 20.375498 -2.9022292
-1.6844379 12.788977 -16.283084
-5.0073529 16.023024 -12.816377
-1.903365 22.858403 -3.0797093
-5.2127665 19.459815 -8.4344333
-4.9364144 21.672627 -2.9780463
-6.6169378 20.124654 -5.8003905
14.974556 26.735795 -4.0555295
10.032735 22.575653 -10.262131
10.146435 26.179906 -3.7289929
1.7387582 13.2014 -16.808186
5.6127009 17.960076 -14.365772
0 15.095899 -15.275757
2.0137727 24.184341 -3.2583526
5.9806303 22.326333 -9.676863
5.747729 25.234589 -3.4674971
0 22.559784 -6.2353709
8.0113835 24.3657 -7.0227579
-3.3913183 18.214085 -11.256924
3.6790235 19.759291 -12.211914
-1.7495528 16.8225 -13.373394
-1.8474239 20.488245 -8.9675838
1.8190849 17.491073 -13.904889
1.9364761 21.475849 -9.3998524
0 -8.1742029 -18.543824
0 -2.7267918 -19.577214
0 8.1742029 -18.543824
0 2.7267918 -19.577214
21.264504 27.074229 -2.8007506
27.095791 21.673179 -8.4677019
18.232486 25.298773 -6.7989937
26.866031 4.0752848 -15.0475
30.085738 13.675963 -13.370256
12.329055 20.58331 -12.721185
23.114245 19.662151 -12.151878
15.113254 22.941307 -10.136174
20.972133 22.750486 -9.5887142
13.764335 -17.524922 -1.8129024
17.697988 -14.156135 -5.5307958
12.619425 -17.510281 -4.7058525
23.36705 -3.5445275 -13.087742
21.013247 -9.5519142 -9.3383941
9.7139863 -16.217463 -10.022944
16.043046 -13.64703 -8.4343286
11.226635 -17.041577 -7.5294918
14.455696 -15.681482 -6.6093202
2.6557683 -9.8061056 -17.507967
7.8114353 -7.6368212 -17.184369
4.3518908 -11.670225 -16.193205
2.6287937 -7.1528385 -18.455807
19.895905 -2.0581738 -15.626541
13.292046 -5.1931968 -16.617705
19.513963 -5.2443377 -14.063451
7.8030926 -14.842364 -12.625669
9.7223997 -9.4227067 -15.731173
6.1230861 -13.392221 -14.527828
10.9264 -13.761406 -12.009276
7.0689734 -10.539992 -15.999281
2.631841 -1.6265672 -19.534209
7.8759223 -4.8675877 -18.171226
2.629798 -4.3591575 -19.138263
5.2834963 -6.0272781 -18.331272
17.633243 -10.897943 -10.562014
13.005577 -8.0378886 -15.288973
18.705467 -8.2646495 -12.322771
14.247884 -12.433815 -11.312658
16.028812 -6.7557106 -14.775877
12.044264 -10.958234 -13.801499
2.7681467 10.221049 -18.248814
8.6612045 8.467595 -19.053775
4.7134127 12.639699 -17.538413
2.711706 7.3784394 -19.037904
21.288798 2.2022645 -16.72054
15.027321 5.8711678 -18.787144
23.410941 6.2916427 -16.871951
17.4757 0 -17.26994
9.3073401 17.703613 -15.059593
11.400551 11.049129 -18.446479
6.9511667 15.203372 -16.492558
13.929018 17.543094 -15.309472
8.0013784 11.930228 -18.109602
2.6509937 1.6384042 -19.676365
8.4183448 5.2028232 -19.422696
2.6811445 4.4442696 -19.511935
5.3852893 0 -19.48416
5.578621 6.3639488 -19.355217
24.747883 15.295033 -14.823563
15.696946 9.7012462 -18.452867
24.797164 10.956148 -16.335854
19.254243 16.802754 -15.287651
19.509076 8.2225475 -17.984096
15.144079 13.778538 -17.35357
11.080558 -3.3381855 -17.928719
11.814427 3.5592746 -19.116144
14.037968 -1.8364947 -17.658473
8.2709419 -1.7039077 -18.896626
14.662044 1.9181385 -18.443503
8.4715855 1.7452426 -19.355037
21.264504 27.074229 2.8007506
27.095791 21.673179 8.4677019
18.232486 25.298773 6.7989937
26.052491 26.36289 0
26.866031 4.0752848 15.0475
30.085738 13.675963 13.370256
12.329055 20.58331 12.721185
23.114245 19.662151 12.151878
15.113254 22.941307 10.136174
20.972133 22.750486 9.5887142
32.706001 20.21342 -6.0895983
32.706001 20.21342 6.0895983
29.90823 23.776166 -3.1104789
29.90823 23.776166 3.1104789
13.764335 -17.524922 1.8129024
17.697988 -14.156135 5.5307958
12.619425 -17.510281 4.7058525
16.089323 -16.281017 0
23.36705 -3.5445275 13.087742
21.013247 -9.5519142 9.3383941
9.7139863 -16.217463 10.022944
16.043046 -13.64703 8.4343286
11.226635 -17.041577 7.5294918
14.455696 -15.681482 6.6093202
20.666971 -12.77289 -3.8480262
20.666971 -12.77289 3.8480262
18.453734 -14.670177 -1.9192025
18.453734 -14.670177 1.9192025
2.6557683 -9.8061056 17.507967
7.8114353 -7.6368212 17.184369
4.3518908 -11.670225 16.193205
2.6287937 -7.1528385 18.455807
19.895905 -2.0581738 15.626541
13.292046 -5.1931968 16.617705
19.513963 -5.2443377 14.063451
7.8030926 -14.842364 12.625669
9.7223997 -9.4227067 15.731173
6.1230861 -13.392221 14.527828
10.9264 -13.761406 12.009276
7.0689734 -10.539992 15.999281
2.631841 -1.6265672 19.534209
7.8759223 -4.8675877 18.171226
2.629798 -4.3591575 19.138263
5.2834963 -6.0272781 18.331272
17.633243 -10.897943 10.562014
13.005577 -8.0378886 15.288973
18.705467 -8.2646495 12.322771
14.247884 -12.433815 11.312658
16.028812 -6.7557106 14.775877
12.044264 -10.958234 13.801499
2.7681467 10.221049 18.248814
8.6612045 8.467595 19.053775
4.7134127 12.639699 17.538413
2.711706 7.3784394 19.037904
21.288798 2.2022645 16.72054
15.027321 5.8711678 18.787144
23.410941 6.2916427 16.871951
17.4757 0 17.26994
9.3073401 17.703613 15.059593
11.400551 11.049129 18.446479
6.9511667 15.203372 16.492558
13.929018 17.543094 15.309472
8.0013784 11.930228 18.109602
2.6509937 1.6384042 19.676365
8.4183448 5.2028232 19.422696
2.6811445 4.4442696 19.511935
5.3852893 0 19.48416
5.578621 6.3639488 19.355217
24.747883 15.295033 14.823563
15.696946 9.7012462 18.452867
24.797164 10.956148 16.335854
19.254243 16.802754 15.287651
19.509076 8.2225475 17.984096
15.144079 13.778538 17.35357
11.080558 -3.3381855 17.928719
11.814427 3.5592746 19.116144
14.037968 -1.8364947 17.658473
8.2709419 -1.7039077 18.896626
14.662044 1.9181385 18.443503
8.4715855 1.7452426 19.355037
28.197799 0 -12.42972
35.353481 0 -4.9241726
31.89693 4.5433098 -12.362157
26.887082 -3.829721 -10.420512
28.197799 0 12.42972
35.353481 0 4.9241726
31.89693 4.5433098 12.362157
26.887082 -3.829721 10.420512
34.895264 15.124593 -9.3475124
39.883265 5.3734664 -3.3209848
34.712615 10.004978 -11.413424
38.183467 16.712678 -3.4430011
36.745521 5.0492199 -8.3695952
23.159561 -10.038008 -6.2038299
31.859882 -4.2924771 -2.6528968
25.120104 -7.2401947 -8.2594298
24.233783 -10.606984 -2.1851588
29.992283 -4.1212541 -6.8313976
34.895264 15.124593 9.3475124
39.883265 5.3734664 3.3209848
34.712615 10.004978 11.413424
38.183467 16.712678 3.4430011
36.745521 5.0492199 8.3695952
41.49629 11.469292 0
23.159561 -10.038008 6.2038299
31.859882 -4.2924771 2.6528968
25.120104 -7.2401947 8.2594298
24.233783 -10.606984 2.1851588
29.992283 -4.1212541 6.8313976
28.132157 -7.7755369 0
-13.764335 17.524922 -1.8129024
-17.697988 14.156135 -5.5307958
-12.619425 17.510281 -4.7058525
-23.36705 3.5445275 -13.087742
-21.013247 9.5519142 -9.3383941
-9.7139863 16.217463 -10.022944
-16.043046 13.64703 -8.4343286
-11.226635 17.041577 -7.5294918
-14.455696 15.681482 -6.6093202
-21.264504 -27.074229 -2.8007506
-27.095791 -21.673179 -8.4677019
-18.232486 -25.298773 -6.7989937
-26.866031 -4.0752848 -15.0475
-30.085738 -13.675963 -13.370256
-12.329055 -20.58331 -12.721185
-23.114245 -19.662151 -12.151878
-15.113254 -22.941307 -10.136174
-20.972133 -22.750486 -9.5887142
-2.7681467 -10.221049 -18.248814
-8.6612045 -8.467595 -19.053775
-4.7134127 -12.639699 -17.538413
-2.711706 -7.3784394 -19.037904
-21.288798 -2.2022645 -16.72054
-15.027321 -5.8711678 -18.787144
-23.410941 -6.2916427 -16.871951
-9.3073401 -17.703613 -15.059593
-11.400551 -11.049129 -18.446479
-6.9511667 -15.203372 -16.492558
-13.929018 -17.543094 -15.309472
-8.0013784 -11.930228 -18.109602
-2.6509937 -1.6384042 -19.676365
-8.4183448 -5.2028232 -19.422696
-2.6811445 -4.4442696 -19.511935
-5.578621 -6.3639488 -19.355217
-24.747883 -15.295033 -14.823563
-15.696946 -9.7012462 -18.452867
-24.797164 -10.956148 -16.335854
-19.254243 -16.802754 -15.287651
-19.509076 -8.2225475 -17.984096
-15.144079 -13.778538 -17.35357
-2.6557683 9.8061056 -17.507967
-7.8114353 7.6368212 -17.184369
-4.3518908 11.670225 -16.193205
-2.6287937 7.1528385 -18.455807
-19.895905 2.0581738 -15.626541
-13.292046 5.1931968 -16.617705
-19.513963 5.2443377 -14.063451
-17.4757 0 -17.26994
-7.8030926 14.842364 -12.625669
-9.7223997 9.4227067 -15.731173
-6.1230861 13.392221 -14.527828
-10.9264 13.761406 -12.009276
-7.0689734 10.539992 -15.999281
-2.631841 1.6265672 -19.534209
-7.8759223 4.8675877 -18.171226
-2.629798 4.3591575 -19.138263
-5.3852893 0 -19.48416
-5.2834963 6.0272781 -18.331272
-17.633243 10.897943 -10.562014
-13.005577 8.0378886 -15.288973
-18.705467 8.2646495 -12.322771
-14.247884 12.433815 -11.312658
-16.028812 6.7557106 -14.775877
-12.044264 10.958234 -13.801499
-11.814427 -3.5592746 -19.116144
-11.080558 3.3381855 -17.928719
-14.662044 -1.9181385 -18.443503
-8.4715855 -1.7452426 -19.355037
-14.037968 1.8364947 -17.658473
-8.2709419 1.7039077 -18.896626
-13.764335 17.524922 1.8129024
-17.697988 14.156135 5.5307958
-12.619425 17.510281 4.7058525
-16.089323 16.281017 0
-23.36705 3.5445275 13.087742
-21.013247 9.5519142 9.3383941
-9.7139863 16.217463 10.022944
-16.043046 13.64703 8.4343286
-11.226635 17.041577 7.5294918
-14.455696 15.681482 6.6093202
-20.666971 12.77289 -3.8480262
-20.666971 12.77289 3.8480262
-18.453734 14.670177 -1.9192025
-18.453734 14.670177 1.9192025
-21.264504 -27.074229 2.8007506
-27.095791 -21.673179 8.4677019
-18.232486 -25.298773 6.7989937
-26.052491 -26.36289 0
-26.866031 -4.0752848 15.0475
-30.085738 -13.675963 13.370256
-12.329055 -20.58331 12.721185
-23.114245 -19.662151 12.151878
-15.113254 -22.941307 10.136174
-20.972133 -22.750486 9.5887142
-32.706001 -20.21342 -6.0895983
-32.706001 -20.21342 6.0895983
-29.90823 -23.776166 -3.1104789
-29.90823 -23.776166 3.1104789
-2.7681467 -10.221049 18.248814
-8.6612045 -8.467595 19.053775
-4.7134127 -12.639699 17.538413
-2.711706 -7.3784394 19.037904
-21.288798 -2.2022645 16.72054
-15.027321 -5.8711678 18.787144
-23.410941 -6.2916427 16.871951
-9.3073401 -17.703613 15.059593
-11.400551 -11.049129 18.446479
-6.9511667 -15.203372 16.492558
-13.929018 -17.543094 15.309472
-8.0013784 -11.930228 18.109602
-2.6509937 -1.6384042 19.676365
-8.4183448 -5.2028232 19.422696
-2.6811445 -4.4442696 19.511935
-5.578621 -6.3639488 19.355217
-24.747883 -15.295033 14.823563
-15.696946 -9.7012462 18.452867
-24.797164 -10.956148 16.335854
-19.254243 -16.802754 15.287651
-19.509076 -8.2225475 17.984096
-15.144079 -13.778538 17.35357
-2.6557683 9.8061056 17.507967
-7.8114353 7.6368212 17.184369
-4.3518908 11.670225 16.193205
-2.6287937 7.1528385 18.455807
-19.895905 2.0581738 15.626541
-13.292046 5.1931968 16.617705
-19.513963 5.2443377 14.063451
-17.4757 0 17.26994
-7.8030926 14.842364 12.625669
-9.7223997 9.4227067 15.731173
-6.1230861 13.392221 14.527828
-10.9264 13.761406 12.009276
-7.0689734 10.539992 15.999281
-2.631841 1.6265672 19.534209
-7.8759223 4.8675877 18.171226
-2.629798 4.3591575 19.138263
-5.3852893 0 19.48416
-5.2834963 6.0272781 18.331272
-17.633243 10.897943 10.562014
-13.005577 8.0378886 15.288973
-18.705467 8.2646495 12.322771
-14.247884 12.433815 11.312658
-16.028812 6.7557106 14.775877
-12.044264 10.958234 13.801499
-11.814427 -3.5592746 19.116144
-11.080558 3.3381855 17.928719
-14.662044 -1.9181385 18.443503
-8.4715855 -1.7452426 19.355037
-14.037968 1.8364947 17.658473
-8.2709419 1.7039077 18.896626
-28.197799 0 -12.42972
-35.353481 0 -4.9241726
-26.887082 3.829721 -10.420512
-31.89693 -4.5433098 -12.362157
-28.197799 0 12.42972
-35.353481 0 4.9241726
-26.887082 3.829721 10.420512
-31.89693 -4.5433098 12.362157
-23.159561 10.038008 -6.2038299
-31.859882 4.2924771 -2.6528968
-25.120104 7.2401947 -8.2594298
-24.233783 10.606984 -2.1851588
-29.992283 4.1212541 -6.8313976
-34.895264 -15.124593 -9.3475124
-39.883265 -5.3734664 -3.3209848
-34.712615 -10.004978 -11.413424
-38.183467 -16.712678 -3.4430011
-36.745521 -5.0492199 -8.3695952
-23.159561 10.038008 6.2038299
-31.859882 4.2924771 2.6528968
-25.120104 7.2401947 8.2594298
-24.233783 10.606984 2.1851588
-29.992283 4.1212541 6.8313976
-28.132157 7.7755369 0
-34.895264 -15.124593 9.3475124
-39.883265 -5.3734664 3.3209848
-34.712615 -10.004978 11.413424
-38.183467 -16.712678 3.4430011
-36.745521 -5.0492199 8.3695952
-41.49629 -11.469292 0
-10.263206 19.50484 0
-7.5088914 20.830028 0
-1.6134352 23.279391 0
-4.6506105 22.080087 0
14.468274 27.496416 0
9.6080614 26.653227 0
1.6942821 24.445888 0
5.3884664 25.583266 0
-14.468274 -27.496416 0
-9.6080614 -26.653227 0
-1.6942821 -24.445888 0
-5.3884664 -25.583266 0
10.263206 -19.50484 0
7.5088914 -20.830028 0
1.6134352 -23.279391 0
4.6506105 -22.080087 0
-16.149083 -27.426048 2.0974292
-13.71996 -25.810512 5.8429642
-13.558846 -27.184567 2.0037529
-8.8760151 -21.447699 11.465397
-11.22731 -23.686067 8.9313823
-8.8165266 -26.334496 1.8380866
-11.368359 -25.646392 5.6194327
-11.09642 -26.799637 1.9182429
-12.489614 -26.519077 3.8959086
-0.85452401 -12.028306 17.225035
-2.6554434 -14.385509 16.324201
-6.667079 -19.138823 13.512627
-4.5921946 -16.770716 15.113067
-0.9981251 -24.123324 1.6150003
-3.03338 -24.033078 4.9081119
-2.7485284 -24.691506 1.6610286
-6.8915557 -21.391157 11.150771
-5.0284182 -23.091035 8.1361516
-7.9556448 -22.489886 9.9789956
-6.6001173 -25.795774 1.7763987
-4.8900407 -24.508549 5.0572421
-4.6211201 -25.254201 1.7137745
-7.8711931 -25.732083 3.5990924
-3.824774 -24.718648 3.3631096
-10.173362 -24.617542 7.2510409
-5.9705759 -24.042291 6.7846837
-9.0578497 -23.57428 8.6747886
-9.0768258 -25.332302 5.446722
-6.9811956 -23.367168 8.4077829
-6.907547 -24.942468 5.2580763
11.170464 -18.97084 1.4508103
10.087407 -18.976814 4.2959569
9.8075024 -19.663377 1.4493719
7.3615073 -17.788094 9.5090652
8.8018328 -18.569079 7.0019028
7.024265 -20.981106 1.4644324
8.7119285 -19.65363 4.3063467
8.4201227 -20.335949 1.4555902
9.2843763 -19.713426 2.8960927
0.84193202 -11.851061 16.971213
2.5249506 -13.678581 15.522003
0 -13.005586 16.558873
5.8114274 -16.682551 11.77842
4.1893397 -15.299488 13.787258
-1.7652757 -15.34994 15.532825
1.7040659 -14.81769 14.994234
-0.87203181 -14.180161 16.079122
0.85743243 -13.94276 15.809928
0.96968337 -23.435926 1.5689806
2.7964715 -22.156083 4.5247859
2.543365 -22.848413 1.5370414
0 -23.529037 3.1700637
5.9279199 -18.400064 9.5915759
4.4521775 -20.444876 7.2037745
6.6685002 -18.851245 8.3644928
5.5353713 -21.63434 1.489826
4.304992 -21.576325 4.4521892
4.0705113 -22.24515 1.5095774
6.4338907 -21.033331 2.9418879
3.4461632 -22.271773 3.0301986
-1.9621699 -23.128139 6.3924604
1.8635316 -21.965488 6.0711115
-0.98727784 -23.427334 4.7954984
0.96073419 -22.797474 4.6665681
8.0522804 -19.48494 5.7392445
5.1516266 -20.744549 5.8540679
7.3834894 -19.216531 7.0712379
7.2775526 -20.310752 4.3670339
5.9285981 -19.843957 7.14009
5.803011 -20.954098 4.4172952
-5.6604716 -20.056271 12.395457
-1.7968101 -19.4209 12.002776
-4.6551989 -18.913543 13.321134
-4.8070661 -21.062207 11.015977
5.0115101 -17.756861 10.974343
1.7250036 -18.644776 11.523105
4.2171712 -17.133886 12.067691
4.3135026 -18.899654 9.8849166
-2.7189963 -16.577163 14.871083
-0.91128681 -18.315786 12.870152
-3.669556 -17.74488 14.149541
-0.89168711 -16.298264 14.632404
-2.732202 -18.634903 13.104584
-2.9686024 -22.606068 8.0341133
-0.94697508 -20.287222 10.644243
-3.9008088 -21.922134 9.5490001
-0.96971495 -22.107924 7.8451587
-2.8176324 -20.689403 10.84372
2.5714805 -15.677789 14.064271
0.8929474 -17.947186 12.611144
3.3985775 -16.434508 13.104668
0.87517463 -15.996449 14.361438
2.5742147 -17.557356 12.346823
0 -17.171181 13.650585
2.7570215 -20.994867 7.4614985
0.92591797 -19.836112 10.407556
3.5567189 -19.988385 8.7066838
0.94592505 -21.565553 7.6526944
2.6395445 -19.381734 10.158345
0 -20.998788 9.1910457
-11.170464 18.97084 1.4508103
-10.087407 18.976814 4.2959569
-9.8075024 19.663377 1.4493719
-7.3615073 17.788094 9.5090652
-8.8018328 18.569079 7.0019028
-7.024265 20.981106 1.4644324
-8.7119285 19.65363 4.3063467
-8.4201227 20.335949 1.4555902
-9.2843763 19.713426 2.8960927
-0.84193202 11.851061 16.971213
-2.5249506 13.678581 15.522003
-5.8114274 16.682551 11.77842
-4.1893397 15.299488 13.787258
-0.96968337 23.435926 1.5689806
-2.7964715 22.156083 4.5247859
-2.543365 22.848413 1.5370414
-5.9279199 18.400064 9.5915759
-4.4521775 20.444876 7.2037745
-6.6685002 18.851245 8.3644928
-5.5353713 21.63434 1.489826
-4.304992 21.576325 4.4521892
-4.0705113 22.24515 1.5095774
-6.4338907 21.033331 2.9418879
-3.4461632 22.271773 3.0301986
-8.0522804 19.48494 5.7392445
-5.1516266 20.744549 5.8540679
-7.3834894 19.216531 7.0712379
-7.2775526 20.310752 4.3670339
-5.9285981 19.843957 7.14009
-5.803011 20.954098 4.4172952
16.149083 27.426048 2.0974292
13.71996 25.810512 5.8429642
13.558846 27.184567 2.0037529
8.8760151 21.447699 11.465397
11.22731 23.686067 8.9313823
8.8165266 26.334496 1.8380866
11.368359 25.646392 5.6194327
11.09642 26.799637 1.9182429
12.489614 26.519077 3.8959086
0.85452401 12.028306 17.225035
2.6554434 14.385509 16.324201
0 13.005586 16.558873
6.667079 19.138823 13.512627
4.5921946 16.770716 15.113067
-1.7040659 14.81769 14.994234
1.7652757 15.34994 15.532825
-0.85743243 13.94276 15.809928
0.87203181 14.180161 16.079122
0.9981251 24.123324 1.6150003
3.03338 24.033078 4.9081119
2.7485284 24.691506 1.6610286
0 23.529037 3.1700637
6.8915557 21.391157 11.150771
5.0284182 23.091035 8.1361516
7.9556448 22.489886 9.9789956
6.6001173 25.795774 1.7763987
4.8900407 24.508549 5.0572421
4.6211201 25.254201 1.7137745
7.8711931 25.732083 3.5990924
3.824774 24.718648 3.3631096
-1.8635316 21.965488 6.0711115
1.9621699 23.128139 6.3924604
-0.96073419 22.797474 4.6665681
0.98727784 23.427334 4.7954984
10.173362 24.617542 7.2510409
5.9705759 24.042291 6.7846837
9.0578497 23.57428 8.6747886
9.0768258 25.332302 5.446722
6.9811956 23.367168 8.4077829
6.907547 24.942468 5.2580763
-5.0115101 17.756861 10.974343
-1.7250036 18.644776 11.523105
-4.2171712 17.133886 12.067691
-4.3135026 18.899654 9.8849166
5.6604716 20.056271 12.395457
1.7968101 19.4209 12.002776
4.6551989 18.913543 13.321134
4.8070661 21.062207 11.015977
-2.5714805 15.677789 14.064271
-0.8929474 17.947186 12.611144
-3.3985775 16.434508 13.104668
-0.87517463 15.996449 14.361438
-2.5742147 17.557356 12.346823
-2.7570215 20.994867 7.4614985
-0.92591797 19.836112 10.407556
-3.5567189 19.988385 8.7066838
-0.94592505 21.565553 7.6526944
-2.6395445 19.381734 10.158345
2.7189963 16.577163 14.871083
0.91128681 18.315786 12.870152
3.669556 17.74488 14.149541
0.89168711 16.298264 14.632404
2.732202 18.634903 13.104584
0 17.171181 13.650585
2.9686024 22.606068 8.0341133
0.94697508 20.287222 10.644243
3.9008088 21.922134 9.5490001
0.96971495 22.107924 7.8451587
2.8176324 20.689403 10.84372
0 20.998788 9.1910457
0 -9.5263468 18.104467
0 -6.8156576 18.906963
0 -1.3633071 19.670427
0 -4.0904222 19.420434
0 9.5263468 18.104467
0 6.8156576 18.906963
0 1.3633071 19.670427
0 4.0904222 19.420434
-16.149083 -27.426048 -2.0974292
-13.71996 -25.810512 -5.8429642
-13.558846 -27.184567 -2.0037529
-8.8760151 -21.447699 -11.465397
-11.22731 -23.686067 -8.9313823
-8.8165266 -26.334496 -1.8380866
-11.368359 -25.646392 -5.6194327
-11.09642 -26.799637 -1.9182429
-12.489614 -26.519077 -3.8959086
-0.85452401 -12.028306 -17.225035
-2.6554434 -14.385509 -16.324201
-6.667079 -19.138823 -13.512627
-4.5921946 -16.770716 -15.113067
-0.9981251 -24.123324 -1.6150003
-3.03338 -24.033078 -4.9081119
-2.7485284 -24.691506 -1.6610286
-6.8915557 -21.391157 -11.150771
-5.0284182 -23.091035 -8.1361516
-7.9556448 -22.489886 -9.9789956
-6.6001173 -25.795774 -1.7763987
-4.8900407 -24.508549 -5.0572421
-4.6211201 -25.254201 -1.7137745
-7.8711931 -25.732083 -3.5990924
-3.824774 -24.718648 -3.3631096
-10.173362 -24.617542 -7.2510409
-5.9705759 -24.042291 -6.7846837
-9.0578497 -23.57428 -8.6747886
-9.0768258 -25.332302 -5.446722
-6.9811956 -23.367168 -8.4077829
-6.907547 -24.942468 -5.2580763
11.170464 -18.97084 -1.4508103
10.087407 -18.976814 -4.2959569
9.8075024 -19.663377 -1.4493719
7.3615073 -17.788094 -9.5090652
8.8018328 -18.569079 -7.0019028
7.024265 -20.981106 -1.4644324
8.7119285 -19.65363 -4.3063467
8.4201227 -20.335949 -1.4555902
9.2843763 -19.713426 -2.8960927
0.84193202 -11.851061 -16.971213
2.5249506 -13.678581 -15.522003
0 -13.005586 -16.558873
5.8114274 -16.682551 -11.77842
4.1893397 -15.299488 -13.787258
-1.7652757 -15.34994 -15.532825
1.7040659 -14.81769 -14.994234
-0.87203181 -14.180161 -16.079122
0.85743243 -13.94276 -15.809928
0.96968337 -23.435926 -1.5689806
2.7964715 -22.156083 -4.5247859
2.543365 -22.848413 -1.5370414
0 -23.529037 -3.1700637
5.9279199 -18.400064 -9.5915759
4.4521775 -20.444876 -7.2037745
6.6685002 -18.851245 -8.3644928
5.5353713 -21.63434 -1.489826
4.304992 -21.576325 -4.4521892
4.0705113 -22.24515 -1.5095774
6.4338907 -21.033331 -2.9418879
3.4461632 -22.271773 -3.0301986
-1.9621699 -23.128139 -6.3924604
1.8635316 -21.965488 -6.0711115
-0.98727784 -23.427334 -4.7954984
0.96073419 -22.797474 -4.6665681
8.0522804 -19.48494 -5.7392445
5.1516266 -20.744549 -5.8540679
7.3834894 -19.216531 -7.0712379
7.2775526 -20.310752 -4.3670339
5.9285981 -19.843957 -7.14009
5.803011 -20.954098 -4.4172952
-5.6604716 -20.056271 -12.395457
-1.7968101 -19.4209 -12.002776
-4.6551989 -18.913543 -13.321134
-4.8070661 -21.062207 -11.015977
5.0115101 -17.756861 -10.974343
1.7250036 -18.644776 -11.523105
4.2171712 -17.133886 -12.067691
4.3135026 -18.899654 -9.8849166
-2.7189963 -16.577163 -14.871083
-0.91128681 -18.315786 -12.870152
-3.669556 -17.74488 -14.149541
-0.89168711 -16.298264 -14.632404
-2.732202 -18.634903 -13.104584
-2.9686024 -22.606068 -8.0341133
-0.94697508 -20.287222 -10.644243
-3.9008088 -21.922134 -9.5490001
-0.96971495 -22.107924 -7.8451587
-2.8176324 -20.689403 -10.84372
2.5714805 -15.677789 -14.064271
0.8929474 -17.947186 -12.611144
3.3985775 -16.434508 -13.104668
0.87517463 -15.996449 -14.361438
2.5742147 -17.557356 -12.346823
0 -17.171181 -13.650585
2.7570215 -20.994867 -7.4614985
0.92591797 -19.836112 -10.407556
3.5567189 -19.988385 -8.7066838
0.94592505 -21.565553 -7.6526944
2.6395445 -19.381734 -10.158345
0 -20.998788 -9.1910457
-11.170464 18.97084 -1.4508103
-10.087407 18.976814 -4.2959569
-9.8075024 19.663377 -1.4493719
-7.3615073 17.788094 -9.5090652
-8.8018328 18.569079 -7.0019028
-7.024265 20.981106 -1.4644324
-8.7119285 19.65363 -4.3063467
-8.4201227 20.335949 -1.4555902
-9.2843763 19.713426 -2.8960927
-0.84193202 11.851061 -16.971213
-2.5249506 13.678581 -15.522003
-5.8114274 16.682551 -11.77842
-4.1893397 15.299488 -13.787258
-0.96968337 23.435926 -1.5689806
-2.7964715 22.156083 -4.5247859
-2.543365 22.848413 -1.5370414
-5.9279199 18.400064 -9.5915759
-4.4521775 20.444876 -7.2037745
-6.6685002 18.851245 -8.3644928
-5.5353713 21.63434 -1.489826
-4.304992 21.576325 -4.4521892
-4.0705113 22.24515 -1.5095774
-6.4338907 21.033331 -2.9418879
-3.4461632 22.271773 -3.0301986
-8.0522804 19.48494 -5.7392445
-5.1516266 20.744549 -5.8540679
-7.3834894 19.216531 -7.0712379
-7.2775526 20.310752 -4.3670339
-5.9285981 19.843957 -7.14009
-5.803011 20.954098 -4.4172952
16.149083 27.426048 -2.0974292
13.71996 25.810512 -5.8429642
13.558846 27.184567 -2.0037529
8.8760151 21.447699 -11.465397
11.22731 23.686067 -8.9313823
8.8165266 26.334496 -1.8380866
11.368359 25.646392 -5.6194327
11.09642 26.799637 -1.9182429
12.489614 26.519077 -3.8959086
0.85452401 12.028306 -17.225035
2.6554434 14.385509 -16.324201
0 13.005586 -16.558873
6.667079 19.138823 -13.512627
4.5921946 16.770716 -15.113067
-1.7040659 14.81769 -14.994234
1.7652757 15.34994 -15.532825
-0.85743243 13.94276 -15.809928
0.87203181 14.180161 -16.079122
0.9981251 24.123324 -1.6150003
3.03338 24.033078 -4.9081119
2.7485284 24.691506 -1.6610286
0 23.529037 -3.1700637
6.8915557 21.391157 -11.150771
5.0284182 23.091035 -8.1361516
7.9556448 22.489886 -9.9789956
6.6001173 25.795774 -1.7763987
4.8900407 24.508549 -5.0572421
4.6211201 25.254201 -1.7137745
7.8711931 25.732083 -3.5990924
3.824774 24.718648 -3.3631096
-1.8635316 21.965488 -6.0711115
1.9621699 23.128139 -6.3924604
-0.96073419 22.797474 -4.6665681
0.98727784 23.427334 -4.7954984
10.173362 24.617542 -7.2510409
5.9705759 24.042291 -6.7846837
9.0578497 23.57428 -8.6747886
9.0768258 25.332302 -5.446722
6.9811956 23.367168 -8.4077829
6.907547 24.942468 -5.2580763
-5.0115101 17.756861 -10.974343
-1.7250036 18.644776 -11.523105
-4.2171712 17.133886 -12.067691
-4.3135026 18.899654 -9.8849166
5.6604716 20.056271 -12.395457
1.7968101 19.4209 -12.002776
4.6551989 18.913543 -13.321134
4.8070661 21.062207 -11.015977
-2.5714805 15.677789 -14.064271
-0.8929474 17.947186 -12.611144
-3.3985775 16.434508 -13.104668
-0.87517463 15.996449 -14.361438
-2.5742147 17.557356 -12.346823
-2.7570215 20.994867 -7.4614985
-0.92591797 19.836112 -10.407556
-3.5567189 19.988385 -8.7066838
-0.94592505 21.565553 -7.6526944
-2.6395445 19.381734 -10.158345
2.7189963 16.577163 -14.871083
0.91128681 18.315786 -12.870152
3.669556 17.74488 -14.149541
0.89168711 16.298264 -14.632404
2.732202 18.634903 -13.104584
0 17.171181 -13.650585
2.9686024 22.606068 -8.0341133
0.94697508 20.287222 -10.644243
3.9008088 21.922134 -9.5490001
0.96971495 22.107924 -7.8451587
2.8176324 20.689403 -10.84372
0 20.998788 -9.1910457
0 -9.5263468 -18.104467
0 -6.8156576 -18.906963
0 -1.3633071 -19.670427
0 -4.0904222 -19.420434
0 9.5263468 -18.104467
0 6.8156576 -18.906963
0 1.3633071 -19.670427
0 4.0904222 -19.420434
19.279544 27.60911 -1.369672
23.018571 26.120715 -4.2490337
18.0561 27.061941 -3.4843436
28.170747 19.889457 -9.8133826
25.89129 23.332147 -7.0896105
15.25242 25.118487 -7.1762077
21.356916 25.234212 -6.3080632
16.665783 26.16749 -5.4341065
19.807223 26.308956 -4.9081782
25.417767 1.9438443 -14.966561
28.202908 6.384553 -14.991673
29.763507 15.910818 -12.317468
29.936458 11.288237 -14.190026
9.974232 20.483609 -12.659566
14.825102 20.579256 -12.71868
11.205717 21.651646 -11.516797
26.080669 18.948243 -11.710658
20.231321 20.150075 -12.453431
25.116869 20.705564 -10.432828
13.823424 23.952393 -8.8184488
16.327498 21.766548 -11.410665
12.493524 22.814642 -10.230886
16.651546 24.135702 -8.5629682
13.700035 21.767646 -11.503633
22.776204 23.848857 -7.7544591
19.196066 21.609623 -11.210112
24.00619 22.351286 -9.1016342
19.664694 24.123076 -8.2138087
22.097821 21.270565 -10.893817
17.969945 22.946527 -9.9176659
12.706607 -18.19639 -0.90271238
14.794286 -16.788068 -2.7309002
12.212385 -18.303556 -2.3566631
18.594379 -13.128232 -6.4774197
16.763665 -15.106713 -4.5902639
11.04538 -18.190113 -5.1968109
14.199224 -16.777059 -4.193939
11.654755 -18.299512 -3.8001923
13.227281 -17.569145 -3.2776858
23.726721 -1.8145202 -13.970835
22.900126 -5.1841132 -12.172901
20.256935 -10.828845 -8.3832236
21.711488 -8.1868213 -10.29135
8.1613273 -16.760532 -10.358578
11.266912 -15.640006 -9.6660553
8.9251759 -17.245192 -9.172946
17.714991 -12.870374 -7.9543284
14.419496 -14.361589 -8.8759501
16.9138 -13.943209 -7.0255082
10.366205 -17.961932 -6.6129668
12.048355 -16.061929 -8.4201362
9.6657368 -17.650771 -7.9152249
11.953085 -17.325484 -6.14681
10.490926 -16.668772 -8.809011
15.166817 -15.881104 -5.1637429
13.673419 -15.392604 -7.9849985
16.058962 -14.951913 -6.0885464
13.557135 -16.630809 -5.6627227
15.269808 -14.698166 -7.5277324
12.833347 -16.387404 -7.0827625
1.3424698 -10.3363 -17.554176
3.9497166 -9.2743941 -17.447344
2.1811109 -11.302662 -16.94009
1.3317189 -9.0113766 -18.067199
9.1245098 -7.0638011 -17.068727
6.5179231 -8.19344 -17.285562
3.8710896 -13.106168 -15.485561
4.8053863 -10.213441 -16.82003
3.0308978 -12.231355 -16.246305
3.5071091 -10.755902 -16.888194
1.3170765 -6.3174608 -18.86992
3.9345624 -7.9597926 -17.956853
1.3246634 -7.6627533 -18.50678
2.6470013 -8.4858319 -18.017884
21.84749 -1.0838413 -15.256183
18.083497 -2.9416265 -15.935868
21.671477 -2.7902977 -14.459509
11.852773 -5.848113 -16.787862
14.799588 -4.4969423 -16.422854
20.983078 -5.9947451 -12.741322
17.973678 -4.4930706 -15.21198
21.373956 -4.4386509 -13.612834
19.749254 -3.6844054 -14.86862
7.2223537 -16.084819 -11.686014
8.3414015 -13.55109 -13.496671
6.4136558 -15.440775 -12.728893
8.7780772 -15.574244 -11.373982
10.111642 -7.966771 -16.360981
9.2988788 -10.838925 -15.045902
8.7769214 -8.5398483 -16.500663
4.7527082 -13.959536 -14.616965
7.4819456 -12.811997 -14.422874
5.5835813 -14.727082 -13.711848
5.2436634 -12.553864 -15.400077
6.9721928 -14.14291 -13.613455
11.907502 -14.433644 -10.70091
9.9003272 -13.018629 -13.209338
10.346007 -15.02131 -11.044586
9.3613467 -14.316998 -12.329397
6.1579576 -9.6529517 -16.726051
7.9639706 -11.395629 -15.191765
7.454388 -9.1029823 -16.623115
5.7134583 -11.11039 -16.104033
8.3884951 -9.9901203 -15.873055
6.6130794 -11.982322 -15.300697
1.3161665 -0.81343563 -19.659631
3.9464738 -2.4390549 -19.324318
1.3159395 -2.1775044 -19.561691
9.1762714 -5.6712476 -17.603362
6.5696404 -4.0602611 -18.645154
7.8575655 -6.2643579 -17.708771
1.3204283 -4.9059829 -19.174451
3.9390929 -3.8088595 -19.089743
1.3164706 -3.549807 -19.399526
2.6340085 -5.7605604 -18.832116
2.6350491 -2.9967703 -19.367448
5.2680942 -7.3912466 -17.885367
5.2805508 -4.646927 -18.712227
6.5509717 -6.8402494 -17.802675
3.9562549 -6.5929997 -18.400249
6.5693929 -5.4547337 -18.257858
3.9588932 -5.2008072 -18.7796
18.602142 -11.496756 -9.0580758
16.568181 -10.239699 -11.935561
19.286937 -10.258977 -9.9818724
16.871018 -12.321025 -9.5089747
11.746252 -7.259583 -16.167732
14.237281 -8.7991235 -14.294686
13.172833 -6.637342 -15.979296
11.337449 -8.7498825 -15.52422
20.471941 -7.5370656 -11.814783
17.02957 -8.9274021 -12.774201
19.91703 -8.931495 -10.906763
19.145689 -6.7925902 -13.208869
18.197188 -9.6167389 -11.452874
13.56893 -13.767701 -10.318817
14.868278 -11.023141 -12.266067
15.187365 -13.078933 -9.9304474
12.568973 -13.120283 -11.676935
15.907994 -11.696531 -10.956715
16.241373 -5.2808846 -15.510883
15.757429 -8.1742538 -13.997498
14.674847 -5.9757228 -15.761382
17.718751 -6.0331622 -14.444004
14.484023 -7.4180582 -15.047336
17.399423 -7.5201647 -13.625882
10.42761 -11.603385 -14.06501
13.705696 -10.272344 -13.50782
10.896109 -10.206921 -14.819372
11.510828 -12.390177 -12.933644
12.546196 -9.5259565 -14.568747
13.172415 -11.723332 -12.618915
1.3716203 10.560743 -17.935349
4.1930203 9.8456996 -18.522106
2.2652747 11.738804 -17.593767
1.3573016 9.1844881 -18.414276
10.216687 7.9093173 -19.111804
7.1382739 8.97326 -18.930736
4.1793026 14.14967 -16.718509
5.2044193 11.061551 -18.216744
3.2069612 12.941868 -17.190045
3.7227734 11.41732 -17.926707
1.3352245 6.4045093 -19.129929
4.1444997 8.384505 -18.914981
1.3466015 7.789658 -18.813275
2.745379 8.8012141 -18.687532
22.684015 1.1253408 -15.840332
19.799202 3.2207186 -17.447812
23.971164 3.0863924 -15.993891
20.63745 0 -16.208961
13.408057 6.6154841 -18.990713
16.644942 5.0576638 -18.470612
26.289666 7.5108068 -15.963582
20.720582 5.1797431 -17.536815
25.210105 5.2352898 -16.056035
22.385918 4.1762993 -16.853686
16.960889 -1.9275724 -16.761189
17.913853 2.035875 -17.702934
18.723759 -1.0154605 -16.512464
19.30899 1.0471998 -17.028579
8.5630383 19.070642 -13.855287
9.9759227 16.206465 -16.141382
7.4206623 17.865127 -14.727454
10.795206 19.153076 -13.987629
11.654918 9.1826883 -18.858053
11.033261 12.86055 -17.852192
9.9969066 9.7268806 -18.794243
5.2487785 15.416582 -16.142631
8.718794 14.929962 -16.807134
6.3080488 16.637915 -15.490955
5.8107075 13.911425 -17.065425
8.1109094 16.452767 -15.83684
15.681045 19.007734 -14.092078
12.215157 16.06256 -16.297859
13.182163 19.139109 -14.072244
11.553093 17.668997 -15.216044
6.799519 10.658636 -18.46864
9.254736 13.242583 -17.65398
8.368086 10.218752 -18.660641
6.3316347 12.312495 -17.846434
9.6748754 11.522111 -18.307196
7.5121503 13.61136 -17.38088
1.3185494 0.81490837 -19.695225
4.011615 2.4793144 -19.643288
1.32232 2.1880623 -19.656538
2.6473213 0 -19.649107
10.05304 6.2131207 -19.285318
6.8785911 4.2512031 -19.52198
8.5599936 6.824361 -19.291849
1.3347568 4.9592198 -19.382521
4.0409607 3.9073594 -19.583418
1.3268476 3.5777883 -19.552442
2.70172 5.9086451 -19.316226
2.6705261 3.0371174 -19.628202
5.3335328 -1.6371313 -19.296903
5.4132646 1.6616051 -19.585375
3.9948601 -0.82244566 -19.515995
4.0171196 0.82702836 -19.624739
5.6269419 7.8947175 -19.103668
5.5072006 4.8463806 -19.515386
7.0754209 7.3878572 -19.227898
4.1336639 6.8886475 -19.225366
6.9883638 5.802616 -19.422275
4.0995558 5.385596 -19.446854
26.978488 16.673623 -13.136831
22.4384 13.867694 -16.164411
27.423799 14.587082 -14.193071
24.076457 17.583209 -13.570161
13.679112 8.454156 -18.828151
17.851131 11.032606 -17.923108
15.413945 7.766562 -18.697875
13.517988 10.432753 -18.510003
27.098954 9.9769044 -15.63937
22.45057 11.76925 -16.840595
27.483466 12.32455 -15.050218
24.24625 8.6021891 -16.727815
24.948256 13.184502 -15.701835
18.444327 18.714517 -14.026428
19.831655 14.702923 -16.360766
21.199079 18.256052 -13.861281
16.524962 17.249792 -15.352161
21.968399 16.152511 -15.130852
18.931048 6.1554328 -18.079584
19.920999 10.334128 -17.696042
17.180453 6.9960267 -18.452505
21.488457 7.316732 -17.517001
17.597239 9.012506 -18.281632
22.091436 9.5480892 -17.300304
12.795726 14.238521 -17.259183
17.591703 13.184886 -17.337724
13.222665 12.38632 -17.983629
14.621929 15.738945 -16.429299
15.515647 11.780572 -18.016898
17.181516 15.291395 -16.459554
10.791102 -4.9278318 -17.460371
11.333517 -1.6966223 -18.338016
12.20084 -4.2637012 -17.322933
9.4464433 -4.1221651 -18.061306
11.849803 5.4112947 -19.173384
11.708855 1.7528103 -18.945326
13.36742 4.6713739 -18.979261
10.109287 4.4114115 -19.328642
15.236936 -2.7858881 -16.984989
12.804438 -0.90663382 -18.222267
13.686805 -3.5495495 -17.164564
15.697079 -0.95656752 -17.484149
12.521119 -2.6105541 -17.805207
6.7423176 -2.4912843 -18.971264
9.8647085 -0.87762307 -18.801482
8.0874565 -3.3037618 -18.566793
6.8281561 -0.84400651 -19.241976
9.6779997 -2.5147317 -18.465254
16.386325 2.9960399 -18.266241
13.05422 0.92431994 -18.577737
14.894183 3.8626722 -18.678732
16.089548 0.98048429 -17.9213
13.243465 2.7611575 -18.832393
14.382235 0 -18.09153
6.9389056 2.5639235 -19.524416
10.009146 0.89047307 -19.07677
8.4689255 3.4595936 -19.442551
6.8949052 0.85225716 -19.430077
10.090689 2.6219649 -19.25265
8.3903886 0 -19.169526
19.279544 27.60911 1.369672
23.018571 26.120715 4.2490337
18.0561 27.061941 3.4843436
21.610758 27.515085 0
28.170747 19.889457 9.8133826
25.89129 23.332147 7.0896105
15.25242 25.118487 7.1762077
21.356916 25.234212 6.3080632
16.665783 26.16749 5.4341065
19.807223 26.308956 4.9081782
25.625146 25.930454 -2.9469463
25.625146 25.930454 2.9469463
23.766191 26.948881 -1.4615401
23.766191 26.948881 1.4615401
25.417767 1.9438443 14.966561
28.202908 6.384553 14.991673
29.763507 15.910818 12.317468
29.936458 11.288237 14.190026
9.974232 20.483609 12.659566
14.825102 20.579256 12.71868
11.205717 21.651646 11.516797
26.080669 18.948243 11.710658
20.231321 20.150075 12.453431
25.116869 20.705564 10.432828
13.823424 23.952393 8.8184488
16.327498 21.766548 11.410665
12.493524 22.814642 10.230886
16.651546 24.135702 8.5629682
13.700035 21.767646 11.503633
22.776204 23.848857 7.7544591
19.196066 21.609623 11.210112
24.00619 22.351286 9.1016342
19.664694 24.123076 8.2138087
22.097821 21.270565 10.893817
17.969945 22.946527 9.9176659
31.027674 19.176157 -8.7569251
33.910307 20.957722 -3.1373614
29.938102 21.085921 -7.3686786
31.027674 19.176157 8.7569251
33.910307 20.957722 3.1373614
29.938102 21.085921 7.3686786
27.302276 24.492395 -4.4781359
32.275691 22.67951 -1.6058503
28.689328 22.876505 -5.9328155
28.137508 25.26155 -1.5394188
31.404835 22.084757 -4.6044968
27.302276 24.492395 4.4781359
32.275691 22.67951 1.6058503
28.689328 22.876505 5.9328155
28.137508 25.26155 1.5394188
31.404835 22.084757 4.6044968
30.375611 24.14772 0
12.706607 -18.19639 0.90271238
14.794286 -16.788068 2.7309002
12.212385 -18.303556 2.3566631
13.825788 -17.603164 0
18.594379 -13.128232 6.4774197
16.763665 -15.106713 4.5902639
11.04538 -18.190113 5.1968109
14.199224 -16.777059 4.193939
11.654755 -18.299512 3.8001923
13.227281 -17.569145 3.2776858
16.015068 -16.205878 -1.8417669
16.015068 -16.205878 1.8417669
14.936176 -16.936379 -0.91852414
14.936176 -16.936379 0.91852414
23.726721 -1.8145202 13.970835
22.900126 -5.1841132 12.172901
20.256935 -10.828845 8.3832236
21.711488 -8.1868213 10.29135
8.1613273 -16.760532 10.358578
11.266912 -15.640006 9.6660553
8.9251759 -17.245192 9.172946
17.714991 -12.870374 7.9543284
14.419496 -14.361589 8.8759501
16.9138 -13.943209 7.0255082
10.366205 -17.961932 6.6129668
12.048355 -16.061929 8.4201362
9.6657368 -17.650771 7.9152249
11.953085 -17.325484 6.14681
10.490926 -16.668772 8.809011
15.166817 -15.881104 5.1637429
13.673419 -15.392604 7.9849985
16.058962 -14.951913 6.0885464
13.557135 -16.630809 5.6627227
15.269808 -14.698166 7.5277324
12.833347 -16.387404 7.0827625
20.145972 -12.450896 -5.6857878
20.989599 -12.972285 -1.9419452
19.171693 -13.502954 -4.7187374
20.145972 -12.450896 5.6857878
20.989599 -12.972285 1.9419452
19.171693 -13.502954 4.7187374
17.124764 -15.362326 -2.8088141
19.779771 -13.898866 -0.98412618
18.156764 -14.477972 -3.7547316
17.282526 -15.516064 -0.94553661
19.573929 -13.764934 -2.8698796
17.124764 -15.362326 2.8088141
19.779771 -13.898866 0.98412618
18.156764 -14.477972 3.7547316
17.282526 -15.516064 0.94553661
19.573929 -13.764934 2.8698796
18.547212 -14.74449 0
1.3424698 -10.3363 17.554176
3.9497166 -9.2743941 17.447344
2.1811109 -11.302662 16.94009
1.3317189 -9.0113766 18.067199
9.1245098 -7.0638011 17.068727
6.5179231 -8.19344 17.285562
3.8710896 -13.106168 15.485561
4.8053863 -10.213441 16.82003
3.0308978 -12.231355 16.246305
3.5071091 -10.755902 16.888194
1.3170765 -6.3174608 18.86992
3.9345624 -7.9597926 17.956853
1.3246634 -7.6627533 18.50678
2.6470013 -8.4858319 18.017884
21.84749 -1.0838413 15.256183
18.083497 -2.9416265 15.935868
21.671477 -2.7902977 14.459509
11.852773 -5.848113 16.787862
14.799588 -4.4969423 16.422854
20.983078 -5.9947451 12.741322
17.973678 -4.4930706 15.21198
21.373956 -4.4386509 13.612834
19.749254 -3.6844054 14.86862
7.2223537 -16.084819 11.686014
8.3414015 -13.55109 13.496671
6.4136558 -15.440775 12.728893
8.7780772 -15.574244 11.373982
10.111642 -7.966771 16.360981
9.2988788 -10.838925 15.045902
8.7769214 -8.5398483 16.500663
4.7527082 -13.959536 14.616965
7.4819456 -12.811997 14.422874
5.5835813 -14.727082 13.711848
5.2436634 -12.553864 15.400077
6.9721928 -14.14291 13.613455
11.907502 -14.433644 10.70091
9.9003272 -13.018629 13.209338
10.346007 -15.02131 11.044586
9.3613467 -14.316998 12.329397
6.1579576 -9.6529517 16.726051
7.9639706 -11.395629 15.191765
7.454388 -9.1029823 16.623115
5.7134583 -11.11039 16.104033
8.3884951 -9.9901203 15.873055
6.6130794 -11.982322 15.300697
1.3161665 -0.81343563 19.659631
3.9464738 -2.4390549 19.324318
1.3159395 -2.1775044 19.561691
9.1762714 -5.6712476 17.603362
6.5696404 -4.0602611 18.645154
7.8575655 -6.2643579 17.708771
1.3204283 -4.9059829 19.174451
3.9390929 -3.8088595 19.089743
1.3164706 -3.549807 19.399526
2.6340085 -5.7605604 18.832116
2.6350491 -2.9967703 19.367448
5.2680942 -7.3912466 17.885367
5.2805508 -4.646927 18.712227
6.5509717 -6.8402494 17.802675
3.9562549 -6.5929997 18.400249
6.5693929 -5.4547337 18.257858
3.9588932 -5.2008072 18.7796
18.602142 -11.496756 9.0580758
16.568181 -10.239699 11.935561
19.286937 -10.258977 9.9818724
16.871018 -12.321025 9.5089747
11.746252 -7.259583 16.167732
14.237281 -8.7991235 14.294686
13.172833 -6.637342 15.979296
11.337449 -8.7498825 15.52422
20.471941 -7.5370656 11.814783
17.02957 -8.9274021 12.774201
19.91703 -8.931495 10.906763
19.145689 -6.7925902 13.208869
18.197188 -9.6167389 11.452874
13.56893 -13.767701 10.318817
14.868278 -11.023141 12.266067
15.187365 -13.078933 9.9304474
12.568973 -13.120283 11.676935
15.907994 -11.696531 10.956715
16.241373 -5.2808846 15.510883
15.757429 -8.1742538 13.997498
14.674847 -5.9757228 15.761382
17.718751 -6.0331622 14.444004
14.484023 -7.4180582 15.047336
17.399423 -7.5201647 13.625882
10.42761 -11.603385 14.06501
13.705696 -10.272344 13.50782
10.896109 -10.206921 14.819372
11.510828 -12.390177 12.933644
12.546196 -9.5259565 14.568747
13.172415 -11.723332 12.618915
1.3716203 10.560743 17.935349
4.1930203 9.8456996 18.522106
2.2652747 11.738804 17.593767
1.3573016 9.1844881 18.414276
10.216687 7.9093173 19.111804
7.1382739 8.97326 18.930736
4.1793026 14.14967 16.718509
5.2044193 11.061551 18.216744
3.2069612 12.941868 17.190045
3.7227734 11.41732 17.926707
1.3352245 6.4045093 19.129929
4.1444997 8.384505 18.914981
1.3466015 7.789658 18.813275
2.745379 8.8012141 18.687532
22.684015 1.1253408 15.840332
19.799202 3.2207186 17.447812
23.971164 3.0863924 15.993891
20.63745 0 16.208961
13.408057 6.6154841 18.990713
16.644942 5.0576638 18.470612
26.289666 7.5108068 15.963582
20.720582 5.1797431 17.536815
25.210105 5.2352898 16.056035
22.385918 4.1762993 16.853686
16.960889 -1.9275724 16.761189
17.913853 2.035875 17.702934
18.723759 -1.0154605 16.512464
19.30899 1.0471998 17.028579
8.5630383 19.070642 13.855287
9.9759227 16.206465 16.141382
7.4206623 17.865127 14.727454
10.795206 19.153076 13.987629
11.654918 9.1826883 18.858053
11.033261 12.86055 17.852192
9.9969066 9.7268806 18.794243
5.2487785 15.416582 16.142631
8.718794 14.929962 16.807134
6.3080488 16.637915 15.490955
5.8107075 13.911425 17.065425
8.1109094 16.452767 15.83684
15.681045 19.007734 14.092078
12.215157 16.06256 16.297859
13.182163 19.139109 14.072244
11.553093 17.668997 15.216044
6.799519 10.658636 18.46864
9.254736 13.242583 17.65398
8.368086 10.218752 18.660641
6.3316347 12.312495 17.846434
9.6748754 11.522111 18.307196
7.5121503 13.61136 17.38088
1.3185494 0.81490837 19.695225
4.011615 2.4793144 19.643288
1.32232 2.1880623 19.656538
2.6473213 0 19.649107
10.05304 6.2131207 19.285318
6.8785911 4.2512031 19.52198
8.5599936 6.824361 19.291849
1.3347568 4.9592198 19.382521
4.0409607 3.9073594 19.583418
1.3268476 3.5777883 19.552442
2.70172 5.9086451 19.316226
2.6705261 3.0371174 19.628202
5.3335328 -1.6371313 19.296903
5.4132646 1.6616051 19.585375
3.9948601 -0.82244566 19.515995
4.0171196 0.82702836 19.624739
5.6269419 7.8947175 19.103668
5.5072006 4.8463806 19.515386
7.0754209 7.3878572 19.227898
4.1336639 6.8886475 19.225366
6.9883638 5.802616 19.422275
4.0995558 5.385596 19.446854
26.978488 16.673623 13.136831
22.4384 13.867694 16.164411
27.423799 14.587082 14.193071
24.076457 17.583209 13.570161
13.679112 8.454156 18.828151
17.851131 11.032606 17.923108
15.413945 7.766562 18.697875
13.517988 10.432753 18.510003
27.098954 9.9769044 15.63937
22.45057 11.76925 16.840595
27.483466 12.32455 15.050218
24.24625 8.6021891 16.727815
24.948256 13.184502 15.701835
18.444327 18.714517 14.026428
19.831655 14.702923 16.360766
21.199079 18.256052 13.861281
16.524962 17.249792 15.352161
21.968399 16.152511 15.130852
18.931048 6.1554328 18.079584
19.920999 10.334128 17.696042
17.180453 6.9960267 18.452505
21.488457 7.316732 17.517001
17.597239 9.012506 18.281632
22.091436 9.5480892 17.300304
12.795726 14.238521 17.259183
17.591703 13.184886 17.337724
13.222665 12.38632 17.983629
14.621929 15.738945 16.429299
15.515647 11.780572 18.016898
17.181516 15.291395 16.459554
10.791102 -4.9278318 17.460371
11.333517 -1.6966223 18.338016
12.20084 -4.2637012 17.322933
9.4464433 -4.1221651 18.061306
11.849803 5.4112947 19.173384
11.708855 1.7528103 18.945326
13.36742 4.6713739 18.979261
10.109287 4.4114115 19.328642
15.236936 -2.7858881 16.984989
12.804438 -0.90663382 18.222267
13.686805 -3.5495495 17.164564
15.697079 -0.95656752 17.484149
12.521119 -2.6105541 17.805207
6.7423176 -2.4912843 18.971264
9.8647085 -0.87762307 18.801482
8.0874565 -3.3037618 18.566793
6.8281561 -0.84400651 19.241976
9.6779997 -2.5147317 18.465254
16.386325 2.9960399 18.266241
13.05422 0.92431994 18.577737
14.894183 3.8626722 18.678732
16.089548 0.98048429 17.9213
13.243465 2.7611575 18.832393
14.382235 0 18.09153
6.9389056 2.5639235 19.524416
10.009146 0.89047307 19.07677
8.4689255 3.4595936 19.442551
6.8949052 0.85225716 19.430077
10.090689 2.6219649 19.25265
8.3903886 0 19.169526
26.070579 0 -13.718016
30.281803 0 -10.916105
27.726273 2.0436815 -13.829033
25.678371 -1.8927323 -12.807601
36.248198 0 -2.5122702
33.975454 0 -7.156068
30.858297 6.7614239 -13.678658
32.348933 2.2578803 -10.8301
29.379505 4.3161331 -13.836782
30.074475 2.1526465 -12.45237
24.519126 -5.3724354 -10.868673
29.466391 -2.0566855 -9.8650536
25.150641 -3.6948721 -11.845126
27.620895 -1.9770262 -11.436463
26.070579 0 13.718016
30.281803 0 10.916105
27.726273 2.0436815 13.829033
25.678371 -1.8927323 12.807601
36.248198 0 2.5122702
33.975454 0 7.156068
30.858297 6.7614239 13.678658
32.348933 2.2578803 10.8301
29.379505 4.3161331 13.836782
30.074475 2.1526465 12.45237
24.519126 -5.3724354 10.868673
29.466391 -2.0566855 9.8650536
25.150641 -3.6948721 11.845126
27.620895 -1.9770262 11.436463
32.061515 16.71301 -10.329208
37.396111 13.176561 -8.1435625
32.576385 14.45448 -11.523675
34.019082 17.792696 -7.7642375
38.558788 2.5814211 -1.595406
40.163715 8.202362 -5.0693385
37.786061 2.5419158 -4.2061454
32.038587 9.4368926 -13.240158
37.175815 10.490936 -9.232108
32.601541 11.996611 -12.526357
33.574351 7.2188529 -12.030038
35.14106 12.644168 -10.498774
36.48958 19.14525 -1.7032752
39.221566 13.9392 -5.1505303
35.588712 18.652738 -4.8467279
36.841003 16.047468 -6.5554616
34.571311 2.3807168 -8.8454299
38.428051 7.9294761 -7.6673135
36.396189 2.4698806 -6.6599281
34.436188 4.8165174 -10.533694
38.602285 5.2520557 -5.9730215
36.167619 7.6244298 -10.016231
21.258915 -11.081836 -6.8489515
25.164496 -8.866738 -5.4799454
22.149118 -9.8277933 -7.8351004
21.939942 -11.475051 -5.0073932
34.247077 -2.2927621 -1.4170049
29.521275 -6.028929 -3.7260831
33.671319 -2.2651119 -3.7481139
23.783367 -7.0053366 -9.8286342
26.305319 -7.4233055 -6.5325682
22.997343 -8.4624891 -8.8361755
26.052862 -5.6016504 -9.3350102
24.168469 -8.6961005 -7.2205931
22.668486 -11.893638 -1.0581287
25.780156 -9.1621726 -3.38542
22.421373 -11.751479 -3.0535046
23.828246 -10.379278 -4.2399809
31.20858 -2.149146 -7.9850403
28.667938 -5.9155154 -5.719938
32.62148 -2.2137252 -5.9692159
28.537415 -3.9914683 -8.7293168
31.101548 -4.2315387 -4.812415
27.46407 -5.7896507 -7.6058775
32.061515 16.71301 10.329208
37.396111 13.176561 8.1435625
32.576385 14.45448 11.523675
34.019082 17.792696 7.7642375
38.558788 2.5814211 1.595406
40.163715 8.202362 5.0693385
37.786061 2.5419158 4.2061454
40.459528 5.4511062 0
32.038587 9.4368926 13.240158
37.175815 10.490936 9.232108
32.601541 11.996611 12.526357
33.574351 7.2188529 12.030038
35.14106 12.644168 10.498774
36.48958 19.14525 1.7032752
39.221566 13.9392 5.1505303
35.588712 18.652738 4.8467279
38.717393 16.946375 0
36.841003 16.047468 6.5554616
34.571311 2.3807168 8.8454299
38.428051 7.9294761 7.6673135
36.396189 2.4698806 6.6599281
34.436188 4.8165174 10.533694
38.602285 5.2520557 5.9730215
36.167619 7.6244298 10.016231
