-18.151758 -36.089795 -10.872596
-4.888445 -21.114834 -21.366404
-6.058776 -35.468695 -9.803306
12.899952 -25.648020 -7.726853
4.661610 -20.135059 -20.374956
5.354360 -31.344968 -8.663536
0.000000 -28.355316 -17.524549
-12.899952 25.648020 -7.726853
-4.661610 20.135059 -20.374956
-5.354360 31.344968 -8.663536
18.151758 36.089795 -10.872596
4.888445 21.114834 -21.366404
6.058776 35.468695 -9.803306
0.000000 28.355316 -17.524549
0.000000 -6.618726 -23.298888
0.000000 6.618726 -23.298888
30.566268 30.930447 -7.076613
24.541188 7.393404 -12.343260
22.291157 26.098941 -16.130033
18.864784 -19.089546 -4.367520
21.597498 -6.506572 -10.862698
16.047684 -18.788955 -11.612213
6.606756 -11.029954 -21.930041
17.441288 -3.990413 -17.235933
11.445027 -15.816638 -18.518442
6.311845 -3.900935 -22.836470
17.361976 -10.730291 -14.828898
6.886462 11.496922 -22.858478
18.542645 4.242394 -18.324322
13.155678 18.180700 -21.286334
6.399754 3.955265 -23.154528
20.846475 12.883830 -17.805015
13.076591 0.000000 -21.158369
30.566268 30.930447 7.076613
24.541188 7.393404 12.343260
22.291157 26.098941 16.130033
32.206331 19.904607 0.000000
18.864784 -19.089546 4.367520
21.597498 -6.506572 10.862698
16.047684 -18.788955 11.612213
22.339116 -13.806333 0.000000
6.606756 -11.029954 21.930041
17.441288 -3.990413 17.235933
11.445027 -15.816638 18.518442
6.311845 -3.900935 22.836470
17.361976 -10.730291 14.828898
6.886462 11.496922 22.858478
18.542645 4.242394 18.324322
13.155678 18.180700 21.286334
6.399754 3.955265 23.154528
20.846475 12.883830 17.805015
13.076591 0.000000 21.158369
25.630961 0.000000 -7.281219
25.630961 0.000000 7.281219
28.817475 7.964954 -4.922612
24.649415 -6.812931 -4.210623
28.817475 7.964954 4.922612
24.649415 -6.812931 4.210623
-18.864784 19.089546 -4.367520
-21.597498 6.506572 -10.862698
-16.047684 18.788955 -11.612213
-30.566268 -30.930447 -7.076613
-24.541188 -7.393404 -12.343260
-22.291157 -26.098941 -16.130033
-6.886462 -11.496922 -22.858478
-18.542645 -4.242394 -18.324322
-13.155678 -18.180700 -21.286334
-6.399754 -3.955265 -23.154528
-20.846475 -12.883830 -17.805015
-6.606756 11.029954 -21.930041
-17.441288 3.990413 -17.235933
-11.445027 15.816638 -18.518442
-6.311845 3.900935 -22.836470
-17.361976 10.730291 -14.828898
-13.076591 0.000000 -21.158369
-18.864784 19.089546 4.367520
-21.597498 6.506572 10.862698
-16.047684 18.788955 11.612213
-22.339116 13.806333 0.000000
-30.566268 -30.930447 7.076613
-24.541188 -7.393404 12.343260
-22.291157 -26.098941 16.130033
-32.206331 -19.904607 0.000000
-6.886462 -11.496922 22.858478
-18.542645 -4.242394 18.324322
-13.155678 -18.180700 21.286334
-6.399754 -3.955265 23.154528
-20.846475 -12.883830 17.805015
-6.606756 11.029954 21.930041
-17.441288 3.990413 17.235933
-11.445027 15.816638 18.518442
-6.311845 3.900935 22.836470
-17.361976 10.730291 14.828898
-13.076591 0.000000 21.158369
-25.630961 0.000000 -7.281219
-25.630961 0.000000 7.281219
-24.649415 6.812931 -4.210623
-28.817475 -7.964954 -4.922612
-24.649415 6.812931 4.210623
-28.817475 -7.964954 4.922612
-12.138742 27.537694 0.000000
-4.560701 32.743911 0.000000
17.584224 39.891200 0.000000
5.146306 36.948306 0.000000
-17.584224 -39.891200 0.000000
-5.146306 -36.948306 0.000000
12.138742 -27.537694 0.000000
4.560701 -32.743911 0.000000
-21.821582 -38.960578 5.909896
-14.542664 -32.723891 14.875179
-14.981039 -38.654189 5.505795
-2.290320 -17.389092 22.140007
-7.831006 -25.058429 20.043550
-2.984036 -35.836690 4.828272
-8.892451 -33.196471 14.388288
-8.534274 -37.468519 5.148567
-11.897275 -36.184193 10.429121
14.179022 -25.315438 3.840077
11.328444 -25.491254 11.587466
10.958391 -28.274923 4.027401
2.249459 -17.078860 21.745016
7.120400 -22.784562 18.224746
0.000000 -20.866316 21.114925
2.784329 -33.438315 4.505139
7.621601 -28.452253 12.332010
7.073691 -31.056038 4.267425
0.000000 -33.744809 9.326836
9.426372 -28.669225 8.263134
-5.399817 -29.001325 17.923805
5.009053 -26.902613 16.626729
-2.602978 -25.028446 19.896880
-2.920205 -32.385565 14.174971
2.527954 -24.307066 19.323405
2.776407 -30.790820 13.476960
-14.179022 25.315438 3.840077
-11.328444 25.491254 11.587466
-10.958391 28.274923 4.027401
-2.249459 17.078860 21.745016
-7.120400 22.784562 18.224746
-2.784329 33.438315 4.505139
-7.621601 28.452253 12.332010
-7.073691 31.056038 4.267425
-9.426372 28.669225 8.263134
21.821582 38.960578 5.909896
14.542664 32.723891 14.875179
14.981039 38.654189 5.505795
2.290320 17.389092 22.140007
7.831006 25.058429 20.043550
0.000000 20.866316 21.114925
2.984036 35.836690 4.828272
8.892451 33.196471 14.388288
8.534274 37.468519 5.148567
0.000000 33.744809 9.326836
11.897275 36.184193 10.429121
-5.009053 26.902613 16.626729
5.399817 29.001325 17.923805
-2.527954 24.307066 19.323405
-2.776407 30.790820 13.476960
2.602978 25.028446 19.896880
2.920205 32.385565 14.174971
0.000000 -10.149972 23.026013
0.000000 -3.265539 23.445192
0.000000 10.149972 23.026013
0.000000 3.265539 23.445192
-21.821582 -38.960578 -5.909896
-14.542664 -32.723891 -14.875179
-14.981039 -38.654189 -5.505795
-2.290320 -17.389092 -22.140007
-7.831006 -25.058429 -20.043550
-2.984036 -35.836690 -4.828272
-8.892451 -33.196471 -14.388288
-8.534274 -37.468519 -5.148567
-11.897275 -36.184193 -10.429121
14.179022 -25.315438 -3.840077
11.328444 -25.491254 -11.587466
10.958391 -28.274923 -4.027401
2.249459 -17.078860 -21.745016
7.120400 -22.784562 -18.224746
0.000000 -20.866316 -21.114925
2.784329 -33.438315 -4.505139
7.621601 -28.452253 -12.332010
7.073691 -31.056038 -4.267425
0.000000 -33.744809 -9.326836
9.426372 -28.669225 -8.263134
-5.399817 -29.001325 -17.923805
5.009053 -26.902613 -16.626729
-2.602978 -25.028446 -19.896880
-2.920205 -32.385565 -14.174971
2.527954 -24.307066 -19.323405
2.776407 -30.790820 -13.476960
-14.179022 25.315438 -3.840077
-11.328444 25.491254 -11.587466
-10.958391 28.274923 -4.027401
-2.249459 17.078860 -21.745016
-7.120400 22.784562 -18.224746
-2.784329 33.438315 -4.505139
-7.621601 28.452253 -12.332010
-7.073691 31.056038 -4.267425
-9.426372 28.669225 -8.263134
21.821582 38.960578 -5.909896
14.542664 32.723891 -14.875179
14.981039 38.654189 -5.505795
2.290320 17.389092 -22.140007
7.831006 25.058429 -20.043550
0.000000 20.866316 -21.114925
2.984036 35.836690 -4.828272
8.892451 33.196471 -14.388288
8.534274 37.468519 -5.148567
0.000000 33.744809 -9.326836
11.897275 36.184193 -10.429121
-5.009053 26.902613 -16.626729
5.399817 29.001325 -17.923805
-2.527954 24.307066 -19.323405
-2.776407 30.790820 -13.476960
2.602978 25.028446 -19.896880
2.920205 32.385565 -14.174971
0.000000 -10.149972 -23.026013
0.000000 -3.265539 -23.445192
0.000000 10.149972 -23.026013
0.000000 3.265539 -23.445192
29.580568 37.662345 -3.896060
29.376985 23.497844 -9.180597
25.492723 35.372828 -9.506376
23.134279 3.509219 -12.957369
26.062014 11.846914 -11.582092
16.938082 28.278064 -17.476805
25.879318 22.014263 -13.605562
21.038912 31.936216 -14.110401
26.575569 28.829071 -12.150673
17.252266 -21.965798 -2.272298
20.028408 -16.020174 -6.259075
16.153944 -22.414659 -6.023894
21.755280 -3.300040 -12.184999
21.301935 -9.683142 -9.466689
13.048246 -21.783998 -13.463251
18.582969 -15.807618 -9.769645
14.733477 -22.364822 -9.881465
17.630117 -19.125080 -8.060704
3.394534 -12.533908 -22.378226
9.633326 -9.417986 -21.192344
5.736662 -15.383689 -21.345880
3.255801 -8.858898 -22.857796
19.671106 -2.034919 -15.449980
15.050466 -5.880211 -18.816080
19.695682 -5.293175 -14.194414
10.627963 -20.215587 -17.196405
12.018828 -11.648347 -19.446872
8.273297 -18.095095 -19.629487
13.980789 -17.608298 -15.366374
9.082273 -13.541865 -20.556002
3.144730 -1.943550 -23.341002
9.461258 -5.847379 -21.828892
3.183498 -5.276971 -23.167794
6.474979 -7.386491 -22.465162
19.252259 -11.898551 -11.531778
15.110075 -9.338540 -17.762959
19.554616 -8.639829 -12.882172
16.866901 -14.719373 -13.392128
17.457926 -7.358043 -16.093280
14.632016 -13.312648 -16.766798
3.466850 12.800926 -22.854965
10.238805 10.009931 -22.524338
6.015701 16.131973 -22.384173
3.303188 8.987837 -23.190485
20.357707 2.105946 -15.989247
16.235824 6.343329 -20.298014
21.641372 5.816075 -15.596646
18.016197 0.000000 -17.804072
12.460061 23.700444 -20.160802
13.410679 12.997294 -21.698934
9.078542 19.856301 -21.540036
17.590931 22.155141 -19.334304
9.842462 14.675324 -22.276547
3.154438 1.949550 -23.413060
9.811652 6.063934 -22.637316
3.210577 5.321858 -23.364864
6.374433 0.000000 -23.062913
6.653126 7.589717 -23.083251
24.361043 15.055953 -14.591853
17.153266 10.601302 -20.164874
22.998300 10.161355 -15.150800
21.848589 19.066783 -17.347532
19.670479 8.290575 -18.132883
17.518143 15.938533 -20.074005
12.797992 -3.855588 -20.707585
13.290002 4.003814 -21.503676
15.446058 -2.020706 -19.429720
9.717095 -2.001832 -22.200653
15.847172 2.073181 -19.934285
9.841084 2.027375 -22.483932
29.580568 37.662345 3.896060
29.376985 23.497844 9.180597
25.492723 35.372828 9.506376
32.793702 33.184419 0.000000
23.134279 3.509219 12.957369
26.062014 11.846914 11.582092
16.938082 28.278064 17.476805
25.879318 22.014263 13.605562
21.038912 31.936216 14.110401
26.575569 28.829071 12.150673
30.735279 18.995447 -5.722665
30.735279 18.995447 5.722665
32.403160 25.759562 -3.369953
32.403160 25.759562 3.369953
17.252266 -21.965798 2.272298
20.028408 -16.020174 6.259075
16.153944 -22.414659 6.023894
19.185890 -19.414478 0.000000
21.755280 -3.300040 12.184999
21.301935 -9.683142 9.466689
13.048246 -21.783998 13.463251
18.582969 -15.807618 9.769645
14.733477 -22.364822 9.881465
17.630117 -19.125080 8.060704
21.919363 -13.546911 -4.081212
21.919363 -13.546911 4.081212
20.783409 -16.522200 -2.161490
20.783409 -16.522200 2.161490
3.394534 -12.533908 22.378226
9.633326 -9.417986 21.192344
5.736662 -15.383689 21.345880
3.255801 -8.858898 22.857796
19.671106 -2.034919 15.449980
15.050466 -5.880211 18.816080
19.695682 -5.293175 14.194414
10.627963 -20.215587 17.196405
12.018828 -11.648347 19.446872
8.273297 -18.095095 19.629487
13.980789 -17.608298 15.366374
9.082273 -13.541865 20.556002
3.144730 -1.943550 23.341002
9.461258 -5.847379 21.828892
3.183498 -5.276971 23.167794
6.474979 -7.386491 22.465162
19.252259 -11.898551 11.531778
15.110075 -9.338540 17.762959
19.554616 -8.639829 12.882172
16.866901 -14.719373 13.392128
17.457926 -7.358043 16.093280
14.632016 -13.312648 16.766798
3.466850 12.800926 22.854965
10.238805 10.009931 22.524338
6.015701 16.131973 22.384173
3.303188 8.987837 23.190485
20.357707 2.105946 15.989247
16.235824 6.343329 20.298014
21.641372 5.816075 15.596646
18.016197 0.000000 17.804072
12.460061 23.700444 20.160802
13.410679 12.997294 21.698934
9.078542 19.856301 21.540036
17.590931 22.155141 19.334304
9.842462 14.675324 22.276547
3.154438 1.949550 23.413060
9.811652 6.063934 22.637316
3.210577 5.321858 23.364864
6.374433 0.000000 23.062913
6.653126 7.589717 23.083251
24.361043 15.055953 14.591853
17.153266 10.601302 20.164874
22.998300 10.161355 15.150800
21.848589 19.066783 17.347532
19.670479 8.290575 18.132883
17.518143 15.938533 20.074005
12.797992 -3.855588 20.707585
13.290002 4.003814 21.503676
15.446058 -2.020706 19.429720
9.717095 -2.001832 22.200653
15.847172 2.073181 19.934285
9.841084 2.027375 22.483932
23.821275 0.000000 -10.500528
27.034413 0.000000 -3.765460
25.251755 3.596790 -9.786715
23.618008 -3.364083 -9.153531
23.821275 0.000000 10.500528
27.034413 0.000000 3.765460
25.251755 3.596790 9.786715
23.618008 -3.364083 9.153531
28.573176 12.384421 -7.653993
28.480294 3.837146 -2.371487
26.867390 7.743803 -8.833933
30.715416 13.443957 -2.769607
27.199278 3.737466 -6.195230
22.818722 -9.890278 -6.112528
26.272732 -3.539721 -2.187668
23.303207 -6.716523 -7.662038
23.725616 -10.384562 -2.139337
25.251096 -3.469765 -5.751489
28.573176 12.384421 7.653993
28.480294 3.837146 2.371487
26.867390 7.743803 8.833933
30.715416 13.443957 2.769607
27.199278 3.737466 6.195230
29.862343 8.253749 0.000000
22.818722 -9.890278 6.112528
26.272732 -3.539721 2.187668
23.303207 -6.716523 7.662038
23.725616 -10.384562 2.139337
25.251096 -3.469765 5.751489
25.240841 -6.976397 0.000000
-17.252266 21.965798 -2.272298
-20.028408 16.020174 -6.259075
-16.153944 22.414659 -6.023894
-21.755280 3.300040 -12.184999
-21.301935 9.683142 -9.466689
-13.048246 21.783998 -13.463251
-18.582969 15.807618 -9.769645
-14.733477 22.364822 -9.881465
-17.630117 19.125080 -8.060704
-29.580568 -37.662345 -3.896060
-29.376985 -23.497844 -9.180597
-25.492723 -35.372828 -9.506376
-23.134279 -3.509219 -12.957369
-26.062014 -11.846914 -11.582092
-16.938082 -28.278064 -17.476805
-25.879318 -22.014263 -13.605562
-21.038912 -31.936216 -14.110401
-26.575569 -28.829071 -12.150673
-3.466850 -12.800926 -22.854965
-10.238805 -10.009931 -22.524338
-6.015701 -16.131973 -22.384173
-3.303188 -8.987837 -23.190485
-20.357707 -2.105946 -15.989247
-16.235824 -6.343329 -20.298014
-21.641372 -5.816075 -15.596646
-12.460061 -23.700444 -20.160802
-13.410679 -12.997294 -21.698934
-9.078542 -19.856301 -21.540036
-17.590931 -22.155141 -19.334304
-9.842462 -14.675324 -22.276547
-3.154438 -1.949550 -23.413060
-9.811652 -6.063934 -22.637316
-3.210577 -5.321858 -23.364864
-6.653126 -7.589717 -23.083251
-24.361043 -15.055953 -14.591853
-17.153266 -10.601302 -20.164874
-22.998300 -10.161355 -15.150800
-21.848589 -19.066783 -17.347532
-19.670479 -8.290575 -18.132883
-17.518143 -15.938533 -20.074005
-3.394534 12.533908 -22.378226
-9.633326 9.417986 -21.192344
-5.736662 15.383689 -21.345880
-3.255801 8.858898 -22.857796
-19.671106 2.034919 -15.449980
-15.050466 5.880211 -18.816080
-19.695682 5.293175 -14.194414
-18.016197 0.000000 -17.804072
-10.627963 20.215587 -17.196405
-12.018828 11.648347 -19.446872
-8.273297 18.095095 -19.629487
-13.980789 17.608298 -15.366374
-9.082273 13.541865 -20.556002
-3.144730 1.943550 -23.341002
-9.461258 5.847379 -21.828892
-3.183498 5.276971 -23.167794
-6.374433 0.000000 -23.062913
-6.474979 7.386491 -22.465162
-19.252259 11.898551 -11.531778
-15.110075 9.338540 -17.762959
-19.554616 8.639829 -12.882172
-16.866901 14.719373 -13.392128
-17.457926 7.358043 -16.093280
-14.632016 13.312648 -16.766798
-13.290002 -4.003814 -21.503676
-12.797992 3.855588 -20.707585
-15.847172 -2.073181 -19.934285
-9.841084 -2.027375 -22.483932
-15.446058 2.020706 -19.429720
-9.717095 2.001832 -22.200653
-17.252266 21.965798 2.272298
-20.028408 16.020174 6.259075
-16.153944 22.414659 6.023894
-19.185890 19.414478 0.000000
-21.755280 3.300040 12.184999
-21.301935 9.683142 9.466689
-13.048246 21.783998 13.463251
-18.582969 15.807618 9.769645
-14.733477 22.364822 9.881465
-17.630117 19.125080 8.060704
-21.919363 13.546911 -4.081212
-21.919363 13.546911 4.081212
-20.783409 16.522200 -2.161490
-20.783409 16.522200 2.161490
-29.580568 -37.662345 3.896060
-29.376985 -23.497844 9.180597
-25.492723 -35.372828 9.506376
-32.793702 -33.184419 0.000000
-23.134279 -3.509219 12.957369
-26.062014 -11.846914 11.582092
-16.938082 -28.278064 17.476805
-25.879318 -22.014263 13.605562
-21.038912 -31.936216 14.110401
-26.575569 -28.829071 12.150673
-30.735279 -18.995447 -5.722665
-30.735279 -18.995447 5.722665
-32.403160 -25.759562 -3.369953
-32.403160 -25.759562 3.369953
-3.466850 -12.800926 22.854965
-10.238805 -10.009931 22.524338
-6.015701 -16.131973 22.384173
-3.303188 -8.987837 23.190485
-20.357707 -2.105946 15.989247
-16.235824 -6.343329 20.298014
-21.641372 -5.816075 15.596646
-12.460061 -23.700444 20.160802
-13.410679 -12.997294 21.698934
-9.078542 -19.856301 21.540036
-17.590931 -22.155141 19.334304
-9.842462 -14.675324 22.276547
-3.154438 -1.949550 23.413060
-9.811652 -6.063934 22.637316
-3.210577 -5.321858 23.364864
-6.653126 -7.589717 23.083251
-24.361043 -15.055953 14.591853
-17.153266 -10.601302 20.164874
-22.998300 -10.161355 15.150800
-21.848589 -19.066783 17.347532
-19.670479 -8.290575 18.132883
-17.518143 -15.938533 20.074005
-3.394534 12.533908 22.378226
-9.633326 9.417986 21.192344
-5.736662 15.383689 21.345880
-3.255801 8.858898 22.857796
-19.671106 2.034919 15.449980
-15.050466 5.880211 18.816080
-19.695682 5.293175 14.194414
-18.016197 0.000000 17.804072
-10.627963 20.215587 17.196405
-12.018828 11.648347 19.446872
-8.273297 18.095095 19.629487
-13.980789 17.608298 15.366374
-9.082273 13.541865 20.556002
-3.144730 1.943550 23.341002
-9.461258 5.847379 21.828892
-3.183498 5.276971 23.167794
-6.374433 0.000000 23.062913
-6.474979 7.386491 22.465162
-19.252259 11.898551 11.531778
-15.110075 9.338540 17.762959
-19.554616 8.639829 12.882172
-16.866901 14.719373 13.392128
-17.457926 7.358043 16.093280
-14.632016 13.312648 16.766798
-13.290002 -4.003814 21.503676
-12.797992 3.855588 20.707585
-15.847172 -2.073181 19.934285
-9.841084 -2.027375 22.483932
-15.446058 2.020706 19.429720
-9.717095 2.001832 22.200653
-23.821275 0.000000 -10.500528
-27.034413 0.000000 -3.765460
-23.618008 3.364083 -9.153531
-25.251755 -3.596790 -9.786715
-23.821275 0.000000 10.500528
-27.034413 0.000000 3.765460
-23.618008 3.364083 9.153531
-25.251755 -3.596790 9.786715
-22.818722 9.890278 -6.112528
-26.272732 3.539721 -2.187668
-23.303207 6.716523 -7.662038
-23.725616 10.384562 -2.139337
-25.251096 3.469765 -5.751489
-28.573176 -12.384421 -7.653993
-28.480294 -3.837146 -2.371487
-26.867390 -7.743803 -8.833933
-30.715416 -13.443957 -2.769607
-27.199278 -3.737466 -6.195230
-22.818722 9.890278 6.112528
-26.272732 3.539721 2.187668
-23.303207 6.716523 7.662038
-23.725616 10.384562 2.139337
-25.251096 3.469765 5.751489
-25.240841 6.976397 0.000000
-28.573176 -12.384421 7.653993
-28.480294 -3.837146 2.371487
-26.867390 -7.743803 8.833933
-30.715416 -13.443957 2.769607
-27.199278 -3.737466 6.195230
-29.862343 -8.253749 0.000000
-13.724861 26.083588 0.000000
-10.430052 28.933470 0.000000
-2.348771 33.889153 0.000000
-6.642454 31.536928 0.000000
21.189170 40.269229 0.000000
14.174146 39.319765 0.000000
2.494671 35.994269 0.000000
7.967498 37.827947 0.000000
-21.189170 -40.269229 0.000000
-14.174146 -39.319765 0.000000
-2.494671 -35.994269 0.000000
-7.967498 -37.827947 0.000000
13.724861 -26.083588 0.000000
10.430052 -28.933470 0.000000
2.348771 -33.889153 0.000000
6.642454 -31.536928 0.000000
-23.517757 -39.940294 3.054466
-19.996548 -37.618268 8.515995
-19.885690 -39.869461 2.938746
-12.791421 -30.908752 16.523037
-16.330160 -34.451464 12.990725
-13.026176 -38.908495 2.715722
-16.724049 -37.728532 8.266775
-16.345430 -39.476839 2.825641
-18.344829 -38.951397 5.722336
-1.110675 -15.633902 22.388399
-3.547361 -19.217355 21.807221
-9.423308 -27.050983 19.098867
-6.316879 -23.069272 20.789062
-1.469434 -35.514212 2.377594
-4.525461 -35.854643 7.322349
-4.060899 -36.481235 2.454139
-10.085759 -31.305855 16.319100
-7.533467 -34.594488 12.189406
-11.695660 -33.062570 14.670205
-9.768463 -38.178877 2.629148
-7.293491 -36.554476 7.542872
-6.839640 -37.378309 2.536528
-11.664774 -38.133855 5.333702
-5.679040 -36.702352 4.993559
-14.984854 -36.260407 10.680420
-8.918518 -35.913053 10.134588
-13.341654 -34.723460 12.777429
-13.442290 -37.515774 8.066302
-10.384335 -34.758013 12.506344
-10.277463 -37.110901 7.823282
14.719054 -24.997424 1.911698
13.573002 -25.534049 5.780379
13.215917 -26.497018 1.953074
10.412210 -25.159708 13.449743
12.154608 -25.642371 9.669052
9.821961 -29.337676 2.047702
11.991768 -27.052766 5.927586
11.574488 -27.954248 2.000887
12.633080 -26.823695 3.940660
1.101944 -15.510992 22.212386
3.439293 -18.631907 21.142874
0.000000 -17.276090 21.996132
8.297449 -23.819039 16.817011
5.897790 -21.538756 19.409825
-2.419875 -21.042003 21.292706
2.365698 -20.570909 20.815998
-1.176610 -19.132919 21.695136
1.164873 -18.942072 21.478732
1.418031 -34.271867 2.294422
4.098428 -32.471314 6.631395
3.690625 -33.154869 2.230370
0.000000 -34.693883 4.674302
8.581937 -26.638042 13.885865
6.536867 -30.017995 10.576874
9.557719 -27.018803 11.988523
7.858054 -30.712268 2.114968
6.241037 -31.279650 6.454432
5.848457 -31.961536 2.168941
9.085978 -29.703393 4.154551
4.995520 -32.284914 4.392542
-2.943398 -34.693894 9.589157
2.767959 -32.625995 9.017603
-1.469369 -34.866969 7.137154
1.421470 -33.730378 6.904498
11.237626 -27.192851 8.009592
7.464552 -30.058227 8.482368
10.446315 -27.187950 10.004535
10.224540 -28.535431 6.135430
8.563218 -28.662447 10.313087
8.295999 -29.956032 6.314977
-8.207614 -29.081346 17.973260
-2.661481 -28.766730 17.778817
-6.676095 -27.124212 19.104050
-7.118960 -31.191791 16.313963
7.295334 -25.848943 15.975525
2.566471 -27.739815 17.144148
6.123761 -24.880144 17.523514
6.367069 -27.897374 14.590914
-3.789690 -23.104963 20.727058
-1.333935 -26.810511 18.839233
-5.191807 -25.106034 20.019232
-1.254841 -22.936003 20.591694
-3.965510 -27.046641 19.019954
-4.469336 -34.034234 12.095642
-1.423338 -30.492427 15.998681
-5.850489 -32.879132 14.321728
-1.461708 -33.324556 11.825463
-4.211653 -30.925461 16.208637
3.643187 -22.211763 19.925784
1.312203 -26.373722 18.532309
4.888739 -23.640486 18.850623
1.238939 -22.645335 20.330736
3.773899 -25.739769 18.100924
0.000000 -24.753811 19.678554
4.105442 -31.263161 11.110812
1.392378 -29.829168 15.650684
5.288620 -29.721489 12.946299
1.420884 -32.393846 11.495193
3.946309 -28.977083 15.187454
0.000000 -31.703449 13.876412
-14.719054 24.997424 1.911698
-13.573002 25.534049 5.780379
-13.215917 26.497018 1.953074
-10.412210 25.159708 13.449743
-12.154608 25.642371 9.669052
-9.821961 29.337676 2.047702
-11.991768 27.052766 5.927586
-11.574488 27.954248 2.000887
-12.633080 26.823695 3.940660
-1.101944 15.510992 22.212386
-3.439293 18.631907 21.142874
-8.297449 23.819039 16.817011
-5.897790 21.538756 19.409825
-1.418031 34.271867 2.294422
-4.098428 32.471314 6.631395
-3.690625 33.154869 2.230370
-8.581937 26.638042 13.885865
-6.536867 30.017995 10.576874
-9.557719 27.018803 11.988523
-7.858054 30.712268 2.114968
-6.241037 31.279650 6.454432
-5.848457 31.961536 2.168941
-9.085978 29.703393 4.154551
-4.995520 32.284914 4.392542
-11.237626 27.192851 8.009592
-7.464552 30.058227 8.482368
-10.446315 27.187950 10.004535
-10.224540 28.535431 6.135430
-8.563218 28.662447 10.313087
-8.295999 29.956032 6.314977
23.517757 39.940294 3.054466
19.996548 37.618268 8.515995
19.885690 39.869461 2.938746
12.791421 30.908752 16.523037
16.330160 34.451464 12.990725
13.026176 38.908495 2.715722
16.724049 37.728532 8.266775
16.345430 39.476839 2.825641
18.344829 38.951397 5.722336
1.110675 15.633902 22.388399
3.547361 19.217355 21.807221
0.000000 17.276090 21.996132
9.423308 27.050983 19.098867
6.316879 23.069272 20.789062
-2.365698 20.570909 20.815998
2.419875 21.042003 21.292706
-1.164873 18.942072 21.478732
1.176610 19.132919 21.695136
1.469434 35.514212 2.377594
4.525461 35.854643 7.322349
4.060899 36.481235 2.454139
0.000000 34.693883 4.674302
10.085759 31.305855 16.319100
7.533467 34.594488 12.189406
11.695660 33.062570 14.670205
9.768463 38.178877 2.629148
7.293491 36.554476 7.542872
6.839640 37.378309 2.536528
11.664774 38.133855 5.333702
5.679040 36.702352 4.993559
-2.767959 32.625995 9.017603
2.943398 34.693894 9.589157
-1.421470 33.730378 6.904498
1.469369 34.866969 7.137154
14.984854 36.260407 10.680420
8.918518 35.913053 10.134588
13.341654 34.723460 12.777429
13.442290 37.515774 8.066302
10.384335 34.758013 12.506344
10.277463 37.110901 7.823282
-7.295334 25.848943 15.975525
-2.566471 27.739815 17.144148
-6.123761 24.880144 17.523514
-6.367069 27.897374 14.590914
8.207614 29.081346 17.973260
2.661481 28.766730 17.778817
6.676095 27.124212 19.104050
7.118960 31.191791 16.313963
-3.643187 22.211763 19.925784
-1.312203 26.373722 18.532309
-4.888739 23.640486 18.850623
-1.238939 22.645335 20.330736
-3.773899 25.739769 18.100924
-4.105442 31.263161 11.110812
-1.392378 29.829168 15.650684
-5.288620 29.721489 12.946299
-1.420884 32.393846 11.495193
-3.946309 28.977083 15.187454
3.789690 23.104963 20.727058
1.333935 26.810511 18.839233
5.191807 25.106034 20.019232
1.254841 22.936003 20.591694
3.965510 27.046641 19.019954
0.000000 24.753811 19.678554
4.469336 34.034234 12.095642
1.423338 30.492427 15.998681
5.850489 32.879132 14.321728
1.461708 33.324556 11.825463
4.211653 30.925461 16.208637
0.000000 31.703449 13.876412
0.000000 -12.010976 22.826412
0.000000 -8.356331 23.180865
0.000000 -1.627334 23.479925
0.000000 -4.925604 23.385698
0.000000 12.010976 22.826412
0.000000 8.356331 23.180865
0.000000 1.627334 23.479925
0.000000 4.925604 23.385698
-23.517757 -39.940294 -3.054466
-19.996548 -37.618268 -8.515995
-19.885690 -39.869461 -2.938746
-12.791421 -30.908752 -16.523037
-16.330160 -34.451464 -12.990725
-13.026176 -38.908495 -2.715722
-16.724049 -37.728532 -8.266775
-16.345430 -39.476839 -2.825641
-18.344829 -38.951397 -5.722336
-1.110675 -15.633902 -22.388399
-3.547361 -19.217355 -21.807221
-9.423308 -27.050983 -19.098867
-6.316879 -23.069272 -20.789062
-1.469434 -35.514212 -2.377594
-4.525461 -35.854643 -7.322349
-4.060899 -36.481235 -2.454139
-10.085759 -31.305855 -16.319100
-7.533467 -34.594488 -12.189406
-11.695660 -33.062570 -14.670205
-9.768463 -38.178877 -2.629148
-7.293491 -36.554476 -7.542872
-6.839640 -37.378309 -2.536528
-11.664774 -38.133855 -5.333702
-5.679040 -36.702352 -4.993559
-14.984854 -36.260407 -10.680420
-8.918518 -35.913053 -10.134588
-13.341654 -34.723460 -12.777429
-13.442290 -37.515774 -8.066302
-10.384335 -34.758013 -12.506344
-10.277463 -37.110901 -7.823282
14.719054 -24.997424 -1.911698
13.573002 -25.534049 -5.780379
13.215917 -26.497018 -1.953074
10.412210 -25.159708 -13.449743
12.154608 -25.642371 -9.669052
9.821961 -29.337676 -2.047702
11.991768 -27.052766 -5.927586
11.574488 -27.954248 -2.000887
12.633080 -26.823695 -3.940660
1.101944 -15.510992 -22.212386
3.439293 -18.631907 -21.142874
0.000000 -17.276090 -21.996132
8.297449 -23.819039 -16.817011
5.897790 -21.538756 -19.409825
-2.419875 -21.042003 -21.292706
2.365698 -20.570909 -20.815998
-1.176610 -19.132919 -21.695136
1.164873 -18.942072 -21.478732
1.418031 -34.271867 -2.294422
4.098428 -32.471314 -6.631395
3.690625 -33.154869 -2.230370
0.000000 -34.693883 -4.674302
8.581937 -26.638042 -13.885865
6.536867 -30.017995 -10.576874
9.557719 -27.018803 -11.988523
7.858054 -30.712268 -2.114968
6.241037 -31.279650 -6.454432
5.848457 -31.961536 -2.168941
9.085978 -29.703393 -4.154551
4.995520 -32.284914 -4.392542
-2.943398 -34.693894 -9.589157
2.767959 -32.625995 -9.017603
-1.469369 -34.866969 -7.137154
1.421470 -33.730378 -6.904498
11.237626 -27.192851 -8.009592
7.464552 -30.058227 -8.482368
10.446315 -27.187950 -10.004535
10.224540 -28.535431 -6.135430
8.563218 -28.662447 -10.313087
8.295999 -29.956032 -6.314977
-8.207614 -29.081346 -17.973260
-2.661481 -28.766730 -17.778817
-6.676095 -27.124212 -19.104050
-7.118960 -31.191791 -16.313963
7.295334 -25.848943 -15.975525
2.566471 -27.739815 -17.144148
6.123761 -24.880144 -17.523514
6.367069 -27.897374 -14.590914
-3.789690 -23.104963 -20.727058
-1.333935 -26.810511 -18.839233
-5.191807 -25.106034 -20.019232
-1.254841 -22.936003 -20.591694
-3.965510 -27.046641 -19.019954
-4.469336 -34.034234 -12.095642
-1.423338 -30.492427 -15.998681
-5.850489 -32.879132 -14.321728
-1.461708 -33.324556 -11.825463
-4.211653 -30.925461 -16.208637
3.643187 -22.211763 -19.925784
1.312203 -26.373722 -18.532309
4.888739 -23.640486 -18.850623
1.238939 -22.645335 -20.330736
3.773899 -25.739769 -18.100924
0.000000 -24.753811 -19.678554
4.105442 -31.263161 -11.110812
1.392378 -29.829168 -15.650684
5.288620 -29.721489 -12.946299
1.420884 -32.393846 -11.495193
3.946309 -28.977083 -15.187454
0.000000 -31.703449 -13.876412
-14.719054 24.997424 -1.911698
-13.573002 25.534049 -5.780379
-13.215917 26.497018 -1.953074
-10.412210 25.159708 -13.449743
-12.154608 25.642371 -9.669052
-9.821961 29.337676 -2.047702
-11.991768 27.052766 -5.927586
-11.574488 27.954248 -2.000887
-12.633080 26.823695 -3.940660
-1.101944 15.510992 -22.212386
-3.439293 18.631907 -21.142874
-8.297449 23.819039 -16.817011
-5.897790 21.538756 -19.409825
-1.418031 34.271867 -2.294422
-4.098428 32.471314 -6.631395
-3.690625 33.154869 -2.230370
-8.581937 26.638042 -13.885865
-6.536867 30.017995 -10.576874
-9.557719 27.018803 -11.988523
-7.858054 30.712268 -2.114968
-6.241037 31.279650 -6.454432
-5.848457 31.961536 -2.168941
-9.085978 29.703393 -4.154551
-4.995520 32.284914 -4.392542
-11.237626 27.192851 -8.009592
-7.464552 30.058227 -8.482368
-10.446315 27.187950 -10.004535
-10.224540 28.535431 -6.135430
-8.563218 28.662447 -10.313087
-8.295999 29.956032 -6.314977
23.517757 39.940294 -3.054466
19.996548 37.618268 -8.515995
19.885690 39.869461 -2.938746
12.791421 30.908752 -16.523037
16.330160 34.451464 -12.990725
13.026176 38.908495 -2.715722
16.724049 37.728532 -8.266775
16.345430 39.476839 -2.825641
18.344829 38.951397 -5.722336
1.110675 15.633902 -22.388399
3.547361 19.217355 -21.807221
0.000000 17.276090 -21.996132
9.423308 27.050983 -19.098867
6.316879 23.069272 -20.789062
-2.365698 20.570909 -20.815998
2.419875 21.042003 -21.292706
-1.164873 18.942072 -21.478732
1.176610 19.132919 -21.695136
1.469434 35.514212 -2.377594
4.525461 35.854643 -7.322349
4.060899 36.481235 -2.454139
0.000000 34.693883 -4.674302
10.085759 31.305855 -16.319100
7.533467 34.594488 -12.189406
11.695660 33.062570 -14.670205
9.768463 38.178877 -2.629148
7.293491 36.554476 -7.542872
6.839640 37.378309 -2.536528
11.664774 38.133855 -5.333702
5.679040 36.702352 -4.993559
-2.767959 32.625995 -9.017603
2.943398 34.693894 -9.589157
-1.421470 33.730378 -6.904498
1.469369 34.866969 -7.137154
14.984854 36.260407 -10.680420
8.918518 35.913053 -10.134588
13.341654 34.723460 -12.777429
13.442290 37.515774 -8.066302
10.384335 34.758013 -12.506344
10.277463 37.110901 -7.823282
-7.295334 25.848943 -15.975525
-2.566471 27.739815 -17.144148
-6.123761 24.880144 -17.523514
-6.367069 27.897374 -14.590914
8.207614 29.081346 -17.973260
2.661481 28.766730 -17.778817
6.676095 27.124212 -19.104050
7.118960 31.191791 -16.313963
-3.643187 22.211763 -19.925784
-1.312203 26.373722 -18.532309
-4.888739 23.640486 -18.850623
-1.238939 22.645335 -20.330736
-3.773899 25.739769 -18.100924
-4.105442 31.263161 -11.110812
-1.392378 29.829168 -15.650684
-5.288620 29.721489 -12.946299
-1.420884 32.393846 -11.495193
-3.946309 28.977083 -15.187454
3.789690 23.104963 -20.727058
1.333935 26.810511 -18.839233
5.191807 25.106034 -20.019232
1.254841 22.936003 -20.591694
3.965510 27.046641 -19.019954
0.000000 24.753811 -19.678554
4.469336 34.034234 -12.095642
1.423338 30.492427 -15.998681
5.850489 32.879132 -14.321728
1.461708 33.324556 -11.825463
4.211653 30.925461 -16.208637
0.000000 31.703449 -13.876412
0.000000 -12.010976 -22.826412
0.000000 -8.356331 -23.180865
0.000000 -1.627334 -23.479925
0.000000 -4.925604 -23.385698
0.000000 12.010976 -22.826412
0.000000 8.356331 -23.180865
0.000000 1.627334 -23.479925
0.000000 4.925604 -23.385698
27.624338 39.559202 -1.962509
30.508247 34.619752 -5.631564
25.931832 38.865852 -5.004149
28.553860 20.159947 -9.946841
30.098922 27.123888 -8.241753
21.882399 36.037084 -10.295588
28.527606 33.706724 -8.426027
23.935107 37.581293 -7.804369
27.659999 36.739410 -6.854076
22.462633 1.717848 -13.226511
23.825498 5.393598 -12.664797
26.870562 14.364322 -11.120237
25.285679 9.534553 -11.985534
14.007506 28.766552 -17.778707
19.760386 27.430102 -16.952735
15.872957 30.669669 -16.313603
26.956319 19.584424 -12.103840
24.350456 24.252668 -14.988973
27.676845 22.815928 -11.496169
19.782859 34.278541 -12.620182
21.869982 29.155357 -15.284097
17.808468 32.520354 -14.583268
23.252548 33.703571 -11.957498
18.966558 30.135494 -15.925822
28.644587 29.993614 -9.752427
24.447615 27.521459 -14.276910
28.290157 26.339931 -10.725844
26.347911 32.321512 -11.005343
26.347268 25.360930 -12.988715
24.100427 30.774780 -13.301097
16.275077 -23.306587 -1.156226
18.116257 -20.557731 -3.344108
15.788583 -23.663455 -3.046774
20.460432 -14.445726 -7.127466
19.499949 -17.572537 -5.339519
14.602475 -24.048123 -6.870411
17.570066 -20.759869 -5.189564
15.228008 -23.909993 -4.965300
16.744882 -22.241400 -4.149338
21.793063 -1.666642 -12.832253
21.691042 -4.910402 -11.530194
21.084849 -11.271427 -8.725851
21.469982 -8.095756 -10.176875
11.315579 -23.238269 -14.362040
14.617620 -20.291244 -12.540679
12.256347 -23.681669 -12.596594
19.727045 -14.332180 -8.857774
17.362378 -17.292653 -10.687447
19.348850 -15.950589 -8.036959
13.884884 -24.058887 -8.857656
15.450157 -20.596946 -10.797526
13.114488 -23.948596 -10.739391
15.486285 -22.446706 -7.963739
13.935888 -22.142387 -11.701674
18.294068 -19.155633 -6.228457
16.880589 -19.003017 -9.857920
18.873422 -17.572354 -7.155612
16.956881 -20.801347 -7.082774
18.154920 -17.475271 -8.950040
16.246403 -20.745668 -8.966438
1.721046 -13.251134 -22.504450
5.022971 -11.794522 -22.188304
2.846204 -14.749219 -22.105686
1.677768 -11.352993 -22.761980
11.070266 -8.570122 -20.708549
8.144443 -10.238077 -21.599100
5.231085 -17.710640 -20.925964
6.191569 -13.159655 -21.672010
4.026967 -16.251047 -21.585463
4.553185 -13.964097 -21.925485
1.614253 -7.742891 -23.127604
4.923031 -9.959507 -22.468099
1.643934 -9.509630 -22.967284
3.326542 -10.664323 -22.643452
20.745804 -1.029187 -14.486872
18.572494 -3.021171 -16.366790
20.756940 -2.672547 -13.849317
13.779132 -6.798571 -19.516291
16.269522 -4.943590 -18.054014
20.685089 -5.909611 -12.560377
18.619671 -4.654556 -15.758715
20.735560 -4.306078 -13.206247
19.696341 -3.674534 -14.828783
10.077251 -22.442928 -16.305335
11.076074 -17.993724 -17.921464
8.946325 -21.538137 -17.755369
11.903682 -21.119757 -15.423910
12.249104 -9.650837 -19.819467
11.754350 -13.701062 -19.018937
10.849584 -10.556526 -20.397281
6.520253 -19.151125 -20.053054
9.915179 -16.978638 -19.113394
7.743109 -20.422986 -19.015096
7.008427 -16.778888 -20.582999
9.479922 -19.229773 -18.509886
15.072656 -18.270276 -13.545337
12.769479 -16.791476 -17.037454
13.572765 -19.706221 -14.489220
12.383570 -18.939106 -16.309827
7.848974 -12.303718 -21.319138
10.287875 -14.720899 -19.624756
9.372969 -11.445872 -20.901507
7.449022 -14.485366 -20.995917
10.590168 -12.612161 -20.039150
8.706176 -15.774832 -20.143501
1.570231 -0.970456 -23.454603
4.725818 -2.920716 -23.140458
1.575101 -2.606342 -23.414172
10.988584 -6.791318 -21.080023
7.895237 -4.879525 -22.407300
9.554423 -7.617159 -21.533016
1.601497 -5.950279 -23.255957
4.752180 -4.595064 -23.030148
1.584445 -4.272388 -23.348395
3.221316 -7.044997 -23.031128
3.165688 -3.600252 -23.267613
6.545268 -9.183148 -22.221418
6.397002 -5.629413 -22.668499
8.064014 -8.420105 -21.914462
4.879306 -8.131241 -22.693290
7.981581 -6.627309 -22.182654
4.823226 -6.336283 -22.879691
20.074861 -12.406946 -9.775198
18.348461 -11.339973 -13.218058
20.296306 -10.795874 -10.504267
18.962425 -13.848395 -10.687750
13.831201 -8.548152 -19.037489
16.285416 -10.064941 -16.351080
15.093208 -7.604953 -18.308804
13.616148 -10.508509 -18.644412
20.589767 -7.580445 -11.882783
18.482499 -9.689070 -13.864070
20.466670 -9.177973 -11.207751
19.640446 -6.968122 -13.550208
19.423717 -10.264928 -12.224822
16.509277 -16.751120 -12.554874
17.144722 -12.710867 -14.144094
17.771741 -15.304525 -11.620274
15.485341 -16.164571 -14.386323
18.094952 -13.304516 -12.462995
17.462586 -5.677962 -16.677169
17.425628 -9.039641 -15.479376
16.308308 -6.640882 -17.515786
18.597427 -6.332348 -15.160286
16.313172 -8.354865 -16.947625
18.551677 -8.018178 -14.528238
13.104504 -14.582116 -17.675669
16.044584 -12.025328 -15.812941
13.375997 -12.529954 -18.192170
14.343433 -15.439174 -16.116379
14.890526 -11.305937 -17.291003
15.804109 -14.065516 -15.140026
1.739715 13.394873 -22.748562
5.182483 12.169073 -22.892924
2.904365 15.050615 -22.557410
1.693105 11.456774 -22.970055
11.861139 9.182381 -22.187992
8.575055 10.779384 -22.741086
5.489996 18.587224 -21.961689
6.477674 13.767745 -22.673446
4.160266 16.788983 -22.299977
4.704189 14.427208 -22.652632
1.624069 7.789975 -23.268241
5.052293 10.221011 -23.058038
1.656363 9.581530 -23.140934
3.385907 10.854637 -23.047546
21.119386 1.047721 -14.747746
19.504677 3.172808 -17.188265
21.768289 2.802763 -14.524102
20.018303 0.000000 -15.722674
14.885057 7.344230 -21.082685
17.455921 5.304085 -19.370542
23.108787 6.602048 -14.032093
20.123577 5.030504 -17.031542
22.432666 4.658509 -14.287115
20.991222 3.916106 -15.803661
17.735107 -2.015561 -17.526292
18.285661 2.078130 -18.070364
18.886108 -1.024265 -16.655640
19.197613 1.041159 -16.930355
11.869398 26.434197 -19.205089
12.878240 20.921448 -20.837430
10.155818 24.449971 -20.155794
14.651975 25.995834 -18.984944
13.436988 10.586748 -21.741504
13.324052 15.530733 -21.558770
11.788795 11.470369 -22.163004
6.989860 20.530442 -21.497330
11.142287 19.079924 -21.478879
8.516131 22.461884 -20.913439
7.497938 17.950826 -22.020639
10.722886 21.751093 -20.936817
19.925855 24.153067 -17.906760
15.323100 20.149410 -20.444578
17.399918 25.262844 -18.574789
15.081241 23.064853 -19.862804
8.322955 13.046709 -22.606548
11.452302 16.387075 -21.845972
10.065307 12.291326 -22.445404
7.939931 15.439987 -22.379599
11.656778 13.882420 -22.057433
9.503516 17.219540 -21.988306
1.571404 0.971181 -23.472129
4.760394 2.942085 -23.309761
1.578273 2.611591 -23.461323
3.151798 0.000000 -23.393465
11.592236 7.164396 -22.238044
8.081441 4.994605 -22.935761
10.028341 7.994985 -22.601097
1.608956 5.977992 -23.364271
4.807407 4.648465 -23.297791
1.589700 4.286559 -23.425842
3.258304 7.125892 -23.295584
3.183950 3.621020 -23.401833
6.347780 -1.948455 -22.966485
6.391900 1.961998 -23.126111
4.754858 -0.978911 -23.228795
4.766536 0.981315 -23.285843
6.772911 9.502536 -22.994272
6.528518 5.745148 -23.134540
8.407597 8.778860 -22.848171
4.982984 8.304018 -23.175489
8.243422 6.844722 -22.910370
4.902006 6.439777 -23.253398
26.052169 16.101126 -12.685771
22.628425 13.985136 -16.301303
25.293842 13.454130 -13.090721
25.145777 18.364141 -14.172859
15.279102 9.443004 -21.030404
19.016707 11.752971 -19.093384
16.693407 8.411239 -20.249925
15.377228 11.867655 -21.055837
23.828462 8.772822 -13.751901
22.017381 11.542159 -16.515652
24.547310 11.007875 -13.442350
22.308064 7.914551 -15.390634
23.671299 12.509664 -14.898148
22.191772 22.516858 -16.876263
21.376283 15.848089 -17.635057
23.882185 20.566667 -15.615663
19.914460 20.787963 -18.501101
23.275620 17.113660 -16.031207
19.100163 6.210420 -18.241092
20.253670 10.506704 -17.991558
17.975163 7.319639 -19.306055
20.729231 7.058218 -16.898094
18.498196 9.473935 -19.217628
21.362818 9.233175 -16.729707
15.430767 17.170680 -20.813390
19.336011 14.492235 -19.056848
15.436212 14.459858 -20.994188
17.631613 18.978549 -19.811000
17.365331 13.184983 -20.164766
19.686917 17.521180 -18.859679
12.634481 -5.769624 -20.443020
12.945105 -1.937876 -20.945620
13.964441 -4.880009 -19.826919
11.152722 -4.866738 -21.323658
13.367244 6.104245 -21.628655
13.192089 1.974850 -21.345248
14.759274 5.157771 -20.955436
11.593038 5.058879 -22.165529
16.489989 -3.014994 -18.381797
14.306832 -1.013013 -20.360356
15.256971 -3.956758 -19.133703
16.749483 -1.020700 -18.656366
14.140806 -2.948246 -20.108424
8.018624 -2.962879 -22.562486
11.404991 -1.014656 -21.737158
9.596021 -3.920017 -22.030082
8.057816 -0.996001 -22.707199
11.291537 -2.933993 -21.543822
17.205082 3.145740 -19.178930
14.470118 1.024574 -20.592732
16.050434 4.162535 -20.128781
16.989392 1.035320 -18.923588
14.619468 3.048043 -20.789089
15.654542 0.000000 -19.691974
8.134640 3.005747 -22.888927
11.497603 1.022895 -21.913670
9.835622 4.017895 -22.580147
8.096726 1.000810 -22.816848
11.559257 3.003557 -22.054620
9.786416 0.000000 -22.359030
27.624338 39.559202 1.962509
30.508247 34.619752 5.631564
25.931832 38.865852 5.004149
30.193813 38.443136 0.000000
28.553860 20.159947 9.946841
30.098922 27.123888 8.241753
21.882399 36.037084 10.295588
28.527606 33.706724 8.426027
23.935107 37.581293 7.804369
27.659999 36.739410 6.854076
32.150008 32.533056 -3.697319
32.150008 32.533056 3.697319
31.732316 35.981803 -1.951430
31.732316 35.981803 1.951430
22.462633 1.717848 13.226511
23.825498 5.393598 12.664797
26.870562 14.364322 11.120237
25.285679 9.534553 11.985534
14.007506 28.766552 17.778707
19.760386 27.430102 16.952735
15.872957 30.669669 16.313603
26.956319 19.584424 12.103840
24.350456 24.252668 14.988973
27.676845 22.815928 11.496169
19.782859 34.278541 12.620182
21.869982 29.155357 15.284097
17.808468 32.520354 14.583268
23.252548 33.703571 11.957498
18.966558 30.135494 15.925822
28.644587 29.993614 9.752427
24.447615 27.521459 14.276910
28.290157 26.339931 10.725844
26.347911 32.321512 11.005343
26.347268 25.360930 12.988715
24.100427 30.774780 13.301097
29.299360 18.108000 -8.269144
31.800913 19.654045 -2.942202
30.210324 21.277651 -7.435681
29.299360 18.108000 8.269144
31.800913 19.654045 2.942202
30.210324 21.277651 7.435681
31.803609 28.530461 -5.216447
32.495743 22.834136 -1.616799
31.085294 24.787018 -6.428290
32.907840 29.544301 -1.800406
31.630978 22.243788 -4.637653
31.803609 28.530461 5.216447
32.495743 22.834136 1.616799
31.085294 24.787018 6.428290
32.907840 29.544301 1.800406
31.630978 22.243788 4.637653
32.939855 26.186218 0.000000
16.275077 -23.306587 1.156226
18.116257 -20.557731 3.344108
15.788583 -23.663455 3.046774
17.317807 -22.049246 0.000000
20.460432 -14.445726 7.127466
19.499949 -17.572537 5.339519
14.602475 -24.048123 6.870411
17.570066 -20.759869 5.189564
15.228008 -23.909993 4.965300
16.744882 -22.241400 4.149338
19.104441 -19.332059 -2.197051
19.104441 -19.332059 2.197051
18.268722 -20.715209 -1.123464
18.268722 -20.715209 1.123464
21.793063 -1.666642 12.832253
21.691042 -4.910402 11.530194
21.084849 -11.271427 8.725851
21.469982 -8.095756 10.176875
11.315579 -23.238269 14.362040
14.617620 -20.291244 12.540679
12.256347 -23.681669 12.596594
19.727045 -14.332180 8.857774
17.362378 -17.292653 10.687447
19.348850 -15.950589 8.036959
13.884884 -24.058887 8.857656
15.450157 -20.596946 10.797526
13.114488 -23.948596 10.739391
15.486285 -22.446706 7.963739
13.935888 -22.142387 11.701674
18.294068 -19.155633 6.228457
16.880589 -19.003017 9.857920
18.873422 -17.572354 7.155612
16.956881 -20.801347 7.082774
18.154920 -17.475271 8.950040
16.246403 -20.745668 8.966438
21.433237 -13.246469 -6.049092
22.231237 -13.739660 -2.056821
21.007385 -14.795863 -5.170557
21.433237 -13.246469 6.049092
22.231237 -13.739660 2.056821
21.007385 -14.795863 5.170557
19.867310 -17.822616 -3.258648
21.608996 -15.184227 -1.075138
20.484895 -16.334394 -4.236178
20.041326 -17.992885 -1.096472
21.401881 -15.050401 -3.137889
19.867310 -17.822616 3.258648
21.608996 -15.184227 1.075138
20.484895 -16.334394 4.236178
20.041326 -17.992885 1.096472
21.401881 -15.050401 3.137889
20.883016 -16.601385 0.000000
1.721046 -13.251134 22.504450
5.022971 -11.794522 22.188304
2.846204 -14.749219 22.105686
1.677768 -11.352993 22.761980
11.070266 -8.570122 20.708549
8.144443 -10.238077 21.599100
5.231085 -17.710640 20.925964
6.191569 -13.159655 21.672010
4.026967 -16.251047 21.585463
4.553185 -13.964097 21.925485
1.614253 -7.742891 23.127604
4.923031 -9.959507 22.468099
1.643934 -9.509630 22.967284
3.326542 -10.664323 22.643452
20.745804 -1.029187 14.486872
18.572494 -3.021171 16.366790
20.756940 -2.672547 13.849317
13.779132 -6.798571 19.516291
16.269522 -4.943590 18.054014
20.685089 -5.909611 12.560377
18.619671 -4.654556 15.758715
20.735560 -4.306078 13.206247
19.696341 -3.674534 14.828783
10.077251 -22.442928 16.305335
11.076074 -17.993724 17.921464
8.946325 -21.538137 17.755369
11.903682 -21.119757 15.423910
12.249104 -9.650837 19.819467
11.754350 -13.701062 19.018937
10.849584 -10.556526 20.397281
6.520253 -19.151125 20.053054
9.915179 -16.978638 19.113394
7.743109 -20.422986 19.015096
7.008427 -16.778888 20.582999
9.479922 -19.229773 18.509886
15.072656 -18.270276 13.545337
12.769479 -16.791476 17.037454
13.572765 -19.706221 14.489220
12.383570 -18.939106 16.309827
7.848974 -12.303718 21.319138
10.287875 -14.720899 19.624756
9.372969 -11.445872 20.901507
7.449022 -14.485366 20.995917
10.590168 -12.612161 20.039150
8.706176 -15.774832 20.143501
1.570231 -0.970456 23.454603
4.725818 -2.920716 23.140458
1.575101 -2.606342 23.414172
10.988584 -6.791318 21.080023
7.895237 -4.879525 22.407300
9.554423 -7.617159 21.533016
1.601497 -5.950279 23.255957
4.752180 -4.595064 23.030148
1.584445 -4.272388 23.348395
3.221316 -7.044997 23.031128
3.165688 -3.600252 23.267613
6.545268 -9.183148 22.221418
6.397002 -5.629413 22.668499
8.064014 -8.420105 21.914462
4.879306 -8.131241 22.693290
7.981581 -6.627309 22.182654
4.823226 -6.336283 22.879691
20.074861 -12.406946 9.775198
18.348461 -11.339973 13.218058
20.296306 -10.795874 10.504267
18.962425 -13.848395 10.687750
13.831201 -8.548152 19.037489
16.285416 -10.064941 16.351080
15.093208 -7.604953 18.308804
13.616148 -10.508509 18.644412
20.589767 -7.580445 11.882783
18.482499 -9.689070 13.864070
20.466670 -9.177973 11.207751
19.640446 -6.968122 13.550208
19.423717 -10.264928 12.224822
16.509277 -16.751120 12.554874
17.144722 -12.710867 14.144094
17.771741 -15.304525 11.620274
15.485341 -16.164571 14.386323
18.094952 -13.304516 12.462995
17.462586 -5.677962 16.677169
17.425628 -9.039641 15.479376
16.308308 -6.640882 17.515786
18.597427 -6.332348 15.160286
16.313172 -8.354865 16.947625
18.551677 -8.018178 14.528238
13.104504 -14.582116 17.675669
16.044584 -12.025328 15.812941
13.375997 -12.529954 18.192170
14.343433 -15.439174 16.116379
14.890526 -11.305937 17.291003
15.804109 -14.065516 15.140026
1.739715 13.394873 22.748562
5.182483 12.169073 22.892924
2.904365 15.050615 22.557410
1.693105 11.456774 22.970055
11.861139 9.182381 22.187992
8.575055 10.779384 22.741086
5.489996 18.587224 21.961689
6.477674 13.767745 22.673446
4.160266 16.788983 22.299977
4.704189 14.427208 22.652632
1.624069 7.789975 23.268241
5.052293 10.221011 23.058038
1.656363 9.581530 23.140934
3.385907 10.854637 23.047546
21.119386 1.047721 14.747746
19.504677 3.172808 17.188265
21.768289 2.802763 14.524102
20.018303 0.000000 15.722674
14.885057 7.344230 21.082685
17.455921 5.304085 19.370542
23.108787 6.602048 14.032093
20.123577 5.030504 17.031542
22.432666 4.658509 14.287115
20.991222 3.916106 15.803661
17.735107 -2.015561 17.526292
18.285661 2.078130 18.070364
18.886108 -1.024265 16.655640
19.197613 1.041159 16.930355
11.869398 26.434197 19.205089
12.878240 20.921448 20.837430
10.155818 24.449971 20.155794
14.651975 25.995834 18.984944
13.436988 10.586748 21.741504
13.324052 15.530733 21.558770
11.788795 11.470369 22.163004
6.989860 20.530442 21.497330
11.142287 19.079924 21.478879
8.516131 22.461884 20.913439
7.497938 17.950826 22.020639
10.722886 21.751093 20.936817
19.925855 24.153067 17.906760
15.323100 20.149410 20.444578
17.399918 25.262844 18.574789
15.081241 23.064853 19.862804
8.322955 13.046709 22.606548
11.452302 16.387075 21.845972
10.065307 12.291326 22.445404
7.939931 15.439987 22.379599
11.656778 13.882420 22.057433
9.503516 17.219540 21.988306
1.571404 0.971181 23.472129
4.760394 2.942085 23.309761
1.578273 2.611591 23.461323
3.151798 0.000000 23.393465
11.592236 7.164396 22.238044
8.081441 4.994605 22.935761
10.028341 7.994985 22.601097
1.608956 5.977992 23.364271
4.807407 4.648465 23.297791
1.589700 4.286559 23.425842
3.258304 7.125892 23.295584
3.183950 3.621020 23.401833
6.347780 -1.948455 22.966485
6.391900 1.961998 23.126111
4.754858 -0.978911 23.228795
4.766536 0.981315 23.285843
6.772911 9.502536 22.994272
6.528518 5.745148 23.134540
8.407597 8.778860 22.848171
4.982984 8.304018 23.175489
8.243422 6.844722 22.910370
4.902006 6.439777 23.253398
26.052169 16.101126 12.685771
22.628425 13.985136 16.301303
25.293842 13.454130 13.090721
25.145777 18.364141 14.172859
15.279102 9.443004 21.030404
19.016707 11.752971 19.093384
16.693407 8.411239 20.249925
15.377228 11.867655 21.055837
23.828462 8.772822 13.751901
22.017381 11.542159 16.515652
24.547310 11.007875 13.442350
22.308064 7.914551 15.390634
23.671299 12.509664 14.898148
22.191772 22.516858 16.876263
21.376283 15.848089 17.635057
23.882185 20.566667 15.615663
19.914460 20.787963 18.501101
23.275620 17.113660 16.031207
19.100163 6.210420 18.241092
20.253670 10.506704 17.991558
17.975163 7.319639 19.306055
