17.380824 45.503587 28.122763
0.000000 0.000000 39.454601
-17.380824 -45.503587 -28.122763
13.033948 -34.123320 -21.089372
-13.033948 34.123320 -21.089372
17.380824 45.503587 -28.122763
0.000000 0.000000 -39.454601
48.953131 30.254699 -18.698432
32.709872 -20.215813 -12.494059
19.909685 -12.304862 -32.214547
24.051501 14.864645 -38.916146
48.953131 30.254699 18.698432
32.709872 -20.215813 12.494059
19.909685 -12.304862 32.214547
24.051501 14.864645 38.916146
55.797232 0.000000 0.000000
-32.709872 20.215813 -12.494059
-48.953131 -30.254699 -18.698432
-24.051501 -14.864645 -38.916146
-19.909685 12.304862 -32.214547
-32.709872 20.215813 12.494059
-48.953131 -30.254699 18.698432
-24.051501 -14.864645 38.916146
-19.909685 12.304862 32.214547
-55.797232 0.000000 0.000000
-12.344119 43.453113 0.000000
15.850824 55.797232 0.000000
-15.850824 -55.797232 0.000000
12.344119 -43.453113 0.000000
-26.013776 -51.721264 15.581812
-7.952736 -34.350534 34.759800
-9.131733 -53.458095 14.775454
17.964506 -35.717495 10.760435
6.842137 -29.553487 29.905599
7.721753 -45.203931 12.494059
0.000000 -42.011843 25.964747
-17.964506 35.717495 10.760435
-6.842137 29.553487 29.905599
-7.721753 45.203931 12.494059
26.013776 51.721264 15.581812
7.952736 34.350534 34.759800
9.131733 53.458095 14.775454
0.000000 42.011843 25.964747
0.000000 -10.988718 38.681903
0.000000 10.988718 38.681903
-26.013776 -51.721264 -15.581812
-7.952736 -34.350534 -34.759800
-9.131733 -53.458095 -14.775454
17.964506 -35.717495 -10.760435
6.842137 -29.553487 -29.905599
7.721753 -45.203931 -12.494059
0.000000 -42.011843 -25.964747
-17.964506 35.717495 -10.760435
-6.842137 29.553487 -29.905599
-7.721753 45.203931 -12.494059
26.013776 51.721264 -15.581812
7.952736 34.350534 -34.759800
9.131733 53.458095 -14.775454
0.000000 42.011843 -25.964747
0.000000 -10.988718 -38.681903
0.000000 10.988718 -38.681903
47.699203 48.267510 -11.043181
48.554254 14.627702 -24.420894
34.782899 40.724527 -25.169142
27.373300 -27.699436 -6.337387
37.625069 -11.335120 -18.923940
23.249503 -27.220993 -16.823499
10.332433 -17.249958 -34.296813
29.983312 -6.859917 -29.630285
16.892879 -23.345384 -27.333252
10.397494 -6.426005 -37.618486
27.633859 -17.078664 -23.602133
11.767221 19.645331 -39.059356
34.955678 7.997551 -34.544106
23.734048 32.799647 -38.402496
10.874724 6.720949 -39.345122
38.682641 23.907187 -33.038920
22.343810 0.000000 -36.153045
47.699203 48.267510 11.043181
48.554254 14.627702 24.420894
34.782899 40.724527 25.169142
55.797232 34.484586 0.000000
27.373300 -27.699436 6.337387
37.625069 -11.335120 18.923940
23.249503 -27.220993 16.823499
34.484586 -21.312646 0.000000
10.332433 -17.249958 34.296813
29.983312 -6.859917 29.630285
16.892879 -23.345384 27.333252
10.397494 -6.426005 37.618486
27.633859 -17.078664 23.602133
11.767221 19.645331 39.059356
34.955678 7.997551 34.544106
23.734048 32.799647 38.402496
10.874724 6.720949 39.345122
38.682641 23.907187 33.038920
22.343810 0.000000 36.153045
51.775155 0.000000 -14.708237
51.775155 0.000000 14.708237
54.723015 15.125069 -9.347807
42.952236 -11.871706 -7.337118
54.723015 15.125069 9.347807
42.952236 -11.871706 7.337118
-27.373300 27.699436 -6.337387
-37.625069 11.335120 -18.923940
-23.249503 27.220993 -16.823499
-47.699203 -48.267510 -11.043181
-48.554254 -14.627702 -24.420894
-34.782899 -40.724527 -25.169142
-11.767221 -19.645331 -39.059356
-34.955678 -7.997551 -34.544106
-23.734048 -32.799647 -38.402496
-10.874724 -6.720949 -39.345122
-38.682641 -23.907187 -33.038920
-10.332433 17.249958 -34.296813
-29.983312 6.859917 -29.630285
-16.892879 23.345384 -27.333252
-10.397494 6.426005 -37.618486
-27.633859 17.078664 -23.602133
-22.343810 0.000000 -36.153045
-27.373300 27.699436 6.337387
-37.625069 11.335120 18.923940
-23.249503 27.220993 16.823499
-34.484586 21.312646 0.000000
-47.699203 -48.267510 11.043181
-48.554254 -14.627702 24.420894
-34.782899 -40.724527 25.169142
-55.797232 -34.484586 0.000000
-11.767221 -19.645331 39.059356
-34.955678 -7.997551 34.544106
-23.734048 -32.799647 38.402496
-10.874724 -6.720949 39.345122
-38.682641 -23.907187 33.038920
-10.332433 17.249958 34.296813
-29.983312 6.859917 29.630285
-16.892879 23.345384 27.333252
-10.397494 6.426005 37.618486
-27.633859 17.078664 23.602133
-22.343810 0.000000 36.153045
-51.775155 0.000000 -14.708237
-51.775155 0.000000 14.708237
-42.952236 11.871706 -7.337118
-54.723015 -15.125069 -9.347807
-42.952236 11.871706 7.337118
-54.723015 -15.125069 9.347807
-17.070793 38.726440 0.000000
-6.821529 48.975703 0.000000
24.595677 55.797232 0.000000
7.771659 55.797232 0.000000
-24.595677 -55.797232 0.000000
-7.771659 -55.797232 0.000000
17.070793 -38.726440 0.000000
6.821529 -48.975703 0.000000
-30.496614 -54.449110 8.259338
-21.617885 -48.644548 22.112173
-21.281643 -54.911054 7.821377
-3.676338 -27.912343 35.538340
-13.172864 -42.151836 33.716097
-4.601032 -55.255957 7.444627
-13.448930 -50.206294 21.760825
-12.557870 -55.133547 7.575927
-17.356065 -52.786471 15.214281
19.845194 -35.431906 5.374635
15.684089 -35.292323 16.042702
15.423240 -39.795159 5.668312
3.455596 -26.236374 33.404476
10.063550 -32.202343 25.757770
0.000000 -31.960190 32.340976
4.224126 -50.729515 6.834780
10.613447 -39.621133 17.172918
10.224032 -44.887161 6.167967
0.000000 -51.968267 14.363676
13.199418 -40.144510 11.570576
-8.699240 -46.721858 28.875696
7.050917 -37.869047 23.404358
-4.036482 -38.812038 30.854431
-4.572067 -50.705003 22.193281
3.682821 -35.411476 28.151084
4.013288 -44.508043 19.480908
-19.845194 35.431906 5.374635
-15.684089 35.292323 16.042702
-15.423240 39.795159 5.668312
-3.455596 26.236374 33.404476
-10.063550 32.202343 25.757770
-4.224126 50.729515 6.834780
-10.613447 39.621133 17.172918
-10.224032 44.887161 6.167967
-13.199418 40.144510 11.570576
30.496614 54.449110 8.259338
21.617885 48.644548 22.112173
21.281643 54.911054 7.821377
3.676338 27.912343 35.538340
13.172864 42.151836 33.716097
0.000000 31.960190 32.340976
4.601032 55.255957 7.444627
13.448930 50.206294 21.760825
12.557870 55.133547 7.575927
0.000000 51.968267 14.363676
17.356065 52.786471 15.214281
-7.050917 37.869047 23.404358
8.699240 46.721858 28.875696
-3.682821 35.411476 28.151084
-4.013288 44.508043 19.480908
4.036482 38.812038 30.854431
4.572067 50.705003 22.193281
0.000000 -16.603893 37.667240
0.000000 -5.468933 39.264627
0.000000 16.603893 37.667240
0.000000 5.468933 39.264627
-30.496614 -54.449110 -8.259338
-21.617885 -48.644548 -22.112173
-21.281643 -54.911054 -7.821377
-3.676338 -27.912343 -35.538340
-13.172864 -42.151836 -33.716097
-4.601032 -55.255957 -7.444627
-13.448930 -50.206294 -21.760825
-12.557870 -55.133547 -7.575927
-17.356065 -52.786471 -15.214281
19.845194 -35.431906 -5.374635
15.684089 -35.292323 -16.042702
15.423240 -39.795159 -5.668312
3.455596 -26.236374 -33.404476
10.063550 -32.202343 -25.757770
0.000000 -31.960190 -32.340976
4.224126 -50.729515 -6.834780
10.613447 -39.621133 -17.172918
10.224032 -44.887161 -6.167967
0.000000 -51.968267 -14.363676
13.199418 -40.144510 -11.570576
-8.699240 -46.721858 -28.875696
7.050917 -37.869047 -23.404358
-4.036482 -38.812038 -30.854431
-4.572067 -50.705003 -22.193281
3.682821 -35.411476 -28.151084
4.013288 -44.508043 -19.480908
-19.845194 35.431906 -5.374635
-15.684089 35.292323 -16.042702
-15.423240 39.795159 -5.668312
-3.455596 26.236374 -33.404476
-10.063550 32.202343 -25.757770
-4.224126 50.729515 -6.834780
-10.613447 39.621133 -17.172918
-10.224032 44.887161 -6.167967
-13.199418 40.144510 -11.570576
30.496614 54.449110 -8.259338
21.617885 48.644548 -22.112173
21.281643 54.911054 -7.821377
3.676338 27.912343 -35.538340
13.172864 42.151836 -33.716097
0.000000 31.960190 -32.340976
4.601032 55.255957 -7.444627
13.448930 50.206294 -21.760825
12.557870 55.133547 -7.575927
0.000000 51.968267 -14.363676
17.356065 52.786471 -15.214281
-7.050917 37.869047 -23.404358
8.699240 46.721858 -28.875696
-3.682821 35.411476 -28.151084
-4.013288 44.508043 -19.480908
4.036482 38.812038 -30.854431
4.572067 50.705003 -22.193281
0.000000 -16.603893 -37.667240
0.000000 -5.468933 -39.264627
0.000000 16.603893 -37.667240
0.000000 5.468933 -39.264627
42.857016 54.566083 -5.644703
48.837241 39.063569 -15.262120
36.684203 50.901743 -13.679740
48.075315 7.292503 -26.926691
48.800978 22.183281 -21.687404
26.104296 43.581024 -26.934554
42.772909 36.384809 -22.487049
31.010026 47.071963 -20.797839
40.773619 44.231060 -18.642195
24.463555 -31.147301 -3.222098
30.106326 -24.081224 -9.408524
22.819881 -31.664085 -8.509658
39.918371 -6.055183 -22.358036
35.213605 -16.006919 -15.649106
18.340610 -30.619579 -18.923940
27.976729 -23.798427 -14.708237
20.737242 -31.478292 -13.908076
25.562646 -27.730256 -11.687552
5.345909 -19.739127 -35.242532
15.135605 -14.797269 -33.296803
8.688084 -23.298354 -32.327998
5.262386 -14.318734 -36.945303
35.637736 -3.686621 -27.990410
24.804794 -9.691223 -31.010933
34.285674 -9.214205 -24.709225
15.097808 -28.717737 -24.428766
18.482676 -17.912948 -29.905599
12.056891 -26.370451 -28.606560
20.345471 -25.624385 -22.361837
13.757049 -20.512057 -31.136470
5.253662 -3.246942 -38.994044
15.320438 -9.468551 -35.347116
5.249291 -8.701233 -38.201531
10.422882 -11.890158 -36.162546
30.551038 -18.881580 -18.299555
24.051501 -14.864645 -28.274235
32.503732 -14.361147 -21.412780
25.553801 -22.300240 -20.289429
28.928993 -12.192788 -26.667680
22.276846 -20.268144 -25.526995
5.749873 21.230716 -37.905637
17.934270 17.533374 -39.453583
10.100144 27.084998 -37.582216
5.537239 15.066596 -38.874944
39.089258 4.043671 -30.701286
29.836629 11.657158 -37.301729
44.228349 11.886279 -31.874777
32.468905 0.000000 -32.086612
20.813019 39.588714 -33.676172
24.382072 23.630495 -39.451022
15.676763 34.287721 -37.195184
29.096355 36.645807 -31.979989
17.230686 25.691325 -38.998389
5.312197 3.283118 -39.428505
16.984753 10.497155 -39.187002
5.410443 8.968359 -39.374309
10.702500 0.000000 -38.722007
11.367051 12.967242 -39.438373
43.809623 27.075836 -26.241223
32.709872 20.215813 -38.452761
44.145236 19.504721 -29.081960
37.164175 32.432357 -29.507934
39.121116 16.488491 -36.063108
31.587381 28.739148 -36.195917
21.196596 -6.385795 -34.296813
23.321234 7.025874 -37.734549
26.469981 -3.462893 -33.296803
16.178768 -3.333010 -36.963642
28.181379 3.686784 -35.449584
16.770123 3.454835 -38.314712
42.857016 54.566083 5.644703
48.837241 39.063569 15.262120
36.684203 50.901743 13.679740
55.140270 55.797232 0.000000
48.075315 7.292503 26.926691
48.800978 22.183281 21.687404
26.104296 43.581024 26.934554
42.772909 36.384809 22.487049
31.010026 47.071963 20.797839
40.773619 44.231060 18.642195
53.600519 33.126943 -9.979992
53.600519 33.126943 9.979992
54.508155 43.332384 -5.668890
54.508155 43.332384 5.668890
24.463555 -31.147301 3.222098
30.106326 -24.081224 9.408524
22.819881 -31.664085 8.509658
27.733403 -28.063829 0.000000
39.918371 -6.055183 22.358036
35.213605 -16.006919 15.649106
18.340610 -30.619579 18.923940
27.976729 -23.798427 14.708237
20.737242 -31.478292 13.908076
25.562646 -27.730256 11.687552
34.036822 -21.035913 -6.337387
34.036822 -21.035913 6.337387
30.981485 -24.629371 -3.222098
30.981485 -24.629371 3.222098
5.345909 -19.739127 35.242532
15.135605 -14.797269 33.296803
8.688084 -23.298354 32.327998
5.262386 -14.318734 36.945303
35.637736 -3.686621 27.990410
24.804794 -9.691223 31.010933
34.285674 -9.214205 24.709225
15.097808 -28.717737 24.428766
18.482676 -17.912948 29.905599
12.056891 -26.370451 28.606560
20.345471 -25.624385 22.361837
13.757049 -20.512057 31.136470
5.253662 -3.246942 38.994044
15.320438 -9.468551 35.347116
5.249291 -8.701233 38.201531
10.422882 -11.890158 36.162546
30.551038 -18.881580 18.299555
24.051501 -14.864645 28.274235
32.503732 -14.361147 21.412780
25.553801 -22.300240 20.289429
28.928993 -12.192788 26.667680
22.276846 -20.268144 25.526995
5.749873 21.230716 37.905637
17.934270 17.533374 39.453583
10.100144 27.084998 37.582216
5.537239 15.066596 38.874944
39.089258 4.043671 30.701286
29.836629 11.657158 37.301729
44.228349 11.886279 31.874777
32.468905 0.000000 32.086612
20.813019 39.588714 33.676172
24.382072 23.630495 39.451022
15.676763 34.287721 37.195184
29.096355 36.645807 31.979989
17.230686 25.691325 38.998389
5.312197 3.283118 39.428505
16.984753 10.497155 39.187002
5.410443 8.968359 39.374309
10.702500 0.000000 38.722007
11.367051 12.967242 39.438373
43.809623 27.075836 26.241223
32.709872 20.215813 38.452761
44.145236 19.504721 29.081960
37.164175 32.432357 29.507934
39.121116 16.488491 36.063108
31.587381 28.739148 36.195917
21.196596 -6.385795 34.296813
23.321234 7.025874 37.734549
26.469981 -3.462893 33.296803
16.178768 -3.333010 36.963642
28.181379 3.686784 35.449584
16.770123 3.454835 38.314712
47.350150 0.000000 -20.872164
54.745280 0.000000 -7.625139
51.659471 7.358231 -20.021441
44.034905 -6.272209 -17.066420
47.350150 0.000000 20.872164
54.745280 0.000000 7.625139
51.659471 7.358231 20.021441
44.034905 -6.272209 17.066420
52.763783 22.869314 -14.134013
55.575588 7.487691 -4.627647
52.185371 15.041030 -17.158424
55.401716 24.249004 -4.995570
54.219913 7.450385 -12.349770
37.633639 -16.311482 -10.081050
48.909599 -6.589583 -4.072586
40.740558 -11.742371 -13.395397
38.658456 -16.920578 -3.485831
47.200060 -6.485783 -10.750845
52.763783 22.869314 14.134013
55.575588 7.487691 4.627647
52.185371 15.041030 17.158424
55.401716 24.249004 4.995570
54.219913 7.450385 12.349770
55.797232 15.421976 0.000000
37.633639 -16.311482 10.081050
48.909599 -6.589583 4.072586
40.740558 -11.742371 13.395397
38.658456 -16.920578 3.485831
47.200060 -6.485783 10.750845
43.714768 -12.082465 0.000000
-24.463555 31.147301 -3.222098
-30.106326 24.081224 -9.408524
-22.819881 31.664085 -8.509658
-39.918371 6.055183 -22.358036
-35.213605 16.006919 -15.649106
-18.340610 30.619579 -18.923940
-27.976729 23.798427 -14.708237
-20.737242 31.478292 -13.908076
-25.562646 27.730256 -11.687552
-42.857016 -54.566083 -5.644703
-48.837241 -39.063569 -15.262120
-36.684203 -50.901743 -13.679740
-48.075315 -7.292503 -26.926691
-48.800978 -22.183281 -21.687404
-26.104296 -43.581024 -26.934554
-42.772909 -36.384809 -22.487049
-31.010026 -47.071963 -20.797839
-40.773619 -44.231060 -18.642195
-5.749873 -21.230716 -37.905637
-17.934270 -17.533374 -39.453583
-10.100144 -27.084998 -37.582216
-5.537239 -15.066596 -38.874944
-39.089258 -4.043671 -30.701286
-29.836629 -11.657158 -37.301729
-44.228349 -11.886279 -31.874777
-20.813019 -39.588714 -33.676172
-24.382072 -23.630495 -39.451022
-15.676763 -34.287721 -37.195184
-29.096355 -36.645807 -31.979989
-17.230686 -25.691325 -38.998389
-5.312197 -3.283118 -39.428505
-16.984753 -10.497155 -39.187002
-5.410443 -8.968359 -39.374309
-11.367051 -12.967242 -39.438373
-43.809623 -27.075836 -26.241223
-32.709872 -20.215813 -38.452761
-44.145236 -19.504721 -29.081960
-37.164175 -32.432357 -29.507934
-39.121116 -16.488491 -36.063108
-31.587381 -28.739148 -36.195917
-5.345909 19.739127 -35.242532
-15.135605 14.797269 -33.296803
-8.688084 23.298354 -32.327998
-5.262386 14.318734 -36.945303
-35.637736 3.686621 -27.990410
-24.804794 9.691223 -31.010933
-34.285674 9.214205 -24.709225
-32.468905 0.000000 -32.086612
-15.097808 28.717737 -24.428766
-18.482676 17.912948 -29.905599
-12.056891 26.370451 -28.606560
-20.345471 25.624385 -22.361837
-13.757049 20.512057 -31.136470
-5.253662 3.246942 -38.994044
-15.320438 9.468551 -35.347116
-5.249291 8.701233 -38.201531
-10.702500 0.000000 -38.722007
-10.422882 11.890158 -36.162546
-30.551038 18.881580 -18.299555
-24.051501 14.864645 -28.274235
-32.503732 14.361147 -21.412780
-25.553801 22.300240 -20.289429
-28.928993 12.192788 -26.667680
-22.276846 20.268144 -25.526995
-23.321234 -7.025874 -37.734549
-21.196596 6.385795 -34.296813
-28.181379 -3.686784 -35.449584
-16.770123 -3.454835 -38.314712
-26.469981 3.462893 -33.296803
-16.178768 3.333010 -36.963642
-24.463555 31.147301 3.222098
-30.106326 24.081224 9.408524
-22.819881 31.664085 8.509658
-27.733403 28.063829 0.000000
-39.918371 6.055183 22.358036
-35.213605 16.006919 15.649106
-18.340610 30.619579 18.923940
-27.976729 23.798427 14.708237
-20.737242 31.478292 13.908076
-25.562646 27.730256 11.687552
-34.036822 21.035913 -6.337387
-34.036822 21.035913 6.337387
-30.981485 24.629371 -3.222098
-30.981485 24.629371 3.222098
-42.857016 -54.566083 5.644703
-48.837241 -39.063569 15.262120
-36.684203 -50.901743 13.679740
-55.140270 -55.797232 0.000000
-48.075315 -7.292503 26.926691
-48.800978 -22.183281 21.687404
-26.104296 -43.581024 26.934554
-42.772909 -36.384809 22.487049
-31.010026 -47.071963 20.797839
-40.773619 -44.231060 18.642195
-53.600519 -33.126943 -9.979992
-53.600519 -33.126943 9.979992
-54.508155 -43.332384 -5.668890
-54.508155 -43.332384 5.668890
-5.749873 -21.230716 37.905637
-17.934270 -17.533374 39.453583
-10.100144 -27.084998 37.582216
-5.537239 -15.066596 38.874944
-39.089258 -4.043671 30.701286
-29.836629 -11.657158 37.301729
-44.228349 -11.886279 31.874777
-20.813019 -39.588714 33.676172
-24.382072 -23.630495 39.451022
-15.676763 -34.287721 37.195184
-29.096355 -36.645807 31.979989
-17.230686 -25.691325 38.998389
-5.312197 -3.283118 39.428505
-16.984753 -10.497155 39.187002
-5.410443 -8.968359 39.374309
-11.367051 -12.967242 39.438373
-43.809623 -27.075836 26.241223
-32.709872 -20.215813 38.452761
-44.145236 -19.504721 29.081960
-37.164175 -32.432357 29.507934
-39.121116 -16.488491 36.063108
-31.587381 -28.739148 36.195917
-5.345909 19.739127 35.242532
-15.135605 14.797269 33.296803
-8.688084 23.298354 32.327998
-5.262386 14.318734 36.945303
-35.637736 3.686621 27.990410
-24.804794 9.691223 31.010933
-34.285674 9.214205 24.709225
-32.468905 0.000000 32.086612
-15.097808 28.717737 24.428766
-18.482676 17.912948 29.905599
-12.056891 26.370451 28.606560
-20.345471 25.624385 22.361837
-13.757049 20.512057 31.136470
-5.253662 3.246942 38.994044
-15.320438 9.468551 35.347116
-5.249291 8.701233 38.201531
-10.702500 0.000000 38.722007
-10.422882 11.890158 36.162546
-30.551038 18.881580 18.299555
-24.051501 14.864645 28.274235
-32.503732 14.361147 21.412780
-25.553801 22.300240 20.289429
-28.928993 12.192788 26.667680
-22.276846 20.268144 25.526995
-23.321234 -7.025874 37.734549
-21.196596 6.385795 34.296813
-28.181379 -3.686784 35.449584
-16.770123 -3.454835 38.314712
-26.469981 3.462893 33.296803
-16.178768 3.333010 36.963642
-47.350150 0.000000 -20.872164
-54.745280 0.000000 -7.625139
-44.034905 6.272209 -17.066420
-51.659471 -7.358231 -20.021441
-47.350150 0.000000 20.872164
-54.745280 0.000000 7.625139
-44.034905 6.272209 17.066420
-51.659471 -7.358231 20.021441
-37.633639 16.311482 -10.081050
-48.909599 6.589583 -4.072586
-40.740558 11.742371 -13.395397
-38.658456 16.920578 -3.485831
-47.200060 6.485783 -10.750845
-52.763783 -22.869314 -14.134013
-55.575588 -7.487691 -4.627647
-52.185371 -15.041030 -17.158424
-55.401716 -24.249004 -4.995570
-54.219913 -7.450385 -12.349770
-37.633639 16.311482 10.081050
-48.909599 6.589583 4.072586
-40.740558 11.742371 13.395397
-38.658456 16.920578 3.485831
-47.200060 6.485783 10.750845
-43.714768 12.082465 0.000000
-52.763783 -22.869314 14.134013
-55.575588 -7.487691 4.627647
-52.185371 -15.041030 17.158424
-55.401716 -24.249004 4.995570
-54.219913 -7.450385 12.349770
-55.797232 -15.421976 0.000000
-19.237355 36.559877 0.000000
-14.784451 41.012781 0.000000
-3.616513 52.180720 0.000000
-9.707610 46.089622 0.000000
29.359813 55.797232 0.000000
20.114009 55.797232 0.000000
3.867164 55.797232 0.000000
11.752273 55.797232 0.000000
-29.359813 -55.797232 0.000000
-20.114009 -55.797232 0.000000
-3.867164 -55.797232 0.000000
-11.752273 -55.797232 0.000000
19.237355 -36.559877 0.000000
14.784451 -41.012781 0.000000
3.616513 -52.180720 0.000000
9.707610 -46.089622 0.000000
-32.626526 -55.409751 4.237506
-28.261594 -53.166789 12.035858
-27.681547 -55.499624 4.090833
-19.482596 -47.077079 25.166215
-23.794687 -50.199252 18.928795
-18.612573 -55.594765 3.880385
-23.777254 -53.640175 11.753207
-23.003082 -55.556138 3.976552
-25.771813 -54.721039 8.039049
-1.779086 -25.042471 35.861861
-5.721804 -30.997107 35.174495
-15.300852 -43.923330 31.011290
-10.416218 -38.040075 34.280123
-2.303291 -55.667413 3.726804
-6.882551 -54.529566 11.136202
-6.195325 -55.655929 3.744044
-15.472452 -48.025970 25.034953
-11.328084 -52.019776 18.329225
-17.509590 -49.498021 21.962785
-14.231149 -55.620755 3.830265
-10.853231 -54.395649 11.224327
-10.181417 -55.640959 3.775849
-16.835215 -55.036782 7.697879
-8.541291 -55.200429 7.510325
-21.622526 -52.322273 15.411406
-13.200570 -53.156001 15.000511
-19.574771 -50.945990 18.746944
-19.331601 -53.952114 11.600295
-15.398354 -51.540732 18.544964
-15.009292 -54.197068 11.425185
20.630890 -35.037517 2.679522
18.955999 -35.660749 8.072854
18.523801 -37.138965 2.737484
14.402618 -34.801994 18.604265
16.872819 -35.596303 13.422414
13.956867 -41.688419 2.909755
16.755207 -37.798823 8.282177
16.296397 -39.358417 2.817165
17.689316 -37.559553 5.517861
1.730254 -24.355112 34.877534
5.163648 -27.973371 31.743260
0.000000 -27.090697 34.492211
11.584898 -33.256141 23.479910
8.479181 -30.966008 27.905270
-3.813609 -33.161201 33.556296
3.537067 -30.756536 31.122981
-1.846750 -30.030113 34.051646
1.784277 -29.014230 32.899720
2.207829 -53.360218 3.572342
6.057275 -47.991007 9.800877
5.568557 -50.025337 3.365267
0.000000 -54.811163 7.384700
11.874814 -36.859023 19.213853
9.234646 -42.406483 14.941971
13.228216 -37.394967 16.592535
11.333720 -44.296496 3.050432
9.018056 -45.197879 9.326403
8.602465 -47.012060 3.190284
12.922480 -42.245479 5.908786
7.375058 -47.663331 6.484861
-4.551760 -53.651695 14.828964
4.105234 -48.388482 13.374247
-2.302161 -54.628496 11.182274
2.174012 -51.587608 10.559814
15.650257 -37.870553 11.154685
10.572802 -42.574518 12.014439
14.497240 -37.731030 13.884145
14.363323 -40.086263 8.618985
11.950813 -40.001265 14.392927
11.784246 -42.551747 8.970256
-13.051162 -46.243082 28.579796
-4.097274 -44.285567 27.369986
-10.993951 -44.667171 31.459858
-11.087074 -48.578124 25.407381
10.148055 -35.956748 22.222492
3.689701 -39.880296 24.647378
8.608688 -34.976119 24.634283
8.882060 -38.916833 20.354323
-6.023624 -36.724798 32.945174
-2.019088 -40.581277 28.515686
-8.369160 -40.470762 32.270871
-1.928528 -35.249650 31.646753
-6.242702 -42.578165 29.942155
-6.864163 -52.270971 18.576911
-2.155968 -46.187699 24.233632
-9.004660 -50.605239 22.042992
-2.266475 -51.671950 18.336170
-6.676022 -49.020911 25.692815
5.315430 -32.407088 29.071832
1.920527 -38.600328 27.123711
6.986028 -33.782351 26.937617
1.849452 -33.804307 30.349140
5.389852 -36.761325 25.851591
0.000000 -37.083319 29.480151
5.918888 -45.072648 16.018653
2.030016 -43.489408 22.817900
7.469036 -41.975198 18.283857
2.113070 -48.174566 17.095098
5.601468 -41.130645 21.557373
0.000000 -47.443603 20.765785
-20.630890 35.037517 2.679522
-18.955999 35.660749 8.072854
-18.523801 37.138965 2.737484
-14.402618 34.801994 18.604265
-16.872819 35.596303 13.422414
-13.956867 41.688419 2.909755
-16.755207 37.798823 8.282177
-16.296397 39.358417 2.817165
-17.689316 37.559553 5.517861
-1.730254 24.355112 34.877534
-5.163648 27.973371 31.743260
-11.584898 33.256141 23.479910
-8.479181 30.966008 27.905270
-2.207829 53.360218 3.572342
-6.057275 47.991007 9.800877
-5.568557 50.025337 3.365267
-11.874814 36.859023 19.213853
-9.234646 42.406483 14.941971
-13.228216 37.394967 16.592535
-11.333720 44.296496 3.050432
-9.018056 45.197879 9.326403
-8.602465 47.012060 3.190284
-12.922480 42.245479 5.908786
-7.375058 47.663331 6.484861
-15.650257 37.870553 11.154685
-10.572802 42.574518 12.014439
-14.497240 37.731030 13.884145
-14.363323 40.086263 8.618985
-11.950813 40.001265 14.392927
-11.784246 42.551747 8.970256
32.626526 55.409751 4.237506
28.261594 53.166789 12.035858
27.681547 55.499624 4.090833
19.482596 47.077079 25.166215
23.794687 50.199252 18.928795
18.612573 55.594765 3.880385
23.777254 53.640175 11.753207
23.003082 55.556138 3.976552
25.771813 54.721039 8.039049
1.779086 25.042471 35.861861
5.721804 30.997107 35.174495
0.000000 27.090697 34.492211
15.300852 43.923330 31.011290
10.416218 38.040075 34.280123
-3.537067 30.756536 31.122981
3.813609 33.161201 33.556296
-1.784277 29.014230 32.899720
1.846750 30.030113 34.051646
2.303291 55.667413 3.726804
6.882551 54.529566 11.136202
6.195325 55.655929 3.744044
0.000000 54.811163 7.384700
15.472452 48.025970 25.034953
11.328084 52.019776 18.329225
17.509590 49.498021 21.962785
14.231149 55.620755 3.830265
10.853231 54.395649 11.224327
10.181417 55.640959 3.775849
16.835215 55.036782 7.697879
8.541291 55.200429 7.510325
-4.105234 48.388482 13.374247
4.551760 53.651695 14.828964
-2.174012 51.587608 10.559814
2.302161 54.628496 11.182274
21.622526 52.322273 15.411406
13.200570 53.156001 15.000511
19.574771 50.945990 18.746944
19.331601 53.952114 11.600295
15.398354 51.540732 18.544964
15.009292 54.197068 11.425185
-10.148055 35.956748 22.222492
-3.689701 39.880296 24.647378
-8.608688 34.976119 24.634283
-8.882060 38.916833 20.354323
13.051162 46.243082 28.579796
4.097274 44.285567 27.369986
10.993951 44.667171 31.459858
11.087074 48.578124 25.407381
-5.315430 32.407088 29.071832
-1.920527 38.600328 27.123711
-6.986028 33.782351 26.937617
-1.849452 33.804307 30.349140
-5.389852 36.761325 25.851591
-5.918888 45.072648 16.018653
-2.030016 43.489408 22.817900
-7.469036 41.975198 18.283857
-2.113070 48.174566 17.095098
-5.601468 41.130645 21.557373
6.023624 36.724798 32.945174
2.019088 40.581277 28.515686
8.369160 40.470762 32.270871
1.928528 35.249650 31.646753
6.242702 42.578165 29.942155
0.000000 37.083319 29.480151
6.864163 52.270971 18.576911
2.155968 46.187699 24.233632
9.004660 50.605239 22.042992
2.266475 51.671950 18.336170
6.676022 49.020911 25.692815
0.000000 47.443603 20.765785
0.000000 -19.457357 36.977983
0.000000 -13.782058 38.232094
0.000000 -2.731220 39.407306
0.000000 -8.219452 39.024170
0.000000 19.457357 36.977983
0.000000 13.782058 38.232094
0.000000 2.731220 39.407306
0.000000 8.219452 39.024170
-32.626526 -55.409751 -4.237506
-28.261594 -53.166789 -12.035858
-27.681547 -55.499624 -4.090833
-19.482596 -47.077079 -25.166215
-23.794687 -50.199252 -18.928795
-18.612573 -55.594765 -3.880385
-23.777254 -53.640175 -11.753207
-23.003082 -55.556138 -3.976552
-25.771813 -54.721039 -8.039049
-1.779086 -25.042471 -35.861861
-5.721804 -30.997107 -35.174495
-15.300852 -43.923330 -31.011290
-10.416218 -38.040075 -34.280123
-2.303291 -55.667413 -3.726804
-6.882551 -54.529566 -11.136202
-6.195325 -55.655929 -3.744044
-15.472452 -48.025970 -25.034953
-11.328084 -52.019776 -18.329225
-17.509590 -49.498021 -21.962785
-14.231149 -55.620755 -3.830265
-10.853231 -54.395649 -11.224327
-10.181417 -55.640959 -3.775849
-16.835215 -55.036782 -7.697879
-8.541291 -55.200429 -7.510325
-21.622526 -52.322273 -15.411406
-13.200570 -53.156001 -15.000511
-19.574771 -50.945990 -18.746944
-19.331601 -53.952114 -11.600295
-15.398354 -51.540732 -18.544964
-15.009292 -54.197068 -11.425185
20.630890 -35.037517 -2.679522
18.955999 -35.660749 -8.072854
18.523801 -37.138965 -2.737484
14.402618 -34.801994 -18.604265
16.872819 -35.596303 -13.422414
13.956867 -41.688419 -2.909755
16.755207 -37.798823 -8.282177
16.296397 -39.358417 -2.817165
17.689316 -37.559553 -5.517861
1.730254 -24.355112 -34.877534
5.163648 -27.973371 -31.743260
0.000000 -27.090697 -34.492211
11.584898 -33.256141 -23.479910
8.479181 -30.966008 -27.905270
-3.813609 -33.161201 -33.556296
3.537067 -30.756536 -31.122981
-1.846750 -30.030113 -34.051646
1.784277 -29.014230 -32.899720
2.207829 -53.360218 -3.572342
6.057275 -47.991007 -9.800877
5.568557 -50.025337 -3.365267
0.000000 -54.811163 -7.384700
11.874814 -36.859023 -19.213853
9.234646 -42.406483 -14.941971
13.228216 -37.394967 -16.592535
11.333720 -44.296496 -3.050432
9.018056 -45.197879 -9.326403
8.602465 -47.012060 -3.190284
12.922480 -42.245479 -5.908786
7.375058 -47.663331 -6.484861
-4.551760 -53.651695 -14.828964
4.105234 -48.388482 -13.374247
-2.302161 -54.628496 -11.182274
2.174012 -51.587608 -10.559814
15.650257 -37.870553 -11.154685
10.572802 -42.574518 -12.014439
14.497240 -37.731030 -13.884145
14.363323 -40.086263 -8.618985
11.950813 -40.001265 -14.392927
11.784246 -42.551747 -8.970256
-13.051162 -46.243082 -28.579796
-4.097274 -44.285567 -27.369986
-10.993951 -44.667171 -31.459858
-11.087074 -48.578124 -25.407381
10.148055 -35.956748 -22.222492
3.689701 -39.880296 -24.647378
8.608688 -34.976119 -24.634283
8.882060 -38.916833 -20.354323
-6.023624 -36.724798 -32.945174
-2.019088 -40.581277 -28.515686
-8.369160 -40.470762 -32.270871
-1.928528 -35.249650 -31.646753
-6.242702 -42.578165 -29.942155
-6.864163 -52.270971 -18.576911
-2.155968 -46.187699 -24.233632
-9.004660 -50.605239 -22.042992
-2.266475 -51.671950 -18.336170
-6.676022 -49.020911 -25.692815
5.315430 -32.407088 -29.071832
1.920527 -38.600328 -27.123711
6.986028 -33.782351 -26.937617
1.849452 -33.804307 -30.349140
5.389852 -36.761325 -25.851591
0.000000 -37.083319 -29.480151
5.918888 -45.072648 -16.018653
2.030016 -43.489408 -22.817900
7.469036 -41.975198 -18.283857
2.113070 -48.174566 -17.095098
5.601468 -41.130645 -21.557373
0.000000 -47.443603 -20.765785
-20.630890 35.037517 -2.679522
-18.955999 35.660749 -8.072854
-18.523801 37.138965 -2.737484
-14.402618 34.801994 -18.604265
-16.872819 35.596303 -13.422414
-13.956867 41.688419 -2.909755
-16.755207 37.798823 -8.282177
-16.296397 39.358417 -2.817165
-17.689316 37.559553 -5.517861
-1.730254 24.355112 -34.877534
-5.163648 27.973371 -31.743260
-11.584898 33.256141 -23.479910
-8.479181 30.966008 -27.905270
-2.207829 53.360218 -3.572342
-6.057275 47.991007 -9.800877
-5.568557 50.025337 -3.365267
-11.874814 36.859023 -19.213853
-9.234646 42.406483 -14.941971
-13.228216 37.394967 -16.592535
-11.333720 44.296496 -3.050432
-9.018056 45.197879 -9.326403
-8.602465 47.012060 -3.190284
-12.922480 42.245479 -5.908786
-7.375058 47.663331 -6.484861
-15.650257 37.870553 -11.154685
-10.572802 42.574518 -12.014439
-14.497240 37.731030 -13.884145
-14.363323 40.086263 -8.618985
-11.950813 40.001265 -14.392927
-11.784246 42.551747 -8.970256
32.626526 55.409751 -4.237506
28.261594 53.166789 -12.035858
27.681547 55.499624 -4.090833
19.482596 47.077079 -25.166215
23.794687 50.199252 -18.928795
18.612573 55.594765 -3.880385
23.777254 53.640175 -11.753207
23.003082 55.556138 -3.976552
25.771813 54.721039 -8.039049
1.779086 25.042471 -35.861861
5.721804 30.997107 -35.174495
0.000000 27.090697 -34.492211
15.300852 43.923330 -31.011290
10.416218 38.040075 -34.280123
-3.537067 30.756536 -31.122981
3.813609 33.161201 -33.556296
-1.784277 29.014230 -32.899720
1.846750 30.030113 -34.051646
2.303291 55.667413 -3.726804
6.882551 54.529566 -11.136202
6.195325 55.655929 -3.744044
0.000000 54.811163 -7.384700
15.472452 48.025970 -25.034953
11.328084 52.019776 -18.329225
17.509590 49.498021 -21.962785
14.231149 55.620755 -3.830265
10.853231 54.395649 -11.224327
10.181417 55.640959 -3.775849
16.835215 55.036782 -7.697879
8.541291 55.200429 -7.510325
-4.105234 48.388482 -13.374247
4.551760 53.651695 -14.828964
-2.174012 51.587608 -10.559814
2.302161 54.628496 -11.182274
21.622526 52.322273 -15.411406
13.200570 53.156001 -15.000511
19.574771 50.945990 -18.746944
19.331601 53.952114 -11.600295
15.398354 51.540732 -18.544964
15.009292 54.197068 -11.425185
-10.148055 35.956748 -22.222492
-3.689701 39.880296 -24.647378
-8.608688 34.976119 -24.634283
-8.882060 38.916833 -20.354323
13.051162 46.243082 -28.579796
4.097274 44.285567 -27.369986
10.993951 44.667171 -31.459858
11.087074 48.578124 -25.407381
-5.315430 32.407088 -29.071832
-1.920527 38.600328 -27.123711
-6.986028 33.782351 -26.937617
-1.849452 33.804307 -30.349140
-5.389852 36.761325 -25.851591
-5.918888 45.072648 -16.018653
-2.030016 43.489408 -22.817900
-7.469036 41.975198 -18.283857
-2.113070 48.174566 -17.095098
-5.601468 41.130645 -21.557373
6.023624 36.724798 -32.945174
2.019088 40.581277 -28.515686
8.369160 40.470762 -32.270871
1.928528 35.249650 -31.646753
6.242702 42.578165 -29.942155
0.000000 37.083319 -29.480151
6.864163 52.270971 -18.576911
2.155968 46.187699 -24.233632
9.004660 50.605239 -22.042992
2.266475 51.671950 -18.336170
6.676022 49.020911 -25.692815
0.000000 47.443603 -20.765785
0.000000 -19.457357 -36.977983
0.000000 -13.782058 -38.232094
0.000000 -2.731220 -39.407306
0.000000 -8.219452 -39.024170
0.000000 19.457357 -36.977983
0.000000 13.782058 -38.232094
0.000000 2.731220 -39.407306
0.000000 8.219452 -39.024170
38.807213 55.573545 -2.756971
45.951009 52.143691 -8.482168
36.381752 54.527877 -7.020703
48.950953 34.560954 -17.052243
48.502111 43.708072 -13.280956
31.216674 51.409259 -14.687330
42.318678 50.001532 -12.499412
33.781662 53.041691 -11.014973
39.735779 52.779074 -9.846422
44.870690 3.431522 -26.420887
48.412248 10.959528 -25.734247
48.894723 26.137882 -20.234818
48.685110 18.357853 -23.076977
21.732072 44.630128 -27.582936
30.473779 42.301749 -26.143919
23.952862 46.281631 -24.617813
46.153178 33.531411 -20.723552
38.930355 38.774016 -23.963660
45.782601 37.741750 -19.016782
28.650759 49.644302 -18.277328
33.054332 44.065461 -23.100412
26.265756 47.964356 -21.508900
33.771599 48.950484 -17.366864
28.509032 45.297295 -23.938438
44.093134 46.169715 -15.012089
37.686576 42.424980 -22.008193
45.149647 42.037187 -17.117900
39.026656 47.874783 -16.301168
41.940991 40.370884 -20.676132
35.938818 45.891685 -19.834740
22.922996 -32.826685 -1.628513
25.944125 -29.440538 -4.789066
22.197882 -33.269520 -4.283597
31.421990 -22.184939 -10.945965
28.758559 -25.916009 -7.874732
20.444498 -33.669073 -9.619061
25.120564 -29.681142 -7.419709
21.368658 -33.551628 -6.967543
23.698364 -31.477366 -5.872393
40.998296 -3.135378 -24.140733
38.789925 -8.781234 -20.619359
33.973134 -18.161178 -14.059599
36.431510 -13.737348 -17.268712
15.752461 -32.350085 -19.993452
20.830262 -28.915236 -17.870599
17.049460 -32.942904 -17.522767
30.331219 -22.036371 -13.619226
25.623757 -25.520856 -15.772756
29.112482 -23.999423 -12.092492
19.388786 -33.595715 -12.368789
22.020940 -29.356602 -15.389595
18.269036 -33.361406 -14.960425
21.837259 -31.652171 -11.229694
19.590164 -31.126326 -16.449451
26.532745 -27.782314 -9.033423
24.466822 -27.543081 -14.288126
27.841267 -25.921987 -10.555654
24.220283 -29.711508 -10.116647
26.790571 -25.787637 -13.207255
23.181241 -29.601035 -12.793796
2.730289 -21.021763 -35.701339
7.872353 -18.485201 -34.775066
4.426930 -22.940645 -34.382750
2.695677 -18.240908 -36.571783
17.516993 -13.560899 -32.768093
12.747007 -16.023790 -33.805121
7.794938 -26.390957 -31.182172
9.531146 -20.257642 -33.361349
6.131160 -24.742634 -32.864419
7.034479 -21.573943 -33.873953
2.647622 -12.699526 -37.932810
7.828794 -15.837993 -35.729640
2.670961 -15.450651 -37.315803
5.311448 -17.027591 -36.154519
38.716946 -1.920725 -27.036187
32.737274 -5.325343 -28.849335
37.926293 -4.883176 -25.304945
22.332446 -11.018744 -31.630913
27.347531 -8.309709 -30.347095
36.088912 -10.310395 -21.913870
32.241103 -8.059650 -27.287181
37.036267 -7.691185 -23.587986
34.999626 -6.529503 -26.350167
14.104353 -31.411639 -22.821323
16.024446 -26.032642 -25.928098
12.639261 -30.428821 -25.084572
16.782272 -29.775451 -21.745225
19.214640 -15.138850 -31.089941
17.710318 -20.643436 -28.655896
16.852995 -16.397779 -31.683728
9.510754 -27.934749 -29.250346
14.509178 -24.845348 -27.969201
11.094562 -29.262676 -27.245408
10.402510 -24.904669 -30.551058
13.614572 -27.616801 -26.582936
21.870661 -26.510458 -19.654497
18.682885 -24.567425 -24.927312
19.378022 -28.134841 -20.686457
17.763161 -27.166512 -23.395038
12.076448 -18.930525 -32.801668
15.365340 -21.986233 -29.310333
14.465178 -17.664262 -32.257017
11.259003 -21.894254 -31.734782
16.133288 -19.213636 -30.528070
12.933054 -23.433564 -29.923237
2.633679 -1.627703 -39.339368
7.846208 -4.849223 -38.419768
2.633248 -4.357274 -39.143733
17.663882 -10.916879 -33.885626
12.893588 -7.968676 -36.593012
15.249132 -12.157203 -34.367310
2.648089 -9.838836 -38.453920
7.825406 -7.566684 -37.923704
2.636278 -7.108611 -38.848219
5.263174 -11.510528 -37.629603
5.258017 -5.979801 -38.646103
10.392322 -14.580646 -35.282304
10.424599 -9.173730 -36.940741
12.818021 -13.384038 -34.833771
7.861704 -13.101333 -36.564205
12.869241 -10.685658 -35.766590
7.862851 -10.329445 -37.298603
31.730388 -19.610458 -15.450708
29.181795 -18.035341 -21.022289
32.864771 -17.481207 -17.009023
29.288714 -21.389757 -16.507934
22.043608 -13.623699 -30.341180
25.919434 -16.019091 -26.023943
24.457914 -12.323509 -29.668654
21.258510 -16.406641 -29.108998
35.023992 -12.894631 -20.213074
30.046178 -15.751091 -22.538204
33.971477 -15.234002 -18.603117
33.420495 -11.857067 -23.057250
31.546218 -16.671353 -19.854433
24.432432 -24.790342 -18.580226
26.619596 -19.735411 -21.960698
26.848461 -23.121141 -17.555200
22.964424 -23.971707 -21.334605
28.039521 -20.616372 -19.312369
29.489094 -9.588383 -28.162759
28.309207 -14.685558 -25.147379
26.947443 -10.973228 -28.942649
31.558772 -10.745633 -25.726139
26.464688 -13.554010 -27.493954
30.819294 -13.320337 -24.135287
19.602257 -21.812530 -26.439995
24.944805 -18.695996 -24.584666
20.441799 -19.148838 -27.802091
21.340232 -22.970481 -23.978030
23.184851 -17.603573 -26.922441
23.994607 -21.354986 -22.986361
2.836890 21.842536 -37.095260
8.730725 20.500758 -38.566809
4.747476 24.601736 -36.872344
2.785087 18.845920 -37.784791
21.014993 16.268899 -39.311612
14.842452 18.657897 -39.362250
9.087893 30.768457 -36.354397
10.991463 23.361422 -38.472817
6.833121 27.575436 -36.627090
7.840240 24.045118 -37.754027
2.706732 12.983053 -38.779688
8.538383 17.273524 -38.968118
2.744715 15.877299 -38.346228
5.649833 18.112395 -38.457871
40.710575 2.019628 -28.428346
37.162790 6.045238 -32.749268
43.445757 5.593832 -28.987608
37.333187 0.000000 -29.322042
27.005868 13.324593 -38.250189
32.500675 9.875522 -36.065452
46.445784 13.269294 -28.202759
39.502649 9.874895 -33.432973
46.357282 9.626846 -29.524436
41.643062 7.768897 -31.351811
31.223852 -3.548531 -30.856219
33.715721 3.831727 -33.318749
34.167188 -1.853016 -30.132009
35.647796 1.933315 -31.437756
19.162492 42.676559 -31.005563
22.334497 36.283686 -36.137975
17.044233 41.033722 -33.826921
23.426995 41.564654 -30.354964
24.280186 19.129897 -39.286166
24.320667 28.348567 -39.351666
20.985342 20.418508 -39.452565
11.718881 34.420407 -36.041448
19.802349 33.909314 -38.172796
14.531814 38.328665 -35.686419
12.735842 30.490903 -37.403803
18.676616 37.885025 -36.466758
31.878281 38.641166 -28.648041
26.394357 34.707776 -35.216208
27.706201 40.226479 -29.576969
24.989044 38.217587 -32.911913
14.369822 22.525520 -39.030858
20.424361 29.225176 -38.960729
17.649482 21.552799 -39.357942
13.620658 26.486727 -38.391375
20.797857 24.768816 -39.354559
16.550676 29.988379 -38.293337
2.640962 1.632204 -39.448153
8.045315 4.972278 -39.394718
2.652874 4.389750 -39.435482
5.291753 0.000000 -39.276765
20.366011 12.586887 -39.069274
13.839344 8.553185 -39.277141
17.471099 13.928642 -39.375006
2.693555 10.007763 -39.114150
8.141206 7.872043 -39.454142
2.668600 7.195767 -39.324521
5.480794 11.986463 -39.185504
5.367550 6.104370 -39.451161
10.565752 -3.243164 -38.227248
10.806305 3.317002 -39.097580
7.955949 -1.637939 -38.867007
8.023399 1.651825 -39.196519
11.580537 16.247736 -39.316335
11.130815 9.795206 -39.443297
14.517421 15.158480 -39.451997
8.439954 14.064971 -39.253601
14.183022 11.776523 -39.417889
8.308274 10.914599 -39.411535
46.391244 28.671366 -22.589625
41.238568 25.486837 -29.707874
46.483891 24.725397 -24.057540
43.391814 31.689352 -24.456833
28.128303 17.384247 -38.716252
36.133095 22.331481 -36.278786
31.244733 15.743157 -37.901400
28.615911 22.084849 -39.183392
46.491412 17.116541 -26.831160
41.533384 21.773023 -31.154973
46.512962 20.858044 -25.470959
44.204359 15.683013 -30.497183
44.008808 23.257507 -27.698090
36.112129 36.641134 -27.462330
38.003752 28.175471 -31.352425
39.908811 34.368348 -26.094872
33.228071 34.685546 -30.869826
40.658989 29.894977 -28.004095
36.956188 12.016309 -35.294005
38.964010 20.212796 -34.612158
34.220946 13.935061 -36.754687
41.816850 14.238467 -34.088339
36.042599 18.459381 -37.444369
41.689878 18.018687 -32.648287
27.734905 30.862183 -37.409505
35.251975 26.421163 -34.743026
28.901457 27.073416 -39.307742
30.430026 32.754673 -34.191384
32.639337 24.782085 -37.901069
34.344802 30.566567 -32.901644
20.570043 -9.393453 -33.283029
21.788685 -3.261756 -35.254833
23.063819 -8.059874 -32.746350
18.223868 -7.952389 -34.843469
23.724630 10.834017 -38.387259
22.857203 3.421713 -36.983732
26.435724 9.238219 -37.533831
20.201375 8.815318 -38.624402
28.310969 -5.176316 -31.558936
24.475357 -1.733008 -34.831399
25.651658 -6.652526 -32.169635
29.379567 -1.790367 -32.724351
23.781859 -4.958329 -33.818137
13.258766 -4.899110 -37.306988
19.193680 -1.707584 -36.581883
15.766185 -6.440556 -36.195247
13.475421 -1.665654 -37.974195
18.737165 -4.868665 -35.749796
31.423338 5.745374 -35.028370
25.170819 1.782250 -35.821125
29.030802 7.528877 -36.407406
30.425642 1.854115 -33.889519
25.817855 5.382818 -36.713352
27.341517 0.000000 -34.393114
13.849253 5.117295 -38.968475
19.611021 1.744713 -37.377307
16.907616 6.906836 -38.815690
13.674028 1.690203 -38.533875
19.942248 5.181794 -38.049048
16.497004 0.000000 -37.690715
38.807213 55.573545 2.756971
45.951009 52.143691 8.482168
36.381752 54.527877 7.020703
43.823979 55.797232 0.000000
48.950953 34.560954 17.052243
48.502111 43.708072 13.280956
31.216674 51.409259 14.687330
42.318678 50.001532 12.499412
33.781662 53.041691 11.014973
39.735779 52.779074 9.846422
51.308088 51.919393 -5.900539
51.308088 51.919393 5.900539
48.654813 55.170505 -2.992106
48.654813 55.170505 2.992106
44.870690 3.431522 26.420887
48.412248 10.959528 25.734247
48.894723 26.137882 20.234818
48.685110 18.357853 23.076977
21.732072 44.630128 27.582936
30.473779 42.301749 26.143919
23.952862 46.281631 24.617813
46.153178 33.531411 20.723552
38.930355 38.774016 23.963660
45.782601 37.741750 19.016782
28.650759 49.644302 18.277328
33.054332 44.065461 23.100412
26.265756 47.964356 21.508900
33.771599 48.950484 17.366864
28.509032 45.297295 23.938438
44.093134 46.169715 15.012089
37.686576 42.424980 22.008193
45.149647 42.037187 17.117900
39.026656 47.874783 16.301168
41.940991 40.370884 20.676132
35.938818 45.891685 19.834740
51.414467 31.775888 -14.510680
55.195914 34.112951 -5.106693
51.639424 36.370536 -12.710035
51.414467 31.775888 14.510680
55.195914 34.112951 5.106693
51.639424 36.370536 12.710035
51.883910 46.544148 -8.510030
55.569050 39.047307 -2.764792
51.828017 41.327002 -10.717785
55.081652 49.451709 -3.013548
54.034107 37.998294 -7.922343
51.883910 46.544148 8.510030
55.569050 39.047307 2.764792
51.828017 41.327002 10.717785
55.081652 49.451709 3.013548
54.034107 37.998294 7.922343
55.797232 44.357163 0.000000
22.922996 -32.826685 1.628513
25.944125 -29.440538 4.789066
22.197882 -33.269520 4.283597
24.545543 -31.251689 0.000000
31.421990 -22.184939 10.945965
28.758559 -25.916009 7.874732
20.444498 -33.669073 9.619061
25.120564 -29.681142 7.419709
21.368658 -33.551628 6.967543
23.698364 -31.477366 5.872393
27.643231 -27.972583 -3.179030
27.643231 -27.972583 3.179030
26.126113 -29.624836 -1.606667
26.126113 -29.624836 1.606667
40.998296 -3.135378 24.140733
38.789925 -8.781234 20.619359
33.973134 -18.161178 14.059599
36.431510 -13.737348 17.268712
15.752461 -32.350085 19.993452
20.830262 -28.915236 17.870599
17.049460 -32.942904 17.522767
30.331219 -22.036371 13.619226
25.623757 -25.520856 15.772756
29.112482 -23.999423 12.092492
19.388786 -33.595715 12.368789
22.020940 -29.356602 15.389595
18.269036 -33.361406 14.960425
21.837259 -31.652171 11.229694
19.590164 -31.126326 16.449451
26.532745 -27.782314 9.033423
24.466822 -27.543081 14.288126
27.841267 -25.921987 10.555654
24.220283 -29.711508 10.116647
26.790571 -25.787637 13.207255
23.181241 -29.601035 12.793796
33.480972 -20.692379 -9.449318
34.372386 -21.243303 -3.180113
32.076606 -22.592106 -7.895029
33.480972 -20.692379 9.449318
34.372386 -21.243303 3.180113
32.076606 -22.592106 7.895029
29.194700 -26.190055 -4.788532
32.742278 -23.007372 -1.629065
30.640575 -24.432405 -6.336324
29.376771 -26.374146 -1.607220
32.519610 -22.868698 -4.767942
29.194700 -26.190055 4.788532
32.742278 -23.007372 1.629065
30.640575 -24.432405 6.336324
29.376771 -26.374146 1.607220
32.519610 -22.868698 4.767942
31.085317 -24.711915 0.000000
2.730289 -21.021763 35.701339
7.872353 -18.485201 34.775066
4.426930 -22.940645 34.382750
2.695677 -18.240908 36.571783
17.516993 -13.560899 32.768093
12.747007 -16.023790 33.805121
7.794938 -26.390957 31.182172
9.531146 -20.257642 33.361349
6.131160 -24.742634 32.864419
7.034479 -21.573943 33.873953
2.647622 -12.699526 37.932810
7.828794 -15.837993 35.729640
2.670961 -15.450651 37.315803
5.311448 -17.027591 36.154519
38.716946 -1.920725 27.036187
32.737274 -5.325343 28.849335
37.926293 -4.883176 25.304945
22.332446 -11.018744 31.630913
27.347531 -8.309709 30.347095
36.088912 -10.310395 21.913870
32.241103 -8.059650 27.287181
37.036267 -7.691185 23.587986
34.999626 -6.529503 26.350167
14.104353 -31.411639 22.821323
16.024446 -26.032642 25.928098
12.639261 -30.428821 25.084572
16.782272 -29.775451 21.745225
19.214640 -15.138850 31.089941
17.710318 -20.643436 28.655896
16.852995 -16.397779 31.683728
9.510754 -27.934749 29.250346
14.509178 -24.845348 27.969201
11.094562 -29.262676 27.245408
10.402510 -24.904669 30.551058
13.614572 -27.616801 26.582936
21.870661 -26.510458 19.654497
18.682885 -24.567425 24.927312
19.378022 -28.134841 20.686457
17.763161 -27.166512 23.395038
12.076448 -18.930525 32.801668
15.365340 -21.986233 29.310333
14.465178 -17.664262 32.257017
11.259003 -21.894254 31.734782
16.133288 -19.213636 30.528070
12.933054 -23.433564 29.923237
2.633679 -1.627703 39.339368
7.846208 -4.849223 38.419768
2.633248 -4.357274 39.143733
17.663882 -10.916879 33.885626
12.893588 -7.968676 36.593012
15.249132 -12.157203 34.367310
2.648089 -9.838836 38.453920
7.825406 -7.566684 37.923704
2.636278 -7.108611 38.848219
5.263174 -11.510528 37.629603
5.258017 -5.979801 38.646103
10.392322 -14.580646 35.282304
10.424599 -9.173730 36.940741
12.818021 -13.384038 34.833771
7.861704 -13.101333 36.564205
12.869241 -10.685658 35.766590
7.862851 -10.329445 37.298603
31.730388 -19.610458 15.450708
29.181795 -18.035341 21.022289
32.864771 -17.481207 17.009023
29.288714 -21.389757 16.507934
22.043608 -13.623699 30.341180
25.919434 -16.019091 26.023943
24.457914 -12.323509 29.668654
21.258510 -16.406641 29.108998
35.023992 -12.894631 20.213074
30.046178 -15.751091 22.538204
33.971477 -15.234002 18.603117
33.420495 -11.857067 23.057250
31.546218 -16.671353 19.854433
24.432432 -24.790342 18.580226
26.619596 -19.735411 21.960698
26.848461 -23.121141 17.555200
22.964424 -23.971707 21.334605
28.039521 -20.616372 19.312369
29.489094 -9.588383 28.162759
28.309207 -14.685558 25.147379
26.947443 -10.973228 28.942649
31.558772 -10.745633 25.726139
26.464688 -13.554010 27.493954
30.819294 -13.320337 24.135287
19.602257 -21.812530 26.439995
24.944805 -18.695996 24.584666
20.441799 -19.148838 27.802091
21.340232 -22.970481 23.978030
23.184851 -17.603573 26.922441
23.994607 -21.354986 22.986361
2.836890 21.842536 37.095260
8.730725 20.500758 38.566809
4.747476 24.601736 36.872344
2.785087 18.845920 37.784791
21.014993 16.268899 39.311612
14.842452 18.657897 39.362250
9.087893 30.768457 36.354397
10.991463 23.361422 38.472817
6.833121 27.575436 36.627090
7.840240 24.045118 37.754027
2.706732 12.983053 38.779688
8.538383 17.273524 38.968118
2.744715 15.877299 38.346228
5.649833 18.112395 38.457871
40.710575 2.019628 28.428346
37.162790 6.045238 32.749268
43.445757 5.593832 28.987608
37.333187 0.000000 29.322042
27.005868 13.324593 38.250189
32.500675 9.875522 36.065452
46.445784 13.269294 28.202759
39.502649 9.874895 33.432973
46.357282 9.626846 29.524436
41.643062 7.768897 31.351811
31.223852 -3.548531 30.856219
33.715721 3.831727 33.318749
