-29.393206 3.0406421 23.085863
-23.22202 9.0728333 29.03215
-28.342654 7.6170306 20.426171
-28.098794 0 27.767956
-12.542486 23.857227 20.294169
-17.268853 16.736541 27.941592
-10.546537 23.067052 25.023047
-16.997795 21.408107 18.682384
-12.93901 19.292343 29.284994
-6.1197039 3.782185 45.422034
-16.014853 9.8977232 36.94926
-5.9262501 9.8233619 43.128078
-12.11175 0 43.820724
-11.114408 12.679033 38.561819
-24.811554 15.334384 14.861701
-21.857149 13.508461 25.69462
-26.719156 11.805343 17.602022
-21.184955 18.487645 16.820615
-25.275651 10.653003 23.299911
-19.531509 17.770354 22.381118
-22.504823 -6.7799179 36.413569
-21.135254 6.3673146 34.197559
-25.79138 -3.3741161 32.443185
-17.784812 -3.6638728 40.632972
-24.860258 3.2523035 31.271919
-17.297483 3.5634775 39.519572
-33.183929 0 -14.627629
-34.752805 0 -4.840508
-32.107783 4.5733431 -12.443877
-34.398754 -4.8996627 -13.331779
-33.183929 0 14.627629
-34.752805 0 4.840508
-32.107783 4.5733431 12.443877
-34.398754 -4.8996627 13.331779
-28.583666 12.388968 -7.6568033
-33.353313 4.4936869 -2.7772513
-30.493267 8.7888644 -10.026113
-28.864289 12.633729 -2.6026913
-32.944002 4.5268514 -7.5037163
-34.423984 -14.920327 -9.2212691
-35.78794 -4.8217038 -2.9799769
-34.863969 -10.048602 -11.463189
-34.997348 -15.318133 -3.1557089
-35.335434 -4.8554592 -8.0484172
-28.583666 12.388968 7.6568033
-33.353313 4.4936869 2.7772513
-30.493267 8.7888644 10.026113
-28.864289 12.633729 2.6026913
-32.944002 4.5268514 7.5037163
-31.399616 8.6786404 0
-34.423984 -14.920327 9.2212691
-35.78794 -4.8217038 2.9799769
-34.863969 -10.048602 11.463189
-34.997348 -15.318133 3.1557089
-35.335434 -4.8554592 8.0484172
-35.99328 -9.948298 0
-13.934181 26.481392 0
-10.266084 28.478613 0
-2.188605 31.578207 0
-6.3587032 30.189739 0
16.942288 32.198187 0
11.904969 33.024958 0
2.2581006 32.580922 0
6.9726064 33.104418 0
-16.942288 -32.198187 0
-11.904969 -33.024958 0
-2.2581006 -32.580922 0
-6.9726064 -33.104418 0
13.934181 -26.481392 0
10.266084 -28.478613 0
2.188605 -31.578207 0
6.3587032 -30.189739 0
-18.648214 -31.670332 2.4220142
-16.891169 -31.776311 7.1934974
-16.130781 -32.341123 2.3838385
-12.721516 -30.739836 16.432738
-14.916036 -31.468111 11.865783
-11.063275 -33.045413 2.306493
-14.328322 -32.323905 7.0825561
-13.579238 -32.79604 2.3474485
-15.251513 -32.38339 4.7574328
-1.6379916 -23.05642 33.017753
-4.7574391 -25.772789 29.246111
-10.301265 -29.571286 20.878283
-7.6477455 -27.929602 25.168988
-1.3397242 -32.37931 2.1677193
-4.1051396 -32.524491 6.6422554
-3.6463948 -32.757521 2.2036396
-10.005584 -31.056997 16.189376
-6.9965219 -32.128778 11.32061
-11.152345 -31.526666 13.988709
-8.4718587 -33.111252 2.2801715
-6.5316388 -32.736127 6.7549702
-6.0400116 -33.008375 2.2399803
-10.084967 -32.969234 4.6113376
-5.0772823 -32.813326 4.4644355
-13.289814 -32.158744 9.4722847
-8.0714664 -32.502148 9.1720375
-12.254898 -31.895031 11.736632
-11.70086 -32.655657 7.0213234
-9.5929349 -32.109073 11.553224
-9.0799274 -32.786719 6.9117085
15.136168 -25.70581 1.9658726
13.928422 -26.202678 5.9317425
13.3615 -26.788902 1.9745887
10.977755 -26.526271 14.180273
12.554434 -26.485878 9.9871162
9.6271949 -28.755919 2.0070963
12.083183 -27.258995 5.9727736
11.515575 -27.811964 1.9907024
12.740147 -27.051031 3.9740578
1.6115241 -22.683862 32.484236
4.5206143 -24.489822 27.790243
0 -24.173627 30.778161
9.1512574 -26.27002 18.547483
7.0186247 -25.63205 23.09853
-3.0756645 -26.744414 27.063057
2.9703996 -25.829084 26.136821
-1.5702616 -25.534118 28.953563
1.5433638 -25.096731 28.457602
1.3149475 -31.78049 2.1276298
3.884054 -30.772859 6.2845313
3.4692281 -31.165938 2.0965718
0 -31.995794 4.3107886
8.8698167 -27.531613 14.351665
6.3945994 -29.364685 10.346679
9.7501107 -27.562678 12.229846
7.5896593 -29.663281 2.0427305
5.99384 -30.040716 6.1987827
5.5725019 -30.453457 2.0666011
8.8739315 -29.010182 4.0575933
4.7426487 -30.650665 4.1701935
-2.7209314 -32.071678 8.8643939
2.6224419 -30.91078 8.5435296
-1.3526298 -32.096851 6.5701202
1.3275943 -31.502779 6.4485156
11.334512 -27.427297 8.0786478
7.2776533 -29.305625 8.2699854
10.575743 -27.524802 10.128489
10.126663 -28.262268 6.0766969
8.5119991 -28.491009 10.251402
8.0856525 -29.196491 6.154859
-8.5681036 -30.358638 18.76267
-2.7770195 -30.015536 18.550621
-7.2977698 -29.650008 20.883011
-7.0893206 -31.061927 16.246041
7.731579 -27.394651 16.930826
2.6807735 -28.975257 17.907694
6.6905726 -27.183035 19.14548
6.490315 -28.437378 14.873347
-4.5714008 -27.870893 25.002491
-1.4515085 -29.173603 20.499732
-5.9592695 -28.817252 22.97851
-1.5079854 -27.562968 24.745734
-4.3264978 -29.50875 20.751378
-4.188586 -31.896308 11.335831
-1.4230465 -30.486189 15.995408
-5.6175225 -31.569884 13.751436
-1.3811755 -31.488555 11.173944
-4.2031343 -30.862912 16.175854
4.3356119 -26.433337 23.712884
1.4252869 -28.646579 20.129402
5.5556192 -26.86532 21.422064
1.4812327 -27.073984 24.306729
4.1029192 -27.983839 19.679018
0 -28.193423 22.412944
3.9628775 -30.177526 10.724982
1.3967265 -29.922331 15.699565
5.2258511 -29.368732 12.792642
1.3555681 -30.904749 10.966777
3.9827104 -29.244376 15.327548
0 -30.768786 13.467316
-15.136168 25.70581 1.9658726
-13.928422 26.202678 5.9317425
-13.3615 26.788902 1.9745887
-10.977755 26.526271 14.180273
-12.554434 26.485878 9.9871162
-9.6271949 28.755919 2.0070963
-12.083183 27.258995 5.9727736
-11.515575 27.811964 1.9907024
-12.740147 27.051031 3.9740578
-1.6115241 22.683862 32.484236
-4.5206143 24.489822 27.790243
-9.1512574 26.27002 18.547483
-7.0186247 25.63205 23.09853
-1.3149475 31.78049 2.1276298
-3.884054 30.772859 6.2845313
-3.4692281 31.165938 2.0965718
-8.8698167 27.531613 14.351665
-6.3945994 29.364685 10.346679
-9.7501107 27.562678 12.229846
-7.5896593 29.663281 2.0427305
-5.99384 30.040716 6.1987827
-5.5725019 30.453457 2.0666011
-8.8739315 29.010182 4.0575933
-4.7426487 30.650665 4.1701935
-11.334512 27.427297 8.0786478
-7.2776533 29.305625 8.2699854
-10.575743 27.524802 10.128489
-10.126663 28.262268 6.0766969
-8.5119991 28.491009 10.251402
-8.0856525 29.196491 6.154859
18.648214 31.670332 2.4220142
16.891169 31.776311 7.1934974
16.130781 32.341123 2.3838385
12.721516 30.739836 16.432738
14.916036 31.468111 11.865783
11.063275 33.045413 2.306493
14.328322 32.323905 7.0825561
13.579238 32.79604 2.3474485
15.251513 32.38339 4.7574328
1.6379916 23.05642 33.017753
4.7574391 25.772789 29.246111
0 24.173627 30.778161
10.301265 29.571286 20.878283
7.6477455 27.929602 25.168988
-2.9703996 25.829084 26.136821
3.0756645 26.744414 27.063057
-1.5433638 25.096731 28.457602
1.5702616 25.534118 28.953563
1.3397242 32.37931 2.1677193
4.1051396 32.524491 6.6422554
3.6463948 32.757521 2.2036396
0 31.995794 4.3107886
10.005584 31.056997 16.189376
6.9965219 32.128778 11.32061
11.152345 31.526666 13.988709
8.4718587 33.111252 2.2801715
6.5316388 32.736127 6.7549702
6.0400116 33.008375 2.2399803
10.084967 32.969234 4.6113376
5.0772823 32.813326 4.4644355
-2.6224419 30.91078 8.5435296
2.7209314 32.071678 8.8643939
-1.3275943 31.502779 6.4485156
1.3526298 32.096851 6.5701202
13.289814 32.158744 9.4722847
8.0714664 32.502148 9.1720375
12.254898 31.895031 11.736632
11.70086 32.655657 7.0213234
9.5929349 32.109073 11.553224
9.0799274 32.786719 6.9117085
-7.731579 27.394651 16.930826
-2.6807735 28.975257 17.907694
-6.6905726 27.183035 19.14548
-6.490315 28.437378 14.873347
8.5681036 30.358638 18.76267
2.7770195 30.015536 18.550621
7.2977698 29.650008 20.883011
7.0893206 31.061927 16.246041
-4.3356119 26.433337 23.712884
-1.4252869 28.646579 20.129402
-5.5556192 26.86532 21.422064
-1.4812327 27.073984 24.306729
-4.1029192 27.983839 19.679018
-3.9628775 30.177526 10.724982
-1.3967265 29.922331 15.699565
-5.2258511 29.368732 12.792642
-1.3555681 30.904749 10.966777
-3.9827104 29.244376 15.327548
4.5714008 27.870893 25.002491
1.4515085 29.173603 20.499732
5.9592695 28.817252 22.97851
1.5079854 27.562968 24.745734
4.3264978 29.50875 20.751378
0 28.193423 22.412944
4.188586 31.896308 11.335831
1.4230465 30.486189 15.995408
5.6175225 31.569884 13.751436
1.3811755 31.488555 11.173944
4.2031343 30.862912 16.175854
0 30.768786 13.467316
0 -19.524038 37.104708
0 -14.91634 41.378648
0 -3.2215363 46.481818
0 -9.408548 44.669739
0 19.524038 37.104708
0 14.91634 41.378648
0 3.2215363 46.481818
0 9.408548 44.669739
-18.648214 -31.670332 -2.4220142
-16.891169 -31.776311 -7.1934974
-16.130781 -32.341123 -2.3838385
-12.721516 -30.739836 -16.432738
-14.916036 -31.468111 -11.865783
-11.063275 -33.045413 -2.306493
-14.328322 -32.323905 -7.0825561
-13.579238 -32.79604 -2.3474485
-15.251513 -32.38339 -4.7574328
-1.6379916 -23.05642 -33.017753
-4.7574391 -25.772789 -29.246111
-10.301265 -29.571286 -20.878283
-7.6477455 -27.929602 -25.168988
-1.3397242 -32.37931 -2.1677193
-4.1051396 -32.524491 -6.6422554
-3.6463948 -32.757521 -2.2036396
-10.005584 -31.056997 -16.189376
-6.9965219 -32.128778 -11.32061
-11.152345 -31.526666 -13.988709
-8.4718587 -33.111252 -2.2801715
-6.5316388 -32.736127 -6.7549702
-6.0400116 -33.008375 -2.2399803
-10.084967 -32.969234 -4.6113376
-5.0772823 -32.813326 -4.4644355
-13.289814 -32.158744 -9.4722847
-8.0714664 -32.502148 -9.1720375
-12.254898 -31.895031 -11.736632
-11.70086 -32.655657 -7.0213234
-9.5929349 -32.109073 -11.553224
-9.0799274 -32.786719 -6.9117085
15.136168 -25.70581 -1.9658726
13.928422 -26.202678 -5.9317425
13.3615 -26.788902 -1.9745887
10.977755 -26.526271 -14.180273
12.554434 -26.485878 -9.9871162
9.6271949 -28.755919 -2.0070963
12.083183 -27.258995 -5.9727736
11.515575 -27.811964 -1.9907024
12.740147 -27.051031 -3.9740578
1.6115241 -22.683862 -32.484236
4.5206143 -24.489822 -27.790243
0 -24.173627 -30.778161
9.1512574 -26.27002 -18.547483
7.0186247 -25.63205 -23.09853
-3.0756645 -26.744414 -27.063057
2.9703996 -25.829084 -26.136821
-1.5702616 -25.534118 -28.953563
1.5433638 -25.096731 -28.457602
1.3149475 -31.78049 -2.1276298
3.884054 -30.772859 -6.2845313
3.4692281 -31.165938 -2.0965718
0 -31.995794 -4.3107886
8.8698167 -27.531613 -14.351665
6.3945994 -29.364685 -10.346679
9.7501107 -27.562678 -12.229846
7.5896593 -29.663281 -2.0427305
5.99384 -30.040716 -6.1987827
5.5725019 -30.453457 -2.0666011
8.8739315 -29.010182 -4.0575933
4.7426487 -30.650665 -4.1701935
-2.7209314 -32.071678 -8.8643939
2.6224419 -30.91078 -8.5435296
-1.3526298 -32.096851 -6.5701202
1.3275943 -31.502779 -6.4485156
11.334512 -27.427297 -8.0786478
7.2776533 -29.305625 -8.2699854
10.575743 -27.524802 -10.128489
10.126663 -28.262268 -6.0766969
8.5119991 -28.491009 -10.251402
8.0856525 -29.196491 -6.154859
-8.5681036 -30.358638 -18.76267
-2.7770195 -30.015536 -18.550621
-7.2977698 -29.650008 -20.883011
-7.0893206 -31.061927 -16.246041
7.731579 -27.394651 -16.930826
2.6807735 -28.975257 -17.907694
6.6905726 -27.183035 -19.14548
6.490315 -28.437378 -14.873347
-4.5714008 -27.870893 -25.002491
-1.4515085 -29.173603 -20.499732
-5.9592695 -28.817252 -22.97851
-1.5079854 -27.562968 -24.745734
-4.3264978 -29.50875 -20.751378
-4.188586 -31.896308 -11.335831
-1.4230465 -30.486189 -15.995408
-5.6175225 -31.569884 -13.751436
-1.3811755 -31.488555 -11.173944
-4.2031343 -30.862912 -16.175854
4.3356119 -26.433337 -23.712884
1.4252869 -28.646579 -20.129402
5.5556192 -26.86532 -21.422064
1.4812327 -27.073984 -24.306729
4.1029192 -27.983839 -19.679018
0 -28.193423 -22.412944
3.9628775 -30.177526 -10.724982
1.3967265 -29.922331 -15.699565
5.2258511 -29.368732 -12.792642
1.3555681 -30.904749 -10.966777
3.9827104 -29.244376 -15.327548
0 -30.768786 -13.467316
-15.136168 25.70581 -1.9658726
-13.928422 26.202678 -5.9317425
-13.3615 26.788902 -1.9745887
-10.977755 26.526271 -14.180273
-12.554434 26.485878 -9.9871162
-9.6271949 28.755919 -2.0070963
-12.083183 27.258995 -5.9727736
-11.515575 27.811964 -1.9907024
-12.740147 27.051031 -3.9740578
-1.6115241 22.683862 -32.484236
-4.5206143 24.489822 -27.790243
-9.1512574 26.27002 -18.547483
-7.0186247 25.63205 -23.09853
-1.3149475 31.78049 -2.1276298
-3.884054 30.772859 -6.2845313
-3.4692281 31.165938 -2.0965718
-8.8698167 27.531613 -14.351665
-6.3945994 29.364685 -10.346679
-9.7501107 27.562678 -12.229846
-7.5896593 29.663281 -2.0427305
-5.99384 30.040716 -6.1987827
-5.5725019 30.453457 -2.0666011
-8.8739315 29.010182 -4.0575933
-4.7426487 30.650665 -4.1701935
-11.334512 27.427297 -8.0786478
-7.2776533 29.305625 -8.2699854
-10.575743 27.524802 -10.128489
-10.126663 28.262268 -6.0766969
-8.5119991 28.491009 -10.251402
-8.0856525 29.196491 -6.154859
18.648214 31.670332 -2.4220142
16.891169 31.776311 -7.1934974
16.130781 32.341123 -2.3838385
12.721516 30.739836 -16.432738
14.916036 31.468111 -11.865783
11.063275 33.045413 -2.306493
14.328322 32.323905 -7.0825561
13.579238 32.79604 -2.3474485
15.251513 32.38339 -4.7574328
1.6379916 23.05642 -33.017753
4.7574391 25.772789 -29.246111
0 24.173627 -30.778161
10.301265 29.571286 -20.878283
7.6477455 27.929602 -25.168988
-2.9703996 25.829084 -26.136821
3.0756645 26.744414 -27.063057
-1.5433638 25.096731 -28.457602
1.5702616 25.534118 -28.953563
1.3397242 32.37931 -2.1677193
4.1051396 32.524491 -6.6422554
3.6463948 32.757521 -2.2036396
0 31.995794 -4.3107886
10.005584 31.056997 -16.189376
6.9965219 32.128778 -11.32061
11.152345 31.526666 -13.988709
8.4718587 33.111252 -2.2801715
6.5316388 32.736127 -6.7549702
6.0400116 33.008375 -2.2399803
10.084967 32.969234 -4.6113376
5.0772823 32.813326 -4.4644355
-2.6224419 30.91078 -8.5435296
2.7209314 32.071678 -8.8643939
-1.3275943 31.502779 -6.4485156
1.3526298 32.096851 -6.5701202
13.289814 32.158744 -9.4722847
8.0714664 32.502148 -9.1720375
12.254898 31.895031 -11.736632
11.70086 32.655657 -7.0213234
9.5929349 32.109073 -11.553224
9.0799274 32.786719 -6.9117085
-7.731579 27.394651 -16.930826
-2.6807735 28.975257 -17.907694
-6.6905726 27.183035 -19.14548
-6.490315 28.437378 -14.873347
8.5681036 30.358638 -18.76267
2.7770195 30.015536 -18.550621
7.2977698 29.650008 -20.883011
7.0893206 31.061927 -16.246041
-4.3356119 26.433337 -23.712884
-1.4252869 28.646579 -20.129402
-5.5556192 26.86532 -21.422064
-1.4812327 27.073984 -24.306729
-4.1029192 27.983839 -19.679018
-3.9628775 30.177526 -10.724982
-1.3967265 29.922331 -15.699565
-5.2258511 29.368732 -12.792642
-1.3555681 30.904749 -10.966777
-3.9827104 29.244376 -15.327548
4.5714008 27.870893 -25.002491
1.4515085 29.173603 -20.499732
5.9592695 28.817252 -22.97851
1.5079854 27.562968 -24.745734
4.3264978 29.50875 -20.751378
0 28.193423 -22.412944
4.188586 31.896308 -11.335831
1.4230465 30.486189 -15.995408
5.6175225 31.569884 -13.751436
1.3811755 31.488555 -11.173944
4.2031343 30.862912 -16.175854
0 30.768786 -13.467316
0 -19.524038 -37.104708
0 -14.91634 -41.378648
0 -3.2215363 -46.481818
0 -9.408548 -44.669739
0 19.524038 -37.104708
0 14.91634 -41.378648
0 3.2215363 -46.481818
0 9.408548 -44.669739
21.419275 30.673294 -1.5216843
25.123589 28.50942 -4.6376022
20.608399 30.88725 -3.9768689
30.891415 21.810337 -10.761137
28.34287 25.541407 -7.7609074
18.813927 30.983762 -8.8518833
24.302994 28.715144 -7.1782285
19.737122 30.9899 -6.4355586
22.510145 29.899114 -5.5779551
32.442824 2.4810912 -19.103075
33.353068 7.5504425 -17.729318
32.617317 17.436392 -13.498501
33.437247 12.608291 -15.849416
14.522642 29.824464 -18.432533
20.353467 28.253379 -17.461548
15.671586 30.280581 -16.106642
30.094628 21.864482 -13.512993
25.676943 25.573828 -15.805495
28.92935 23.848455 -12.016424
17.807108 30.85508 -11.359781
21.419618 28.554967 -14.969355
16.770996 30.625809 -13.733687
20.674711 29.967106 -10.631859
18.600017 29.553106 -15.618045
26.038014 27.264284 -8.8649854
24.188742 27.230038 -14.125733
27.562752 25.662671 -10.450058
23.449296 28.765723 -9.7946112
26.671394 25.672922 -13.148503
22.484745 28.711653 -12.409398
17.061174 -24.432311 -1.2120728
19.68983 -22.34337 -3.6345762
16.509533 -24.743992 -3.1858975
24.492177 -17.292268 -8.5319391
22.167173 -19.976128 -6.0698643
15.304612 -25.204439 -7.2007637
19.141776 -22.616919 -5.6537907
15.923442 -25.001917 -5.1920562
17.850645 -23.710131 -4.4233433
31.355083 -2.3979054 -18.462589
30.186154 -6.8335188 -16.045897
26.643272 -14.242819 -11.026175
28.570569 -10.773197 -13.542588
12.36332 -25.389966 -15.691862
16.594932 -23.036021 -14.237044
13.169249 -25.445574 -13.534838
23.964694 -17.410935 -10.76055
20.454496 -20.372353 -12.590807
22.835027 -18.824485 -9.4850165
14.628417 -25.347237 -9.3319822
17.280914 -23.037569 -12.076972
13.925621 -25.42982 -11.403624
16.642342 -24.12236 -8.558235
15.278663 -24.275889 -12.829174
20.441475 -21.404174 -6.9595698
19.258253 -21.679629 -11.246428
21.653557 -20.160835 -8.2096638
18.587697 -22.801902 -7.7639545
21.082636 -20.293385 -10.393349
17.967054 -22.942836 -9.9160706
2.6730695 -20.581206 -34.953138
7.8739301 -18.488904 -34.782032
4.1981924 -21.755312 -32.606209
2.7475599 -18.591984 -37.275668
17.297205 -13.390749 -32.356948
12.779403 -16.064514 -33.891035
6.9442202 -23.510723 -27.779038
9.229352 -19.616204 -32.304996
5.6320379 -22.728398 -30.189009
6.7576904 -20.725063 -32.541099
2.8957433 -13.88966 -41.487676
8.1074611 -16.40175 -37.001444
2.8262034 -16.348681 -39.484691
5.471092 -17.539382 -37.2412
30.618808 -1.5189813 -21.381227
28.040097 -4.5612578 -24.710003
30.211961 -3.8899224 -20.157837
21.366893 -10.542344 -30.263337
24.953615 -7.5823031 -27.690606
28.959996 -8.2737049 -17.585057
27.551 -6.8872151 -23.317723
29.646508 -6.1565813 -18.88153
28.936242 -5.3983226 -21.785228
11.323625 -25.218712 -18.32201
13.752926 -22.342426 -22.252702
10.373516 -24.974076 -20.58785
13.589449 -24.110678 -17.608201
18.363916 -14.468581 -29.713441
16.125703 -18.796383 -26.091936
16.260632 -15.821417 -30.570083
8.2210405 -24.146636 -25.28383
12.79065 -21.902561 -24.656411
9.3346327 -24.62074 -22.923471
9.3773671 -22.450371 -27.540322
11.593168 -23.516436 -22.636073
17.835481 -21.619227 -16.028204
16.04166 -21.094295 -21.403304
15.773112 -22.900894 -16.838139
14.825385 -22.673554 -19.525828
11.731007 -18.389027 -31.863393
14.007313 -20.043036 -26.719814
14.034124 -17.137876 -31.295775
10.556063 -20.527318 -29.753466
15.1524 -18.045465 -28.671993
11.747688 -21.285784 -27.180652
3.1055102 -1.9193109 -46.387129
8.9636818 -5.53986 -43.891596
3.0795532 -5.0957819 -45.778143
17.828197 -11.018432 -34.200842
13.933861 -8.6115994 -39.545387
15.595543 -12.433375 -35.148023
2.9822603 -11.080433 -43.306557
8.8012321 -8.5102477 -42.652779
3.0353327 -8.1846456 -44.728698
5.7897812 -12.662216 -41.394638
6.0497732 -6.8802442 -44.46546
10.769543 -15.109895 -36.562984
11.389738 -10.023061 -40.36082
13.226034 -13.810069 -35.942573
8.4064461 -14.009132 -39.09776
13.620896 -11.309776 -37.855611
8.6461561 -11.358475 -41.014329
25.248603 -15.604495 -12.294485
24.26934 -14.999277 -17.483402
26.269806 -13.973258 -13.595827
23.56104 -17.206796 -13.279657
20.725404 -12.809004 -28.526782
22.810491 -14.097659 -22.902464
22.587001 -11.38082 -27.399144
19.636456 -15.154791 -26.887941
28.122734 -10.353825 -16.230215
25.21431 -13.218084 -18.913729
27.238039 -12.214492 -14.91582
27.580086 -9.7849817 -19.027873
25.795933 -13.632477 -16.235342
19.896665 -20.18813 -15.130894
22.426147 -16.626444 -18.501176
21.76575 -18.744053 -14.231806
19.147506 -19.987369 -17.78858
23.048513 -16.946677 -15.874786
25.976659 -8.4463139 -24.808303
24.479746 -12.699004 -21.745628
24.348403 -9.914877 -26.151174
26.869033 -9.1487958 -21.903149
23.621379 -12.097796 -24.540062
26.077462 -11.27088 -20.421851
17.303711 -19.254809 -23.339661
21.632986 -16.213805 -21.32066
18.482997 -17.313932 -25.138001
18.282935 -19.679627 -20.54283
20.724966 -15.735854 -24.066002
20.425434 -18.178454 -19.567164
2.7399791 21.096374 -35.82805
8.4304127 19.79559 -37.240219
4.3771339 22.682599 -33.995999
2.8112458 19.02293 -38.139684
19.376586 15.000515 -36.246733
14.112704 17.740558 -37.426956
7.5019727 25.399079 -30.010221
10.062623 21.387252 -35.221649
5.977511 24.122574 -32.040824
7.2152685 22.128403 -34.744529
2.9482016 14.14128 -42.239253
8.6259755 17.450727 -39.367879
2.8852593 16.6903 -40.309756
5.7169096 18.327431 -38.914456
31.262966 1.5509377 -21.831046
29.758493 4.8407878 -26.224319
31.900413 4.107318 -21.284395
30.127328 0 -23.662453
23.85212 11.768545 -33.783327
27.323017 8.3022599 -30.319892
32.584873 9.3093113 -19.786151
30.175657 7.5433284 -25.539095
32.34804 6.7175985 -20.602106
31.1481 5.8109651 -23.450469
27.43182 -3.1175737 -27.108834
28.522153 3.241488 -28.186331
28.842579 -1.5642426 -25.436242
29.430641 1.5961354 -25.954853
13.079027 29.128148 -21.162311
16.090534 26.140006 -26.035031
11.80013 28.408626 -23.419186
16.097355 28.560257 -20.85776
20.968438 16.520634 -33.927645
18.819587 21.936419 -30.450732
18.47798 17.978872 -34.73871
9.0460011 26.569689 -27.820998
14.726864 25.218111 -28.388831
10.446471 27.553289 -25.653861
10.384812 24.862297 -30.49908
13.290161 26.958742 -25.949513
21.92287 26.573743 -19.701416
19.128892 25.153911 -25.522389
19.08224 27.705398 -20.370704
17.65387 26.999364 -23.251095
13.027767 20.421771 -35.38561
16.13334 23.085163 -30.775342
15.798723 19.29273 -35.230791
11.72907 22.808347 -33.05972
17.378423 20.696506 -32.884165
13.295491 24.090269 -30.761809
3.1136581 1.9243465 -46.508833
9.1654585 5.6645649 -44.879617
3.1009635 5.1312097 -46.096411
6.194498 0 -45.977175
19.595673 12.110792 -37.59149
14.730382 9.1038766 -41.805976
17.118716 13.647709 -38.580833
3.0264315 11.244549 -43.947983
9.1053343 8.8042958 -44.126528
3.0689455 8.2752811 -45.224016
5.9853689 13.089965 -42.793013
6.1633002 7.0093554 -45.299877
11.915978 -3.6576171 -43.112413
12.15043 3.7295824 -43.960669
9.1725531 -1.8884082 -44.810454
9.2430196 1.9029155 -45.154703
11.631346 16.319023 -39.488835
12.006558 10.565867 -42.546591
14.432242 15.069541 -39.22052
8.8773187 14.793829 -41.287754
14.646016 12.160959 -40.704656
9.0443671 11.881606 -42.903303
31.209069 19.288265 -15.196858
29.413916 18.1788 -21.189506
31.90121 16.968676 -16.510336
29.348476 21.433402 -16.541618
23.661767 14.623776 -32.568439
26.919678 16.637276 -27.028219
25.664014 12.931222 -31.131713
22.841678 17.62848 -31.276809
32.589485 11.998329 -18.80807
29.97163 15.712011 -22.482284
32.365438 14.513798 -17.723634
31.567073 11.199502 -21.778549
31.018171 16.392294 -19.522094
24.721288 25.083429 -18.799893
27.336166 20.266666 -22.551855
27.159696 23.389168 -17.758705
23.490784 24.521155 -21.823608
28.425008 20.899806 -19.577876
28.905809 9.3987274 -27.605708
28.7026 14.889633 -25.496835
27.423543 11.1671 -29.454
30.336989 10.329621 -24.730164
27.286377 13.974842 -28.3476
30.268197 13.082148 -23.703711
20.567155 22.886226 -27.741473
25.997475 19.484966 -25.622138
21.791843 20.413491 -29.638234
22.098527 23.786704 -24.830055
24.526706 18.622403 -28.480614
24.87208 22.135929 -23.826963
20.324357 -9.2812586 -32.8855
21.790725 -3.2620615 -35.258133
22.281473 -7.7864757 -31.635565
18.666926 -8.1457273 -35.690583
22.247533 10.15949 -35.997264
22.50336 3.3687427 -36.411201
24.198111 8.4562632 -34.356835
20.05156 8.7499432 -38.337961
25.811392 -4.7192985 -28.772595
23.682624 -1.6768771 -33.703245
24.12222 -6.2558804 -30.251574
26.557219 -1.6183758 -29.580686
23.068651 -4.8096309 -32.803946
14.523382 -5.3663853 -40.865313
19.880355 -1.7686745 -37.890641
16.725527 -6.832452 -38.39766
14.863053 -1.8371743 -41.884587
19.365991 -5.0320596 -36.949572
27.311238 4.993527 -30.44451
24.106086 1.7068608 -34.305881
25.896444 6.7160093 -32.476621
27.072285 1.6497635 -30.154391
24.280027 5.0621932 -34.526539
25.448487 0 -32.011857
15.04666 5.5597363 -42.337692
20.194123 1.7965892 -38.488662
17.63231 7.202877 -40.479409
15.04426 1.8595729 -42.395237
20.250573 5.2619093 -38.637319
17.647961 0 -40.320308
21.419275 30.673294 1.5216843
25.123589 28.50942 4.6376022
20.608399 30.88725 3.9768689
23.370765 29.755948 0
30.891415 21.810337 10.761137
28.34287 25.541407 7.7609074
18.813927 30.983762 8.8518833
24.302994 28.715144 7.1782285
19.737122 30.9899 6.4355586
22.510145 29.899114 5.5779551
26.985751 27.307269 -3.1034187
26.985751 27.307269 3.1034187
25.246392 28.627305 -1.5525675
25.246392 28.627305 1.5525675
32.442824 2.4810912 19.103075
33.353068 7.5504425 17.729318
32.617317 17.436392 13.498501
33.437247 12.608291 15.849416
14.522642 29.824464 18.432533
20.353467 28.253379 17.461548
15.671586 30.280581 16.106642
30.094628 21.864482 13.512993
25.676943 25.573828 15.805495
28.92935 23.848455 12.016424
17.807108 30.85508 11.359781
21.419618 28.554967 14.969355
16.770996 30.625809 13.733687
20.674711 29.967106 10.631859
18.600017 29.553106 15.618045
26.038014 27.264284 8.8649854
24.188742 27.230038 14.125733
27.562752 25.662671 10.450058
23.449296 28.765723 9.7946112
26.671394 25.672922 13.148503
22.484745 28.711653 12.409398
32.366976 20.003891 -9.1349157
32.933798 20.354207 -3.0470154
31.334632 22.069521 -7.712407
32.366976 20.003891 9.1349157
32.933798 20.354207 3.0470154
31.334632 22.069521 7.712407
28.659324 25.709779 -4.7007197
31.776621 22.328823 -1.5810195
30.084647 23.989115 -6.2213607
28.778188 25.836745 -1.5744707
31.62972 22.242903 -4.637469
28.659324 25.709779 4.7007197
31.776621 22.328823 1.5810195
30.084647 23.989115 6.2213607
28.778188 25.836745 1.5744707
31.62972 22.242903 4.637469
30.392387 24.161056 0
17.061174 -24.432311 1.2120728
19.68983 -22.34337 3.6345762
16.509533 -24.743992 3.1858975
18.419777 -23.452288 0
24.492177 -17.292268 8.5319391
22.167173 -19.976128 6.0698643
15.304612 -25.204439 7.2007637
19.141776 -22.616919 5.6537907
15.923442 -25.001917 5.1920562
17.850645 -23.710131 4.4233433
21.032609 -21.283199 -2.4187948
21.032609 -21.283199 2.4187948
19.751649 -22.396725 -1.2146594
19.751649 -22.396725 1.2146594
31.355083 -2.3979054 18.462589
30.186154 -6.8335188 16.045897
26.643272 -14.242819 11.026175
28.570569 -10.773197 13.542588
12.36332 -25.389966 15.691862
16.594932 -23.036021 14.237044
13.169249 -25.445574 13.534838
23.964694 -17.410935 10.76055
20.454496 -20.372353 12.590807
22.835027 -18.824485 9.4850165
14.628417 -25.347237 9.3319822
17.280914 -23.037569 12.076972
13.925621 -25.42982 11.403624
16.642342 -24.12236 8.558235
15.278663 -24.275889 12.829174
20.441475 -21.404174 6.9595698
19.258253 -21.679629 11.246428
21.653557 -20.160835 8.2096638
18.587697 -22.801902 7.7639545
21.082636 -20.293385 10.393349
17.967054 -22.942836 9.9160706
25.850039 -15.976202 -7.2956437
26.136056 -16.152971 -2.4180924
24.722668 -17.412601 -6.0850013
25.850039 -15.976202 7.2956437
26.136056 -16.152971 2.4180924
24.722668 -17.412601 6.0850013
22.337476 -20.038559 -3.6638064
24.949158 -17.531296 -1.2413247
23.543406 -18.773212 -4.8686634
22.390141 -20.101625 -1.2249771
24.874177 -17.492216 -3.6469884
22.337476 -20.038559 3.6638064
24.949158 -17.531296 1.2413247
23.543406 -18.773212 4.8686634
22.390141 -20.101625 1.2249771
24.874177 -17.492216 3.6469884
23.70412 -18.84408 0
2.6730695 -20.581206 34.953138
7.8739301 -18.488904 34.782032
4.1981924 -21.755312 32.606209
2.7475599 -18.591984 37.275668
17.297205 -13.390749 32.356948
12.779403 -16.064514 33.891035
6.9442202 -23.510723 27.779038
9.229352 -19.616204 32.304996
5.6320379 -22.728398 30.189009
6.7576904 -20.725063 32.541099
2.8957433 -13.88966 41.487676
8.1074611 -16.40175 37.001444
2.8262034 -16.348681 39.484691
5.471092 -17.539382 37.2412
30.618808 -1.5189813 21.381227
28.040097 -4.5612578 24.710003
30.211961 -3.8899224 20.157837
21.366893 -10.542344 30.263337
24.953615 -7.5823031 27.690606
28.959996 -8.2737049 17.585057
27.551 -6.8872151 23.317723
29.646508 -6.1565813 18.88153
28.936242 -5.3983226 21.785228
11.323625 -25.218712 18.32201
13.752926 -22.342426 22.252702
10.373516 -24.974076 20.58785
13.589449 -24.110678 17.608201
18.363916 -14.468581 29.713441
16.125703 -18.796383 26.091936
16.260632 -15.821417 30.570083
8.2210405 -24.146636 25.28383
12.79065 -21.902561 24.656411
9.3346327 -24.62074 22.923471
9.3773671 -22.450371 27.540322
11.593168 -23.516436 22.636073
17.835481 -21.619227 16.028204
16.04166 -21.094295 21.403304
15.773112 -22.900894 16.838139
14.825385 -22.673554 19.525828
11.731007 -18.389027 31.863393
14.007313 -20.043036 26.719814
14.034124 -17.137876 31.295775
10.556063 -20.527318 29.753466
15.1524 -18.045465 28.671993
11.747688 -21.285784 27.180652
3.1055102 -1.9193109 46.387129
8.9636818 -5.53986 43.891596
3.0795532 -5.0957819 45.778143
17.828197 -11.018432 34.200842
13.933861 -8.6115994 39.545387
15.595543 -12.433375 35.148023
2.9822603 -11.080433 43.306557
8.8012321 -8.5102477 42.652779
3.0353327 -8.1846456 44.728698
5.7897812 -12.662216 41.394638
6.0497732 -6.8802442 44.46546
10.769543 -15.109895 36.562984
11.389738 -10.023061 40.36082
13.226034 -13.810069 35.942573
8.4064461 -14.009132 39.09776
13.620896 -11.309776 37.855611
8.6461561 -11.358475 41.014329
25.248603 -15.604495 12.294485
24.26934 -14.999277 17.483402
26.269806 -13.973258 13.595827
23.56104 -17.206796 13.279657
20.725404 -12.809004 28.526782
22.810491 -14.097659 22.902464
22.587001 -11.38082 27.399144
19.636456 -15.154791 26.887941
28.122734 -10.353825 16.230215
25.21431 -13.218084 18.913729
27.238039 -12.214492 14.91582
27.580086 -9.7849817 19.027873
25.795933 -13.632477 16.235342
19.896665 -20.18813 15.130894
22.426147 -16.626444 18.501176
21.76575 -18.744053 14.231806
19.147506 -19.987369 17.78858
23.048513 -16.946677 15.874786
25.976659 -8.4463139 24.808303
24.479746 -12.699004 21.745628
24.348403 -9.914877 26.151174
26.869033 -9.1487958 21.903149
23.621379 -12.097796 24.540062
26.077462 -11.27088 20.421851
17.303711 -19.254809 23.339661
21.632986 -16.213805 21.32066
18.482997 -17.313932 25.138001
18.282935 -19.679627 20.54283
20.724966 -15.735854 24.066002
20.425434 -18.178454 19.567164
2.7399791 21.096374 35.82805
8.4304127 19.79559 37.240219
4.3771339 22.682599 33.995999
2.8112458 19.02293 38.139684
19.376586 15.000515 36.246733
14.112704 17.740558 37.426956
7.5019727 25.399079 30.010221
10.062623 21.387252 35.221649
5.977511 24.122574 32.040824
7.2152685 22.128403 34.744529
2.9482016 14.14128 42.239253
8.6259755 17.450727 39.367879
2.8852593 16.6903 40.309756
5.7169096 18.327431 38.914456
31.262966 1.5509377 21.831046
29.758493 4.8407878 26.224319
31.900413 4.107318 21.284395
30.127328 0 23.662453
23.85212 11.768545 33.783327
27.323017 8.3022599 30.319892
32.584873 9.3093113 19.786151
30.175657 7.5433284 25.539095
32.34804 6.7175985 20.602106
31.1481 5.8109651 23.450469
27.43182 -3.1175737 27.108834
28.522153 3.241488 28.186331
28.842579 -1.5642426 25.436242
29.430641 1.5961354 25.954853
13.079027 29.128148 21.162311
16.090534 26.140006 26.035031
11.80013 28.408626 23.419186
16.097355 28.560257 20.85776
20.968438 16.520634 33.927645
18.819587 21.936419 30.450732
18.47798 17.978872 34.73871
9.0460011 26.569689 27.820998
14.726864 25.218111 28.388831
10.446471 27.553289 25.653861
10.384812 24.862297 30.49908
13.290161 26.958742 25.949513
21.92287 26.573743 19.701416
19.128892 25.153911 25.522389
19.08224 27.705398 20.370704
17.65387 26.999364 23.251095
13.027767 20.421771 35.38561
16.13334 23.085163 30.775342
15.798723 19.29273 35.230791
11.72907 22.808347 33.05972
17.378423 20.696506 32.884165
13.295491 24.090269 30.761809
3.1136581 1.9243465 46.508833
9.1654585 5.6645649 44.879617
3.1009635 5.1312097 46.096411
6.194498 0 45.977175
19.595673 12.110792 37.59149
14.730382 9.1038766 41.805976
17.118716 13.647709 38.580833
3.0264315 11.244549 43.947983
9.1053343 8.8042958 44.126528
3.0689455 8.2752811 45.224016
5.9853689 13.089965 42.793013
6.1633002 7.0093554 45.299877
11.915978 -3.6576171 43.112413
12.15043 3.7295824 43.960669
9.1725531 -1.8884082 44.810454
9.2430196 1.9029155 45.154703
11.631346 16.319023 39.488835
12.006558 10.565867 42.546591
14.432242 15.069541 39.22052
8.8773187 14.793829 41.287754
14.646016 12.160959 40.704656
9.0443671 11.881606 42.903303
31.209069 19.288265 15.196858
29.413916 18.1788 21.189506
31.90121 16.968676 16.510336
29.348476 21.433402 16.541618
23.661767 14.623776 32.568439
26.919678 16.637276 27.028219
25.664014 12.931222 31.131713
22.841678 17.62848 31.276809
32.589485 11.998329 18.80807
29.97163 15.712011 22.482284
32.365438 14.513798 17.723634
31.567073 11.199502 21.778549
31.018171 16.392294 19.522094
24.721288 25.083429 18.799893
27.336166 20.266666 22.551855
27.159696 23.389168 17.758705
23.490784 24.521155 21.823608
28.425008 20.899806 19.577876
28.905809 9.3987274 27.605708
28.7026 14.889633 25.496835
27.423543 11.1671 29.454
30.336989 10.329621 24.730164
27.286377 13.974842 28.3476
30.268197 13.082148 23.703711
20.567155 22.886226 27.741473
25.997475 19.484966 25.622138
21.791843 20.413491 29.638234
22.098527 23.786704 24.830055
24.526706 18.622403 28.480614
24.87208 22.135929 23.826963
20.324357 -9.2812586 32.8855
21.790725 -3.2620615 35.258133
22.281473 -7.7864757 31.635565
18.666926 -8.1457273 35.690583
22.247533 10.15949 35.997264
22.50336 3.3687427 36.411201
24.198111 8.4562632 34.356835
20.05156 8.7499432 38.337961
25.811392 -4.7192985 28.772595
23.682624 -1.6768771 33.703245
24.12222 -6.2558804 30.251574
26.557219 -1.6183758 29.580686
23.068651 -4.8096309 32.803946
14.523382 -5.3663853 40.865313
19.880355 -1.7686745 37.890641
16.725527 -6.832452 38.39766
14.863053 -1.8371743 41.884587
19.365991 -5.0320596 36.949572
27.311238 4.993527 30.44451
24.106086 1.7068608 34.305881
25.896444 6.7160093 32.476621
27.072285 1.6497635 30.154391
24.280027 5.0621932 34.526539
25.448487 0 32.011857
15.04666 5.5597363 42.337692
20.194123 1.7965892 38.488662
17.63231 7.202877 40.479409
15.04426 1.8595729 42.395237
20.250573 5.2619093 38.637319
17.647961 0 40.320308
32.513616 0 -17.108262
33.736202 0 -12.161361
33.222398 2.4487966 -16.570335
32.0972 -2.3658591 -16.00912
34.894018 0 -2.4184154
34.515226 0 -7.2697574
34.10865 7.4736152 -15.119452
34.409942 2.4017339 -11.520105
33.763506 4.9601852 -15.901503
33.87939 2.4249917 -14.0278
30.835851 -6.7565057 -13.668708
33.227005 -2.3191677 -11.12407
31.52772 -4.6317267 -14.848521
32.721198 -2.3420916 -13.548249
32.513616 0 17.108262
33.736202 0 12.161361
33.222398 2.4487966 16.570335
32.0972 -2.3658591 16.00912
34.894018 0 2.4184154
34.515226 0 7.2697574
34.10865 7.4736152 15.119452
34.409942 2.4017339 11.520105
33.763506 4.9601852 15.901503
33.87939 2.4249917 14.0278
30.835851 -6.7565057 13.668708
33.227005 -2.3191677 11.12407
31.52772 -4.6317267 14.848521
32.721198 -2.3420916 13.548249
33.309938 17.363787 -10.731411
35.211029 12.406645 -7.6677282
33.85344 15.021123 -11.975425
33.737362 17.64535 -7.6999401
35.469387 2.3745928 -1.4675791
35.869213 7.3253251 -4.5272999
35.362924 2.3789083 -3.9364145
34.25497 10.089723 -14.156093
35.33888 9.9725572 -8.7759302
34.168615 12.573258 -13.128468
34.743625 7.4702594 -12.449
34.76049 12.507235 -10.385075
34.166159 17.926204 -1.5948216
35.499934 12.616546 -4.6618099
34.023917 17.832598 -4.6336227
34.786574 15.152584 -6.1898979
34.847514 2.3997373 -8.9160993
35.621341 7.3503228 -7.107308
35.155091 2.3856585 -6.4328268
34.930346 4.8856341 -10.684852
35.615936 4.8457462 -5.5109366
35.248794 7.4307341 -9.7617726
27.132479 -14.143605 -8.7412283
29.940244 -10.549478 -6.5199359
28.153362 -12.491939 -9.9590611
27.346355 -14.302719 -6.2413087
34.227901 -2.2914782 -1.4162114
32.336778 -6.6039199 -4.081447
34.12656 -2.2957366 -3.798789
30.008069 -8.8388083 -12.401033
30.88705 -8.7162602 -7.6703787
29.120784 -10.715773 -11.18896
31.357926 -6.7422972 -11.235869
29.576779 -10.642074 -8.8363845
27.558014 -14.459061 -1.286364
30.080848 -10.690623 -3.9501818
27.488287 -14.407147 -3.7435534
28.767667 -12.530826 -5.118898
33.636041 -2.3163105 -8.6061315
32.123911 -6.6286418 -6.4094871
33.929556 -2.3024925 -6.2085732
32.577665 -4.5565697 -9.9651899
33.19267 -4.5160473 -5.135979
31.786853 -6.7009285 -8.8030253
33.309938 17.363787 10.731411
35.211029 12.406645 7.6677282
33.85344 15.021123 11.975425
33.737362 17.64535 7.6999401
35.469387 2.3745928 1.4675791
35.869213 7.3253251 4.5272999
35.362924 2.3789083 3.9364145
35.860971 4.8315433 0
34.25497 10.089723 14.156093
35.33888 9.9725572 8.7759302
34.168615 12.573258 13.128468
34.743625 7.4702594 12.449
34.76049 12.507235 10.385075
34.166159 17.926204 1.5948216
35.499934 12.616546 4.6618099
34.023917 17.832598 4.6336227
35.077467 15.3532 0
34.786574 15.152584 6.1898979
34.847514 2.3997373 8.9160993
35.621341 7.3503228 7.107308
35.155091 2.3856585 6.4328268
34.930346 4.8856341 10.684852
35.615936 4.8457462 5.5109366
35.248794 7.4307341 9.7617726
35.916635 9.9271139 -3.047134
35.916635 9.9271139 3.047134
36.020278 7.3732328 -1.5179714
35.66106 12.654588 -1.5641931
36.020278 7.3732328 1.5179714
35.66106 12.654588 1.5641931
27.132479 -14.143605 8.7412283
29.940244 -10.549478 6.5199359
28.153362 -12.491939 9.9590611
27.346355 -14.302719 6.2413087
34.227901 -2.2914782 1.4162114
32.336778 -6.6039199 4.081447
34.12656 -2.2957366 3.798789
33.412406 -4.5016486 0
30.008069 -8.8388083 12.401033
30.88705 -8.7162602 7.6703787
29.120784 -10.715773 11.18896
31.357926 -6.7422972 11.235869
29.576779 -10.642074 8.8363845
27.558014 -14.459061 1.286364
30.080848 -10.690623 3.9501818
27.488287 -14.407147 3.7435534
28.909188 -12.653381 0
28.767667 -12.530826 5.118898
33.636041 -2.3163105 8.6061315
32.123911 -6.6286418 6.4094871
33.929556 -2.3024925 6.2085732
32.577665 -4.5565697 9.9651899
33.19267 -4.5160473 5.135979
31.786853 -6.7009285 8.8030253
31.348692 -8.6645654 -2.6595939
31.348692 -8.6645654 2.6595939
32.440241 -6.640411 -1.367101
30.185186 -10.711434 -1.3240061
32.440241 -6.640411 1.367101
30.185186 -10.711434 1.3240061
-17.061174 24.432311 -1.2120728
-19.68983 22.34337 -3.6345762
-16.509533 24.743992 -3.1858975
-24.492177 17.292268 -8.5319391
-22.167173 19.976128 -6.0698643
-15.304612 25.204439 -7.2007637
-19.141776 22.616919 -5.6537907
-15.923442 25.001917 -5.1920562
-17.850645 23.710131 -4.4233433
-31.355083 2.3979054 -18.462589
-30.186154 6.8335188 -16.045897
-26.643272 14.242819 -11.026175
-28.570569 10.773197 -13.542588
-12.36332 25.389966 -15.691862
-16.594932 23.036021 -14.237044
-13.169249 25.445574 -13.534838
-23.964694 17.410935 -10.76055
-20.454496 20.372353 -12.590807
-22.835027 18.824485 -9.4850165
-14.628417 25.347237 -9.3319822
-17.280914 23.037569 -12.076972
-13.925621 25.42982 -11.403624
-16.642342 24.12236 -8.558235
-15.278663 24.275889 -12.829174
-20.441475 21.404174 -6.9595698
-19.258253 21.679629 -11.246428
-21.653557 20.160835 -8.2096638
-18.587697 22.801902 -7.7639545
-21.082636 20.293385 -10.393349
-17.967054 22.942836 -9.9160706
-21.419275 -30.673294 -1.5216843
-25.123589 -28.50942 -4.6376022
-20.608399 -30.88725 -3.9768689
-30.891415 -21.810337 -10.761137
-28.34287 -25.541407 -7.7609074
-18.813927 -30.983762 -8.8518833
-24.302994 -28.715144 -7.1782285
-19.737122 -30.9899 -6.4355586
-22.510145 -29.899114 -5.5779551
-32.442824 -2.4810912 -19.103075
-33.353068 -7.5504425 -17.729318
-32.617317 -17.436392 -13.498501
-33.437247 -12.608291 -15.849416
-14.522642 -29.824464 -18.432533
-20.353467 -28.253379 -17.461548
-15.671586 -30.280581 -16.106642
-30.094628 -21.864482 -13.512993
-25.676943 -25.573828 -15.805495
-28.92935 -23.848455 -12.016424
-17.807108 -30.85508 -11.359781
-21.419618 -28.554967 -14.969355
-16.770996 -30.625809 -13.733687
-20.674711 -29.967106 -10.631859
-18.600017 -29.553106 -15.618045
-26.038014 -27.264284 -8.8649854
-24.188742 -27.230038 -14.125733
-27.562752 -25.662671 -10.450058
-23.449296 -28.765723 -9.7946112
-26.671394 -25.672922 -13.148503
-22.484745 -28.711653 -12.409398
-2.7399791 -21.096374 -35.82805
-8.4304127 -19.79559 -37.240219
-4.3771339 -22.682599 -33.995999
-2.8112458 -19.02293 -38.139684
-19.376586 -15.000515 -36.246733
-14.112704 -17.740558 -37.426956
-7.5019727 -25.399079 -30.010221
-10.062623 -21.387252 -35.221649
-5.977511 -24.122574 -32.040824
-7.2152685 -22.128403 -34.744529
-2.9482016 -14.14128 -42.239253
-8.6259755 -17.450727 -39.367879
-2.8852593 -16.6903 -40.309756
-5.7169096 -18.327431 -38.914456
-31.262966 -1.5509377 -21.831046
-29.758493 -4.8407878 -26.224319
-31.900413 -4.107318 -21.284395
-23.85212 -11.768545 -33.783327
-27.323017 -8.3022599 -30.319892
-32.584873 -9.3093113 -19.786151
-30.175657 -7.5433284 -25.539095
-32.34804 -6.7175985 -20.602106
-31.1481 -5.8109651 -23.450469
-13.079027 -29.128148 -21.162311
-16.090534 -26.140006 -26.035031
-11.80013 -28.408626 -23.419186
-16.097355 -28.560257 -20.85776
-20.968438 -16.520634 -33.927645
-18.819587 -21.936419 -30.450732
-18.47798 -17.978872 -34.73871
-9.0460011 -26.569689 -27.820998
-14.726864 -25.218111 -28.388831
-10.446471 -27.553289 -25.653861
-10.384812 -24.862297 -30.49908
-13.290161 -26.958742 -25.949513
-21.92287 -26.573743 -19.701416
-19.128892 -25.153911 -25.522389
-19.08224 -27.705398 -20.370704
-17.65387 -26.999364 -23.251095
-13.027767 -20.421771 -35.38561
-16.13334 -23.085163 -30.775342
-15.798723 -19.29273 -35.230791
-11.72907 -22.808347 -33.05972
-17.378423 -20.696506 -32.884165
-13.295491 -24.090269 -30.761809
-3.1136581 -1.9243465 -46.508833
-9.1654585 -5.6645649 -44.879617
-3.1009635 -5.1312097 -46.096411
-19.595673 -12.110792 -37.59149
-14.730382 -9.1038766 -41.805976
-17.118716 -13.647709 -38.580833
-3.0264315 -11.244549 -43.947983
-9.1053343 -8.8042958 -44.126528
-3.0689455 -8.2752811 -45.224016
-5.9853689 -13.089965 -42.793013
-6.1633002 -7.0093554 -45.299877
-11.631346 -16.319023 -39.488835
-12.006558 -10.565867 -42.546591
-14.432242 -15.069541 -39.22052
-8.8773187 -14.793829 -41.287754
-14.646016 -12.160959 -40.704656
-9.0443671 -11.881606 -42.903303
-31.209069 -19.288265 -15.196858
-29.413916 -18.1788 -21.189506
-31.90121 -16.968676 -16.510336
-29.348476 -21.433402 -16.541618
-23.661767 -14.623776 -32.568439
-26.919678 -16.637276 -27.028219
-25.664014 -12.931222 -31.131713
-22.841678 -17.62848 -31.276809
-32.589485 -11.998329 -18.80807
-29.97163 -15.712011 -22.482284
-32.365438 -14.513798 -17.723634
-31.567073 -11.199502 -21.778549
-31.018171 -16.392294 -19.522094
-24.721288 -25.083429 -18.799893
-27.336166 -20.266666 -22.551855
-27.159696 -23.389168 -17.758705
-23.490784 -24.521155 -21.823608
-28.425008 -20.899806 -19.577876
-28.905809 -9.3987274 -27.605708
-28.7026 -14.889633 -25.496835
-27.423543 -11.1671 -29.454
-30.336989 -10.329621 -24.730164
-27.286377 -13.974842 -28.3476
-30.268197 -13.082148 -23.703711
-20.567155 -22.886226 -27.741473
-25.997475 -19.484966 -25.622138
-21.791843 -20.413491 -29.638234
-22.098527 -23.786704 -24.830055
-24.526706 -18.622403 -28.480614
-24.87208 -22.135929 -23.826963
-2.6730695 20.581206 -34.953138
-7.8739301 18.488904 -34.782032
-4.1981924 21.755312 -32.606209
-2.7475599 18.591984 -37.275668
-17.297205 13.390749 -32.356948
-12.779403 16.064514 -33.891035
-6.9442202 23.510723 -27.779038
-9.229352 19.616204 -32.304996
-5.6320379 22.728398 -30.189009
-6.7576904 20.725063 -32.541099
-2.8957433 13.88966 -41.487676
-8.1074611 16.40175 -37.001444
-2.8262034 16.348681 -39.484691
-5.471092 17.539382 -37.2412
-30.618808 1.5189813 -21.381227
-28.040097 4.5612578 -24.710003
-30.211961 3.8899224 -20.157837
-30.127328 0 -23.662453
-21.366893 10.542344 -30.263337
-24.953615 7.5823031 -27.690606
-28.959996 8.2737049 -17.585057
-27.551 6.8872151 -23.317723
-29.646508 6.1565813 -18.88153
-28.936242 5.3983226 -21.785228
-28.522153 -3.241488 -28.186331
-27.43182 3.1175737 -27.108834
-29.430641 -1.5961354 -25.954853
-28.842579 1.5642426 -25.436242
-11.323625 25.218712 -18.32201
-13.752926 22.342426 -22.252702
-10.373516 24.974076 -20.58785
-13.589449 24.110678 -17.608201
-18.363916 14.468581 -29.713441
-16.125703 18.796383 -26.091936
-16.260632 15.821417 -30.570083
-8.2210405 24.146636 -25.28383
-12.79065 21.902561 -24.656411
-9.3346327 24.62074 -22.923471
-9.3773671 22.450371 -27.540322
-11.593168 23.516436 -22.636073
-17.835481 21.619227 -16.028204
-16.04166 21.094295 -21.403304
-15.773112 22.900894 -16.838139
-14.825385 22.673554 -19.525828
-11.731007 18.389027 -31.863393
-14.007313 20.043036 -26.719814
-14.034124 17.137876 -31.295775
-10.556063 20.527318 -29.753466
-15.1524 18.045465 -28.671993
-11.747688 21.285784 -27.180652
-3.1055102 1.9193109 -46.387129
-8.9636818 5.53986 -43.891596
-3.0795532 5.0957819 -45.778143
-6.194498 0 -45.977175
-17.828197 11.018432 -34.200842
-13.933861 8.6115994 -39.545387
-15.595543 12.433375 -35.148023
-2.9822603 11.080433 -43.306557
-8.8012321 8.5102477 -42.652779
-3.0353327 8.1846456 -44.728698
-5.7897812 12.662216 -41.394638
-6.0497732 6.8802442 -44.46546
-12.15043 -3.7295824 -43.960669
-11.915978 3.6576171 -43.112413
-9.2430196 -1.9029155 -45.154703
-9.1725531 1.8884082 -44.810454
-10.769543 15.109895 -36.562984
-11.389738 10.023061 -40.36082
-13.226034 13.810069 -35.942573
-8.4064461 14.009132 -39.09776
-13.620896 11.309776 -37.855611
-8.6461561 11.358475 -41.014329
-25.248603 15.604495 -12.294485
-24.26934 14.999277 -17.483402
-26.269806 13.973258 -13.595827
-23.56104 17.206796 -13.279657
-20.725404 12.809004 -28.526782
-22.810491 14.097659 -22.902464
-22.587001 11.38082 -27.399144
-19.636456 15.154791 -26.887941
-28.122734 10.353825 -16.230215
-25.21431 13.218084 -18.913729
-27.238039 12.214492 -14.91582
-27.580086 9.7849817 -19.027873
-25.795933 13.632477 -16.235342
-19.896665 20.18813 -15.130894
-22.426147 16.626444 -18.501176
-21.76575 18.744053 -14.231806
-19.147506 19.987369 -17.78858
-23.048513 16.946677 -15.874786
-25.976659 8.4463139 -24.808303
-24.479746 12.699004 -21.745628
-24.348403 9.914877 -26.151174
-26.869033 9.1487958 -21.903149
-23.621379 12.097796 -24.540062
-26.077462 11.27088 -20.421851
-17.303711 19.254809 -23.339661
-21.632986 16.213805 -21.32066
-18.482997 17.313932 -25.138001
-18.282935 19.679627 -20.54283
-20.724966 15.735854 -24.066002
-20.425434 18.178454 -19.567164
-22.247533 -10.15949 -35.997264
-22.50336 -3.3687427 -36.411201
-24.198111 -8.4562632 -34.356835
-20.05156 -8.7499432 -38.337961
-20.324357 9.2812586 -32.8855
-21.790725 3.2620615 -35.258133
-22.281473 7.7864757 -31.635565
-18.666926 8.1457273 -35.690583
-27.311238 -4.993527 -30.44451
-24.106086 -1.7068608 -34.305881
-25.896444 -6.7160093 -32.476621
-27.072285 -1.6497635 -30.154391
-24.280027 -5.0621932 -34.526539
-15.04666 -5.5597363 -42.337692
-20.194123 -1.7965892 -38.488662
-17.63231 -7.202877 -40.479409
-15.04426 -1.8595729 -42.395237
-20.250573 -5.2619093 -38.637319
-25.811392 4.7192985 -28.772595
-23.682624 1.6768771 -33.703245
-24.12222 6.2558804 -30.251574
-26.557219 1.6183758 -29.580686
-23.068651 4.8096309 -32.803946
-25.448487 0 -32.011857
-14.523382 5.3663853 -40.865313
-19.880355 1.7686745 -37.890641
-16.725527 6.832452 -38.39766
-14.863053 1.8371743 -41.884587
-19.365991 5.0320596 -36.949572
-17.647961 0 -40.320308
-17.061174 24.432311 1.2120728
-19.68983 22.34337 3.6345762
-16.509533 24.743992 3.1858975
-18.419777 23.452288 0
-24.492177 17.292268 8.5319391
-22.167173 19.976128 6.0698643
-15.304612 25.204439 7.2007637
-19.141776 22.616919 5.6537907
-15.923442 25.001917 5.1920562
-17.850645 23.710131 4.4233433
-21.032609 21.283199 -2.4187948
-21.032609 21.283199 2.4187948
-19.751649 22.396725 -1.2146594
-19.751649 22.396725 1.2146594
-31.355083 2.3979054 18.462589
-30.186154 6.8335188 16.045897
-26.643272 14.242819 11.026175
-28.570569 10.773197 13.542588
-12.36332 25.389966 15.691862
-16.594932 23.036021 14.237044
-13.169249 25.445574 13.534838
-23.964694 17.410935 10.76055
-20.454496 20.372353 12.590807
-22.835027 18.824485 9.4850165
-14.628417 25.347237 9.3319822
-17.280914 23.037569 12.076972
-13.925621 25.42982 11.403624
-16.642342 24.12236 8.558235
-15.278663 24.275889 12.829174
-20.441475 21.404174 6.9595698
-19.258253 21.679629 11.246428
-21.653557 20.160835 8.2096638
-18.587697 22.801902 7.7639545
-21.082636 20.293385 10.393349
-17.967054 22.942836 9.9160706
-25.850039 15.976202 -7.2956437
-26.136056 16.152971 -2.4180924
-24.722668 17.412601 -6.0850013
-25.850039 15.976202 7.2956437
-26.136056 16.152971 2.4180924
-24.722668 17.412601 6.0850013
-22.337476 20.038559 -3.6638064
-24.949158 17.531296 -1.2413247
-23.543406 18.773212 -4.8686634
-22.390141 20.101625 -1.2249771
-24.874177 17.492216 -3.6469884
-22.337476 20.038559 3.6638064
-24.949158 17.531296 1.2413247
-23.543406 18.773212 4.8686634
-22.390141 20.101625 1.2249771
-24.874177 17.492216 3.6469884
