-12.01143982 21.44540388 3.253034665
-9.320124164 20.97213569 9.533226525
-9.323363514 24.05621197 3.42649979
-1.929081483 14.64641646 18.64799875
-5.797436118 18.55121015 14.83860376
-2.501083797 30.03668842 4.046838592
-6.267121856 23.3958366 10.14041617
-6.144630853 26.97713048 3.706940619
-7.904586709 24.04088985 6.929140171
19.31463841 34.48464359 5.230945599
13.22825691 29.76621278 13.53071778
13.8584992 35.75780283 5.093241781
2.01915479 15.33029175 19.51871724
6.993386434 22.3781304 17.89965221
0 17.81328695 18.02552129
2.796394322 33.58321104 4.52466106
8.073071828 30.13764112 13.06250461
8.099818774 35.5611058 4.886468844
0 30.01954809 8.297199026
11.01876969 33.51231864 9.659024883
-4.077880975 21.90147429 13.53585551
4.731402947 25.41140868 15.70511427
-2.090320798 20.09909055 15.97818725
-2.330211016 25.84243618 11.31108188
2.234944354 21.48969143 17.08367415
2.55739642 28.36196092 12.41386299
0 -9.114032372 20.67590126
0 -2.987179782 21.44669023
0 9.114032372 20.67590126
0 2.987179782 21.44669023
-19.31463841 -34.48464359 -5.230945599
-13.22825691 -29.76621278 -13.53071778
-13.8584992 -35.75780283 -5.093241781
-2.01915479 -15.33029175 -19.51871724
-6.993386434 -22.3781304 -17.89965221
-2.796394322 -33.58321104 -4.52466106
-8.073071828 -30.13764112 -13.06250461
-8.099818774 -35.5611058 -4.886468844
-11.01876969 -33.51231864 -9.659024883
12.01143982 -21.44540388 -3.253034665
9.320124164 -20.97213569 -9.533226525
9.323363514 -24.05621197 -3.42649979
1.929081483 -14.64641646 -18.64799875
5.797436118 -18.55121015 -14.83860376
0 -17.81328695 -18.02552129
2.501083797 -30.03668842 -4.046838592
6.267121856 -23.3958366 -10.14041617
6.144630853 -26.97713048 -3.706940619
0 -30.01954809 -8.297199026
7.904586709 -24.04088985 -6.929140171
-4.731402947 -25.41140868 -15.70511427
4.077880975 -21.90147429 -13.53585551
-2.234944354 -21.48969143 -17.08367415
-2.55739642 -28.36196092 -12.41386299
2.090320798 -20.09909055 -15.97818725
2.330211016 -25.84243618 -11.31108188
-12.01143982 21.44540388 -3.253034665
-9.320124164 20.97213569 -9.533226525
-9.323363514 24.05621197 -3.42649979
-1.929081483 14.64641646 -18.64799875
-5.797436118 18.55121015 -14.83860376
-2.501083797 30.03668842 -4.046838592
-6.267121856 23.3958366 -10.14041617
-6.144630853 26.97713048 -3.706940619
-7.904586709 24.04088985 -6.929140171
19.31463841 34.48464359 -5.230945599
13.22825691 29.76621278 -13.53071778
13.8584992 35.75780283 -5.093241781
2.01915479 15.33029175 -19.51871724
6.993386434 22.3781304 -17.89965221
0 17.81328695 -18.02552129
2.796394322 33.58321104 -4.52466106
8.073071828 30.13764112 -13.06250461
8.099818774 35.5611058 -4.886468844
0 30.01954809 -8.297199026
11.01876969 33.51231864 -9.659024883
-4.077880975 21.90147429 -13.53585551
4.731402947 25.41140868 -15.70511427
-2.090320798 20.09909055 -15.97818725
-2.330211016 25.84243618 -11.31108188
2.234944354 21.48969143 -17.08367415
2.55739642 28.36196092 -12.41386299
0 -9.114032372 -20.67590126
0 -2.987179782 -21.44669023
0 9.114032372 -20.67590126
0 2.987179782 -21.44669023
25.47097829 32.42996488 -3.354785979
27.68358122 22.14333668 -8.651392138
22.25865187 30.88534268 -8.30037293
24.05826012 3.649376556 -13.47488466
26.57160278 12.07855567 -11.80855592
15.37730972 25.67236034 -15.86639126
24.3204945 20.6882483 -12.78604062
18.76154858 28.47927024 -12.583016
23.82880619 25.84939415 -10.89482003
14.79750313 -18.84036417 -1.948981129
17.94086852 -14.35040824 -5.606698338
13.74877994 -19.07733596 -5.126995177
21.9721246 -3.332932474 -12.30645289
20.37260759 -9.260701242 -9.053690814
10.82151342 -18.06647567 -11.16569602
16.5623034 -14.08873677 -8.707318184
12.38491641 -18.7998011 -8.306329338
15.28491037 -16.58100996 -6.988446939
2.969470748 -10.96441411 -19.57602855
8.482608909 -8.292991681 -18.66088303
4.887107784 -13.10548716 -18.18472494
2.903966222 -7.901571394 -20.38769335
19.54181447 -2.021544132 -15.34843266
13.90719679 -5.433535816 -17.38676593
19.25317674 -5.174252027 -13.87550602
8.755990572 -16.65488378 -14.16749035
10.49527 -10.17175328 -16.98170358
6.885495978 -15.05973928 -16.33674526
11.87293681 -14.95353429 -13.04962034
7.782893581 -11.6044624 -17.61510353
2.873465002 -1.775899037 -21.3276045
8.502971795 -5.255125575 -19.61794618
2.881739928 -4.776776833 -20.97176136
5.773326795 -6.586064234 -20.03075564
17.80977493 -11.00704624 -10.66775402
13.67762447 -8.453236805 -16.07901189
18.63739378 -8.2345728 -12.27792587
14.94593538 -13.04298894 -11.86690336
16.4051886 -6.914342992 -15.12283256
12.83820192 -11.68058198 -14.71127034
3.133270027 11.56922328 -20.65586387
9.565910245 9.352077283 -21.04403657
5.45110926 14.61793878 -20.28335099
3.015327395 8.204580516 -21.16951975
20.5879635 2.12976522 -16.17009372
15.68310656 6.127383 -19.60700686
22.11675442 5.943832697 -15.93924802
17.63104541 0 -17.42345566
11.39167281 21.66824931 -18.43211379
12.64043457 12.25079315 -20.45265277
8.269592008 18.0869904 -19.62069522
16.27856289 20.50226092 -17.89187198
9.116726574 13.59323619 -20.63398154
2.897151333 1.790537994 -21.50341061
9.155060899 5.658138805 -21.12243769
2.946979955 4.884918808 -21.44654336
5.848981723 0 -21.16181467
6.150912821 7.01680476 -21.34080333
24.07981665 14.88214513 -14.42340298
16.57401132 10.24330232 -19.48391885
23.33400671 10.30968059 -15.37195639
20.71178614 18.07472003 -16.44492354
19.54359364 8.237095776 -18.01591566
16.64417705 15.14337254 -19.07252975
11.7535765 -3.540942495 -19.01768627
12.55566381 3.782583415 -20.3154908
14.59289851 -1.909092613 -18.35652467
8.894255477 -1.832317397 -20.32071132
15.20906194 1.989701209 -19.13160162
9.126775639 1.880219184 -20.85195029
25.47097829 32.42996488 3.354785979
27.68358122 22.14333668 8.651392138
22.25865187 30.88534268 8.30037293
29.18323738 29.53093769 0
24.05826012 3.649376556 13.47488466
26.57160278 12.07855567 11.80855592
15.37730972 25.67236034 15.86639126
24.3204945 20.6882483 12.78604062
18.76154858 28.47927024 12.583016
23.82880619 25.84939415 10.89482003
30.0219417 18.55458038 -5.589847664
30.0219417 18.55458038 5.589847664
30.39393264 24.16228465 -3.160992254
30.39393264 24.16228465 3.160992254
14.79750313 -18.84036417 1.948981129
17.94086852 -14.35040824 5.606698338
13.74877994 -19.07733596 5.126995177
16.72553008 -16.92480447 0
21.9721246 -3.332932474 12.30645289
20.37260759 -9.260701242 9.053690814
10.82151342 -18.06647567 11.16569602
16.5623034 -14.08873677 8.707318184
12.38491641 -18.7998011 8.306329338
15.28491037 -16.58100996 6.988446939
20.14691925 -12.45148087 -3.751196729
20.14691925 -12.45148087 3.751196729
18.55006656 -14.74675863 -1.929221118
18.55006656 -14.74675863 1.929221118
2.969470748 -10.96441411 19.57602855
8.482608909 -8.292991681 18.66088303
4.887107784 -13.10548716 18.18472494
2.903966222 -7.901571394 20.38769335
19.54181447 -2.021544132 15.34843266
13.90719679 -5.433535816 17.38676593
19.25317674 -5.174252027 13.87550602
8.755990572 -16.65488378 14.16749035
10.49527 -10.17175328 16.98170358
6.885495978 -15.05973928 16.33674526
11.87293681 -14.95353429 13.04962034
7.782893581 -11.6044624 17.61510353
2.873465002 -1.775899037 21.3276045
8.502971795 -5.255125575 19.61794618
2.881739928 -4.776776833 20.97176136
5.773326795 -6.586064234 20.03075564
17.80977493 -11.00704624 10.66775402
13.67762447 -8.453236805 16.07901189
18.63739378 -8.2345728 12.27792587
14.94593538 -13.04298894 11.86690336
16.4051886 -6.914342992 15.12283256
12.83820192 -11.68058198 14.71127034
3.133270027 11.56922328 20.65586387
9.565910245 9.352077283 21.04403657
5.45110926 14.61793878 20.28335099
3.015327395 8.204580516 21.16951975
20.5879635 2.12976522 16.17009372
15.68310656 6.127383 19.60700686
22.11675442 5.943832697 15.93924802
17.63104541 0 17.42345566
11.39167281 21.66824931 18.43211379
12.64043457 12.25079315 20.45265277
8.269592008 18.0869904 19.62069522
16.27856289 20.50226092 17.89187198
9.116726574 13.59323619 20.63398154
2.897151333 1.790537994 21.50341061
9.155060899 5.658138805 21.12243769
2.946979955 4.884918808 21.44654336
5.848981723 0 21.16181467
6.150912821 7.01680476 21.34080333
24.07981665 14.88214513 14.42340298
16.57401132 10.24330232 19.48391885
23.33400671 10.30968059 15.37195639
20.71178614 18.07472003 16.44492354
19.54359364 8.237095776 18.01591566
16.64417705 15.14337254 19.07252975
11.7535765 -3.540942495 19.01768627
12.55566381 3.782583415 20.3154908
14.59289851 -1.909092613 18.35652467
8.894255477 -1.832317397 20.32071132
15.20906194 1.989701209 19.13160162
9.126775639 1.880219184 20.85195029
24.7198957 0 -10.89664372
27.65873585 0 -3.852418049
26.43527239 3.765366526 -10.24540582
24.04456438 -3.42484074 -9.318849308
24.7198957 0 10.89664372
27.65873585 0 3.852418049
26.43527239 3.765366526 10.24540582
24.04456438 -3.42484074 9.318849308
29.01802534 12.57723152 -7.773156564
29.15504219 3.928054524 -2.427671206
27.90424335 8.042647951 -9.174848038
30.70445529 13.43915896 -2.768619006
28.21787696 3.877432197 -6.427237971
21.82271162 -9.458579392 -5.84572355
26.35656144 -3.551015627 -2.194648352
23.04083454 -6.640901112 -7.575770928
22.4889652 -9.843287413 -2.027828727
25.5664774 -3.513102095 -5.823323797
29.01802534 12.57723152 7.773156564
29.15504219 3.928054524 2.427671206
27.90424335 8.042647951 9.174848038
30.70445529 13.43915896 2.768619006
28.21787696 3.877432197 6.427237971
30.27216346 8.367020198 0
21.82271162 -9.458579392 5.84572355
26.35656144 -3.551015627 2.194648352
23.04083454 -6.640901112 7.575770928
22.4889652 -9.843287413 2.027828727
25.5664774 -3.513102095 5.823323797
24.65855159 -6.815456035 0
-14.79750313 18.84036417 -1.948981129
-17.94086852 14.35040824 -5.606698338
-13.74877994 19.07733596 -5.126995177
-21.9721246 3.332932474 -12.30645289
-20.37260759 9.260701242 -9.053690814
-10.82151342 18.06647567 -11.16569602
-16.5623034 14.08873677 -8.707318184
-12.38491641 18.7998011 -8.306329338
-15.28491037 16.58100996 -6.988446939
-25.47097829 -32.42996488 -3.354785979
-27.68358122 -22.14333668 -8.651392138
-22.25865187 -30.88534268 -8.30037293
-24.05826012 -3.649376556 -13.47488466
-26.57160278 -12.07855567 -11.80855592
-15.37730972 -25.67236034 -15.86639126
-24.3204945 -20.6882483 -12.78604062
-18.76154858 -28.47927024 -12.583016
-23.82880619 -25.84939415 -10.89482003
-3.133270027 -11.56922328 -20.65586387
-9.565910245 -9.352077283 -21.04403657
-5.45110926 -14.61793878 -20.28335099
-3.015327395 -8.204580516 -21.16951975
-20.5879635 -2.12976522 -16.17009372
-15.68310656 -6.127383 -19.60700686
-22.11675442 -5.943832697 -15.93924802
-11.39167281 -21.66824931 -18.43211379
-12.64043457 -12.25079315 -20.45265277
-8.269592008 -18.0869904 -19.62069522
-16.27856289 -20.50226092 -17.89187198
-9.116726574 -13.59323619 -20.63398154
-2.897151333 -1.790537994 -21.50341061
-9.155060899 -5.658138805 -21.12243769
-2.946979955 -4.884918808 -21.44654336
-6.150912821 -7.01680476 -21.34080333
-24.07981665 -14.88214513 -14.42340298
-16.57401132 -10.24330232 -19.48391885
-23.33400671 -10.30968059 -15.37195639
-20.71178614 -18.07472003 -16.44492354
-19.54359364 -8.237095776 -18.01591566
-16.64417705 -15.14337254 -19.07252975
-2.969470748 10.96441411 -19.57602855
-8.482608909 8.292991681 -18.66088303
-4.887107784 13.10548716 -18.18472494
-2.903966222 7.901571394 -20.38769335
-19.54181447 2.021544132 -15.34843266
-13.90719679 5.433535816 -17.38676593
-19.25317674 5.174252027 -13.87550602
-17.63104541 0 -17.42345566
-8.755990572 16.65488378 -14.16749035
-10.49527 10.17175328 -16.98170358
-6.885495978 15.05973928 -16.33674526
-11.87293681 14.95353429 -13.04962034
-7.782893581 11.6044624 -17.61510353
-2.873465002 1.775899037 -21.3276045
-8.502971795 5.255125575 -19.61794618
-2.881739928 4.776776833 -20.97176136
-5.848981723 0 -21.16181467
-5.773326795 6.586064234 -20.03075564
-17.80977493 11.00704624 -10.66775402
-13.67762447 8.453236805 -16.07901189
-18.63739378 8.2345728 -12.27792587
-14.94593538 13.04298894 -11.86690336
-16.4051886 6.914342992 -15.12283256
-12.83820192 11.68058198 -14.71127034
-12.55566381 -3.782583415 -20.3154908
-11.7535765 3.540942495 -19.01768627
-15.20906194 -1.989701209 -19.13160162
-9.126775639 -1.880219184 -20.85195029
-14.59289851 1.909092613 -18.35652467
-8.894255477 1.832317397 -20.32071132
-14.79750313 18.84036417 1.948981129
-17.94086852 14.35040824 5.606698338
-13.74877994 19.07733596 5.126995177
-16.72553008 16.92480447 0
-21.9721246 3.332932474 12.30645289
-20.37260759 9.260701242 9.053690814
-10.82151342 18.06647567 11.16569602
-16.5623034 14.08873677 8.707318184
-12.38491641 18.7998011 8.306329338
-15.28491037 16.58100996 6.988446939
-20.14691925 12.45148087 -3.751196729
-20.14691925 12.45148087 3.751196729
-18.55006656 14.74675863 -1.929221118
-18.55006656 14.74675863 1.929221118
-25.47097829 -32.42996488 3.354785979
-27.68358122 -22.14333668 8.651392138
-22.25865187 -30.88534268 8.30037293
-29.18323738 -29.53093769 0
-24.05826012 -3.649376556 13.47488466
-26.57160278 -12.07855567 11.80855592
-15.37730972 -25.67236034 15.86639126
-24.3204945 -20.6882483 12.78604062
-18.76154858 -28.47927024 12.583016
-23.82880619 -25.84939415 10.89482003
-30.0219417 -18.55458038 -5.589847664
-30.0219417 -18.55458038 5.589847664
-30.39393264 -24.16228465 -3.160992254
-30.39393264 -24.16228465 3.160992254
-3.133270027 -11.56922328 20.65586387
-9.565910245 -9.352077283 21.04403657
-5.45110926 -14.61793878 20.28335099
-3.015327395 -8.204580516 21.16951975
-20.5879635 -2.12976522 16.17009372
-15.68310656 -6.127383 19.60700686
-22.11675442 -5.943832697 15.93924802
-11.39167281 -21.66824931 18.43211379
-12.64043457 -12.25079315 20.45265277
-8.269592008 -18.0869904 19.62069522
-16.27856289 -20.50226092 17.89187198
-9.116726574 -13.59323619 20.63398154
-2.897151333 -1.790537994 21.50341061
-9.155060899 -5.658138805 21.12243769
-2.946979955 -4.884918808 21.44654336
-6.150912821 -7.01680476 21.34080333
-24.07981665 -14.88214513 14.42340298
-16.57401132 -10.24330232 19.48391885
-23.33400671 -10.30968059 15.37195639
-20.71178614 -18.07472003 16.44492354
-19.54359364 -8.237095776 18.01591566
-16.64417705 -15.14337254 19.07252975
-2.969470748 10.96441411 19.57602855
-8.482608909 8.292991681 18.66088303
-4.887107784 13.10548716 18.18472494
-2.903966222 7.901571394 20.38769335
-19.54181447 2.021544132 15.34843266
-13.90719679 5.433535816 17.38676593
-19.25317674 5.174252027 13.87550602
-17.63104541 0 17.42345566
-8.755990572 16.65488378 14.16749035
-10.49527 10.17175328 16.98170358
-6.885495978 15.05973928 16.33674526
-11.87293681 14.95353429 13.04962034
-7.782893581 11.6044624 17.61510353
-2.873465002 1.775899037 21.3276045
-8.502971795 5.255125575 19.61794618
-2.881739928 4.776776833 20.97176136
-5.848981723 0 21.16181467
-5.773326795 6.586064234 20.03075564
-17.80977493 11.00704624 10.66775402
-13.67762447 8.453236805 16.07901189
-18.63739378 8.2345728 12.27792587
-14.94593538 13.04298894 11.86690336
-16.4051886 6.914342992 15.12283256
-12.83820192 11.68058198 14.71127034
-12.55566381 -3.782583415 20.3154908
-11.7535765 3.540942495 19.01768627
-15.20906194 -1.989701209 19.13160162
-9.126775639 -1.880219184 20.85195029
-14.59289851 1.909092613 18.35652467
-8.894255477 1.832317397 20.32071132
-24.7198957 0 -10.89664372
-27.65873585 0 -3.852418049
-24.04456438 3.42484074 -9.318849308
-26.43527239 -3.765366526 -10.24540582
-24.7198957 0 10.89664372
-27.65873585 0 3.852418049
-24.04456438 3.42484074 9.318849308
-26.43527239 -3.765366526 10.24540582
-21.82271162 9.458579392 -5.84572355
-26.35656144 3.551015627 -2.194648352
-23.04083454 6.640901112 -7.575770928
-22.4889652 9.843287413 -2.027828727
-25.5664774 3.513102095 -5.823323797
-29.01802534 -12.57723152 -7.773156564
-29.15504219 -3.928054524 -2.427671206
-27.90424335 -8.042647951 -9.174848038
-30.70445529 -13.43915896 -2.768619006
-28.21787696 -3.877432197 -6.427237971
-21.82271162 9.458579392 5.84572355
-26.35656144 3.551015627 2.194648352
-23.04083454 6.640901112 7.575770928
-22.4889652 9.843287413 2.027828727
-25.5664774 3.513102095 5.823323797
-24.65855159 6.815456035 0
-29.01802534 -12.57723152 7.773156564
-29.15504219 -3.928054524 2.427671206
-27.90424335 -8.042647951 9.174848038
-30.70445529 -13.43915896 2.768619006
-28.21787696 -3.877432197 6.427237971
-30.27216346 -8.367020198 0
-11.67146759 22.18118965 0
-8.956347208 24.84533988 0
-2.142486858 30.9127933 0
-5.845421017 27.75278697 0
18.84603529 35.81618844 0
13.23073074 36.70268631 0
2.359012457 34.03692498 0
7.631906359 36.23463061 0
-18.84603529 -35.81618844 0
-13.23073074 -36.70268631 0
-2.359012457 -34.03692498 0
-7.631906359 -36.23463061 0
11.67146759 -22.18118965 0
8.956347208 -24.84533988 0
2.142486858 -30.9127933 0
5.845421017 -27.75278697 0
-20.60691399 -34.99679865 2.676408476
-17.87944089 -33.63548625 7.614376031
-17.83910706 -35.76619983 2.636298195
-11.62038423 -28.07909911 15.01037585
-14.81696397 -31.25909949 11.78697016
-12.22818086 -36.52492621 2.549354897
-15.25302902 -34.40999239 7.539642996
-15.02663927 -36.29174728 2.597661458
-16.6067733 -35.26100015 5.180181562
-0.979549346 -13.78816639 19.74522838
-3.130195539 -16.95741508 19.24271564
-8.469832717 -24.31389117 17.16639237
-5.610075934 -20.48802331 18.46294861
-1.376564695 -33.26969329 2.227328465
-4.21748599 -33.41459735 6.824035679
-3.857804634 -34.65672929 2.331401732
-9.120143357 -28.30861819 14.75670193
-6.891381072 -31.64595981 11.1504888
-10.66594452 -30.15165691 13.37860304
-9.302531783 -36.35783918 2.503744238
-6.851095349 -34.33722094 7.085349591
-6.538515682 -35.73267633 2.424853976
-10.97818227 -35.88928578 5.019759064
-5.379295609 -34.76516948 4.729994685
-13.73000392 -33.2239171 9.786028974
-8.283823155 -33.35726551 9.413349793
-12.22410789 -31.81489546 11.70714414
-12.47566635 -34.81804648 7.486260895
-9.544983952 -31.94857356 11.49547392
-9.640657143 -34.81145834 7.338540099
12.50765246 -21.24179267 1.624483272
11.44009426 -21.52154172 4.872030398
11.23127265 -22.51793997 1.659779478
8.498856997 -20.53634744 10.97821167
10.08871235 -21.28398665 8.025621963
8.444031108 -25.22187204 1.760428006
10.10539336 -22.79721018 4.995142811
9.874485894 -23.84846938 1.707006535
10.70399339 -22.72768501 3.338916489
0.959593957 -13.50727373 19.34297839
2.903524207 -15.72945349 17.84926532
0 -15.00975189 19.11060192
6.729497979 -19.31800626 13.63913629
4.844250619 -17.69122571 15.94259174
-2.102287186 -18.28041986 18.49821981
1.989269051 -17.29767166 17.50376277
-1.021289424 -16.60724821 18.83123593
0.9956916866 -16.19100187 18.35924727
1.299682124 -31.41154627 2.102929851
3.595157019 -28.48396521 5.817086252
3.318312546 -29.81018235 2.005368429
0 -31.87012346 4.293857022
6.984618748 -21.68002164 11.30135053
5.469952471 -25.11860747 8.850569014
7.840319722 -22.1638721 9.834340034
6.837085455 -26.72193541 1.84017789
5.39011858 -27.01490538 5.574418765
5.165394856 -28.22863651 1.915622576
7.794863199 -25.4825495 3.564190706
4.406946815 -28.48109939 3.875011996
-2.674202414 -31.52088229 8.712157594
2.411248636 -28.42144036 7.855492913
-1.344981126 -31.91535388 6.532968297
1.273082879 -30.20926451 6.183737396
9.39386439 -22.73130974 6.695455417
6.30893844 -25.40480774 7.169183027
8.651627469 -22.51703159 8.28574574
8.64834372 -24.13646094 5.189603149
7.110430185 -23.79973638 8.563426104
7.075224105 -25.54793366 5.385713342
-7.329345155 -25.96945021 16.0500029
-2.281178509 -24.65621675 15.23837999
-5.901156501 -23.97572726 16.88651769
-6.347704605 -27.81252927 14.54653806
5.910310669 -20.94150506 12.9425619
2.11455649 -22.85527545 14.12533705
4.970376822 -20.19407536 14.22303511
5.192495842 -22.75097088 11.89923651
-3.302778742 -20.13636477 18.06398065
-1.130088961 -22.71345055 15.96030662
-4.550899004 -22.00679198 17.54793595
-1.072391694 -19.60118381 17.59773007
-3.432985003 -23.41457289 16.46578181
-4.024050656 -30.64336281 10.89053843
-1.215860823 -26.04761158 13.66658764
-5.232049524 -29.40356658 12.80781581
-1.288793301 -29.38239152 10.42655683
-3.679342836 -27.01679885 14.16003111
3.015524875 -18.38503685 16.492895
1.089520971 -21.89808197 15.38736274
3.997848579 -19.33240486 15.41541369
1.039907296 -19.00743373 17.06466768
3.087980758 -21.06148162 14.81102229
0 -20.82219165 16.55303142
3.476976312 -26.47736217 9.409957128
1.16400049 -24.93659806 13.08366419
4.379701546 -24.61346083 10.72130729
1.22578441 -27.94589126 9.916804187
3.247835386 -23.84831184 12.49936529
0 -27.14117881 11.87953386
-12.50765246 21.24179267 1.624483272
-11.44009426 21.52154172 4.872030398
-11.23127265 22.51793997 1.659779478
-8.498856997 20.53634744 10.97821167
-10.08871235 21.28398665 8.025621963
-8.444031108 25.22187204 1.760428006
-10.10539336 22.79721018 4.995142811
-9.874485894 23.84846938 1.707006535
-10.70399339 22.72768501 3.338916489
-0.959593957 13.50727373 19.34297839
-2.903524207 15.72945349 17.84926532
-6.729497979 19.31800626 13.63913629
-4.844250619 17.69122571 15.94259174
-1.299682124 31.41154627 2.102929851
-3.595157019 28.48396521 5.817086252
-3.318312546 29.81018235 2.005368429
-6.984618748 21.68002164 11.30135053
-5.469952471 25.11860747 8.850569014
-7.840319722 22.1638721 9.834340034
-6.837085455 26.72193541 1.84017789
-5.39011858 27.01490538 5.574418765
-5.165394856 28.22863651 1.915622576
-7.794863199 25.4825495 3.564190706
-4.406946815 28.48109939 3.875011996
-9.39386439 22.73130974 6.695455417
-6.30893844 25.40480774 7.169183027
-8.651627469 22.51703159 8.28574574
-8.64834372 24.13646094 5.189603149
-7.110430185 23.79973638 8.563426104
-7.075224105 25.54793366 5.385713342
20.60691399 34.99679865 2.676408476
17.87944089 33.63548625 7.614376031
17.83910706 35.76619983 2.636298195
11.62038423 28.07909911 15.01037585
14.81696397 31.25909949 11.78697016
12.22818086 36.52492621 2.549354897
15.25302902 34.40999239 7.539642996
15.02663927 36.29174728 2.597661458
16.6067733 35.26100015 5.180181562
0.979549346 13.78816639 19.74522838
3.130195539 16.95741508 19.24271564
0 15.00975189 19.11060192
8.469832717 24.31389117 17.16639237
5.610075934 20.48802331 18.46294861
-1.989269051 17.29767166 17.50376277
2.102287186 18.28041986 18.49821981
-0.9956916866 16.19100187 18.35924727
1.021289424 16.60724821 18.83123593
1.376564695 33.26969329 2.227328465
4.21748599 33.41459735 6.824035679
3.857804634 34.65672929 2.331401732
0 31.87012346 4.293857022
9.120143357 28.30861819 14.75670193
6.891381072 31.64595981 11.1504888
10.66594452 30.15165691 13.37860304
9.302531783 36.35783918 2.503744238
6.851095349 34.33722094 7.085349591
6.538515682 35.73267633 2.424853976
10.97818227 35.88928578 5.019759064
5.379295609 34.76516948 4.729994685
-2.411248636 28.42144036 7.855492913
2.674202414 31.52088229 8.712157594
-1.273082879 30.20926451 6.183737396
1.344981126 31.91535388 6.532968297
13.73000392 33.2239171 9.786028974
8.283823155 33.35726551 9.413349793
12.22410789 31.81489546 11.70714414
12.47566635 34.81804648 7.486260895
9.544983952 31.94857356 11.49547392
9.640657143 34.81145834 7.338540099
-5.910310669 20.94150506 12.9425619
-2.11455649 22.85527545 14.12533705
-4.970376822 20.19407536 14.22303511
-5.192495842 22.75097088 11.89923651
7.329345155 25.96945021 16.0500029
2.281178509 24.65621675 15.23837999
5.901156501 23.97572726 16.88651769
6.347704605 27.81252927 14.54653806
-3.015524875 18.38503685 16.492895
-1.089520971 21.89808197 15.38736274
-3.997848579 19.33240486 15.41541369
-1.039907296 19.00743373 17.06466768
-3.087980758 21.06148162 14.81102229
-3.476976312 26.47736217 9.409957128
-1.16400049 24.93659806 13.08366419
-4.379701546 24.61346083 10.72130729
-1.22578441 27.94589126 9.916804187
-3.247835386 23.84831184 12.49936529
3.302778742 20.13636477 18.06398065
1.130088961 22.71345055 15.96030662
4.550899004 22.00679198 17.54793595
1.072391694 19.60118381 17.59773007
3.432985003 23.41457289 16.46578181
0 20.82219165 16.55303142
4.024050656 30.64336281 10.89053843
1.215860823 26.04761158 13.66658764
5.232049524 29.40356658 12.80781581
1.288793301 29.38239152 10.42655683
3.679342836 27.01679885 14.16003111
0 27.14117881 11.87953386
0 -10.70256575 20.33982776
0 -7.552051353 20.94975533
0 -1.491148706 21.51498459
0 -4.492916098 21.33138793
0 10.70256575 20.33982776
0 7.552051353 20.94975533
0 1.491148706 21.51498459
0 4.492916098 21.33138793
-20.60691399 -34.99679865 -2.676408476
-17.87944089 -33.63548625 -7.614376031
-17.83910706 -35.76619983 -2.636298195
-11.62038423 -28.07909911 -15.01037585
-14.81696397 -31.25909949 -11.78697016
-12.22818086 -36.52492621 -2.549354897
-15.25302902 -34.40999239 -7.539642996
-15.02663927 -36.29174728 -2.597661458
-16.6067733 -35.26100015 -5.180181562
-0.979549346 -13.78816639 -19.74522838
-3.130195539 -16.95741508 -19.24271564
-8.469832717 -24.31389117 -17.16639237
-5.610075934 -20.48802331 -18.46294861
-1.376564695 -33.26969329 -2.227328465
-4.21748599 -33.41459735 -6.824035679
-3.857804634 -34.65672929 -2.331401732
-9.120143357 -28.30861819 -14.75670193
-6.891381072 -31.64595981 -11.1504888
-10.66594452 -30.15165691 -13.37860304
-9.302531783 -36.35783918 -2.503744238
-6.851095349 -34.33722094 -7.085349591
-6.538515682 -35.73267633 -2.424853976
-10.97818227 -35.88928578 -5.019759064
-5.379295609 -34.76516948 -4.729994685
-13.73000392 -33.2239171 -9.786028974
-8.283823155 -33.35726551 -9.413349793
-12.22410789 -31.81489546 -11.70714414
-12.47566635 -34.81804648 -7.486260895
-9.544983952 -31.94857356 -11.49547392
-9.640657143 -34.81145834 -7.338540099
12.50765246 -21.24179267 -1.624483272
11.44009426 -21.52154172 -4.872030398
11.23127265 -22.51793997 -1.659779478
8.498856997 -20.53634744 -10.97821167
10.08871235 -21.28398665 -8.025621963
8.444031108 -25.22187204 -1.760428006
10.10539336 -22.79721018 -4.995142811
9.874485894 -23.84846938 -1.707006535
10.70399339 -22.72768501 -3.338916489
0.959593957 -13.50727373 -19.34297839
2.903524207 -15.72945349 -17.84926532
0 -15.00975189 -19.11060192
6.729497979 -19.31800626 -13.63913629
4.844250619 -17.69122571 -15.94259174
-2.102287186 -18.28041986 -18.49821981
1.989269051 -17.29767166 -17.50376277
-1.021289424 -16.60724821 -18.83123593
0.9956916866 -16.19100187 -18.35924727
1.299682124 -31.41154627 -2.102929851
3.595157019 -28.48396521 -5.817086252
3.318312546 -29.81018235 -2.005368429
0 -31.87012346 -4.293857022
6.984618748 -21.68002164 -11.30135053
5.469952471 -25.11860747 -8.850569014
7.840319722 -22.1638721 -9.834340034
6.837085455 -26.72193541 -1.84017789
5.39011858 -27.01490538 -5.574418765
5.165394856 -28.22863651 -1.915622576
7.794863199 -25.4825495 -3.564190706
4.406946815 -28.48109939 -3.875011996
-2.674202414 -31.52088229 -8.712157594
2.411248636 -28.42144036 -7.855492913
-1.344981126 -31.91535388 -6.532968297
1.273082879 -30.20926451 -6.183737396
9.39386439 -22.73130974 -6.695455417
6.30893844 -25.40480774 -7.169183027
8.651627469 -22.51703159 -8.28574574
8.64834372 -24.13646094 -5.189603149
7.110430185 -23.79973638 -8.563426104
7.075224105 -25.54793366 -5.385713342
-7.329345155 -25.96945021 -16.0500029
-2.281178509 -24.65621675 -15.23837999
-5.901156501 -23.97572726 -16.88651769
-6.347704605 -27.81252927 -14.54653806
5.910310669 -20.94150506 -12.9425619
2.11455649 -22.85527545 -14.12533705
4.970376822 -20.19407536 -14.22303511
5.192495842 -22.75097088 -11.89923651
-3.302778742 -20.13636477 -18.06398065
-1.130088961 -22.71345055 -15.96030662
-4.550899004 -22.00679198 -17.54793595
-1.072391694 -19.60118381 -17.59773007
-3.432985003 -23.41457289 -16.46578181
-4.024050656 -30.64336281 -10.89053843
-1.215860823 -26.04761158 -13.66658764
-5.232049524 -29.40356658 -12.80781581
-1.288793301 -29.38239152 -10.42655683
-3.679342836 -27.01679885 -14.16003111
3.015524875 -18.38503685 -16.492895
1.089520971 -21.89808197 -15.38736274
3.997848579 -19.33240486 -15.41541369
1.039907296 -19.00743373 -17.06466768
3.087980758 -21.06148162 -14.81102229
0 -20.82219165 -16.55303142
3.476976312 -26.47736217 -9.409957128
1.16400049 -24.93659806 -13.08366419
4.379701546 -24.61346083 -10.72130729
1.22578441 -27.94589126 -9.916804187
3.247835386 -23.84831184 -12.49936529
0 -27.14117881 -11.87953386
-12.50765246 21.24179267 -1.624483272
-11.44009426 21.52154172 -4.872030398
-11.23127265 22.51793997 -1.659779478
-8.498856997 20.53634744 -10.97821167
-10.08871235 21.28398665 -8.025621963
-8.444031108 25.22187204 -1.760428006
-10.10539336 22.79721018 -4.995142811
-9.874485894 23.84846938 -1.707006535
-10.70399339 22.72768501 -3.338916489
-0.959593957 13.50727373 -19.34297839
-2.903524207 15.72945349 -17.84926532
-6.729497979 19.31800626 -13.63913629
-4.844250619 17.69122571 -15.94259174
-1.299682124 31.41154627 -2.102929851
-3.595157019 28.48396521 -5.817086252
-3.318312546 29.81018235 -2.005368429
-6.984618748 21.68002164 -11.30135053
-5.469952471 25.11860747 -8.850569014
-7.840319722 22.1638721 -9.834340034
-6.837085455 26.72193541 -1.84017789
-5.39011858 27.01490538 -5.574418765
-5.165394856 28.22863651 -1.915622576
-7.794863199 25.4825495 -3.564190706
-4.406946815 28.48109939 -3.875011996
-9.39386439 22.73130974 -6.695455417
-6.30893844 25.40480774 -7.169183027
-8.651627469 22.51703159 -8.28574574
-8.64834372 24.13646094 -5.189603149
-7.110430185 23.79973638 -8.563426104
-7.075224105 25.54793366 -5.385713342
20.60691399 34.99679865 -2.676408476
17.87944089 33.63548625 -7.614376031
17.83910706 35.76619983 -2.636298195
11.62038423 28.07909911 -15.01037585
14.81696397 31.25909949 -11.78697016
12.22818086 36.52492621 -2.549354897
15.25302902 34.40999239 -7.539642996
15.02663927 36.29174728 -2.597661458
16.6067733 35.26100015 -5.180181562
0.979549346 13.78816639 -19.74522838
3.130195539 16.95741508 -19.24271564
0 15.00975189 -19.11060192
8.469832717 24.31389117 -17.16639237
5.610075934 20.48802331 -18.46294861
-1.989269051 17.29767166 -17.50376277
2.102287186 18.28041986 -18.49821981
-0.9956916866 16.19100187 -18.35924727
1.021289424 16.60724821 -18.83123593
1.376564695 33.26969329 -2.227328465
4.21748599 33.41459735 -6.824035679
3.857804634 34.65672929 -2.331401732
0 31.87012346 -4.293857022
9.120143357 28.30861819 -14.75670193
6.891381072 31.64595981 -11.1504888
10.66594452 30.15165691 -13.37860304
9.302531783 36.35783918 -2.503744238
6.851095349 34.33722094 -7.085349591
6.538515682 35.73267633 -2.424853976
10.97818227 35.88928578 -5.019759064
5.379295609 34.76516948 -4.729994685
-2.411248636 28.42144036 -7.855492913
2.674202414 31.52088229 -8.712157594
-1.273082879 30.20926451 -6.183737396
1.344981126 31.91535388 -6.532968297
13.73000392 33.2239171 -9.786028974
8.283823155 33.35726551 -9.413349793
12.22410789 31.81489546 -11.70714414
12.47566635 34.81804648 -7.486260895
9.544983952 31.94857356 -11.49547392
9.640657143 34.81145834 -7.338540099
-5.910310669 20.94150506 -12.9425619
-2.11455649 22.85527545 -14.12533705
-4.970376822 20.19407536 -14.22303511
-5.192495842 22.75097088 -11.89923651
7.329345155 25.96945021 -16.0500029
2.281178509 24.65621675 -15.23837999
5.901156501 23.97572726 -16.88651769
6.347704605 27.81252927 -14.54653806
-3.015524875 18.38503685 -16.492895
-1.089520971 21.89808197 -15.38736274
-3.997848579 19.33240486 -15.41541369
-1.039907296 19.00743373 -17.06466768
-3.087980758 21.06148162 -14.81102229
-3.476976312 26.47736217 -9.409957128
-1.16400049 24.93659806 -13.08366419
-4.379701546 24.61346083 -10.72130729
-1.22578441 27.94589126 -9.916804187
-3.247835386 23.84831184 -12.49936529
3.302778742 20.13636477 -18.06398065
1.130088961 22.71345055 -15.96030662
4.550899004 22.00679198 -17.54793595
1.072391694 19.60118381 -17.59773007
3.432985003 23.41457289 -16.46578181
0 20.82219165 -16.55303142
4.024050656 30.64336281 -10.89053843
1.215860823 26.04761158 -13.66658764
5.232049524 29.40356658 -12.80781581
1.288793301 29.38239152 -10.42655683
3.679342836 27.01679885 -14.16003111
0 27.14117881 -11.87953386
0 -10.70256575 -20.33982776
0 -7.552051353 -20.94975533
0 -1.491148706 -21.51498459
0 -4.492916098 -21.33138793
0 10.70256575 -20.33982776
0 7.552051353 -20.94975533
0 1.491148706 -21.51498459
0 4.492916098 -21.33138793
23.74593955 34.00517417 -1.686976999
26.67636083 30.27145491 -4.924230804
22.46412356 33.6685542 -4.334973964
27.55099048 19.45188903 -9.597488078
27.65419029 24.92079818 -7.572331651
19.35913652 31.88164275 -9.108402535
24.98471237 29.52062672 -7.379583581
20.94913612 32.89292349 -6.83075245
23.94885801 31.8100856 -5.934464568
23.22947407 1.776492814 -13.67804464
24.81591793 5.6178088 -13.19126872
26.9818401 14.42380895 -11.16628949
26.07577509 9.832477193 -12.36004319
12.73203083 26.14716971 -16.15983959
17.8957558 24.8417421 -15.35304096
14.39198675 27.80814353 -14.79151993
25.9687774 18.86695108 -11.66041703
22.40014161 22.31018555 -13.78845297
26.03041318 21.45866135 -10.81228842
17.68509363 30.64366042 -11.28194357
19.60878839 26.14090935 -13.70383449
16.0539431 29.31638571 -13.146496
20.51194622 29.73118624 -10.5481584
17.08154822 27.14044887 -14.34301893
25.62490811 26.83172205 -8.724337863
22.03765642 24.80849242 -12.86954288
25.93724963 24.14922543 -9.833770232
23.20378477 28.46454918 -9.692062712
24.16499303 23.26035035 -11.91289413
21.39793148 27.32385733 -11.80958203
13.8898983 -19.89091271 -0.9867766614
15.65339173 -17.76295293 -2.889483847
13.4380865 -20.14060074 -2.593190646
18.61554483 -13.14317583 -6.484792976
17.22294185 -15.52059393 -4.716024094
12.30934132 -20.27166977 -5.791499823
15.12916388 -17.87582714 -4.468609752
12.90833637 -20.26780093 -4.20893968
14.3145085 -19.01325486 -3.547097882
22.20081853 -1.69782555 -13.07234878
21.66756484 -4.905087 -11.51771501
19.83321652 -10.60233568 -8.207870046
20.8614308 -7.866287459 -9.888418845
9.264088175 -19.02521986 -11.75823252
12.31930092 -17.10086457 -10.56891554
10.09752016 -19.51039108 -10.37783548
17.91686083 -13.01703702 -8.044971311
15.18134223 -15.12037594 -9.344906251
17.2995302 -14.26119353 -7.185729584
11.61968717 -20.13389101 -7.412607343
13.09967189 -17.46346222 -9.154861165
10.88905182 -19.88468758 -8.916991624
13.1062901 -18.99700533 -6.739839432
11.63345013 -18.48410076 -9.768364862
15.91859557 -16.66828735 -5.419695768
14.56616651 -16.39759803 -8.506344819
16.63036697 -15.48392704 -6.305186938
14.54217814 -17.83918223 -6.074168673
15.94461399 -15.3477101 -7.860399471
13.86033105 -17.69879993 -7.649557934
1.511513874 -11.63784851 -19.76460139
4.385287154 -10.29716449 -19.37141864
2.465216275 -12.77491479 -19.14665889
1.487855831 -10.06791246 -20.1854817
9.828497625 -7.608798071 -18.38563948
7.132394189 -8.965868776 -18.91514245
4.400981797 -14.90019906 -17.60529431
5.341641619 -11.35320589 -18.69705573
3.436953663 -13.87001545 -18.42285668
3.930896886 -12.05561094 -18.92890885
1.454210038 -6.975232588 -20.83464894
4.344229419 -8.78856697 -19.82652247
1.470329445 -8.505384757 -20.54187024
2.940137995 -9.425577957 -20.01323796
20.95657096 -1.03964335 -14.63405142
18.118797 -2.947368688 -15.9669751
20.83326008 -2.682373572 -13.90023836
12.53534441 -6.184891264 -17.75463319
15.29564408 -4.647671753 -16.97331878
20.34671401 -5.812939531 -12.3549096
18.03166302 -4.507565699 -15.26105521
20.62467695 -4.28305081 -13.13562672
19.430433 -3.624926308 -14.6285894
8.220425256 -18.30761224 -13.30092747
9.246143492 -15.0208964 -14.96057443
7.308581069 -17.5952932 -14.50501134
9.819648857 -17.4222219 -12.72357336
10.8498885 -8.54842117 -17.55548837
10.1117052 -11.78636907 -16.3610827
9.505483505 -9.248731257 -17.8703643
5.41255259 -15.8976148 -16.64631849
8.309538546 -14.22915773 -16.0182165
6.3638811 -16.78517688 -15.62806489
5.894817474 -14.11279311 -17.31244698
7.835100094 -15.89329486 -15.29831216
12.86194815 -15.59057327 -11.55864152
10.81403392 -14.2201255 -14.42843547
11.37266935 -16.51191518 -12.14057049
10.33813619 -15.81087369 -13.61588074
6.786002086 -10.63744749 -18.43192551
8.755023612 -12.52754516 -16.70074743
8.145144542 -9.946504911 -18.16348623
6.353101278 -12.35423918 -17.90693978
9.146529271 -10.89288674 -17.30743794
7.351245283 -13.31981457 -17.00859326
1.438383187 -0.8889696981 -21.48518649
4.301732059 -2.658616623 -21.06387648
1.439474046 -2.381918812 -21.39805493
9.857432567 -6.092228368 -18.91007192
7.121455296 -4.401301422 -20.21124742
8.504005508 -6.779725113 -19.16566743
1.451627229 -5.393445637 -21.07964086
4.300907301 -4.158711667 -20.84317822
1.442915997 -3.890761657 -21.26282688
2.89637551 -6.334355463 -20.70793579
2.88075869 -3.2762093 -21.17339887
5.778900095 -8.107918048 -19.61957176
5.753382051 -5.06302225 -20.38775748
7.139534485 -7.45480185 -19.40213091
4.347298571 -7.24466423 -20.21896456
7.136997939 -5.926030651 -19.83536349
4.333975878 -5.69355416 -20.5588603
18.59057945 -11.48960997 -9.052445569
16.91570738 -10.4544821 -12.18591543
19.10397986 -10.16165996 -9.887183759
17.21472998 -12.57204052 -9.702700637
12.45404285 -7.697021777 -17.14194652
14.83711031 -9.169838466 -14.89693446
13.81193678 -6.959364411 -16.75455963
12.08675586 -9.328173383 -16.55023606
19.97747967 -7.355022056 -11.52941893
17.28341704 -9.060476179 -12.96461661
19.57105855 -8.776349362 -10.71730546
18.97372684 -6.73158059 -13.09022995
18.24622542 -9.642653954 -11.48373709
14.38409429 -14.59480623 -10.9387279
15.45767942 -11.4601158 -12.75231306
15.80437021 -13.61028012 -10.33388381
13.42375645 -14.0125597 -12.47105279
16.3853696 -12.04752643 -11.28551042
16.57794434 -5.390320726 -15.83231593
16.18538088 -8.396255996 -14.37765169
15.19417092 -6.187195781 -16.31915712
17.82933978 -6.070817358 -14.53415475
15.03846976 -7.702020628 -15.62334666
17.57628472 -7.596605914 -13.76438661
11.27913139 -12.55092157 -15.21356331
14.38317531 -10.78011167 -14.17551878
11.69374578 -10.95410668 -15.90420637
12.37782961 -13.32341165 -13.90781349
13.27561234 -10.07978045 -15.41575121
13.93347142 -12.40066494 -13.34799145
1.554958638 11.97234996 -20.33268645
4.730655088 11.10812858 -20.89703523
2.595573703 13.45043566 -20.15910929
1.524250004 10.31418186 -20.67923513
11.15785557 8.637929536 -20.87239757
7.956196855 10.00144062 -21.09987094
4.918892159 16.65366404 -19.67709664
5.923825949 12.59058927 -20.73484367
3.720922718 15.01598818 -19.94499568
4.255847825 13.05219828 -20.49368323
1.478221367 7.090404814 -21.17866226
4.630005561 9.366704659 -21.13076921
1.500318025 8.678859089 -20.96083862
3.077293096 9.865273679 -20.94683961
21.53145062 1.068162797 -15.03549202
19.52160915 3.1755629 -17.20318667
22.37594852 2.881001473 -14.92954136
20.09960427 0 -15.78652909
14.23161938 7.021826886 -20.15717906
17.05762112 5.183058881 -18.92855506
23.87208794 6.820118651 -14.49558334
20.25843328 5.064215033 -17.14567693
23.16485851 4.810560972 -14.75344003
21.37875463 3.98840366 -16.09542223
17.18812042 -1.953396904 -16.98574572
18.01964255 2.047897799 -17.80747743
18.63704436 -1.010757678 -16.43599085
19.11089618 1.036456461 -16.8538803
10.77785292 24.00322927 -17.43893235
11.87275379 19.28797718 -19.21051917
9.193922758 22.13422347 -18.24676398
13.37761346 23.73483549 -17.33372025
12.7144298 10.01745786 -20.57237957
12.48412463 14.55169997 -20.19973796
11.06462667 10.76576046 -20.80156251
6.28144672 18.44970902 -19.31860447
10.26332796 17.57480413 -19.78451731
7.680214675 20.25709779 -18.8606436
6.81118672 16.30667437 -20.00372522
9.791361225 19.86151922 -19.11798174
18.28761251 22.16727664 -16.43452102
14.24211651 18.72794978 -19.00229466
15.9170093 23.10981699 -16.99175166
13.88067062 21.2287327 -18.28158888
7.68626553 12.04866207 -20.87719278
10.6347686 15.21726837 -20.28647692
9.372785652 11.44564815 -20.90109785
7.279960533 14.15660946 -20.51939819
10.89284017 12.97262282 -20.61187908
8.736436082 15.82965935 -20.21351242
1.441335606 0.8907943939 -21.5292869
4.382024052 2.708239804 -21.45703454
1.447432032 2.395087009 -21.51635191
2.889594837 0 -21.44732433
10.89415127 6.732955766 -20.89886821
7.497221259 4.633537559 -21.27770063
9.369942167 7.470083616 -21.11724824
1.470081046 5.462009836 -21.34761588
4.428240669 4.281835168 -21.46026478
1.456027268 3.926115641 -21.45603471
2.984507938 6.527100542 -21.33804769
2.925088762 3.326624697 -21.49922216
5.792289273 -1.777946942 -20.95669946
5.88877396 1.80756298 -21.30578434
4.350990957 -0.8957644442 -21.25579213
4.378189766 0.9013640252 -21.38866583
6.253192818 8.773360686 -21.22981246
6.036221854 5.311923541 -21.39003219
7.81061313 8.155513967 -21.22582905
4.580288455 7.632936038 -21.3025833
7.657611819 6.358309578 -21.28226954
4.513516046 5.929416495 -21.41053584
25.73987392 15.90811695 -12.53370333
22.32488074 13.79753509 -16.08263271
25.4320846 13.52766271 -13.16226753
24.28279359 17.73389797 -13.68645788
14.61926706 9.035203933 -20.12219623
18.54163583 11.45936115 -18.61639686
16.15092176 8.137899261 -19.59186362
14.65814687 11.31269111 -20.07120801
24.50502753 9.02190972 -14.14236095
21.98618502 11.52580564 -16.49225143
25.01881399 11.21931405 -13.70055027
22.77149725 8.078969943 -15.71036296
23.75872844 12.55586793 -14.95317441
20.57769784 20.87913959 -15.64880158
20.67091367 15.32513762 -17.05313943
22.54194885 19.41249377 -14.73933331
18.59460373 19.4102147 -17.27491747
22.5109187 16.55140498 -15.50451492
18.96820264 6.167513521 -18.11506727
20.05059563 10.40135756 -17.81116442
17.61347589 7.172357366 -18.91758899
20.90420875 7.117797682 -17.04073223
18.11499251 9.277675735 -18.81952168
21.48749283 9.287060249 -16.82734226
14.49153272 16.12554054 -19.54652736
18.64842543 13.97689345 -18.37918952
14.6207121 13.69593996 -19.8850588
16.53973193 17.80325502 -18.58415523
16.66501051 12.65325039 -19.35154849
18.70861664 16.65050147 -17.9224866
11.47857519 -5.241770982 -18.5727248
12.00140538 -1.796604892 -19.41868182
12.85686699 -4.492956192 -18.25436967
10.11523594 -4.414007611 -19.34001714
12.6621123 5.782241413 -20.48772807
12.40631182 1.857219201 -20.07383421
14.09389896 4.925248948 -20.01072594
10.87741526 4.74660147 -20.79728036
15.68447139 -2.867714469 -17.48386711
13.43506586 -0.9512862114 -19.11972692
14.26692614 -3.699998687 -17.8920915
16.09907544 -0.9810648719 -17.93191143
13.1589467 -2.743536093 -18.71220695
7.293897833 -2.695093043 -20.5232789
10.53292325 -0.9370714228 -20.07505464
8.708932536 -3.55763754 -19.9935478
7.382827852 -0.9125677091 -20.80505982
10.34184079 -2.687224166 -19.73183745
16.76288964 3.064890104 -18.68600653
13.69299046 0.9695488771 -19.48678488
15.47420312 4.013095087 -19.40613243
16.46365706 1.003282186 -18.33799968
13.91130049 2.900395894 -19.7820646
14.92272737 0 -18.77141905
7.528694036 2.781850169 -21.18393909
10.69455371 0.951451029 -20.3831116
9.157163155 3.740741734 -21.02257407
7.461854934 0.9223359937 -21.02776082
10.80779636 2.808298075 -20.6208629
9.02367828 0 -20.61640368
23.74593955 34.00517417 1.686976999
26.67636083 30.27145491 4.924230804
22.46412356 33.6685542 4.334973964
25.90643295 32.98439115 0
27.55099048 19.45188903 9.597488078
27.65419029 24.92079818 7.572331651
19.35913652 31.88164275 9.108402535
24.98471237 29.52062672 7.379583581
20.94913612 32.89292349 6.83075245
23.94885801 31.8100856 5.934464568
28.65888261 29.00033555 -3.295832487
28.65888261 29.00033555 3.295832487
27.60709418 31.30414489 -1.697742634
27.60709418 31.30414489 1.697742634
23.22947407 1.776492814 13.67804464
24.81591793 5.6178088 13.19126872
26.9818401 14.42380895 11.16628949
26.07577509 9.832477193 12.36004319
12.73203083 26.14716971 16.15983959
17.8957558 24.8417421 15.35304096
14.39198675 27.80814353 14.79151993
25.9687774 18.86695108 11.66041703
22.40014161 22.31018555 13.78845297
26.03041318 21.45866135 10.81228842
17.68509363 30.64366042 11.28194357
19.60878839 26.14090935 13.70383449
16.0539431 29.31638571 13.146496
20.51194622 29.73118624 10.5481584
17.08154822 27.14044887 14.34301893
25.62490811 26.83172205 8.724337863
22.03765642 24.80849242 12.86954288
25.93724963 24.14922543 9.833770232
23.20378477 28.46454918 9.692062712
24.16499303 23.26035035 11.91289413
21.39793148 27.32385733 11.80958203
28.76572252 17.77819423 -8.118535712
30.91282029 19.10517363 -2.860035746
29.05188457 20.46174271 -7.150553375
28.76572252 17.77819423 8.118535712
30.91282029 19.10517363 2.860035746
29.05188457 20.46174271 7.150553375
29.15285861 26.15251958 -4.78166952
31.05465655 21.82151229 -1.545098771
29.21437088 23.29516767 -6.041391744
30.10395394 27.02700308 -1.647004104
30.30826812 21.31362088 -4.443721027
29.15285861 26.15251958 4.78166952
31.05465655 21.82151229 1.545098771
29.21437088 23.29516767 6.041391744
30.10395394 27.02700308 1.647004104
30.30826812 21.31362088 4.443721027
30.86467092 24.53650777 0
13.8898983 -19.89091271 0.9867766614
15.65339173 -17.76295293 2.889483847
13.4380865 -20.14060074 2.593190646
14.85898907 -18.91864883 0
18.61554483 -13.14317583 6.484792976
17.22294185 -15.52059393 4.716024094
12.30934132 -20.27166977 5.791499823
15.12916388 -17.87582714 4.468609752
12.90833637 -20.26780093 4.20893968
14.3145085 -19.01325486 3.547097882
16.65907638 -16.85755901 -1.915829235
16.65907638 -16.85755901 1.915829235
15.78695028 -17.90108643 -0.9708438847
15.78695028 -17.90108643 0.9708438847
22.20081853 -1.69782555 13.07234878
21.66756484 -4.905087 11.51771501
19.83321652 -10.60233568 8.207870046
20.8614308 -7.866287459 9.888418845
9.264088175 -19.02521986 11.75823252
12.31930092 -17.10086457 10.56891554
10.09752016 -19.51039108 10.37783548
17.91686083 -13.01703702 8.044971311
15.18134223 -15.12037594 9.344906251
17.2995302 -14.26119353 7.185729584
11.61968717 -20.13389101 7.412607343
13.09967189 -17.46346222 9.154861165
10.88905182 -19.88468758 8.916991624
13.1062901 -18.99700533 6.739839432
11.63345013 -18.48410076 9.768364862
15.91859557 -16.66828735 5.419695768
14.56616651 -16.39759803 8.506344819
16.63036697 -15.48392704 6.305186938
14.54217814 -17.83918223 6.074168673
15.94461399 -15.3477101 7.860399471
13.86033105 -17.69879993 7.649557934
19.76826603 -12.2174603 -5.579187995
20.37661024 -12.59343771 -1.88523186
19.06489341 -13.42773281 -4.692450762
19.76826603 -12.2174603 5.579187995
20.37661024 -12.59343771 1.88523186
19.06489341 -13.42773281 4.692450762
17.52836289 -15.72438778 -2.875012694
19.52572668 -13.72035412 -0.9714863941
18.31331579 -14.60280502 -3.787105848
17.66237741 -15.85709072 -0.9663185151
19.37117149 -13.62234898 -2.840151795
17.52836289 -15.72438778 2.875012694
19.52572668 -13.72035412 0.9714863941
18.31331579 -14.60280502 3.787105848
17.66237741 -15.85709072 0.9663185151
19.37117149 -13.62234898 2.840151795
18.62442954 -14.80587502 0
1.511513874 -11.63784851 19.76460139
4.385287154 -10.29716449 19.37141864
2.465216275 -12.77491479 19.14665889
1.487855831 -10.06791246 20.1854817
9.828497625 -7.608798071 18.38563948
7.132394189 -8.965868776 18.91514245
4.400981797 -14.90019906 17.60529431
5.341641619 -11.35320589 18.69705573
3.436953663 -13.87001545 18.42285668
3.930896886 -12.05561094 18.92890885
1.454210038 -6.975232588 20.83464894
4.344229419 -8.78856697 19.82652247
1.470329445 -8.505384757 20.54187024
2.940137995 -9.425577957 20.01323796
20.95657096 -1.03964335 14.63405142
18.118797 -2.947368688 15.9669751
20.83326008 -2.682373572 13.90023836
12.53534441 -6.184891264 17.75463319
15.29564408 -4.647671753 16.97331878
20.34671401 -5.812939531 12.3549096
18.03166302 -4.507565699 15.26105521
20.62467695 -4.28305081 13.13562672
19.430433 -3.624926308 14.6285894
8.220425256 -18.30761224 13.30092747
9.246143492 -15.0208964 14.96057443
7.308581069 -17.5952932 14.50501134
9.819648857 -17.4222219 12.72357336
10.8498885 -8.54842117 17.55548837
10.1117052 -11.78636907 16.3610827
9.505483505 -9.248731257 17.8703643
5.41255259 -15.8976148 16.64631849
8.309538546 -14.22915773 16.0182165
6.3638811 -16.78517688 15.62806489
5.894817474 -14.11279311 17.31244698
7.835100094 -15.89329486 15.29831216
12.86194815 -15.59057327 11.55864152
10.81403392 -14.2201255 14.42843547
11.37266935 -16.51191518 12.14057049
10.33813619 -15.81087369 13.61588074
6.786002086 -10.63744749 18.43192551
8.755023612 -12.52754516 16.70074743
8.145144542 -9.946504911 18.16348623
6.353101278 -12.35423918 17.90693978
9.146529271 -10.89288674 17.30743794
7.351245283 -13.31981457 17.00859326
1.438383187 -0.8889696981 21.48518649
4.301732059 -2.658616623 21.06387648
1.439474046 -2.381918812 21.39805493
9.857432567 -6.092228368 18.91007192
7.121455296 -4.401301422 20.21124742
8.504005508 -6.779725113 19.16566743
1.451627229 -5.393445637 21.07964086
