-28.77678967 3.764677494 36.1985557
-17.58871683 3.62347494 40.18495287
-51.47662496 0 -22.69113304
-59.51622625 0 -8.289655226
-47.8724628 6.818820184 -18.55372631
-56.1614948 -7.999486802 -21.76627111
-51.47662496 0 22.69113304
-59.51622625 0 8.289655226
-47.8724628 6.818820184 18.55372631
-56.1614948 -7.999486802 21.76627111
-40.91333836 17.73299605 -10.95959428
-53.17197722 7.163852631 -4.427504417
-44.29101984 12.76569572 -14.5627807
-42.02746704 18.39517441 -3.789614339
-51.31345544 7.051006869 -11.68776056
-57.36204627 -24.8623305 -15.36576529
-60.4188938 -8.140228632 -5.030937971
-56.73322611 -16.35182718 -18.65374817
-60.2298691 -26.36225843 -5.430923909
-58.94507509 -8.099671436 -13.42602866
-40.91333836 17.73299605 10.95959428
-53.17197722 7.163852631 4.427504417
-44.29101984 12.76569572 14.5627807
-42.02746704 18.39517441 3.789614339
-51.31345544 7.051006869 11.68776056
-47.52442621 13.13542834 0
-57.36204627 -24.8623305 15.36576529
-60.4188938 -8.140228632 5.030937971
-56.73322611 -16.35182718 18.65374817
-60.2298691 -26.36225843 5.430923909
-58.94507509 -8.099671436 13.42602866
-60.65985455 -16.76597145 0
-20.91385387 39.74600068 0
-16.07288765 44.5869669 0
-3.931684758 56.72816979 0
-10.55361015 50.10624441 0
31.91846506 60.65985455 0
21.86690629 60.65985455 0
4.204179801 60.65985455 0
12.77646058 60.65985455 0
-31.91846506 -60.65985455 0
-21.86690629 -60.65985455 0
-4.204179801 -60.65985455 0
-12.77646058 -60.65985455 0
20.91385387 -39.74600068 0
16.07288765 -44.5869669 0
3.931684758 -56.72816979 0
10.55361015 -50.10624441 0
-35.46986552 -60.23860448 4.606795989
-30.72453812 -57.80017316 13.08475964
-30.0939408 -60.33631038 4.447341537
-21.18046715 -51.17975658 27.35940278
-25.86834892 -54.57402031 20.57840307
-20.23462262 -60.43974211 4.218553425
-25.84939664 -58.31481344 12.77747666
-25.00775683 -60.39774927 4.323101455
-28.01777688 -59.48987303 8.73963705
-1.934130093 -27.22487402 38.98715318
-6.220448298 -33.69844549 38.2398851
-16.63429249 -47.75116471 33.71386439
-11.32397115 -41.35519512 37.26756996
-2.50401876 -60.51872202 4.051587463
-7.4823525 -59.28171347 12.10670066
-6.735235676 -60.50623649 4.070330566
-16.82084653 -52.21134181 27.21670141
-12.31530524 -56.5532004 19.92658246
-19.035517 -53.81167849 23.87680012
-15.47136694 -60.46799776 4.164064872
-11.79906898 -59.13612608 12.20250548
-11.06870826 -60.48996269 4.104907374
-18.30237134 -59.83313263 8.368734661
-9.285648108 -60.01104116 8.164835955
-23.50688784 -56.88205902 16.75448069
-14.3509741 -57.78844434 16.3077768
-21.28067434 -55.38583558 20.38070379
-21.0163127 -58.65393731 12.61123818
-16.7402916 -56.03240825 20.16112195
-16.31732322 -58.92023844 12.4208681
22.42883228 -38.09096925 2.913037675
20.60797848 -38.76851525 8.776387268
20.13811492 -40.37555467 2.97605008
15.65777856 -37.83492071 20.22559121
18.34325323 -38.69845259 14.59215119
15.17318093 -45.32148485 3.163334231
18.21539141 -41.09291859 9.003952466
17.71659708 -42.78842743 3.062675598
19.23090634 -40.83279632 5.998732244
1.881042639 -26.4776134 37.91704486
5.613650058 -30.4111973 34.50962422
0 -29.45159979 37.49814145
12.59449991 -36.15435043 25.526139
9.218125429 -33.66463679 30.33716086
-4.145957342 -36.05113586 36.48066295
3.845315736 -33.4369094 33.83528959
-2.007690796 -32.64717972 37.01918201
1.939773024 -31.54276478 35.76686747
2.400237047 -58.0104594 3.883665123
6.585154772 -52.17333162 10.65500424
6.053846268 -54.38494978 3.658543916
0 -59.58785079 8.02826233
12.90968132 -40.07121654 20.88830315
10.0394276 -46.10212657 16.24413509
14.38103025 -40.65386699 18.03854263
12.32143176 -48.15685072 3.316270719
9.803962168 -49.13678732 10.13918152
9.352153124 -51.10907075 3.468310974
14.04864905 -45.92709143 6.423725869
8.017780403 -51.81709927 7.050004582
-4.948437212 -58.32733755 16.1212796
4.462997173 -52.60544521 14.53978746
-2.502790384 -59.38926522 12.15678787
2.363472886 -56.08336958 11.48008187
17.01414711 -41.17089962 12.12679454
11.49420194 -46.28480577 13.06147432
15.76064696 -41.01921712 15.09412118
15.61505882 -43.57970376 9.37011306
12.99230367 -43.48729882 15.64724348
12.81122092 -46.26005017 9.751996882
-14.18854613 -50.27307823 31.07047106
-4.454343979 -48.1449699 29.75522778
-11.95205275 -48.5598301 34.20152476
-12.05329163 -52.81161412 27.62158549
11.03243878 -39.09030936 24.15913982
4.01125165 -43.35578727 26.79535014
9.358918469 -38.02422062 26.78111354
9.656114883 -42.30836098 22.12816308
-6.548570949 -39.92529432 35.81628325
-2.195047557 -44.11785786 31.00077362
-9.098515758 -43.99771196 35.08321578
-2.096595534 -38.32158963 34.40470721
-6.786741547 -46.28877042 32.55155656
-7.462361577 -56.82628594 20.19585301
-2.343856331 -50.21286826 26.3455466
-9.789398726 -55.0153885 23.96399637
-2.463994212 -56.17506127 19.93413191
-7.257824296 -53.2929895 27.93189503
5.778659731 -35.2313035 31.60538617
2.087897717 -41.9642729 29.48749073
7.594847114 -36.72641831 29.28517872
2.010628729 -36.7502877 32.99400939
5.859567014 -39.96500388 28.10450726
0 -40.31505965 32.04928953
6.434707227 -49.00064263 17.41464816
2.206927989 -47.27942702 24.80643689
8.119948803 -45.63325599 19.87725999
2.297220325 -52.37288785 18.58490283
6.089625676 -44.71510248 23.43605717
0 -51.5782224 22.5754837
-22.42883228 38.09096925 2.913037675
-20.60797848 38.76851525 8.776387268
-20.13811492 40.37555467 2.97605008
-15.65777856 37.83492071 20.22559121
-18.34325323 38.69845259 14.59215119
-15.17318093 45.32148485 3.163334231
-18.21539141 41.09291859 9.003952466
-17.71659708 42.78842743 3.062675598
-19.23090634 40.83279632 5.998732244
-1.881042639 26.4776134 37.91704486
-5.613650058 30.4111973 34.50962422
-12.59449991 36.15435043 25.526139
-9.218125429 33.66463679 30.33716086
-2.400237047 58.0104594 3.883665123
-6.585154772 52.17333162 10.65500424
-6.053846268 54.38494978 3.658543916
-12.90968132 40.07121654 20.88830315
-10.0394276 46.10212657 16.24413509
-14.38103025 40.65386699 18.03854263
-12.32143176 48.15685072 3.316270719
-9.803962168 49.13678732 10.13918152
-9.352153124 51.10907075 3.468310974
-14.04864905 45.92709143 6.423725869
-8.017780403 51.81709927 7.050004582
-17.01414711 41.17089962 12.12679454
-11.49420194 46.28480577 13.06147432
-15.76064696 41.01921712 15.09412118
-15.61505882 43.57970376 9.37011306
-12.99230367 43.48729882 15.64724348
-12.81122092 46.26005017 9.751996882
35.46986552 60.23860448 4.606795989
30.72453812 57.80017316 13.08475964
30.0939408 60.33631038 4.447341537
21.18046715 51.17975658 27.35940278
25.86834892 54.57402031 20.57840307
20.23462262 60.43974211 4.218553425
25.84939664 58.31481344 12.77747666
25.00775683 60.39774927 4.323101455
28.01777688 59.48987303 8.73963705
1.934130093 27.22487402 38.98715318
6.220448298 33.69844549 38.2398851
0 29.45159979 37.49814145
16.63429249 47.75116471 33.71386439
11.32397115 41.35519512 37.26756996
-3.845315736 33.4369094 33.83528959
4.145957342 36.05113586 36.48066295
-1.939773024 31.54276478 35.76686747
2.007690796 32.64717972 37.01918201
2.50401876 60.51872202 4.051587463
7.4823525 59.28171347 12.10670066
6.735235676 60.50623649 4.070330566
0 59.58785079 8.02826233
16.82084653 52.21134181 27.21670141
12.31530524 56.5532004 19.92658246
19.035517 53.81167849 23.87680012
15.47136694 60.46799776 4.164064872
11.79906898 59.13612608 12.20250548
11.06870826 60.48996269 4.104907374
18.30237134 59.83313263 8.368734661
9.285648108 60.01104116 8.164835955
-4.462997173 52.60544521 14.53978746
4.948437212 58.32733755 16.1212796
-2.363472886 56.08336958 11.48008187
2.502790384 59.38926522 12.15678787
23.50688784 56.88205902 16.75448069
14.3509741 57.78844434 16.3077768
21.28067434 55.38583558 20.38070379
21.0163127 58.65393731 12.61123818
16.7402916 56.03240825 20.16112195
16.31732322 58.92023844 12.4208681
-11.03243878 39.09030936 24.15913982
-4.01125165 43.35578727 26.79535014
-9.358918469 38.02422062 26.78111354
-9.656114883 42.30836098 22.12816308
14.18854613 50.27307823 31.07047106
4.454343979 48.1449699 29.75522778
11.95205275 48.5598301 34.20152476
12.05329163 52.81161412 27.62158549
-5.778659731 35.2313035 31.60538617
-2.087897717 41.9642729 29.48749073
-7.594847114 36.72641831 29.28517872
-2.010628729 36.7502877 32.99400939
-5.859567014 39.96500388 28.10450726
-6.434707227 49.00064263 17.41464816
-2.206927989 47.27942702 24.80643689
-8.119948803 45.63325599 19.87725999
-2.297220325 52.37288785 18.58490283
-6.089625676 44.71510248 23.43605717
6.548570949 39.92529432 35.81628325
2.195047557 44.11785786 31.00077362
9.098515758 43.99771196 35.08321578
2.096595534 38.32158963 34.40470721
6.786741547 46.28877042 32.55155656
0 40.31505965 32.04928953
7.462361577 56.82628594 20.19585301
2.343856331 50.21286826 26.3455466
9.789398726 55.0153885 23.96399637
2.463994212 56.17506127 19.93413191
7.257824296 53.2929895 27.93189503
0 51.5782224 22.5754837
0 -21.1530285 40.20054315
0 -14.98313772 41.56394795
0 -2.969240482 42.84157773
0 -8.935761743 42.42505225
0 21.1530285 40.20054315
0 14.98313772 41.56394795
0 2.969240482 42.84157773
0 8.935761743 42.42505225
-35.46986552 -60.23860448 -4.606795989
-30.72453812 -57.80017316 -13.08475964
-30.0939408 -60.33631038 -4.447341537
-21.18046715 -51.17975658 -27.35940278
-25.86834892 -54.57402031 -20.57840307
-20.23462262 -60.43974211 -4.218553425
-25.84939664 -58.31481344 -12.77747666
-25.00775683 -60.39774927 -4.323101455
-28.01777688 -59.48987303 -8.73963705
-1.934130093 -27.22487402 -38.98715318
-6.220448298 -33.69844549 -38.2398851
-16.63429249 -47.75116471 -33.71386439
-11.32397115 -41.35519512 -37.26756996
-2.50401876 -60.51872202 -4.051587463
-7.4823525 -59.28171347 -12.10670066
-6.735235676 -60.50623649 -4.070330566
-16.82084653 -52.21134181 -27.21670141
-12.31530524 -56.5532004 -19.92658246
-19.035517 -53.81167849 -23.87680012
-15.47136694 -60.46799776 -4.164064872
-11.79906898 -59.13612608 -12.20250548
-11.06870826 -60.48996269 -4.104907374
-18.30237134 -59.83313263 -8.368734661
-9.285648108 -60.01104116 -8.164835955
-23.50688784 -56.88205902 -16.75448069
-14.3509741 -57.78844434 -16.3077768
-21.28067434 -55.38583558 -20.38070379
-21.0163127 -58.65393731 -12.61123818
-16.7402916 -56.03240825 -20.16112195
-16.31732322 -58.92023844 -12.4208681
22.42883228 -38.09096925 -2.913037675
20.60797848 -38.76851525 -8.776387268
20.13811492 -40.37555467 -2.97605008
15.65777856 -37.83492071 -20.22559121
18.34325323 -38.69845259 -14.59215119
15.17318093 -45.32148485 -3.163334231
18.21539141 -41.09291859 -9.003952466
17.71659708 -42.78842743 -3.062675598
19.23090634 -40.83279632 -5.998732244
1.881042639 -26.4776134 -37.91704486
5.613650058 -30.4111973 -34.50962422
0 -29.45159979 -37.49814145
12.59449991 -36.15435043 -25.526139
9.218125429 -33.66463679 -30.33716086
-4.145957342 -36.05113586 -36.48066295
3.845315736 -33.4369094 -33.83528959
-2.007690796 -32.64717972 -37.01918201
1.939773024 -31.54276478 -35.76686747
2.400237047 -58.0104594 -3.883665123
6.585154772 -52.17333162 -10.65500424
6.053846268 -54.38494978 -3.658543916
0 -59.58785079 -8.02826233
12.90968132 -40.07121654 -20.88830315
10.0394276 -46.10212657 -16.24413509
14.38103025 -40.65386699 -18.03854263
12.32143176 -48.15685072 -3.316270719
9.803962168 -49.13678732 -10.13918152
9.352153124 -51.10907075 -3.468310974
14.04864905 -45.92709143 -6.423725869
8.017780403 -51.81709927 -7.050004582
-4.948437212 -58.32733755 -16.1212796
4.462997173 -52.60544521 -14.53978746
-2.502790384 -59.38926522 -12.15678787
2.363472886 -56.08336958 -11.48008187
17.01414711 -41.17089962 -12.12679454
11.49420194 -46.28480577 -13.06147432
15.76064696 -41.01921712 -15.09412118
15.61505882 -43.57970376 -9.37011306
12.99230367 -43.48729882 -15.64724348
12.81122092 -46.26005017 -9.751996882
-14.18854613 -50.27307823 -31.07047106
-4.454343979 -48.1449699 -29.75522778
-11.95205275 -48.5598301 -34.20152476
-12.05329163 -52.81161412 -27.62158549
11.03243878 -39.09030936 -24.15913982
4.01125165 -43.35578727 -26.79535014
9.358918469 -38.02422062 -26.78111354
9.656114883 -42.30836098 -22.12816308
-6.548570949 -39.92529432 -35.81628325
-2.195047557 -44.11785786 -31.00077362
-9.098515758 -43.99771196 -35.08321578
-2.096595534 -38.32158963 -34.40470721
-6.786741547 -46.28877042 -32.55155656
-7.462361577 -56.82628594 -20.19585301
-2.343856331 -50.21286826 -26.3455466
-9.789398726 -55.0153885 -23.96399637
-2.463994212 -56.17506127 -19.93413191
-7.257824296 -53.2929895 -27.93189503
5.778659731 -35.2313035 -31.60538617
2.087897717 -41.9642729 -29.48749073
7.594847114 -36.72641831 -29.28517872
2.010628729 -36.7502877 -32.99400939
5.859567014 -39.96500388 -28.10450726
0 -40.31505965 -32.04928953
6.434707227 -49.00064263 -17.41464816
2.206927989 -47.27942702 -24.80643689
8.119948803 -45.63325599 -19.87725999
2.297220325 -52.37288785 -18.58490283
6.089625676 -44.71510248 -23.43605717
0 -51.5782224 -22.5754837
-22.42883228 38.09096925 -2.913037675
-20.60797848 38.76851525 -8.776387268
-20.13811492 40.37555467 -2.97605008
-15.65777856 37.83492071 -20.22559121
-18.34325323 38.69845259 -14.59215119
-15.17318093 45.32148485 -3.163334231
-18.21539141 41.09291859 -9.003952466
-17.71659708 42.78842743 -3.062675598
-19.23090634 40.83279632 -5.998732244
-1.881042639 26.4776134 -37.91704486
-5.613650058 30.4111973 -34.50962422
-12.59449991 36.15435043 -25.526139
-9.218125429 33.66463679 -30.33716086
-2.400237047 58.0104594 -3.883665123
-6.585154772 52.17333162 -10.65500424
-6.053846268 54.38494978 -3.658543916
-12.90968132 40.07121654 -20.88830315
-10.0394276 46.10212657 -16.24413509
-14.38103025 40.65386699 -18.03854263
-12.32143176 48.15685072 -3.316270719
-9.803962168 49.13678732 -10.13918152
-9.352153124 51.10907075 -3.468310974
-14.04864905 45.92709143 -6.423725869
-8.017780403 51.81709927 -7.050004582
-17.01414711 41.17089962 -12.12679454
-11.49420194 46.28480577 -13.06147432
-15.76064696 41.01921712 -15.09412118
-15.61505882 43.57970376 -9.37011306
-12.99230367 43.48729882 -15.64724348
-12.81122092 46.26005017 -9.751996882
35.46986552 60.23860448 -4.606795989
30.72453812 57.80017316 -13.08475964
30.0939408 60.33631038 -4.447341537
21.18046715 51.17975658 -27.35940278
25.86834892 54.57402031 -20.57840307
20.23462262 60.43974211 -4.218553425
25.84939664 58.31481344 -12.77747666
25.00775683 60.39774927 -4.323101455
28.01777688 59.48987303 -8.73963705
1.934130093 27.22487402 -38.98715318
6.220448298 33.69844549 -38.2398851
0 29.45159979 -37.49814145
16.63429249 47.75116471 -33.71386439
11.32397115 41.35519512 -37.26756996
-3.845315736 33.4369094 -33.83528959
4.145957342 36.05113586 -36.48066295
-1.939773024 31.54276478 -35.76686747
2.007690796 32.64717972 -37.01918201
2.50401876 60.51872202 -4.051587463
7.4823525 59.28171347 -12.10670066
6.735235676 60.50623649 -4.070330566
0 59.58785079 -8.02826233
16.82084653 52.21134181 -27.21670141
12.31530524 56.5532004 -19.92658246
19.035517 53.81167849 -23.87680012
15.47136694 60.46799776 -4.164064872
11.79906898 59.13612608 -12.20250548
11.06870826 60.48996269 -4.104907374
18.30237134 59.83313263 -8.368734661
9.285648108 60.01104116 -8.164835955
-4.462997173 52.60544521 -14.53978746
4.948437212 58.32733755 -16.1212796
-2.363472886 56.08336958 -11.48008187
2.502790384 59.38926522 -12.15678787
23.50688784 56.88205902 -16.75448069
14.3509741 57.78844434 -16.3077768
21.28067434 55.38583558 -20.38070379
21.0163127 58.65393731 -12.61123818
16.7402916 56.03240825 -20.16112195
16.31732322 58.92023844 -12.4208681
-11.03243878 39.09030936 -24.15913982
-4.01125165 43.35578727 -26.79535014
-9.358918469 38.02422062 -26.78111354
-9.656114883 42.30836098 -22.12816308
14.18854613 50.27307823 -31.07047106
4.454343979 48.1449699 -29.75522778
11.95205275 48.5598301 -34.20152476
12.05329163 52.81161412 -27.62158549
-5.778659731 35.2313035 -31.60538617
-2.087897717 41.9642729 -29.48749073
-7.594847114 36.72641831 -29.28517872
-2.010628729 36.7502877 -32.99400939
-5.859567014 39.96500388 -28.10450726
-6.434707227 49.00064263 -17.41464816
-2.206927989 47.27942702 -24.80643689
-8.119948803 45.63325599 -19.87725999
-2.297220325 52.37288785 -18.58490283
-6.089625676 44.71510248 -23.43605717
6.548570949 39.92529432 -35.81628325
2.195047557 44.11785786 -31.00077362
9.098515758 43.99771196 -35.08321578
2.096595534 38.32158963 -34.40470721
6.786741547 46.28877042 -32.55155656
0 40.31505965 -32.04928953
7.462361577 56.82628594 -20.19585301
2.343856331 50.21286826 -26.3455466
9.789398726 55.0153885 -23.96399637
2.463994212 56.17506127 -19.93413191
7.257824296 53.2929895 -27.93189503
0 51.5782224 -22.5754837
0 -21.1530285 -40.20054315
0 -14.98313772 -41.56394795
0 -2.969240482 -42.84157773
0 -8.935761743 -42.42505225
0 21.1530285 -40.20054315
0 14.98313772 -41.56394795
0 2.969240482 -42.84157773
0 8.935761743 -42.42505225
42.18918787 60.4166737 -2.997236197
49.95555194 56.68791359 -9.221372782
39.55235172 59.27987771 -7.63254415
53.21693499 37.57287472 -18.53831351
52.7289777 47.51714651 -14.43836549
33.93714788 55.88947749 -15.96730327
46.00667025 54.35907042 -13.58871231
36.72566874 57.66417313 -11.97490676
43.19867639 57.37866889 -10.70451937
48.78108505 3.730572925 -28.72341651
52.63128287 11.91463016 -27.97693793
53.15580496 28.41574824 -21.99824415
52.92792466 19.95770443 -25.08809164
23.62598039 48.51955886 -29.9867365
33.12951104 45.98826551 -28.42231117
26.04030784 50.3149864 -26.76320781
50.17533904 36.45360937 -22.5295696
42.32306141 42.15309749 -26.05204698
49.77246757 41.03087104 -20.67405812
31.14761809 53.97070842 -19.87016167
35.93495368 47.90568126 -25.11356886
28.55476686 52.14435816 -23.38335983
36.71472902 53.21642491 -18.8803526
30.99353951 49.24486725 -26.02462717
47.93576632 50.19331787 -16.32036374
40.97088853 46.12223542 -23.92616513
49.08435266 45.70064731 -18.60969273
42.42775433 52.04697904 -17.72178374
45.5960677 43.88912953 -22.47801713
39.07081716 49.8910577 -21.56330021
24.92069182 -35.68746833 -1.770434638
28.20510571 -32.0062242 -5.206424191
24.13238551 -36.16889514 -4.656903821
34.16035602 -24.11831455 -11.89988468
31.26481213 -28.17453938 -8.561000124
22.22619656 -36.60326781 -10.45734374
27.30977316 -32.26779669 -8.066322743
23.23089553 -36.47558854 -7.574751323
25.76363064 -34.22055848 -6.384160493
44.57121936 -3.408620043 -26.24455148
42.17039304 -9.546501799 -22.416297
36.93382792 -19.74388981 -15.28486616
39.60644683 -14.93453153 -18.77364688
17.12525802 -35.16933268 -21.73584296
22.64557962 -31.43514333 -19.42798702
18.53528792 -35.81381471 -19.04984248
32.97452649 -23.95679892 -14.80611599
27.85681894 -27.74494957 -17.14732185
31.64957918 -26.09092667 -13.14632911
21.07848119 -36.52351711 -13.44670491
23.94002297 -31.91497394 -16.73076918
19.86114767 -36.26878842 -16.26419732
23.74033466 -34.4105968 -12.20833985
21.29740888 -33.83892545 -17.88298899
28.84502333 -30.20348971 -9.820668552
26.59905868 -29.94340836 -15.53330897
30.26758058 -28.18103836 -11.47555879
26.33103423 -32.30080895 -10.99829349
29.12531804 -28.03498022 -14.35824252
25.20144202 -32.18070901 -13.90875081
2.968228192 -22.85376974 -38.81264212
8.558413811 -20.09615144 -37.8056467
4.812728279 -24.93987822 -37.37914098
2.930600166 -19.8305678 -39.75894357
19.04356553 -14.74270536 -35.62376913
13.85788394 -17.42023304 -36.75117245
8.474251604 -28.6908789 -33.89963886
10.36176733 -22.02305702 -36.26872693
6.665478968 -26.89890681 -35.72848977
7.647520591 -23.45407054 -36.82600293
2.878357117 -13.80626584 -41.23858212
8.511058028 -17.21824431 -38.84340971
2.903729616 -16.7971455 -40.56780419
5.774330636 -18.51151329 -39.30531605
42.09105361 -2.088112796 -29.39233923
35.59026529 -5.789436986 -31.36349944
41.23149643 -5.308735932 -27.51022289
24.27867588 -11.97900636 -34.38748633
29.73081637 -9.033884074 -32.99178651
39.23399192 -11.20892654 -23.82362201
35.05085333 -8.762032873 -29.66520653
40.26390714 -8.361457514 -25.64363339
38.04977646 -7.098536389 -28.64653384
15.33352076 -34.14910344 -24.81015776
17.42094565 -28.30133667 -28.18768218
13.7407485 -33.08063445 -27.27064404
18.2448151 -32.37032421 -23.64027947
20.88915932 -16.45817205 -33.79936977
19.25373791 -22.442472 -31.15320235
18.32170078 -17.82681402 -34.44490406
10.3395977 -30.36920912 -31.79945756
15.77362503 -27.01057311 -30.40666328
12.06143201 -31.81286177 -29.61979321
11.30906923 -27.07506298 -33.21352397
14.80105561 -30.02355277 -28.89958856
23.77664676 -28.82079365 -21.36734912
20.31106277 -26.70842941 -27.09967998
21.06677905 -30.58673895 -22.48924223
19.31118696 -29.53402163 -25.43387064
13.12888711 -20.58028356 -35.66027038
16.70439951 -23.90229068 -31.86467218
15.7257907 -19.20366835 -35.06815396
12.24020319 -23.8022961 -34.50040724
17.53927349 -20.88806737 -33.18853288
14.06014486 -25.47575482 -32.53098977
2.86319915 -1.769554391 -42.76771884
8.529989648 -5.271823526 -41.76797761
2.862730684 -4.737002442 -42.55503502
19.20325506 -11.86826432 -36.83869323
14.01723974 -8.663130586 -39.7820233
16.57806459 -13.21668016 -37.36235498
2.878864463 -10.69627151 -41.80510518
8.507375419 -8.226106477 -41.2286826
2.866024303 -7.728112717 -42.23376739
5.72184912 -12.51364891 -40.90895114
5.71624345 -6.500929777 -42.01403713
11.29799325 -15.85132151 -38.35708971
11.33308275 -9.973203522 -40.16005553
13.9350865 -14.55043166 -37.86946798
8.546836624 -14.24308925 -39.75070586
13.99077097 -11.61689247 -38.88357962
8.548082867 -11.22963628 -40.54910467
34.49563015 -21.3194719 -16.79720716
31.72493236 -19.60708649 -22.85434089
35.72887251 -19.0046606 -18.49132645
31.84116899 -23.25383362 -17.94656849
23.96466634 -14.81097833 -32.98535535
28.17826338 -17.41512451 -28.29187989
26.58937408 -13.39747978 -32.25422044
23.11114826 -17.83644847 -31.64579179
38.07626573 -14.01837363 -21.97460471
32.66464494 -17.1237688 -24.50236531
36.93202637 -16.56161649 -20.22434334
36.33302689 -12.89038788 -25.0666451
34.29541015 -18.12422924 -21.58470941
26.56167215 -26.95077287 -20.1994577
28.93944302 -21.45531416 -23.8745304
29.18825269 -25.13610413 -19.08510165
24.96572947 -26.06079571 -23.19387508
30.48311187 -22.41304926 -20.99540535
32.05901197 -10.42399185 -30.61708952
30.7762999 -15.96537607 -27.33892538
29.29586101 -11.92952406 -31.46494542
34.30905863 -11.68209431 -27.96812298
28.77103465 -14.73521614 -29.88999913
33.50513643 -14.48117857 -26.23863113
21.31055589 -23.71344976 -28.74418959
27.11869758 -20.32531636 -26.72717245
22.22326272 -20.81762296 -30.22499061
23.19999268 -24.97231441 -26.06766948
25.20536617 -19.13769027 -29.26868035
26.08569104 -23.21603171 -24.98957871
3.084119516 23.74607096 -40.3280406
9.491591085 22.28736026 -41.92783232
5.161209388 26.74573052 -40.08569821
3.027801918 20.48830541 -41.07766286
22.84640971 17.68670297 -42.73754427
16.1359429 20.28389665 -42.79259535
9.879885904 33.44986947 -39.5226127
11.94934817 25.39732534 -41.82564921
7.428614657 29.97858283 -39.81907137
8.523501776 26.1406046 -41.04421788
2.942618537 14.11450078 -42.15926352
9.282486902 18.77887881 -42.36411509
2.983912118 17.26097558 -41.68802834
6.142204914 19.69085511 -41.80940105
44.25842428 2.1956348 -30.90582223
40.40145597 6.57206912 -35.6033042
47.23197206 6.081323478 -31.51382296
40.5867028 0 -31.87740195
29.35937817 14.48580554 -41.58361932
35.33304634 10.73615473 -39.20848682
50.49344572 14.42568793 -30.66057533
42.94522907 10.73547355 -36.34659271
50.39723049 10.46580751 -32.09743402
45.27217546 8.445941471 -34.08406112
33.94495109 -3.857778556 -33.54527974
36.65398179 4.165654697 -36.22241403
37.14479363 -2.014503192 -32.75795649
38.75443304 2.101800048 -34.17749588
20.83246611 46.39573984 -33.70763823
24.28090586 39.44573993 -39.28733097
18.5296057 44.60973234 -36.77487302
25.46861305 45.18693434 -33.00034158
26.39615765 20.79703148 -42.70988024
26.44016644 30.81909071 -42.78108797
22.81417467 22.19794188 -42.89078113
12.74015942 37.42007927 -39.18239088
21.52808623 36.86444594 -41.49948208
15.79823357 41.66893453 -38.79642243
13.84574645 33.14812648 -40.66347304
20.30424697 41.18663198 -39.64476582
34.65641192 42.00866955 -31.14466308
28.69457447 37.73249216 -38.28523372
30.12074337 43.73213923 -32.15454495
27.16679152 41.5481767 -35.78012384
15.62212418 24.48857568 -42.43232254
22.20430549 31.77209475 -42.35608199
19.18760102 23.43108422 -42.78791187
14.80767187 28.79499507 -41.73711025
22.61035089 26.92737149 -42.78423359
17.99303542 32.60180911 -41.63052778
2.871116737 1.774447729 -42.88598414
8.746448787 5.405602632 -42.8278922
2.884067333 4.772308509 -42.87220836
5.752918842 0 -42.69965971
22.14087011 13.68381027 -42.47408677
15.04541641 9.298578714 -42.70006915
18.99367143 15.14249621 -42.80646215
2.928292837 10.87992007 -42.52287372
8.850696608 8.558076858 -42.89249543
2.901163423 7.822863859 -42.75157786
5.958434892 13.03106054 -42.60044554
5.83532164 6.636354196 -42.88925449
11.48653655 -3.525799832 -41.55867966
11.74805412 3.606072818 -42.5048591
8.649294636 -1.780681844 -42.25419237
8.722622783 1.795778347 -42.61242061
12.58975841 17.66369512 -42.74267844
12.10084414 10.64883969 -42.8807045
15.78258608 16.47951308 -42.89016348
9.175479373 15.29070666 -42.67447685
15.41904494 12.80282462 -42.85308242
9.032324113 11.86578513 -42.84617517
50.4341527 31.17002056 -24.55826745
44.83243024 27.70796569 -32.29685826
50.53487271 26.88016825 -26.15410906
47.17332745 34.45101869 -26.58819946
30.57963093 18.89925128 -42.09029987
39.28202495 24.27762657 -39.44041253
33.96765182 17.11514257 -41.20443475
31.10973342 24.00950186 -42.59814941
50.54304917 18.60821523 -29.16944467
45.15293866 23.67050012 -33.87006962
50.56647785 22.67578294 -27.69070398
48.05668396 17.04975747 -33.15495417
47.84409196 25.28435399 -30.11192511
39.25923161 39.8343383 -29.85561993
41.31570595 30.63090919 -34.08472917
43.38678707 37.36348349 -28.36898974
36.12383335 37.70832501 -33.56007198
44.20234191 32.50026673 -30.44459797
40.1768496 13.0635078 -38.36981008
42.35964874 21.97430245 -37.62854144
37.20323593 15.14947446 -39.95778747
45.46110896 15.47932188 -37.05907236
39.1836424 20.06808052 -40.70757453
45.32307096 19.58898109 -35.4935233
30.15194846 33.55176273 -40.66967223
38.3241168 28.72371713 -37.77081387
31.42016419 29.4328128 -42.73333667
33.08194441 35.60918008 -37.17109763
35.48379318 26.94179639 -41.20407508
37.33788581 33.2303844 -35.76895988
22.36268314 -10.21207438 -36.18358141
23.68752746 -3.546012018 -38.32722454
25.07378625 -8.762276479 -35.60013212
19.81204297 -8.645424489 -37.88001122
25.79218668 11.77818096 -41.7326347
24.84916494 3.719908617 -40.20679347
28.73954659 10.04331179 -40.80483279
21.96188621 9.583556281 -41.99044476
30.77821632 -5.627421802 -34.30923686
26.60833774 -1.884035781 -37.86688927
27.88715069 -7.232281146 -34.97315729
31.93994036 -1.946394599 -35.57621577
25.85440214 -5.39043793 -36.76532281
14.41424236 -5.326058192 -40.55822043
20.86637207 -1.856396416 -39.76992423
17.14017737 -7.001838424 -39.34959357
14.64977847 -1.810812205 -41.28357366
20.37007359 -5.292960426 -38.86532284
34.16182148 6.246072776 -38.08102499
27.36440727 1.937570205 -38.94286784
31.5607809 8.185004026 -39.58024134
33.07717858 2.015696994 -36.84292548
28.06783146 5.8519204 -39.91285037
29.72427758 0 -37.39040837
15.0561885 5.563257096 -42.36450288
21.32008347 1.896761278 -40.63466814
18.38108214 7.508753522 -42.19840296
14.86569324 1.837500737 -41.8920288
21.68017696 5.633377719 -41.36495007
17.93468602 0 -40.9753889
42.18918787 60.4166737 2.997236197
49.95555194 56.68791359 9.221372782
39.55235172 59.27987771 7.63254415
47.64315484 60.65985455 0
53.21693499 37.57287472 18.53831351
52.7289777 47.51714651 14.43836549
33.93714788 55.88947749 15.96730327
46.00667025 54.35907042 13.58871231
36.72566874 57.66417313 11.97490676
43.19867639 57.37866889 10.70451937
55.77949006 56.44406834 -6.414760059
55.77949006 56.44406834 6.414760059
52.89498745 59.97850915 -3.252862281
52.89498745 59.97850915 3.252862281
48.78108505 3.730572925 28.72341651
52.63128287 11.91463016 27.97693793
53.15580496 28.41574824 21.99824415
52.92792466 19.95770443 25.08809164
23.62598039 48.51955886 29.9867365
33.12951104 45.98826551 28.42231117
26.04030784 50.3149864 26.76320781
50.17533904 36.45360937 22.5295696
42.32306141 42.15309749 26.05204698
49.77246757 41.03087104 20.67405812
31.14761809 53.97070842 19.87016167
35.93495368 47.90568126 25.11356886
28.55476686 52.14435816 23.38335983
36.71472902 53.21642491 18.8803526
30.99353951 49.24486725 26.02462717
47.93576632 50.19331787 16.32036374
40.97088853 46.12223542 23.92616513
49.08435266 45.70064731 18.60969273
42.42775433 52.04697904 17.72178374
45.5960677 43.88912953 22.47801713
39.07081716 49.8910577 21.56330021
55.89513965 34.54509611 -15.77525776
60.00613241 37.08582936 -5.551731679
56.13970079 39.54015826 -13.81768973
55.89513965 34.54509611 15.77525776
60.00613241 37.08582936 5.551731679
56.13970079 39.54015826 13.81768973
56.40549309 50.60038132 -9.251663128
60.41178651 42.45020518 -3.005738511
56.34472979 44.92857071 -11.65181981
59.88191216 53.76133075 -3.2761728
58.74307621 41.30977234 -8.612760121
56.40549309 50.60038132 9.251663128
60.41178651 42.45020518 3.005738511
56.34472979 44.92857071 11.65181981
59.88191216 53.76133075 3.2761728
58.74307621 41.30977234 8.612760121
60.65985455 48.22280454 0
24.92069182 -35.68746833 1.770434638
28.20510571 -32.0062242 5.206424191
24.13238551 -36.16889514 4.656903821
26.68464025 -33.97521431 0
34.16035602 -24.11831455 11.89988468
31.26481213 -28.17453938 8.561000124
22.22619656 -36.60326781 10.45734374
27.30977316 -32.26779669 8.066322743
23.23089553 -36.47558854 7.574751323
25.76363064 -34.22055848 6.384160493
30.05228526 -30.41033973 -3.456076758
30.05228526 -30.41033973 3.456076758
28.40295433 -32.20658399 -1.746685333
28.40295433 -32.20658399 1.746685333
44.57121936 -3.408620043 26.24455148
42.17039304 -9.546501799 22.416297
36.93382792 -19.74388981 15.28486616
39.60644683 -14.93453153 18.77364688
17.12525802 -35.16933268 21.73584296
22.64557962 -31.43514333 19.42798702
18.53528792 -35.81381471 19.04984248
32.97452649 -23.95679892 14.80611599
27.85681894 -27.74494957 17.14732185
31.64957918 -26.09092667 13.14632911
21.07848119 -36.52351711 13.44670491
23.94002297 -31.91497394 16.73076918
19.86114767 -36.26878842 16.26419732
23.74033466 -34.4105968 12.20833985
21.29740888 -33.83892545 17.88298899
28.84502333 -30.20348971 9.820668552
26.59905868 -29.94340836 15.53330897
30.26758058 -28.18103836 11.47555879
26.33103423 -32.30080895 10.99829349
29.12531804 -28.03498022 14.35824252
25.20144202 -32.18070901 13.90875081
36.39877465 -22.49567988 -10.27280826
37.36787414 -23.09461631 -3.457253489
34.87202135 -24.5609653 -8.58306625
36.39877465 -22.49567988 10.27280826
37.36787414 -23.09461631 3.457253489
34.87202135 -24.5609653 8.58306625
31.7389623 -28.47246797 -5.205843813
35.59570501 -25.01242006 -1.771034885
33.31084281 -26.56164227 -6.888522487
31.93690082 -28.67260289 -1.747285649
35.35363129 -24.86166123 -5.183459318
31.7389623 -28.47246797 5.205843813
35.59570501 -25.01242006 1.771034885
33.31084281 -26.56164227 6.888522487
31.93690082 -28.67260289 1.747285649
35.35363129 -24.86166123 5.183459318
33.79434324 -26.86551131 0
2.968228192 -22.85376974 38.81264212
8.558413811 -20.09615144 37.8056467
4.812728279 -24.93987822 37.37914098
2.930600166 -19.8305678 39.75894357
19.04356553 -14.74270536 35.62376913
13.85788394 -17.42023304 36.75117245
8.474251604 -28.6908789 33.89963886
10.36176733 -22.02305702 36.26872693
6.665478968 -26.89890681 35.72848977
7.647520591 -23.45407054 36.82600293
2.878357117 -13.80626584 41.23858212
8.511058028 -17.21824431 38.84340971
2.903729616 -16.7971455 40.56780419
5.774330636 -18.51151329 39.30531605
42.09105361 -2.088112796 29.39233923
35.59026529 -5.789436986 31.36349944
41.23149643 -5.308735932 27.51022289
24.27867588 -11.97900636 34.38748633
29.73081637 -9.033884074 32.99178651
39.23399192 -11.20892654 23.82362201
35.05085333 -8.762032873 29.66520653
40.26390714 -8.361457514 25.64363339
38.04977646 -7.098536389 28.64653384
15.33352076 -34.14910344 24.81015776
17.42094565 -28.30133667 28.18768218
13.7407485 -33.08063445 27.27064404
18.2448151 -32.37032421 23.64027947
20.88915932 -16.45817205 33.79936977
19.25373791 -22.442472 31.15320235
18.32170078 -17.82681402 34.44490406
10.3395977 -30.36920912 31.79945756
15.77362503 -27.01057311 30.40666328
12.06143201 -31.81286177 29.61979321
11.30906923 -27.07506298 33.21352397
14.80105561 -30.02355277 28.89958856
23.77664676 -28.82079365 21.36734912
20.31106277 -26.70842941 27.09967998
21.06677905 -30.58673895 22.48924223
19.31118696 -29.53402163 25.43387064
13.12888711 -20.58028356 35.66027038
16.70439951 -23.90229068 31.86467218
15.7257907 -19.20366835 35.06815396
12.24020319 -23.8022961 34.50040724
17.53927349 -20.88806737 33.18853288
14.06014486 -25.47575482 32.53098977
2.86319915 -1.769554391 42.76771884
8.529989648 -5.271823526 41.76797761
2.862730684 -4.737002442 42.55503502
19.20325506 -11.86826432 36.83869323
14.01723974 -8.663130586 39.7820233
16.57806459 -13.21668016 37.36235498
2.878864463 -10.69627151 41.80510518
8.507375419 -8.226106477 41.2286826
2.866024303 -7.728112717 42.23376739
5.72184912 -12.51364891 40.90895114
5.71624345 -6.500929777 42.01403713
11.29799325 -15.85132151 38.35708971
11.33308275 -9.973203522 40.16005553
13.9350865 -14.55043166 37.86946798
8.546836624 -14.24308925 39.75070586
13.99077097 -11.61689247 38.88357962
8.548082867 -11.22963628 40.54910467
34.49563015 -21.3194719 16.79720716
31.72493236 -19.60708649 22.85434089
35.72887251 -19.0046606 18.49132645
31.84116899 -23.25383362 17.94656849
23.96466634 -14.81097833 32.98535535
28.17826338 -17.41512451 28.29187989
26.58937408 -13.39747978 32.25422044
23.11114826 -17.83644847 31.64579179
38.07626573 -14.01837363 21.97460471
32.66464494 -17.1237688 24.50236531
36.93202637 -16.56161649 20.22434334
36.33302689 -12.89038788 25.0666451
34.29541015 -18.12422924 21.58470941
26.56167215 -26.95077287 20.1994577
28.93944302 -21.45531416 23.8745304
29.18825269 -25.13610413 19.08510165
24.96572947 -26.06079571 23.19387508
30.48311187 -22.41304926 20.99540535
32.05901197 -10.42399185 30.61708952
30.7762999 -15.96537607 27.33892538
29.29586101 -11.92952406 31.46494542
34.30905863 -11.68209431 27.96812298
28.77103465 -14.73521614 29.88999913
33.50513643 -14.48117857 26.23863113
21.31055589 -23.71344976 28.74418959
27.11869758 -20.32531636 26.72717245
22.22326272 -20.81762296 30.22499061
23.19999268 -24.97231441 26.06766948
25.20536617 -19.13769027 29.26868035
26.08569104 -23.21603171 24.98957871
3.084119516 23.74607096 40.3280406
9.491591085 22.28736026 41.92783232
5.161209388 26.74573052 40.08569821
3.027801918 20.48830541 41.07766286
22.84640971 17.68670297 42.73754427
16.1359429 20.28389665 42.79259535
9.879885904 33.44986947 39.5226127
11.94934817 25.39732534 41.82564921
7.428614657 29.97858283 39.81907137
8.523501776 26.1406046 41.04421788
2.942618537 14.11450078 42.15926352
9.282486902 18.77887881 42.36411509
2.983912118 17.26097558 41.68802834
6.142204914 19.69085511 41.80940105
44.25842428 2.1956348 30.90582223
40.40145597 6.57206912 35.6033042
47.23197206 6.081323478 31.51382296
40.5867028 0 31.87740195
29.35937817 14.48580554 41.58361932
35.33304634 10.73615473 39.20848682
50.49344572 14.42568793 30.66057533
42.94522907 10.73547355 36.34659271
50.39723049 10.46580751 32.09743402
45.27217546 8.445941471 34.08406112
33.94495109 -3.857778556 33.54527974
36.65398179 4.165654697 36.22241403
37.14479363 -2.014503192 32.75795649
38.75443304 2.101800048 34.17749588
20.83246611 46.39573984 33.70763823
24.28090586 39.44573993 39.28733097
18.5296057 44.60973234 36.77487302
25.46861305 45.18693434 33.00034158
26.39615765 20.79703148 42.70988024
26.44016644 30.81909071 42.78108797
22.81417467 22.19794188 42.89078113
12.74015942 37.42007927 39.18239088
21.52808623 36.86444594 41.49948208
15.79823357 41.66893453 38.79642243
13.84574645 33.14812648 40.66347304
20.30424697 41.18663198 39.64476582
34.65641192 42.00866955 31.14466308
28.69457447 37.73249216 38.28523372
30.12074337 43.73213923 32.15454495
27.16679152 41.5481767 35.78012384
15.62212418 24.48857568 42.43232254
22.20430549 31.77209475 42.35608199
19.18760102 23.43108422 42.78791187
14.80767187 28.79499507 41.73711025
22.61035089 26.92737149 42.78423359
17.99303542 32.60180911 41.63052778
2.871116737 1.774447729 42.88598414
8.746448787 5.405602632 42.8278922
2.884067333 4.772308509 42.87220836
5.752918842 0 42.69965971
22.14087011 13.68381027 42.47408677
15.04541641 9.298578714 42.70006915
18.99367143 15.14249621 42.80646215
2.928292837 10.87992007 42.52287372
8.850696608 8.558076858 42.89249543
2.901163423 7.822863859 42.75157786
5.958434892 13.03106054 42.60044554
5.83532164 6.636354196 42.88925449
11.48653655 -3.525799832 41.55867966
11.74805412 3.606072818 42.5048591
8.649294636 -1.780681844 42.25419237
8.722622783 1.795778347 42.61242061
12.58975841 17.66369512 42.74267844
12.10084414 10.64883969 42.8807045
15.78258608 16.47951308 42.89016348
9.175479373 15.29070666 42.67447685
15.41904494 12.80282462 42.85308242
9.032324113 11.86578513 42.84617517
50.4341527 31.17002056 24.55826745
44.83243024 27.70796569 32.29685826
50.53487271 26.88016825 26.15410906
47.17332745 34.45101869 26.58819946
30.57963093 18.89925128 42.09029987
39.28202495 24.27762657 39.44041253
33.96765182 17.11514257 41.20443475
31.10973342 24.00950186 42.59814941
50.54304917 18.60821523 29.16944467
45.15293866 23.67050012 33.87006962
50.56647785 22.67578294 27.69070398
48.05668396 17.04975747 33.15495417
47.84409196 25.28435399 30.11192511
39.25923161 39.8343383 29.85561993
41.31570595 30.63090919 34.08472917
43.38678707 37.36348349 28.36898974
36.12383335 37.70832501 33.56007198
44.20234191 32.50026673 30.44459797
40.1768496 13.0635078 38.36981008
42.35964874 21.97430245 37.62854144
37.20323593 15.14947446 39.95778747
45.46110896 15.47932188 37.05907236
39.1836424 20.06808052 40.70757453
45.32307096 19.58898109 35.4935233
30.15194846 33.55176273 40.66967223
38.3241168 28.72371713 37.77081387
31.42016419 29.4328128 42.73333667
33.08194441 35.60918008 37.17109763
35.48379318 26.94179639 41.20407508
37.33788581 33.2303844 35.76895988
22.36268314 -10.21207438 36.18358141
23.68752746 -3.546012018 38.32722454
25.07378625 -8.762276479 35.60013212
19.81204297 -8.645424489 37.88001122
25.79218668 11.77818096 41.7326347
24.84916494 3.719908617 40.20679347
28.73954659 10.04331179 40.80483279
21.96188621 9.583556281 41.99044476
30.77821632 -5.627421802 34.30923686
26.60833774 -1.884035781 37.86688927
27.88715069 -7.232281146 34.97315729
31.93994036 -1.946394599 35.57621577
25.85440214 -5.39043793 36.76532281
14.41424236 -5.326058192 40.55822043
20.86637207 -1.856396416 39.76992423
17.14017737 -7.001838424 39.34959357
14.64977847 -1.810812205 41.28357366
20.37007359 -5.292960426 38.86532284
34.16182148 6.246072776 38.08102499
27.36440727 1.937570205 38.94286784
31.5607809 8.185004026 39.58024134
33.07717858 2.015696994 36.84292548
28.06783146 5.8519204 39.91285037
29.72427758 0 37.39040837
15.0561885 5.563257096 42.36450288
21.32008347 1.896761278 40.63466814
18.38108214 7.508753522 42.19840296
14.86569324 1.837500737 41.8920288
21.68017696 5.633377719 41.36495007
17.93468602 0 40.9753889
48.66438453 0 -25.60659713
54.04229363 0 -19.48138154
52.10055752 3.840290732 -25.98619445
47.21798892 -3.480400477 -23.55091577
60.37055639 0 -4.184129283
58.13560147 0 -12.24479066
54.63632897 11.97147649 -24.21882289
57.40057703 4.006426771 -19.21714047
54.42263254 7.99521047 -25.63127299
55.26315399 3.955581529 -22.88177181
44.24996795 -9.695699934 -19.61482693
51.85103379 -3.61908156 -17.35920877
45.73679624 -6.719177208 -21.54052929
49.67524997 -3.555615036 -20.5680938
48.66438453 0 25.60659713
54.04229363 0 19.48138154
52.10055752 3.840290732 25.98619445
47.21798892 -3.480400477 23.55091577
60.37055639 0 4.184129283
58.13560147 0 12.24479066
54.63632897 11.97147649 24.21882289
57.40057703 4.006426771 19.21714047
54.42263254 7.99521047 25.63127299
55.26315399 3.955581529 22.88177181
44.24996795 -9.695699934 19.61482693
51.85103379 -3.61908156 17.35920877
45.73679624 -6.719177208 21.54052929
49.67524997 -3.555615036 20.5680938
55.59624751 28.98118332 -17.91135632
58.62291851 20.65584992 -12.76601732
55.35013746 24.55943033 -19.57973644
57.80032634 30.23078696 -13.19187457
60.6043106 4.057317419 -2.507560068
60.06600031 12.26687022 -7.581342734
60.26238304 4.053926238 -6.708091194
54.87990407 16.16475052 -22.67948404
58.290043 16.44932688 -14.4755393
55.10847647 20.27864207 -21.17410578
56.44496349 12.13628465 -20.22481452
57.04180237 20.52431387 -17.04185908
60.52180152 31.75440873 -2.825060838
59.87492185 21.279327 -7.862704888
59.54351136 31.20791542 -8.109065517
59.07784084 25.73354841 -10.51226858
58.66991355 4.040241699 -15.01130836
59.21882581 12.21957024 -11.81556955
59.60911935 4.045132492 -10.90752783
57.69825866 8.07013432 -17.64933423
59.84353535 8.142045858 -9.259729544
57.99669106 12.22617676 -16.06155676
38.19789901 -19.91178115 -12.30615753
43.73539666 -15.4102152 -9.524036764
39.70069249 -17.61560921 -14.04385122
38.96327246 -20.3786114 -8.89265919
56.76832814 -3.800507329 -2.348842704
49.82818647 -10.17607122 -6.289157884
56.22803188 -3.782530365 -6.259008463
42.70745065 -12.57938214 -17.649137
45.62860734 -12.87629651 -11.33124398
41.21070257 -15.16458339 -15.83422064
46.07857625 -9.907397983 -16.5104307
42.60001636 -15.32798878 -12.72721838
39.74813726 -20.85494095 -1.855379436
44.34005067 -15.75829092 -5.822683729
39.48591616 -20.69533865 -5.377477307
41.61980676 -18.12905307 -7.405798529
53.7550255 -3.701783119 -13.75378308
48.96239923 -10.10319722 -9.76916758
55.20710009 -3.746407208 -10.1020278
49.75402072 -6.958990435 -15.21926937
52.43136136 -7.133578356 -8.112826606
47.66701812 -10.04859723 -13.20086548
55.59624751 28.98118332 17.91135632
58.62291851 20.65584992 12.76601732
55.35013746 24.55943033 19.57973644
57.80032634 30.23078696 13.19187457
60.6043106 4.057317419 2.507560068
60.06600031 12.26687022 7.581342734
60.26238304 4.053926238 6.708091194
60.65985455 8.172693238 0
54.87990407 16.16475052 22.67948404
58.290043 16.44932688 14.4755393
55.10847647 20.27864207 21.17410578
56.44496349 12.13628465 20.22481452
57.04180237 20.52431387 17.04185908
60.52180152 31.75440873 2.825060838
59.87492185 21.279327 7.862704888
59.54351136 31.20791542 8.109065517
60.65985455 26.55046052 0
59.07784084 25.73354841 10.51226858
58.66991355 4.040241699 15.01130836
59.21882581 12.21957024 11.81556955
59.60911935 4.045132492 10.90752783
57.69825866 8.07013432 17.64933423
59.84353535 8.142045858 9.259729544
57.99669106 12.22617676 16.06155676
60.36168323 16.68355892 -5.121029213
60.36168323 16.68355892 5.121029213
60.59229617 12.40304436 -2.553488676
60.56974685 21.49361828 -2.656757327
60.59229617 12.40304436 2.553488676
60.56974685 21.49361828 2.656757327
38.19789901 -19.91178115 12.30615753
43.73539666 -15.4102152 9.524036764
39.70069249 -17.61560921 14.04385122
38.96327246 -20.3786114 8.89265919
56.76832814 -3.800507329 2.348842704
49.82818647 -10.17607122 6.289157884
56.22803188 -3.782530365 6.259008463
53.4575295 -7.202325049 0
42.70745065 -12.57938214 17.649137
45.62860734 -12.87629651 11.33124398
41.21070257 -15.16458339 15.83422064
46.07857625 -9.907397983 16.5104307
42.60001636 -15.32798878 12.72721838
39.74813726 -20.85494095 1.855379436
44.34005067 -15.75829092 5.822683729
39.48591616 -20.69533865 5.377477307
42.19246257 -18.46739198 0
41.61980676 -18.12905307 7.405798529
53.7550255 -3.701783119 13.75378308
48.96239923 -10.10319722 9.76916758
55.20710009 -3.746407208 10.1020278
49.75402072 -6.958990435 15.21926937
52.43136136 -7.133578356 8.112826606
47.66701812 -10.04859723 13.20086548
47.31584591 -13.07777817 -4.014232476
47.31584591 -13.07777817 4.014232476
50.29129701 -10.2944636 -2.119382587
44.72528237 -15.87109401 -1.961775108
50.29129701 -10.2944636 2.119382587
44.72528237 -15.87109401 1.961775108
-24.92069182 35.68746833 -1.770434638
-28.20510571 32.0062242 -5.206424191
-24.13238551 36.16889514 -4.656903821
-34.16035602 24.11831455 -11.89988468
-31.26481213 28.17453938 -8.561000124
-22.22619656 36.60326781 -10.45734374
-27.30977316 32.26779669 -8.066322743
-23.23089553 36.47558854 -7.574751323
-25.76363064 34.22055848 -6.384160493
-44.57121936 3.408620043 -26.24455148
-42.17039304 9.546501799 -22.416297
-36.93382792 19.74388981 -15.28486616
-39.60644683 14.93453153 -18.77364688
-17.12525802 35.16933268 -21.73584296
-22.64557962 31.43514333 -19.42798702
-18.53528792 35.81381471 -19.04984248
-32.97452649 23.95679892 -14.80611599
-27.85681894 27.74494957 -17.14732185
-31.64957918 26.09092667 -13.14632911
-21.07848119 36.52351711 -13.44670491
-23.94002297 31.91497394 -16.73076918
-19.86114767 36.26878842 -16.26419732
-23.74033466 34.4105968 -12.20833985
-21.29740888 33.83892545 -17.88298899
-28.84502333 30.20348971 -9.820668552
-26.59905868 29.94340836 -15.53330897
-30.26758058 28.18103836 -11.47555879
-26.33103423 32.30080895 -10.99829349
-29.12531804 28.03498022 -14.35824252
-25.20144202 32.18070901 -13.90875081
-42.18918787 -60.4166737 -2.997236197
-49.95555194 -56.68791359 -9.221372782
-39.55235172 -59.27987771 -7.63254415
-53.21693499 -37.57287472 -18.53831351
-52.7289777 -47.51714651 -14.43836549
-33.93714788 -55.88947749 -15.96730327
-46.00667025 -54.35907042 -13.58871231
-36.72566874 -57.66417313 -11.97490676
-43.19867639 -57.37866889 -10.70451937
-48.78108505 -3.730572925 -28.72341651
-52.63128287 -11.91463016 -27.97693793
-53.15580496 -28.41574824 -21.99824415
-52.92792466 -19.95770443 -25.08809164
-23.62598039 -48.51955886 -29.9867365
-33.12951104 -45.98826551 -28.42231117
-26.04030784 -50.3149864 -26.76320781
-50.17533904 -36.45360937 -22.5295696
-42.32306141 -42.15309749 -26.05204698
-49.77246757 -41.03087104 -20.67405812
-31.14761809 -53.97070842 -19.87016167
-35.93495368 -47.90568126 -25.11356886
-28.55476686 -52.14435816 -23.38335983
-36.71472902 -53.21642491 -18.8803526
-30.99353951 -49.24486725 -26.02462717
-47.93576632 -50.19331787 -16.32036374
-40.97088853 -46.12223542 -23.92616513
-49.08435266 -45.70064731 -18.60969273
-42.42775433 -52.04697904 -17.72178374
-45.5960677 -43.88912953 -22.47801713
-39.07081716 -49.8910577 -21.56330021
-3.084119516 -23.74607096 -40.3280406
-9.491591085 -22.28736026 -41.92783232
-5.161209388 -26.74573052 -40.08569821
-3.027801918 -20.48830541 -41.07766286
-22.84640971 -17.68670297 -42.73754427
-16.1359429 -20.28389665 -42.79259535
-9.879885904 -33.44986947 -39.5226127
-11.94934817 -25.39732534 -41.82564921
-7.428614657 -29.97858283 -39.81907137
-8.523501776 -26.1406046 -41.04421788
-2.942618537 -14.11450078 -42.15926352
-9.282486902 -18.77887881 -42.36411509
-2.983912118 -17.26097558 -41.68802834
-6.142204914 -19.69085511 -41.80940105
-44.25842428 -2.1956348 -30.90582223
-40.40145597 -6.57206912 -35.6033042
-47.23197206 -6.081323478 -31.51382296
-29.35937817 -14.48580554 -41.58361932
-35.33304634 -10.73615473 -39.20848682
-50.49344572 -14.42568793 -30.66057533
-42.94522907 -10.73547355 -36.34659271
-50.39723049 -10.46580751 -32.09743402
-45.27217546 -8.445941471 -34.08406112
-20.83246611 -46.39573984 -33.70763823
-24.28090586 -39.44573993 -39.28733097
-18.5296057 -44.60973234 -36.77487302
-25.46861305 -45.18693434 -33.00034158
-26.39615765 -20.79703148 -42.70988024
-26.44016644 -30.81909071 -42.78108797
-22.81417467 -22.19794188 -42.89078113
-12.74015942 -37.42007927 -39.18239088
-21.52808623 -36.86444594 -41.49948208
-15.79823357 -41.66893453 -38.79642243
-13.84574645 -33.14812648 -40.66347304
-20.30424697 -41.18663198 -39.64476582
-34.65641192 -42.00866955 -31.14466308
-28.69457447 -37.73249216 -38.28523372
-30.12074337 -43.73213923 -32.15454495
-27.16679152 -41.5481767 -35.78012384
-15.62212418 -24.48857568 -42.43232254
-22.20430549 -31.77209475 -42.35608199
-19.18760102 -23.43108422 -42.78791187
-14.80767187 -28.79499507 -41.73711025
-22.61035089 -26.92737149 -42.78423359
-17.99303542 -32.60180911 -41.63052778
-2.871116737 -1.774447729 -42.88598414
-8.746448787 -5.405602632 -42.8278922
-2.884067333 -4.772308509 -42.87220836
-22.14087011 -13.68381027 -42.47408677
