-4.9089846 13.357143 34.4642
-33.244444 3.4390415 26.110682
-23.139 9.0403975 28.928359
-31.983181 8.5954148 23.049849
-30.288419 0 29.9318
-14.083897 26.789165 22.788225
-17.241452 16.709984 27.897255
-11.247197 24.599513 26.685454
-18.979148 23.90355 20.860102
-12.833179 19.134546 29.045466
-4.9008462 3.0288895 36.375355
-14.291577 8.8326801 32.97334
-4.896769 8.1168923 35.636065
-9.9837611 0 36.121587
-9.7229212 11.091661 33.734009
-28.499349 17.613566 17.070628
-22.436295 13.866393 26.375447
-30.320907 13.396708 19.974781
-23.837707 20.802642 18.926869
-26.986234 11.373967 24.876782
-20.78082 18.907014 23.8127
-21.75507 -6.5540436 35.200443
-19.773115 5.9569497 31.993572
-26.288827 -3.4391937 33.068927
-15.643907 -3.222822 35.741644
-24.69236 3.2303385 31.060719
-15.092265 3.1091775 34.481307
-44.170297 0 -19.47047
-51.068799 0 -7.1130641
-41.077691 5.8509919 -15.920306
-48.190221 -6.8640807 -18.676878
-44.170297 0 19.47047
-51.068799 0 7.1130641
-41.077691 5.8509919 15.920306
-48.190221 -6.8640807 18.676878
-35.106309 15.216066 -9.4040458
-45.62502 6.1470522 -3.7990872
-38.00458 10.953798 -12.495814
-36.062304 15.784258 -3.2517359
-44.030287 6.0502232 -10.02886
-49.220372 -21.333499 -13.184828
-51.843346 -6.9848464 -4.3168725
-48.680803 -14.030933 -16.006131
-51.681151 -22.620535 -4.6600865
-50.578714 -6.9500457 -11.520407
-35.106309 15.216066 9.4040458
-45.62502 6.1470522 3.7990872
-38.00458 10.953798 12.495814
-36.062304 15.784258 3.2517359
-44.030287 6.0502232 10.02886
-40.779053 11.271053 0
-49.220372 -21.333499 13.184828
-51.843346 -6.9848464 4.3168725
-48.680803 -14.030933 16.006131
-51.681151 -22.620535 4.6600865
-50.578714 -6.9500457 11.520407
-52.050106 -14.386296 0
-17.945449 34.104658 0
-13.791585 38.258522 0
-3.3736416 48.676465 0
-9.0556849 42.994421 0
27.388122 52.050106 0
18.76323 52.050106 0
3.6074601 52.050106 0
10.963035 52.050106 0
-27.388122 -52.050106 0
-18.76323 -52.050106 0
-3.6074601 -52.050106 0
-10.963035 -52.050106 0
17.945449 -34.104658 0
13.791585 -38.258522 0
3.3736416 -48.676465 0
9.0556849 -42.994421 0
-30.435455 -51.688646 3.952931
-26.363655 -49.596314 11.227576
-25.822561 -51.772484 3.8161087
-18.17422 -43.915565 23.47615
-22.196728 -46.828064 17.65761
-17.362624 -51.861236 3.6197936
-22.180466 -50.037908 10.963907
-21.458284 -51.825203 3.7095026
-24.041078 -51.046186 7.4991779
-1.6596096 -23.360715 33.453517
-5.3375498 -28.915461 32.812312
-14.273306 -40.97361 28.928692
-9.7167049 -35.485451 31.978003
-2.1486112 -51.929006 3.476526
-6.4203458 -50.867572 10.388338
-5.7792709 -51.918292 3.4926088
-14.433382 -44.800732 23.353703
-10.567334 -48.52633 17.098306
-16.333714 -46.173925 20.48785
-13.275441 -51.885481 3.5730389
-10.12437 -50.742648 10.470545
-9.4976727 -51.904328 3.5222779
-15.704627 -51.340725 7.1809195
-7.9676909 -51.493382 7.0059611
-20.170441 -48.808512 14.376436
-12.314071 -49.586249 13.993135
-18.260205 -47.524655 17.487971
-18.033365 -50.328899 10.821264
-14.364261 -48.079456 17.299556
-14.001326 -50.557402 10.657914
19.245399 -32.684533 2.4995761
17.682988 -33.265911 7.5307119
17.279814 -34.644856 2.5536448
13.435394 -32.464826 17.354875
15.739706 -33.205793 12.521016
13.019578 -38.888786 2.7143468
15.629992 -35.260401 7.7259777
15.201994 -36.715258 2.6279752
16.50137 -35.037199 5.147303
1.6140571 -22.719517 32.535294
4.8168774 -26.094788 29.611505
0 -25.271391 32.175848
10.806901 -31.022788 21.90309
7.9097521 -28.886451 26.03126
-3.5575015 -30.934223 31.302785
3.2995314 -28.691046 29.032882
-1.7227295 -28.013407 31.764869
1.6644516 -27.065747 30.690302
2.0595597 -49.776753 3.3324376
5.6504917 -44.768117 9.1426877
5.1945944 -46.665829 3.139269
0 -51.130257 6.888772
11.077347 -34.383714 17.923525
8.6144828 -39.558628 13.938526
12.339861 -34.883666 15.478245
10.572591 -41.321715 2.8455763
8.4124381 -42.162564 8.7000782
8.0247566 -43.854912 2.9760367
12.054656 -39.408436 5.5119752
6.8797778 -44.462446 6.0493631
-4.2460815 -50.048655 13.833108
3.8295423 -45.138899 12.476085
-2.1475572 -50.959858 10.431316
2.0280137 -48.123184 9.850658
14.599246 -35.327314 10.40558
9.862774 -39.715378 11.207596
13.523662 -35.19716 12.951739
13.398738 -37.394224 8.0401673
11.148243 -37.314935 13.426354
10.992862 -39.694136 8.3678485
-12.174697 -43.137576 26.660488
-3.8221173 -41.31152 25.531924
-10.25564 -41.667497 29.347136
-10.342509 -45.315805 23.70112
9.4665511 -33.542032 20.730116
3.4419152 -37.20209 22.992156
8.0305617 -32.627258 22.97994
8.2855755 -36.30333 18.987405
-5.6191004 -34.258503 30.732704
-1.8834938 -37.855996 26.600683
-7.8071192 -37.752903 30.103684
-1.7990155 -32.88242 29.52148
-5.8234663 -39.71878 27.931356
-6.4031923 -48.760655 17.329357
-2.0111814 -43.085912 22.606195
-8.3999418 -47.206787 20.56267
-2.1142675 -48.201862 17.104784
-6.227686 -45.728856 23.967385
4.9584665 -30.230753 27.11948
1.7915522 -36.00808 25.302188
6.5168735 -31.513659 25.128591
1.7252504 -31.534141 28.311009
5.0278902 -34.292577 24.115498
0 -34.592947 27.500378
5.5213979 -42.045743 14.942902
1.893688 -40.568828 21.285539
6.967445 -39.156306 17.055984
1.9711647 -44.939349 15.947057
5.2252955 -38.368471 20.109664
0 -44.257474 19.371236
-19.245399 32.684533 2.4995761
-17.682988 33.265911 7.5307119
-17.279814 34.644856 2.5536448
-13.435394 32.464826 17.354875
-15.739706 33.205793 12.521016
-13.019578 38.888786 2.7143468
-15.629992 35.260401 7.7259777
-15.201994 36.715258 2.6279752
-16.50137 35.037199 5.147303
-1.6140571 22.719517 32.535294
-4.8168774 26.094788 29.611505
-10.806901 31.022788 21.90309
-7.9097521 28.886451 26.03126
-2.0595597 49.776753 3.3324376
-5.6504917 44.768117 9.1426877
-5.1945944 46.665829 3.139269
-11.077347 34.383714 17.923525
-8.6144828 39.558628 13.938526
-12.339861 34.883666 15.478245
-10.572591 41.321715 2.8455763
-8.4124381 42.162564 8.7000782
-8.0247566 43.854912 2.9760367
-12.054656 39.408436 5.5119752
-6.8797778 44.462446 6.0493631
-14.599246 35.327314 10.40558
-9.862774 39.715378 11.207596
-13.523662 35.19716 12.951739
-13.398738 37.394224 8.0401673
-11.148243 37.314935 13.426354
-10.992862 39.694136 8.3678485
30.435455 51.688646 3.952931
26.363655 49.596314 11.227576
25.822561 51.772484 3.8161087
18.17422 43.915565 23.47615
22.196728 46.828064 17.65761
17.362624 51.861236 3.6197936
22.180466 50.037908 10.963907
21.458284 51.825203 3.7095026
24.041078 51.046186 7.4991779
1.6596096 23.360715 33.453517
5.3375498 28.915461 32.812312
0 25.271391 32.175848
14.273306 40.97361 28.928692
9.7167049 35.485451 31.978003
-3.2995314 28.691046 29.032882
3.5575015 30.934223 31.302785
-1.6644516 27.065747 30.690302
1.7227295 28.013407 31.764869
2.1486112 51.929006 3.476526
6.4203458 50.867572 10.388338
5.7792709 51.918292 3.4926088
0 51.130257 6.888772
14.433382 44.800732 23.353703
10.567334 48.52633 17.098306
16.333714 46.173925 20.48785
13.275441 51.885481 3.5730389
10.12437 50.742648 10.470545
9.4976727 51.904328 3.5222779
15.704627 51.340725 7.1809195
7.9676909 51.493382 7.0059611
-3.8295423 45.138899 12.476085
4.2460815 50.048655 13.833108
-2.0280137 48.123184 9.850658
2.1475572 50.959858 10.431316
20.170441 48.808512 14.376436
12.314071 49.586249 13.993135
18.260205 47.524655 17.487971
18.033365 50.328899 10.821264
14.364261 48.079456 17.299556
14.001326 50.557402 10.657914
-9.4665511 33.542032 20.730116
-3.4419152 37.20209 22.992156
-8.0305617 32.627258 22.97994
-8.2855755 36.30333 18.987405
12.174697 43.137576 26.660488
3.8221173 41.31152 25.531924
10.25564 41.667497 29.347136
10.342509 45.315805 23.70112
-4.9584665 30.230753 27.11948
-1.7915522 36.00808 25.302188
-6.5168735 31.513659 25.128591
-1.7252504 31.534141 28.311009
-5.0278902 34.292577 24.115498
-5.5213979 42.045743 14.942902
-1.893688 40.568828 21.285539
-6.967445 39.156306 17.055984
-1.9711647 44.939349 15.947057
-5.2252955 38.368471 20.109664
5.6191004 34.258503 30.732704
1.8834938 37.855996 26.600683
7.8071192 37.752903 30.103684
1.7990155 32.88242 29.52148
5.8234663 39.71878 27.931356
0 34.592947 27.500378
6.4031923 48.760655 17.329357
2.0111814 43.085912 22.606195
8.3999418 47.206787 20.56267
2.1142675 48.201862 17.104784
6.227686 45.728856 23.967385
0 44.257474 19.371236
0 -18.150676 34.494685
0 -12.856508 35.664575
0 -2.5478017 36.760864
0 -7.6674656 36.403458
0 18.150676 34.494685
0 12.856508 35.664575
0 2.5478017 36.760864
0 7.6674656 36.403458
-30.435455 -51.688646 -3.952931
-26.363655 -49.596314 -11.227576
-25.822561 -51.772484 -3.8161087
-18.17422 -43.915565 -23.47615
-22.196728 -46.828064 -17.65761
-17.362624 -51.861236 -3.6197936
-22.180466 -50.037908 -10.963907
-21.458284 -51.825203 -3.7095026
-24.041078 -51.046186 -7.4991779
-1.6596096 -23.360715 -33.453517
-5.3375498 -28.915461 -32.812312
-14.273306 -40.97361 -28.928692
-9.7167049 -35.485451 -31.978003
-2.1486112 -51.929006 -3.476526
-6.4203458 -50.867572 -10.388338
-5.7792709 -51.918292 -3.4926088
-14.433382 -44.800732 -23.353703
-10.567334 -48.52633 -17.098306
-16.333714 -46.173925 -20.48785
-13.275441 -51.885481 -3.5730389
-10.12437 -50.742648 -10.470545
-9.4976727 -51.904328 -3.5222779
-15.704627 -51.340725 -7.1809195
-7.9676909 -51.493382 -7.0059611
-20.170441 -48.808512 -14.376436
-12.314071 -49.586249 -13.993135
-18.260205 -47.524655 -17.487971
-18.033365 -50.328899 -10.821264
-14.364261 -48.079456 -17.299556
-14.001326 -50.557402 -10.657914
19.245399 -32.684533 -2.4995761
17.682988 -33.265911 -7.5307119
17.279814 -34.644856 -2.5536448
13.435394 -32.464826 -17.354875
15.739706 -33.205793 -12.521016
13.019578 -38.888786 -2.7143468
15.629992 -35.260401 -7.7259777
15.201994 -36.715258 -2.6279752
16.50137 -35.037199 -5.147303
1.6140571 -22.719517 -32.535294
4.8168774 -26.094788 -29.611505
0 -25.271391 -32.175848
10.806901 -31.022788 -21.90309
7.9097521 -28.886451 -26.03126
-3.5575015 -30.934223 -31.302785
3.2995314 -28.691046 -29.032882
-1.7227295 -28.013407 -31.764869
1.6644516 -27.065747 -30.690302
2.0595597 -49.776753 -3.3324376
5.6504917 -44.768117 -9.1426877
5.1945944 -46.665829 -3.139269
0 -51.130257 -6.888772
11.077347 -34.383714 -17.923525
8.6144828 -39.558628 -13.938526
12.339861 -34.883666 -15.478245
10.572591 -41.321715 -2.8455763
8.4124381 -42.162564 -8.7000782
8.0247566 -43.854912 -2.9760367
12.054656 -39.408436 -5.5119752
6.8797778 -44.462446 -6.0493631
-4.2460815 -50.048655 -13.833108
3.8295423 -45.138899 -12.476085
-2.1475572 -50.959858 -10.431316
2.0280137 -48.123184 -9.850658
14.599246 -35.327314 -10.40558
9.862774 -39.715378 -11.207596
13.523662 -35.19716 -12.951739
13.398738 -37.394224 -8.0401673
11.148243 -37.314935 -13.426354
10.992862 -39.694136 -8.3678485
-12.174697 -43.137576 -26.660488
-3.8221173 -41.31152 -25.531924
-10.25564 -41.667497 -29.347136
-10.342509 -45.315805 -23.70112
9.4665511 -33.542032 -20.730116
3.4419152 -37.20209 -22.992156
8.0305617 -32.627258 -22.97994
8.2855755 -36.30333 -18.987405
-5.6191004 -34.258503 -30.732704
-1.8834938 -37.855996 -26.600683
-7.8071192 -37.752903 -30.103684
-1.7990155 -32.88242 -29.52148
-5.8234663 -39.71878 -27.931356
-6.4031923 -48.760655 -17.329357
-2.0111814 -43.085912 -22.606195
-8.3999418 -47.206787 -20.56267
-2.1142675 -48.201862 -17.104784
-6.227686 -45.728856 -23.967385
4.9584665 -30.230753 -27.11948
1.7915522 -36.00808 -25.302188
6.5168735 -31.513659 -25.128591
1.7252504 -31.534141 -28.311009
5.0278902 -34.292577 -24.115498
0 -34.592947 -27.500378
5.5213979 -42.045743 -14.942902
1.893688 -40.568828 -21.285539
6.967445 -39.156306 -17.055984
1.9711647 -44.939349 -15.947057
5.2252955 -38.368471 -20.109664
0 -44.257474 -19.371236
-19.245399 32.684533 -2.4995761
-17.682988 33.265911 -7.5307119
-17.279814 34.644856 -2.5536448
-13.435394 32.464826 -17.354875
-15.739706 33.205793 -12.521016
-13.019578 38.888786 -2.7143468
-15.629992 35.260401 -7.7259777
-15.201994 36.715258 -2.6279752
-16.50137 35.037199 -5.147303
-1.6140571 22.719517 -32.535294
-4.8168774 26.094788 -29.611505
-10.806901 31.022788 -21.90309
-7.9097521 28.886451 -26.03126
-2.0595597 49.776753 -3.3324376
-5.6504917 44.768117 -9.1426877
-5.1945944 46.665829 -3.139269
-11.077347 34.383714 -17.923525
-8.6144828 39.558628 -13.938526
-12.339861 34.883666 -15.478245
-10.572591 41.321715 -2.8455763
-8.4124381 42.162564 -8.7000782
-8.0247566 43.854912 -2.9760367
-12.054656 39.408436 -5.5119752
-6.8797778 44.462446 -6.0493631
-14.599246 35.327314 -10.40558
-9.862774 39.715378 -11.207596
-13.523662 35.19716 -12.951739
-13.398738 37.394224 -8.0401673
-11.148243 37.314935 -13.426354
-10.992862 39.694136 -8.3678485
30.435455 51.688646 -3.952931
26.363655 49.596314 -11.227576
25.822561 51.772484 -3.8161087
18.17422 43.915565 -23.47615
22.196728 46.828064 -17.65761
17.362624 51.861236 -3.6197936
22.180466 50.037908 -10.963907
21.458284 51.825203 -3.7095026
24.041078 51.046186 -7.4991779
1.6596096 23.360715 -33.453517
5.3375498 28.915461 -32.812312
0 25.271391 -32.175848
14.273306 40.97361 -28.928692
9.7167049 35.485451 -31.978003
-3.2995314 28.691046 -29.032882
3.5575015 30.934223 -31.302785
-1.6644516 27.065747 -30.690302
1.7227295 28.013407 -31.764869
2.1486112 51.929006 -3.476526
6.4203458 50.867572 -10.388338
5.7792709 51.918292 -3.4926088
0 51.130257 -6.888772
14.433382 44.800732 -23.353703
10.567334 48.52633 -17.098306
16.333714 46.173925 -20.48785
13.275441 51.885481 -3.5730389
10.12437 50.742648 -10.470545
9.4976727 51.904328 -3.5222779
15.704627 51.340725 -7.1809195
7.9676909 51.493382 -7.0059611
-3.8295423 45.138899 -12.476085
4.2460815 50.048655 -13.833108
-2.0280137 48.123184 -9.850658
2.1475572 50.959858 -10.431316
20.170441 48.808512 -14.376436
12.314071 49.586249 -13.993135
18.260205 47.524655 -17.487971
18.033365 50.328899 -10.821264
14.364261 48.079456 -17.299556
14.001326 50.557402 -10.657914
-9.4665511 33.542032 -20.730116
-3.4419152 37.20209 -22.992156
-8.0305617 32.627258 -22.97994
-8.2855755 36.30333 -18.987405
12.174697 43.137576 -26.660488
3.8221173 41.31152 -25.531924
10.25564 41.667497 -29.347136
10.342509 45.315805 -23.70112
-4.9584665 30.230753 -27.11948
-1.7915522 36.00808 -25.302188
-6.5168735 31.513659 -25.128591
-1.7252504 31.534141 -28.311009
-5.0278902 34.292577 -24.115498
-5.5213979 42.045743 -14.942902
-1.893688 40.568828 -21.285539
-6.967445 39.156306 -17.055984
-1.9711647 44.939349 -15.947057
-5.2252955 38.368471 -20.109664
5.6191004 34.258503 -30.732704
1.8834938 37.855996 -26.600683
7.8071192 37.752903 -30.103684
1.7990155 32.88242 -29.52148
5.8234663 39.71878 -27.931356
0 34.592947 -27.500378
6.4031923 48.760655 -17.329357
2.0111814 43.085912 -22.606195
8.3999418 47.206787 -20.56267
2.1142675 48.201862 -17.104784
6.227686 45.728856 -23.967385
0 44.257474 -19.371236
0 -18.150676 -34.494685
0 -12.856508 -35.664575
0 -2.5478017 -36.760864
0 -7.6674656 -36.403458
0 18.150676 -34.494685
0 12.856508 -35.664575
0 2.5478017 -36.760864
0 7.6674656 -36.403458
36.201071 51.841441 -2.5718239
42.865118 48.641922 -7.9125385
33.938494 50.865996 -6.54922
45.663597 32.239974 -15.907081
45.244897 40.772807 -12.389058
29.120283 47.956812 -13.700986
39.47672 46.643623 -11.66
31.513016 49.479617 -10.27525
37.067278 49.234635 -9.1851749
41.857348 3.2010746 -24.646562
45.161069 10.223529 -24.006035
45.611143 24.382563 -18.875926
45.415607 17.12501 -21.527217
20.27263 41.632942 -25.730573
28.427278 39.460927 -24.388194
22.34428 43.173536 -22.964576
43.053709 31.279571 -19.331838
36.315943 36.170103 -22.354353
42.708019 35.20716 -17.739689
26.726685 46.310383 -17.049893
30.834531 41.106195 -21.549078
24.50185 44.743256 -20.064446
31.503629 45.663159 -16.200572
26.594476 42.255304 -22.330825
41.13201 43.069136 -14.003935
35.155691 39.575882 -20.530208
42.117572 39.214132 -15.968329
36.405777 44.659698 -15.206445
39.124396 37.659732 -19.287603
33.525306 42.809777 -18.502716
21.383577 -30.622172 -1.5191482
24.201818 -27.463425 -4.4674511
20.707159 -31.035268 -3.9959268
29.311811 -20.695085 -10.210876
26.827245 -24.17559 -7.3458957
19.071524 -31.407988 -8.9730821
23.433564 -27.687871 -6.9214303
19.933622 -31.298431 -6.49963
22.106873 -29.363468 -5.4780255
38.245009 -2.924818 -22.519535
36.184944 -8.1915204 -19.234643
31.69163 -16.941544 -13.115411
33.984911 -12.814801 -16.109012
14.694587 -30.177578 -18.650769
19.431382 -26.973401 -16.670478
15.904484 -30.730586 -16.346006
28.294292 -20.556494 -12.704612
23.902965 -23.806974 -14.713519
27.1574 -22.387715 -11.280407
18.08671 -31.339557 -11.538149
20.542099 -27.385126 -14.35609
17.042158 -31.120983 -13.955741
20.370754 -29.526533 -10.475551
18.274564 -29.036002 -15.344769
24.750909 -25.916562 -8.4267733
22.823725 -25.693395 -13.328591
25.971556 -24.181167 -9.8467769
22.593742 -27.716198 -9.4372522
24.99142 -24.055839 -12.320307
21.624479 -27.613144 -11.934614
2.5469331 -19.610023 -33.303775
7.3436765 -17.243807 -32.439707
4.1296343 -21.40004 -32.073738
2.5146458 -17.015919 -34.115763
16.34062 -12.650201 -30.567514
11.890967 -14.947695 -31.5349
7.2714599 -24.618643 -29.088098
8.8910713 -18.897217 -31.12093
5.7194151 -23.081014 -30.657371
6.5620708 -20.12512 -31.599109
2.4698179 -11.846675 -35.38539
7.3030422 -14.774375 -33.330176
2.4915892 -14.413045 -34.809818
4.9547518 -15.884084 -33.726521
36.116866 -1.7917368 -25.220542
30.538766 -4.967714 -26.911925
35.37931 -4.5552412 -23.605563
20.832685 -10.278768 -29.506703
25.510977 -7.751661 -28.309102
33.665321 -9.6179891 -20.442219
30.075915 -7.5183949 -25.45468
34.549055 -7.1746752 -22.003908
32.649187 -6.0910066 -24.580592
13.15716 -29.302155 -21.288731
14.948306 -24.28439 -24.186867
11.790457 -28.385339 -23.399989
15.65524 -27.775847 -20.2849
17.924259 -14.122184 -29.002061
16.520961 -19.257103 -26.731477
15.721213 -15.296568 -29.555971
8.8720483 -26.05876 -27.286006
13.534798 -23.176831 -26.090898
10.349494 -27.297508 -25.415712
9.703918 -23.232168 -28.499367
12.70027 -25.762164 -24.797729
20.401912 -24.730118 -18.334577
17.428215 -22.917572 -23.253291
18.076669 -26.245414 -19.297235
16.570256 -25.342114 -21.823918
11.26544 -17.659224 -30.598835
14.333463 -20.509722 -27.341964
13.493753 -16.477998 -30.09076
10.502892 -20.42392 -29.603597
15.049839 -17.923322 -28.477923
12.06452 -21.859857 -27.913708
2.4568114 -1.5183929 -36.697489
7.3192867 -4.523568 -35.839645
2.4564094 -4.0646566 -36.514992
16.477644 -10.183744 -31.609998
12.027705 -7.4335303 -34.135567
14.225059 -11.340772 -32.059334
2.4702532 -9.1780977 -35.871503
7.2998823 -7.0585352 -35.376895
2.4592355 -6.6312241 -36.239323
4.9097192 -10.737526 -35.102545
4.9049092 -5.5782212 -36.050781
9.6944141 -13.601466 -32.912881
9.7245232 -8.5576582 -34.459944
11.957212 -12.485218 -32.49447
7.3337425 -12.221498 -34.108695
12.004993 -9.9680504 -33.364644
7.3348119 -9.6357594 -34.793773
29.599498 -18.293496 -14.413098
27.222058 -16.824157 -19.610513
30.6577 -16.307237 -15.866763
27.321797 -19.953304 -15.399325
20.563245 -12.708784 -28.303583
24.178785 -14.943311 -24.276276
22.815415 -11.49591 -27.676222
19.830871 -15.304835 -27.154151
32.671916 -12.028678 -18.855642
28.028393 -14.693309 -21.024625
31.690084 -14.210946 -17.353804
31.176104 -11.060792 -21.508814
29.427696 -15.551769 -18.521087
22.791645 -23.125519 -17.33245
24.831927 -18.410057 -20.485902
25.045422 -21.568415 -16.37626
21.422222 -22.36186 -19.901856
26.156496 -19.231856 -18.015425
27.50872 -8.944464 -26.271457
26.40807 -13.699333 -23.458579
25.137757 -10.236309 -26.998973
29.439407 -10.023998 -23.998471
24.687422 -12.643775 -25.647566
28.749589 -12.425794 -22.514455
18.285845 -20.347685 -24.664387
23.269609 -17.440445 -22.933655
19.069007 -17.862876 -25.935011
19.907105 -21.427872 -22.367758
21.627846 -16.421385 -25.114434
22.383222 -19.920867 -21.442686
2.6463754 20.375676 -34.604086
8.1444034 19.124007 -35.976811
4.4286538 22.949579 -34.39614
2.5980513 17.580301 -35.24731
19.603708 15.176343 -36.671597
13.84569 17.404905 -36.718834
8.4775857 28.702167 -33.912976
10.253319 21.792559 -35.889131
6.3742353 25.723577 -34.167357
7.3137197 22.430341 -35.218612
2.5249584 12.111161 -36.175394
7.9649784 16.113501 -36.35117
2.560391 14.811041 -35.771044
5.2704119 16.896036 -35.875189
37.976611 1.8839977 -26.519209
34.667081 5.6392634 -30.549954
40.528109 5.2181717 -27.040913
34.826035 0 -27.352887
25.192259 12.429765 -35.681454
30.318055 9.2123201 -33.643436
43.326665 12.37818 -26.308771
36.849804 9.2117356 -31.187744
43.244106 8.9803446 -27.541689
38.846475 7.2471679 -29.246345
29.126979 -3.3102253 -28.784035
31.451504 3.5744031 -31.081191
31.872652 -1.728575 -28.10846
33.253828 1.8034813 -29.326518
17.875613 39.810567 -28.923349
20.834599 33.847014 -33.711089
15.899609 38.278056 -31.555236
21.853729 38.773333 -28.316443
22.649623 17.845208 -36.647859
22.687385 26.444787 -36.70896
19.576048 19.04728 -36.803084
10.931887 32.108865 -33.621044
18.4725 31.632096 -35.609259
13.555913 35.75466 -33.289858
11.880552 28.443252 -34.891909
17.422366 35.340813 -34.017791
29.737459 36.046175 -26.72415
24.621814 32.376936 -32.851224
25.84556 37.525024 -27.590694
23.310877 35.651042 -30.701677
13.4048 21.012793 -36.409697
19.05274 27.262527 -36.344277
16.464212 20.105396 -36.714815
12.705947 24.707981 -35.813159
19.401154 23.105439 -36.711659
15.439196 27.974476 -35.721705
2.4636052 1.5225917 -36.798968
7.5050228 4.6383592 -36.749121
2.4747176 4.0949516 -36.787147
4.9363791 0 -36.639089
18.998309 11.741601 -36.445533
12.909947 7.9787862 -36.639441
16.297807 12.993248 -36.730733
2.512666 9.3356801 -36.487395
7.5944742 7.3433874 -36.804555
2.4893872 6.7125267 -36.683639
5.1127253 11.181499 -36.553957
5.0070861 5.6944242 -36.801774
9.8561966 -3.0253659 -35.660054
10.080596 3.0942454 -36.471938
7.4216582 -1.527941 -36.256849
7.4845785 1.5408948 -36.564233
10.802833 15.156601 -36.676002
10.383312 9.1373981 -36.794438
13.542487 14.140496 -36.802554
7.873159 13.120422 -36.617481
13.230545 10.985657 -36.770736
7.7503224 10.181617 -36.764809
43.275788 26.745908 -21.072593
38.469145 23.775239 -27.712808
43.362212 23.064935 -22.441929
40.477788 29.561218 -22.814407
26.239315 16.216789 -36.116219
33.706536 20.831785 -33.842443
29.146458 14.685907 -35.356089
26.694178 20.601716 -36.551987
43.369228 15.967061 -25.029284
38.744163 20.310831 -29.062726
43.389332 19.457299 -23.760428
41.235765 14.629802 -28.44911
41.053347 21.695623 -25.837993
33.686978 34.180457 -25.618067
35.451567 26.283315 -29.246918
37.228689 32.060303 -24.342441
30.996602 32.356199 -28.796728
37.928489 27.887346 -26.123448
34.474354 11.209341 -32.923796
36.347338 18.855383 -32.28774
31.9228 12.999236 -34.286384
39.008593 13.282266 -31.799098
33.622117 17.21972 -34.929751
38.890147 16.808622 -30.455755
25.872336 28.789598 -34.897228
32.884589 24.64682 -32.409819
26.960547 25.255271 -36.667986
28.386463 30.554996 -31.895223
30.447406 23.117816 -35.35578
32.038338 28.513834 -30.692097
19.188639 -8.762625 -31.04787
20.325441 -3.0427093 -32.887255
21.514942 -7.518604 -30.547232
17.000023 -7.4183373 -32.503517
22.131376 10.106446 -35.809319
21.322202 3.1919239 -34.500048
24.660403 8.6178157 -35.013204
18.844729 8.2233155 -36.030537
26.409714 -4.8286945 -29.43956
22.831687 -1.6166254 -32.492258
23.928992 -6.2057683 -30.009247
27.406549 -1.6701333 -30.52671
22.184761 -4.6253469 -31.547042
12.368359 -4.5701049 -34.801595
17.904706 -1.592909 -34.125185
14.707389 -6.0080334 -33.764514
12.570464 -1.5537948 -35.423995
17.47885 -4.5417048 -33.348979
29.313068 5.3595373 -32.676
23.480444 1.6625614 -33.415517
27.081206 7.0232666 -33.962425
28.382374 1.7295993 -31.61363
24.084028 5.0213289 -34.247825
25.505366 0 -32.083406
12.91919 4.773637 -36.351503
18.29402 1.6275447 -34.867192
15.772166 6.4429996 -36.208978
12.755733 1.5766953 -35.946089
18.603004 4.833805 -35.493822
15.389129 0 -35.159553
36.201071 51.841441 2.5718239
42.865118 48.641922 7.9125385
33.938494 50.865996 6.54922
40.88093 52.050106 0
45.663597 32.239974 15.907081
45.244897 40.772807 12.389058
29.120283 47.956812 13.700986
39.47672 46.643623 11.66
31.513016 49.479617 10.27525
37.067278 49.234635 9.1851749
47.862436 48.432687 -5.504282
47.862436 48.432687 5.504282
45.387345 51.465468 -2.7911677
45.387345 51.465468 2.7911677
41.857348 3.2010746 24.646562
45.161069 10.223529 24.006035
45.611143 24.382563 18.875926
45.415607 17.12501 21.527217
20.27263 41.632942 25.730573
28.427278 39.460927 24.388194
22.34428 43.173536 22.964576
43.053709 31.279571 19.331838
36.315943 36.170103 22.354353
42.708019 35.20716 17.739689
26.726685 46.310383 17.049893
30.834531 41.106195 21.549078
24.50185 44.743256 20.064446
31.503629 45.663159 16.200572
26.594476 42.255304 22.330825
41.13201 43.069136 14.003935
35.155691 39.575882 20.530208
42.117572 39.214132 15.968329
36.405777 44.659698 15.206445
39.124396 37.659732 19.287603
33.525306 42.809777 18.502716
47.961671 29.641943 -13.536199
51.48917 31.822057 -4.7637474
48.17152 33.928031 -11.856478
47.961671 29.641943 13.536199
51.48917 31.822057 4.7637474
48.17152 33.928031 11.856478
48.399587 43.418423 -7.9385296
51.837248 36.425041 -2.5791194
48.347448 38.55164 -9.9980204
51.382581 46.130724 -2.8111697
50.405386 35.446475 -7.3903092
48.399587 43.418423 7.9385296
51.837248 36.425041 2.5791194
48.347448 38.55164 9.9980204
51.382581 46.130724 2.8111697
50.405386 35.446475 7.3903092
52.050106 41.378307 0
21.383577 -30.622172 1.5191482
24.201818 -27.463425 4.4674511
20.707159 -31.035268 3.9959268
22.897159 -29.152947 0
29.311811 -20.695085 10.210876
26.827245 -24.17559 7.3458957
19.071524 -31.407988 8.9730821
23.433564 -27.687871 6.9214303
19.933622 -31.298431 6.49963
22.106873 -29.363468 5.4780255
25.786818 -26.094052 -2.965539
25.786818 -26.094052 2.965539
24.371585 -27.635347 -1.4987698
24.371585 -27.635347 1.4987698
38.245009 -2.924818 22.519535
36.184944 -8.1915204 19.234643
31.69163 -16.941544 13.115411
33.984911 -12.814801 16.109012
14.694587 -30.177578 18.650769
19.431382 -26.973401 16.670478
15.904484 -30.730586 16.346006
28.294292 -20.556494 12.704612
23.902965 -23.806974 14.713519
27.1574 -22.387715 11.280407
18.08671 -31.339557 11.538149
20.542099 -27.385126 14.35609
17.042158 -31.120983 13.955741
20.370754 -29.526533 10.475551
18.274564 -29.036002 15.344769
24.750909 -25.916562 8.4267733
22.823725 -25.693395 13.328591
25.971556 -24.181167 9.8467769
22.593742 -27.716198 9.4372522
24.99142 -24.055839 12.320307
21.624479 -27.613144 11.934614
31.23252 -19.302759 -8.8147386
32.06407 -19.816685 -2.9665487
29.922466 -21.074908 -7.3648299
31.23252 -19.302759 8.8147386
32.06407 -19.816685 2.9665487
29.922466 -21.074908 7.3648299
27.234097 -24.431232 -4.4669531
30.543433 -21.462286 -1.5196633
28.582873 -22.791619 -5.910801
27.403941 -24.602961 -1.4992849
30.335718 -21.332925 -4.4477457
27.234097 -24.431232 4.4669531
30.543433 -21.462286 1.5196633
28.582873 -22.791619 5.910801
27.403941 -24.602961 1.4992849
30.335718 -21.332925 4.4477457
28.997748 -23.052359 0
2.5469331 -19.610023 33.303775
7.3436765 -17.243807 32.439707
4.1296343 -21.40004 32.073738
2.5146458 -17.015919 34.115763
16.34062 -12.650201 30.567514
11.890967 -14.947695 31.5349
7.2714599 -24.618643 29.088098
8.8910713 -18.897217 31.12093
5.7194151 -23.081014 30.657371
6.5620708 -20.12512 31.599109
2.4698179 -11.846675 35.38539
7.3030422 -14.774375 33.330176
2.4915892 -14.413045 34.809818
4.9547518 -15.884084 33.726521
36.116866 -1.7917368 25.220542
30.538766 -4.967714 26.911925
35.37931 -4.5552412 23.605563
20.832685 -10.278768 29.506703
25.510977 -7.751661 28.309102
33.665321 -9.6179891 20.442219
30.075915 -7.5183949 25.45468
34.549055 -7.1746752 22.003908
32.649187 -6.0910066 24.580592
13.15716 -29.302155 21.288731
14.948306 -24.28439 24.186867
11.790457 -28.385339 23.399989
15.65524 -27.775847 20.2849
17.924259 -14.122184 29.002061
16.520961 -19.257103 26.731477
15.721213 -15.296568 29.555971
8.8720483 -26.05876 27.286006
13.534798 -23.176831 26.090898
10.349494 -27.297508 25.415712
9.703918 -23.232168 28.499367
12.70027 -25.762164 24.797729
20.401912 -24.730118 18.334577
17.428215 -22.917572 23.253291
18.076669 -26.245414 19.297235
16.570256 -25.342114 21.823918
11.26544 -17.659224 30.598835
14.333463 -20.509722 27.341964
13.493753 -16.477998 30.09076
10.502892 -20.42392 29.603597
15.049839 -17.923322 28.477923
12.06452 -21.859857 27.913708
2.4568114 -1.5183929 36.697489
7.3192867 -4.523568 35.839645
2.4564094 -4.0646566 36.514992
16.477644 -10.183744 31.609998
12.027705 -7.4335303 34.135567
14.225059 -11.340772 32.059334
2.4702532 -9.1780977 35.871503
7.2998823 -7.0585352 35.376895
2.4592355 -6.6312241 36.239323
4.9097192 -10.737526 35.102545
4.9049092 -5.5782212 36.050781
9.6944141 -13.601466 32.912881
9.7245232 -8.5576582 34.459944
11.957212 -12.485218 32.49447
7.3337425 -12.221498 34.108695
12.004993 -9.9680504 33.364644
7.3348119 -9.6357594 34.793773
29.599498 -18.293496 14.413098
27.222058 -16.824157 19.610513
30.6577 -16.307237 15.866763
27.321797 -19.953304 15.399325
20.563245 -12.708784 28.303583
24.178785 -14.943311 24.276276
22.815415 -11.49591 27.676222
19.830871 -15.304835 27.154151
32.671916 -12.028678 18.855642
28.028393 -14.693309 21.024625
31.690084 -14.210946 17.353804
31.176104 -11.060792 21.508814
29.427696 -15.551769 18.521087
22.791645 -23.125519 17.33245
24.831927 -18.410057 20.485902
25.045422 -21.568415 16.37626
21.422222 -22.36186 19.901856
26.156496 -19.231856 18.015425
27.50872 -8.944464 26.271457
26.40807 -13.699333 23.458579
25.137757 -10.236309 26.998973
29.439407 -10.023998 23.998471
24.687422 -12.643775 25.647566
28.749589 -12.425794 22.514455
18.285845 -20.347685 24.664387
23.269609 -17.440445 22.933655
19.069007 -17.862876 25.935011
19.907105 -21.427872 22.367758
21.627846 -16.421385 25.114434
22.383222 -19.920867 21.442686
2.6463754 20.375676 34.604086
8.1444034 19.124007 35.976811
4.4286538 22.949579 34.39614
2.5980513 17.580301 35.24731
19.603708 15.176343 36.671597
13.84569 17.404905 36.718834
8.4775857 28.702167 33.912976
10.253319 21.792559 35.889131
6.3742353 25.723577 34.167357
7.3137197 22.430341 35.218612
2.5249584 12.111161 36.175394
7.9649784 16.113501 36.35117
2.560391 14.811041 35.771044
5.2704119 16.896036 35.875189
37.976611 1.8839977 26.519209
34.667081 5.6392634 30.549954
40.528109 5.2181717 27.040913
34.826035 0 27.352887
25.192259 12.429765 35.681454
30.318055 9.2123201 33.643436
43.326665 12.37818 26.308771
36.849804 9.2117356 31.187744
43.244106 8.9803446 27.541689
38.846475 7.2471679 29.246345
29.126979 -3.3102253 28.784035
31.451504 3.5744031 31.081191
31.872652 -1.728575 28.10846
33.253828 1.8034813 29.326518
17.875613 39.810567 28.923349
20.834599 33.847014 33.711089
15.899609 38.278056 31.555236
21.853729 38.773333 28.316443
22.649623 17.845208 36.647859
22.687385 26.444787 36.70896
19.576048 19.04728 36.803084
10.931887 32.108865 33.621044
18.4725 31.632096 35.609259
13.555913 35.75466 33.289858
11.880552 28.443252 34.891909
17.422366 35.340813 34.017791
29.737459 36.046175 26.72415
24.621814 32.376936 32.851224
25.84556 37.525024 27.590694
23.310877 35.651042 30.701677
13.4048 21.012793 36.409697
19.05274 27.262527 36.344277
16.464212 20.105396 36.714815
12.705947 24.707981 35.813159
19.401154 23.105439 36.711659
15.439196 27.974476 35.721705
2.4636052 1.5225917 36.798968
7.5050228 4.6383592 36.749121
2.4747176 4.0949516 36.787147
4.9363791 0 36.639089
18.998309 11.741601 36.445533
12.909947 7.9787862 36.639441
16.297807 12.993248 36.730733
2.512666 9.3356801 36.487395
7.5944742 7.3433874 36.804555
2.4893872 6.7125267 36.683639
5.1127253 11.181499 36.553957
5.0070861 5.6944242 36.801774
9.8561966 -3.0253659 35.660054
10.080596 3.0942454 36.471938
7.4216582 -1.527941 36.256849
7.4845785 1.5408948 36.564233
10.802833 15.156601 36.676002
10.383312 9.1373981 36.794438
13.542487 14.140496 36.802554
7.873159 13.120422 36.617481
13.230545 10.985657 36.770736
7.7503224 10.181617 36.764809
43.275788 26.745908 21.072593
38.469145 23.775239 27.712808
43.362212 23.064935 22.441929
40.477788 29.561218 22.814407
26.239315 16.216789 36.116219
33.706536 20.831785 33.842443
29.146458 14.685907 35.356089
26.694178 20.601716 36.551987
43.369228 15.967061 25.029284
38.744163 20.310831 29.062726
43.389332 19.457299 23.760428
41.235765 14.629802 28.44911
41.053347 21.695623 25.837993
33.686978 34.180457 25.618067
35.451567 26.283315 29.246918
37.228689 32.060303 24.342441
30.996602 32.356199 28.796728
37.928489 27.887346 26.123448
34.474354 11.209341 32.923796
36.347338 18.855383 32.28774
31.9228 12.999236 34.286384
39.008593 13.282266 31.799098
33.622117 17.21972 34.929751
38.890147 16.808622 30.455755
25.872336 28.789598 34.897228
32.884589 24.64682 32.409819
26.960547 25.255271 36.667986
28.386463 30.554996 31.895223
30.447406 23.117816 35.35578
32.038338 28.513834 30.692097
19.188639 -8.762625 31.04787
20.325441 -3.0427093 32.887255
21.514942 -7.518604 30.547232
17.000023 -7.4183373 32.503517
22.131376 10.106446 35.809319
21.322202 3.1919239 34.500048
24.660403 8.6178157 35.013204
18.844729 8.2233155 36.030537
26.409714 -4.8286945 29.43956
22.831687 -1.6166254 32.492258
23.928992 -6.2057683 30.009247
27.406549 -1.6701333 30.52671
22.184761 -4.6253469 31.547042
12.368359 -4.5701049 34.801595
17.904706 -1.592909 34.125185
14.707389 -6.0080334 33.764514
12.570464 -1.5537948 35.423995
17.47885 -4.5417048 33.348979
29.313068 5.3595373 32.676
23.480444 1.6625614 33.415517
27.081206 7.0232666 33.962425
28.382374 1.7295993 31.61363
24.084028 5.0213289 34.247825
25.505366 0 32.083406
12.91919 4.773637 36.351503
18.29402 1.6275447 34.867192
15.772166 6.4429996 36.208978
12.755733 1.5766953 35.946089
18.603004 4.833805 35.493822
15.389129 0 35.159553
41.757212 0 -21.972128
46.371808 0 -16.716294
44.705672 3.2952196 -22.297847
40.51611 -2.9864103 -20.20822
51.80187 0 -3.5902555
49.884133 0 -10.506828
46.881529 10.272307 -20.781328
49.253434 3.4377751 -16.489558
46.698164 6.8604114 -21.993302
47.419386 3.3941466 -19.634051
37.969355 -8.3195421 -16.830799
44.491564 -3.1054077 -14.895332
39.24515 -5.7654917 -18.483177
42.6246 -3.0509493 -17.648764
41.757212 0 21.972128
46.371808 0 16.716294
44.705672 3.2952196 22.297847
40.51611 -2.9864103 20.20822
51.80187 0 3.5902555
49.884133 0 10.506828
46.881529 10.272307 20.781328
49.253434 3.4377751 16.489558
46.698164 6.8604114 21.993302
47.419386 3.3941466 19.634051
37.969355 -8.3195421 16.830799
44.491564 -3.1054077 14.895332
39.24515 -5.7654917 18.483177
42.6246 -3.0509493 17.648764
47.705202 24.867743 -15.36911
50.302283 17.724065 -10.954074
47.494023 21.073591 -16.800689
49.596445 25.939984 -11.319488
52.002446 3.4814426 -2.1516499
51.540541 10.525774 -6.5052859
51.70905 3.4785328 -5.7559792
47.090532 13.870409 -19.460475
50.016654 14.114594 -12.420956
47.286662 17.400396 -18.168762
48.433455 10.413723 -17.354208
48.945582 17.611198 -14.623025
51.931648 27.247351 -2.4240862
51.376583 18.259049 -6.7467129
51.092211 26.778424 -6.9581064
50.692636 22.081061 -9.0202112
50.342607 3.4667905 -12.88068
50.81361 10.485187 -10.138528
51.148507 3.4709872 -9.3593694
49.508864 6.9247009 -15.144278
51.349651 6.9864057 -7.9454511
49.764939 10.490856 -13.781862
32.776285 -17.085605 -10.559485
37.527819 -13.222968 -8.1722439
34.06578 -15.11534 -12.050539
33.433026 -17.486176 -7.6304808
48.710923 -3.2610828 -2.01546
42.75583 -8.7317319 -5.3965071
48.247314 -3.2456574 -5.370637
36.645774 -10.793929 -15.144109
39.152317 -11.048701 -9.7229454
35.361467 -13.0122 -13.586793
39.53842 -8.5011928 -14.167025
36.553589 -13.152413 -10.920782
34.106491 -17.894898 -1.5920364
38.046652 -13.52164 -4.9962419
33.881488 -17.757949 -4.6142258
35.712505 -15.555908 -6.3546575
46.125313 -3.176371 -11.801642
42.012928 -8.6692013 -8.3825821
47.371288 -3.2146614 -8.6681979
42.692191 -5.9712671 -13.059124
44.989523 -6.1210749 -6.9613337
40.901406 -8.622351 -11.327202
47.705202 24.867743 15.36911
50.302283 17.724065 10.954074
47.494023 21.073591 16.800689
49.596445 25.939984 11.319488
52.002446 3.4814426 2.1516499
51.540541 10.525774 6.5052859
51.70905 3.4785328 5.7559792
52.050106 7.0127031 0
47.090532 13.870409 19.460475
50.016654 14.114594 12.420956
47.286662 17.400396 18.168762
48.433455 10.413723 17.354208
48.945582 17.611198 14.623025
51.931648 27.247351 2.4240862
51.376583 18.259049 6.7467129
51.092211 26.778424 6.9581064
52.050106 22.782025 0
50.692636 22.081061 9.0202112
50.342607 3.4667905 12.88068
50.81361 10.485187 10.138528
51.148507 3.4709872 9.3593694
49.508864 6.9247009 15.144278
51.349651 6.9864057 7.9454511
49.764939 10.490856 13.781862
51.794256 14.31558 -4.3941766
51.794256 14.31558 4.3941766
51.992137 10.64262 -2.1910596
51.972788 18.442925 -2.2796708
51.992137 10.64262 2.1910596
51.972788 18.442925 2.2796708
32.776285 -17.085605 10.559485
37.527819 -13.222968 8.1722439
34.06578 -15.11534 12.050539
33.433026 -17.486176 7.6304808
48.710923 -3.2610828 2.01546
42.75583 -8.7317319 5.3965071
48.247314 -3.2456574 5.370637
45.870042 -6.180064 0
36.645774 -10.793929 15.144109
39.152317 -11.048701 9.7229454
35.361467 -13.0122 13.586793
39.53842 -8.5011928 14.167025
36.553589 -13.152413 10.920782
34.106491 -17.894898 1.5920364
38.046652 -13.52164 4.9962419
33.881488 -17.757949 4.6142258
36.203881 -15.846225 0
35.712505 -15.555908 6.3546575
46.125313 -3.176371 11.801642
42.012928 -8.6692013 8.3825821
47.371288 -3.2146614 8.6681979
42.692191 -5.9712671 13.059124
44.989523 -6.1210749 6.9613337
40.901406 -8.622351 11.327202
40.600078 -11.221586 -3.4444729
40.600078 -11.221586 3.4444729
43.153209 -8.8333203 -1.8185683
38.377206 -13.618432 -1.6833308
43.153209 -8.8333203 1.8185683
38.377206 -13.618432 1.6833308
-21.383577 30.622172 -1.5191482
-24.201818 27.463425 -4.4674511
-20.707159 31.035268 -3.9959268
-29.311811 20.695085 -10.210876
-26.827245 24.17559 -7.3458957
-19.071524 31.407988 -8.9730821
-23.433564 27.687871 -6.9214303
-19.933622 31.298431 -6.49963
-22.106873 29.363468 -5.4780255
-38.245009 2.924818 -22.519535
-36.184944 8.1915204 -19.234643
-31.69163 16.941544 -13.115411
-33.984911 12.814801 -16.109012
-14.694587 30.177578 -18.650769
-19.431382 26.973401 -16.670478
-15.904484 30.730586 -16.346006
-28.294292 20.556494 -12.704612
-23.902965 23.806974 -14.713519
-27.1574 22.387715 -11.280407
-18.08671 31.339557 -11.538149
-20.542099 27.385126 -14.35609
-17.042158 31.120983 -13.955741
-20.370754 29.526533 -10.475551
-18.274564 29.036002 -15.344769
-24.750909 25.916562 -8.4267733
-22.823725 25.693395 -13.328591
-25.971556 24.181167 -9.8467769
-22.593742 27.716198 -9.4372522
-24.99142 24.055839 -12.320307
-21.624479 27.613144 -11.934614
-36.201071 -51.841441 -2.5718239
-42.865118 -48.641922 -7.9125385
-33.938494 -50.865996 -6.54922
-45.663597 -32.239974 -15.907081
-45.244897 -40.772807 -12.389058
-29.120283 -47.956812 -13.700986
-39.47672 -46.643623 -11.66
-31.513016 -49.479617 -10.27525
-37.067278 -49.234635 -9.1851749
-41.857348 -3.2010746 -24.646562
-45.161069 -10.223529 -24.006035
-45.611143 -24.382563 -18.875926
-45.415607 -17.12501 -21.527217
-20.27263 -41.632942 -25.730573
-28.427278 -39.460927 -24.388194
-22.34428 -43.173536 -22.964576
-43.053709 -31.279571 -19.331838
-36.315943 -36.170103 -22.354353
-42.708019 -35.20716 -17.739689
-26.726685 -46.310383 -17.049893
-30.834531 -41.106195 -21.549078
-24.50185 -44.743256 -20.064446
-31.503629 -45.663159 -16.200572
-26.594476 -42.255304 -22.330825
-41.13201 -43.069136 -14.003935
-35.155691 -39.575882 -20.530208
-42.117572 -39.214132 -15.968329
-36.405777 -44.659698 -15.206445
-39.124396 -37.659732 -19.287603
-33.525306 -42.809777 -18.502716
-2.6463754 -20.375676 -34.604086
-8.1444034 -19.124007 -35.976811
-4.4286538 -22.949579 -34.39614
-2.5980513 -17.580301 -35.24731
-19.603708 -15.176343 -36.671597
-13.84569 -17.404905 -36.718834
-8.4775857 -28.702167 -33.912976
-10.253319 -21.792559 -35.889131
-6.3742353 -25.723577 -34.167357
-7.3137197 -22.430341 -35.218612
-2.5249584 -12.111161 -36.175394
-7.9649784 -16.113501 -36.35117
-2.560391 -14.811041 -35.771044
-5.2704119 -16.896036 -35.875189
-37.976611 -1.8839977 -26.519209
-34.667081 -5.6392634 -30.549954
-40.528109 -5.2181717 -27.040913
-25.192259 -12.429765 -35.681454
-30.318055 -9.2123201 -33.643436
-43.326665 -12.37818 -26.308771
-36.849804 -9.2117356 -31.187744
-43.244106 -8.9803446 -27.541689
-38.846475 -7.2471679 -29.246345
-17.875613 -39.810567 -28.923349
-20.834599 -33.847014 -33.711089
-15.899609 -38.278056 -31.555236
-21.853729 -38.773333 -28.316443
-22.649623 -17.845208 -36.647859
-22.687385 -26.444787 -36.70896
-19.576048 -19.04728 -36.803084
-10.931887 -32.108865 -33.621044
-18.4725 -31.632096 -35.609259
-13.555913 -35.75466 -33.289858
-11.880552 -28.443252 -34.891909
-17.422366 -35.340813 -34.017791
-29.737459 -36.046175 -26.72415
-24.621814 -32.376936 -32.851224
-25.84556 -37.525024 -27.590694
-23.310877 -35.651042 -30.701677
-13.4048 -21.012793 -36.409697
-19.05274 -27.262527 -36.344277
-16.464212 -20.105396 -36.714815
-12.705947 -24.707981 -35.813159
-19.401154 -23.105439 -36.711659
-15.439196 -27.974476 -35.721705
-2.4636052 -1.5225917 -36.798968
-7.5050228 -4.6383592 -36.749121
-2.4747176 -4.0949516 -36.787147
-18.998309 -11.741601 -36.445533
-12.909947 -7.9787862 -36.639441
-16.297807 -12.993248 -36.730733
-2.512666 -9.3356801 -36.487395
-7.5944742 -7.3433874 -36.804555
-2.4893872 -6.7125267 -36.683639
-5.1127253 -11.181499 -36.553957
-5.0070861 -5.6944242 -36.801774
-10.802833 -15.156601 -36.676002
-10.383312 -9.1373981 -36.794438
-13.542487 -14.140496 -36.802554
-7.873159 -13.120422 -36.617481
-13.230545 -10.985657 -36.770736
-7.7503224 -10.181617 -36.764809
-43.275788 -26.745908 -21.072593
-38.469145 -23.775239 -27.712808
-43.362212 -23.064935 -22.441929
-40.477788 -29.561218 -22.814407
-26.239315 -16.216789 -36.116219
-33.706536 -20.831785 -33.842443
-29.146458 -14.685907 -35.356089
-26.694178 -20.601716 -36.551987
-43.369228 -15.967061 -25.029284
-38.744163 -20.310831 -29.062726
-43.389332 -19.457299 -23.760428
-41.235765 -14.629802 -28.44911
-41.053347 -21.695623 -25.837993
-33.686978 -34.180457 -25.618067
-35.451567 -26.283315 -29.246918
-37.228689 -32.060303 -24.342441
-30.996602 -32.356199 -28.796728
-37.928489 -27.887346 -26.123448
-34.474354 -11.209341 -32.923796
-36.347338 -18.855383 -32.28774
-31.9228 -12.999236 -34.286384
-39.008593 -13.282266 -31.799098
-33.622117 -17.21972 -34.929751
-38.890147 -16.808622 -30.455755
-25.872336 -28.789598 -34.897228
-32.884589 -24.64682 -32.409819
-26.960547 -25.255271 -36.667986
-28.386463 -30.554996 -31.895223
-30.447406 -23.117816 -35.35578
-32.038338 -28.513834 -30.692097
-2.5469331 19.610023 -33.303775
-7.3436765 17.243807 -32.439707
-4.1296343 21.40004 -32.073738
-2.5146458 17.015919 -34.115763
-16.34062 12.650201 -30.567514
-11.890967 14.947695 -31.5349
-7.2714599 24.618643 -29.088098
-8.8910713 18.897217 -31.12093
-5.7194151 23.081014 -30.657371
-6.5620708 20.12512 -31.599109
-2.4698179 11.846675 -35.38539
-7.3030422 14.774375 -33.330176
-2.4915892 14.413045 -34.809818
-4.9547518 15.884084 -33.726521
-36.116866 1.7917368 -25.220542
-30.538766 4.967714 -26.911925
-35.37931 4.5552412 -23.605563
-34.826035 0 -27.352887
-20.832685 10.278768 -29.506703
-25.510977 7.751661 -28.309102
-33.665321 9.6179891 -20.442219
-30.075915 7.5183949 -25.45468
-34.549055 7.1746752 -22.003908
-32.649187 6.0910066 -24.580592
-31.451504 -3.5744031 -31.081191
-29.126979 3.3102253 -28.784035
-33.253828 -1.8034813 -29.326518
-31.872652 1.728575 -28.10846
-13.15716 29.302155 -21.288731
-14.948306 24.28439 -24.186867
-11.790457 28.385339 -23.399989
-15.65524 27.775847 -20.2849
-17.924259 14.122184 -29.002061
-16.520961 19.257103 -26.731477
-15.721213 15.296568 -29.555971
-8.8720483 26.05876 -27.286006
-13.534798 23.176831 -26.090898
-10.349494 27.297508 -25.415712
-9.703918 23.232168 -28.499367
-12.70027 25.762164 -24.797729
-20.401912 24.730118 -18.334577
-17.428215 22.917572 -23.253291
-18.076669 26.245414 -19.297235
-16.570256 25.342114 -21.823918
-11.26544 17.659224 -30.598835
-14.333463 20.509722 -27.341964
-13.493753 16.477998 -30.09076
-10.502892 20.42392 -29.603597
-15.049839 17.923322 -28.477923
-12.06452 21.859857 -27.913708
-2.4568114 1.5183929 -36.697489
-7.3192867 4.523568 -35.839645
-2.4564094 4.0646566 -36.514992
-4.9363791 0 -36.639089
-16.477644 10.183744 -31.609998
-12.027705 7.4335303 -34.135567
-14.225059 11.340772 -32.059334
-2.4702532 9.1780977 -35.871503
-7.2998823 7.0585352 -35.376895
-2.4592355 6.6312241 -36.239323
-4.9097192 10.737526 -35.102545
-4.9049092 5.5782212 -36.050781
-10.080596 -3.0942454 -36.471938
-9.8561966 3.0253659 -35.660054
-7.4845785 -1.5408948 -36.564233
-7.4216582 1.527941 -36.256849
-9.6944141 13.601466 -32.912881
-9.7245232 8.5576582 -34.459944
-11.957212 12.485218 -32.49447
-7.3337425 12.221498 -34.108695
-12.004993 9.9680504 -33.364644
-7.3348119 9.6357594 -34.793773
-29.599498 18.293496 -14.413098
-27.222058 16.824157 -19.610513
-30.6577 16.307237 -15.866763
-27.321797 19.953304 -15.399325
-20.563245 12.708784 -28.303583
-24.178785 14.943311 -24.276276
-22.815415 11.49591 -27.676222
-19.830871 15.304835 -27.154151
-32.671916 12.028678 -18.855642
-28.028393 14.693309 -21.024625
-31.690084 14.210946 -17.353804
-31.176104 11.060792 -21.508814
-29.427696 15.551769 -18.521087
-22.791645 23.125519 -17.33245
-24.831927 18.410057 -20.485902
-25.045422 21.568415 -16.37626
-21.422222 22.36186 -19.901856
-26.156496 19.231856 -18.015425
-27.50872 8.944464 -26.271457
-26.40807 13.699333 -23.458579
-25.137757 10.236309 -26.998973
-29.439407 10.023998 -23.998471
-24.687422 12.643775 -25.647566
-28.749589 12.425794 -22.514455
-18.285845 20.347685 -24.664387
-23.269609 17.440445 -22.933655
-19.069007 17.862876 -25.935011
-19.907105 21.427872 -22.367758
-21.627846 16.421385 -25.114434
-22.383222 19.920867 -21.442686
-22.131376 -10.106446 -35.809319
-21.322202 -3.1919239 -34.500048
-24.660403 -8.6178157 -35.013204
-18.844729 -8.2233155 -36.030537
-19.188639 8.762625 -31.04787
-20.325441 3.0427093 -32.887255
-21.514942 7.518604 -30.547232
-17.000023 7.4183373 -32.503517
-29.313068 -5.3595373 -32.676
-23.480444 -1.6625614 -33.415517
-27.081206 -7.0232666 -33.962425
-28.382374 -1.7295993 -31.61363
-24.084028 -5.0213289 -34.247825
-12.91919 -4.773637 -36.351503
-18.29402 -1.6275447 -34.867192
-15.772166 -6.4429996 -36.208978
-12.755733 -1.5766953 -35.946089
-18.603004 -4.833805 -35.493822
-26.409714 4.8286945 -29.43956
-22.831687 1.6166254 -32.492258
-23.928992 6.2057683 -30.009247
-27.406549 1.6701333 -30.52671
-22.184761 4.6253469 -31.547042
-25.505366 0 -32.083406
-12.368359 4.5701049 -34.801595
-17.904706 1.592909 -34.125185
-14.707389 6.0080334 -33.764514
-12.570464 1.5537948 -35.423995
-17.47885 4.5417048 -33.348979
-15.389129 0 -35.159553
-21.383577 30.622172 1.5191482
-24.201818 27.463425 4.4674511
-20.707159 31.035268 3.9959268
-22.897159 29.152947 0
-29.311811 20.695085 10.210876
-26.827245 24.17559 7.3458957
-19.071524 31.407988 8.9730821
-23.433564 27.687871 6.9214303
-19.933622 31.298431 6.49963
-22.106873 29.363468 5.4780255
-25.786818 26.094052 -2.965539
-25.786818 26.094052 2.965539
-24.371585 27.635347 -1.4987698
-24.371585 27.635347 1.4987698
-38.245009 2.924818 22.519535
-36.184944 8.1915204 19.234643
-31.69163 16.941544 13.115411
-33.984911 12.814801 16.109012
-14.694587 30.177578 18.650769
-19.431382 26.973401 16.670478
-15.904484 30.730586 16.346006
-28.294292 20.556494 12.704612
-23.902965 23.806974 14.713519
-27.1574 22.387715 11.280407
-18.08671 31.339557 11.538149
-20.542099 27.385126 14.35609
-17.042158 31.120983 13.955741
-20.370754 29.526533 10.475551
-18.274564 29.036002 15.344769
-24.750909 25.916562 8.4267733
-22.823725 25.693395 13.328591
-25.971556 24.181167 9.8467769
-22.593742 27.716198 9.4372522
-24.99142 24.055839 12.320307
-21.624479 27.613144 11.934614
-31.23252 19.302759 -8.8147386
-32.06407 19.816685 -2.9665487
-29.922466 21.074908 -7.3648299
-31.23252 19.302759 8.8147386
-32.06407 19.816685 2.9665487
-29.922466 21.074908 7.3648299
-27.234097 24.431232 -4.4669531
-30.543433 21.462286 -1.5196633
-28.582873 22.791619 -5.910801
-27.403941 24.602961 -1.4992849
-30.335718 21.332925 -4.4477457
-27.234097 24.431232 4.4669531
-30.543433 21.462286 1.5196633
-28.582873 22.791619 5.910801
-27.403941 24.602961 1.4992849
