3.236850454 23.76765133 -12.45708954
0 25.072285 -10.97399125
0 -10.76445998 -20.45745545
0 -7.726239522 -21.43296173
0 -1.555031242 -22.43671142
0 -4.654395 -22.09805462
0 10.76445998 -20.45745545
0 7.726239522 -21.43296173
0 1.555031242 -22.43671142
0 4.654395 -22.09805462
19.05887661 27.29310488 -1.353995129
21.36686702 24.24641635 -3.94414311
18.07990041 27.09761211 -3.488936361
23.255111 16.41885938 -8.101002784
22.64743521 20.40892018 -6.201370884
15.63460039 25.74788104 -7.356021985
20.01611813 23.64999616 -5.912039913
16.89711042 26.53070548 -5.509534033
19.17243399 25.46579742 -4.750879151
23.44717344 1.793141549 -13.806231
23.60921278 5.344635799 -12.54982673
23.52855694 12.57777116 -9.737166814
23.62993507 8.910216353 -11.20070322
10.48401794 21.53053195 -13.30660054
14.53813672 20.18091032 -12.4724885
11.72791971 22.66064306 -12.05349624
21.72962528 15.78710353 -9.756966563
18.25588738 18.1825741 -11.2374488
21.47724118 17.70516826 -8.921031122
14.29721468 24.77334871 -9.120696364
15.83885126 21.1151228 -11.06916918
13.00867425 23.75536711 -10.65274014
16.5025019 23.91966866 -8.486323147
13.83543667 21.98278263 -11.61732692
20.66516866 21.63840195 -7.035729168
17.81847876 20.05882961 -10.40562898
21.13197371 19.6752086 -8.011912479
18.62678579 22.84985253 -7.780281441
19.66328011 18.92716392 -9.693633015
17.22262579 21.99224587 -9.505218406
18.28290236 -26.18187745 -1.298867779
21.5334163 -24.43541099 -3.9748867
17.4027691 -26.08274803 -3.358268161
25.89424203 -18.28217112 -9.020353709
24.17788998 -21.78810192 -6.620443398
15.26670144 -25.14200573 -7.182926882
20.3795318 -24.07938671 -6.019379212
16.38044035 -25.7194649 -5.341066687
18.95404696 -25.17572471 -4.696763413
24.00357163 -1.835692551 -14.13385096
25.28724358 -5.724507147 -13.44180885
26.5345737 -14.18471165 -10.98119069
26.22726586 -9.88960031 -12.43185055
10.4329671 -21.42569124 -13.24180542
14.93876418 -20.73703571 -12.81619289
11.63085438 -22.47309378 -11.95373629
24.26451067 -17.62875967 -10.89517266
19.65119283 -19.5722762 -12.09633193
23.64104732 -19.4889426 -9.819814247
14.05243203 -24.34920414 -8.964540898
16.30388224 -21.73506589 -11.3941616
12.84867608 -23.46319165 -10.52171841
16.54313835 -23.97856946 -8.507220226
13.94074386 -22.15010262 -11.70575117
21.69411292 -22.7158047 -7.38604681
18.80414213 -21.16842229 -10.98123633
22.7738543 -21.20390362 -8.63441011
19.1159309 -23.44989667 -7.984594019
21.23792951 -20.44286462 -10.46990601
17.73446021 -22.6458273 -9.787701345
1.534452838 -11.81446627 -20.06455199
4.610552872 -10.8261146 -20.36649978
2.514255834 -13.02904105 -19.5275357
1.521876463 -10.29812076 -20.64703371
10.86991576 -8.415018979 -20.33376412
7.722506018 -9.707676517 -20.48012175
4.558594447 -15.43382087 -18.23579387
5.662323896 -12.03478886 -19.81952235
3.528972549 -14.24136272 -18.91609893
4.089886484 -12.54321384 -19.69451011
1.506161112 -7.224419992 -21.57895848
4.580574446 -9.266703342 -20.90517176
1.514225982 -8.759312164 -21.15514572
3.055606996 -9.795751764 -20.79922441
22.21177878 -1.101913483 -15.51056771
19.79789802 -3.220506566 -17.44666297
22.86846096 -2.944414608 -15.25815245
14.00538926 -6.910205804 -19.83675445
17.02817519 -5.174111559 -18.8958794
23.99298531 -6.854658337 -14.56899451
20.29876198 -5.074296425 -17.17980903
23.47056777 -4.874046489 -14.94814284
21.6296309 -4.03520694 -16.28429944
9.034454099 -20.12052629 -14.6180538
10.36899121 -16.84502765 -16.77738021
7.887934376 -18.99007712 -15.65482772
11.18078026 -19.83716908 -14.48722657
12.18806238 -9.602742959 -19.72069918
11.43225748 -13.32562641 -18.49778117
10.56168604 -10.27640474 -19.8560312
5.672353759 -16.66069633 -17.44533761
9.159122566 -15.68397558 -17.65595134
6.759540896 -17.82875698 -16.59970419
6.254550049 -14.97402952 -18.36894299
8.557419749 -17.35850132 -16.70866703
15.66627444 -18.98982929 -14.07880425
12.48133883 -16.41258072 -16.65300787
13.40733917 -19.46604092 -14.31262451
11.87038645 -18.15425696 -15.63393664
7.324257568 -11.48119383 -19.89391813
9.711070926 -13.89555128 -18.52446664
8.928480336 -10.90308134 -19.91030715
6.808629229 -13.24005872 -19.19089721
10.17244376 -12.11468029 -19.24871544
7.982159119 -14.46297535 -18.46834006
1.502715514 -0.928729263 -22.44612101
4.528921035 -2.799027132 -22.17633083
1.50432445 -2.489227727 -22.3620685
10.80353835 -6.676953901 -20.7250403
7.616628399 -4.70733523 -21.61658744
9.26532448 -7.386678313 -20.88146902
1.510505473 -5.612204696 -21.93463463
4.540618003 -4.390497107 -22.00487098
1.505851144 -4.060463605 -22.19023992
3.033360912 -6.633941697 -21.68732707
3.022904893 -3.437868349 -22.2181647
6.175153435 -8.663869796 -20.96486597
6.125594302 -5.390572011 -21.70673353
7.712080532 -8.052630369 -20.95806056
4.593455716 -7.654878949 -21.36382326
7.677821189 -6.375089931 -21.33843604
4.581434033 -6.018640512 -21.73271493
24.69079396 -15.25974988 -12.02286723
21.14826409 -13.07034601 -15.23500922
24.79543266 -13.18901911 -12.83277102
22.608932 -16.51146487 -12.74302294
14.11994713 -8.726607243 -19.43492418
17.57848125 -10.86409888 -17.64935878
15.72429579 -7.922936966 -19.0743453
13.84888682 -10.68812996 -18.96309885
24.4166571 -8.989374762 -14.09136053
21.15662658 -11.09092668 -15.86998402
24.69342941 -11.07340019 -13.52236645
22.55995123 -8.003916735 -15.56441451
22.97942135 -12.14402448 -14.4626972
18.07344021 -18.33819721 -13.74437908
19.11405631 -14.17090449 -15.76875955
20.36257266 -17.53567616 -13.31432111
16.36819043 -17.08614472 -15.20651598
20.86477533 -15.34105964 -14.37072492
18.81404409 -6.117388847 -17.96784232
19.28072778 -10.00198435 -17.12728235
17.30482054 -7.046670279 -18.5860806
20.67863074 -7.040989292 -16.85684513
17.49214215 -8.958680092 -18.1724474
20.9717558 -9.064154725 -16.42345692
13.03958112 -14.50987264 -17.58810018
17.28229722 -12.95298778 -17.03278473
13.48656842 -12.6335318 -18.34255433
14.67460659 -15.79564678 -16.48848772
15.55875784 -11.81330541 -18.06695871
16.91241653 -15.05189944 -16.20176224
1.529801527 11.77865366 -20.0037313
4.563669966 10.71602808 -20.15940082
2.503243358 12.97197367 -19.44200482
1.516846679 10.26408558 -20.5787955
10.56650816 8.180133927 -19.76619591
7.578135553 9.526193749 -20.09725061
4.534925405 15.35368569 -18.14111035
5.594063423 11.88970701 -19.58059395
3.51084058 14.16819017 -18.81890744
4.057593257 12.44417421 -19.53900475
1.501384943 7.201510722 -21.5105297
4.533097586 9.170655568 -20.68849328
1.509145609 8.72992383 -21.08416817
3.034863808 9.729252661 -20.65802751
21.91383341 1.087132586 -15.30251134
19.15614366 3.116112952 -16.88112455
22.06483458 2.840944189 -14.72196185
20.83464313 0 -16.36383958
13.50196475 6.661818066 -19.12372119
16.36288379 4.97195884 -18.15761673
22.19633395 6.341365345 -13.47803382
19.28667927 4.821295396 -16.32323523
22.15423039 4.600687548 -14.10978225
20.67204537 3.856560536 -15.56336205
18.41012216 -2.092275057 -18.19335949
18.05103865 2.051465905 -17.83850386
19.66058769 -1.066268319 -17.33865269
19.43988522 1.054298786 -17.14401541
9.046725053 20.14785478 -14.63790862
10.17633631 16.53204858 -16.46565802
7.878939949 18.96842318 -15.63697689
11.08315987 19.663969 -14.36073731
11.76088692 9.266179529 -19.02951478
11.06587588 12.89856602 -17.90496329
10.25796458 9.980887099 -19.2850331
5.646749081 16.58549091 -17.36659036
9.004482952 15.41917249 -17.35785406
6.73832781 17.77280599 -16.54761027
6.195354104 14.8323084 -18.19509085
8.47681928 17.19500539 -16.55129174
14.97913117 18.15691056 -13.46128949
12.08534975 15.89186713 -16.12466636
13.0812223 18.99255366 -13.9644877
11.61726148 17.76713429 -15.30055746
7.198736846 11.2844329 -19.55298269
9.486805542 13.57465041 -18.09666659
8.726138436 10.65599 -19.45908934
6.714287083 13.05660101 -18.92498312
9.896867908 11.78648841 -18.7272595
7.858844428 14.2395399 -18.18302657
1.501908807 0.9282306907 -22.43407119
4.50787926 2.7860226 -22.0732976
1.502218913 2.485743664 -22.33076929
3.015505733 0 -22.38186775
10.54278799 6.515801311 -20.22482809
7.522649963 4.649253362 -21.34986928
9.069576197 7.230620141 -20.44030674
1.506323447 5.596666598 -21.87390582
4.509320127 4.360233995 -21.85319433
1.502592327 4.051676343 -22.14221796
3.014774811 6.593294008 -21.55444382
3.011568453 3.424975721 -22.13484256
6.098328034 -1.871885738 -22.0639581
6.072303998 1.863897644 -21.96980226
4.556274592 -0.9380274099 -22.25865937
4.548864946 0.9365019418 -22.2224612
6.087832283 8.541356387 -20.66840755
6.058815487 5.331806118 -21.47009527
7.575459845 7.909976789 -20.58678531
4.547771946 7.57874809 -21.15135142
7.558549593 6.276055696 -21.00695277
4.541341853 5.965971323 -21.5425317
21.94249355 13.56120681 -10.68461739
19.15101876 11.83598052 -13.79621259
22.06469436 11.73650323 -11.419489
20.3057592 14.82944129 -11.44489068
13.52304267 8.357699999 -18.6133352
16.39131651 10.13039072 -16.45740732
14.97849117 7.547151429 -18.16964757
13.22771756 10.2087313 -18.11253993
22.1855626 8.167962374 -12.8037495
19.26645433 10.10004272 -14.45213022
22.14582045 9.930962939 -12.12727056
20.76319089 7.366454357 -14.32480533
20.64796683 10.91191161 -12.99533558
16.87868696 17.12594208 -12.83580045
17.53673298 13.00149817 -14.4674956
18.61224393 16.02834217 -12.16984692
15.42547708 16.10208135 -14.33070838
18.90775343 13.90213738 -13.02281569
17.83391351 5.798699264 -17.03179521
17.83577762 9.25240845 -15.84371725
16.42263255 6.687435817 -17.63857484
19.31410567 6.576374081 -15.74450901
16.42948062 8.414433161 -17.06845678
19.30441759 8.343518282 -15.1177266
12.52203594 13.93397112 -16.89002282
16.08725319 12.05730878 -15.8549941
12.89323722 12.07772929 -17.53558777
13.96563235 15.03251173 -15.69187945
14.68003957 11.14612057 -17.04658376
15.79334418 14.05593506 -15.12971295
12.6202158 -5.763109087 -20.41993812
12.74923465 -1.90855459 -20.62869499
14.12232415 -4.935182405 -20.05108445
10.9661212 -4.785310273 -20.96688336
12.28124352 5.608315042 -19.87146944
12.62072626 1.889316943 -20.42076405
13.727021 4.797039907 -19.4898272
10.75673024 4.693937882 -20.56653434
17.00853731 -3.109803788 -18.95983605
14.1395445 -1.00116768 -20.1222854
15.59995423 -4.045707505 -19.56383637
16.95618237 -1.033296287 -18.88659766
14.16498056 -2.953286179 -20.14280122
7.73951581 -2.85974875 -21.77714099
11.07425007 -0.9852310732 -21.10678775
9.329973323 -3.811335454 -21.41930333
7.747930619 -0.957696893 -21.83393183
11.05491868 -2.872510344 -21.09236286
16.58440023 3.032255491 -18.48703998
14.05099596 0.9948978927 -19.99627009
15.17032021 3.934285794 -19.02503417
16.80952255 1.024358954 -18.72324101
13.91270654 2.900689043 -19.78406401
15.49414966 0 -19.49021576
7.676640189 2.836516228 -21.60022408
11.02586557 0.9809265 -21.01457008
9.209450631 3.7621014 -21.14261314
7.726028363 0.9549896253 -21.77221053
10.91931752 2.837275736 -20.83364102
9.403888738 0 -21.48507076
19.05887661 27.29310488 1.353995129
21.36686702 24.24641635 3.94414311
18.07990041 27.09761211 3.488936361
20.68928038 26.3418479 0
23.255111 16.41885938 8.101002784
22.64743521 20.40892018 6.201370884
15.63460039 25.74788104 7.356021985
20.01611813 23.64999616 5.912039913
16.89711042 26.53070548 5.509534033
19.17243399 25.46579742 4.750879151
23.21404076 23.49062176 -2.669664088
23.21404076 23.49062176 2.669664088
22.10806313 25.06870179 -1.35957088
22.10806313 25.06870179 1.35957088
23.44717344 1.793141549 13.806231
23.60921278 5.344635799 12.54982673
23.52855694 12.57777116 9.737166814
23.62993507 8.910216353 11.20070322
10.48401794 21.53053195 13.30660054
14.53813672 20.18091032 12.4724885
11.72791971 22.66064306 12.05349624
21.72962528 15.78710353 9.756966563
18.25588738 18.1825741 11.2374488
21.47724118 17.70516826 8.921031122
14.29721468 24.77334871 9.120696364
15.83885126 21.1151228 11.06916918
13.00867425 23.75536711 10.65274014
16.5025019 23.91966866 8.486323147
13.83543667 21.98278263 11.61732692
20.66516866 21.63840195 7.035729168
17.81847876 20.05882961 10.40562898
21.13197371 19.6752086 8.011912479
18.62678579 22.84985253 7.780281441
19.66328011 18.92716392 9.693633015
17.22262579 21.99224587 9.505218406
24.98929892 15.44423609 -7.052717538
28.18381626 17.41855638 -2.607549916
24.8250506 17.48471074 -6.110200834
24.98929892 15.44423609 7.052717538
28.18381626 17.41855638 2.607549916
24.8250506 17.48471074 6.110200834
24.03671597 21.56291749 -3.942516706
27.6252608 19.41174159 -1.37447202
24.52878322 19.55893969 -5.072434695
25.01709865 22.46007962 -1.368699414
26.41891616 18.57851993 -3.873474156
24.03671597 21.56291749 3.942516706
27.6252608 19.41174159 1.37447202
24.52878322 19.55893969 5.072434695
25.01709865 22.46007962 1.368699414
26.41891616 18.57851993 3.873474156
26.56716934 21.12012012 0
18.28290236 -26.18187745 1.298867779
21.5334163 -24.43541099 3.9748867
17.4027691 -26.08274803 3.358268161
20.12792147 -25.62711879 0
25.89424203 -18.28217112 9.020353709
24.17788998 -21.78810192 6.620443398
15.26670144 -25.14200573 7.182926882
20.3795318 -24.07938671 6.019379212
16.38044035 -25.7194649 5.341066687
18.95404696 -25.17572471 4.696763413
23.54926176 -23.82983672 -2.708215217
23.54926176 -23.82983672 2.708215217
21.91202873 -24.84641512 -1.34751543
21.91202873 -24.84641512 1.34751543
24.00357163 -1.835692551 14.13385096
25.28724358 -5.724507147 13.44180885
26.5345737 -14.18471165 10.98119069
26.22726586 -9.88960031 12.43185055
10.4329671 -21.42569124 13.24180542
14.93876418 -20.73703571 12.81619289
11.63085438 -22.47309378 11.95373629
24.26451067 -17.62875967 10.89517266
19.65119283 -19.5722762 12.09633193
23.64104732 -19.4889426 9.819814247
14.05243203 -24.34920414 8.964540898
16.30388224 -21.73506589 11.3941616
12.84867608 -23.46319165 10.52171841
16.54313835 -23.97856946 8.507220226
13.94074386 -22.15010262 11.70575117
21.69411292 -22.7158047 7.38604681
18.80414213 -21.16842229 10.98123633
22.7738543 -21.20390362 8.63441011
19.1159309 -23.44989667 7.984594019
21.23792951 -20.44286462 10.46990601
17.73446021 -22.6458273 9.787701345
27.82622306 -17.19755163 -7.853381242
29.80117737 -18.41814052 -2.757187204
27.21013856 -19.16456928 -6.697243604
27.82622306 -17.19755163 7.853381242
29.80117737 -18.41814052 2.757187204
27.21013856 -19.16456928 6.697243604
25.07250539 -22.49210606 -4.112407514
28.72055837 -20.18138622 -1.428967646
26.27751276 -20.95335437 -5.434063574
25.51829853 -22.91005143 -1.39612034
28.19314289 -19.82620573 -4.133606757
25.07250539 -22.49210606 4.112407514
28.72055837 -20.18138622 1.428967646
26.27751276 -20.95335437 5.434063574
25.51829853 -22.91005143 1.39612034
28.19314289 -19.82620573 4.133606757
27.28173984 -21.6881827 0
1.534452838 -11.81446627 20.06455199
4.610552872 -10.8261146 20.36649978
2.514255834 -13.02904105 19.5275357
1.521876463 -10.29812076 20.64703371
10.86991576 -8.415018979 20.33376412
7.722506018 -9.707676517 20.48012175
4.558594447 -15.43382087 18.23579387
5.662323896 -12.03478886 19.81952235
3.528972549 -14.24136272 18.91609893
4.089886484 -12.54321384 19.69451011
1.506161112 -7.224419992 21.57895848
4.580574446 -9.266703342 20.90517176
1.514225982 -8.759312164 21.15514572
3.055606996 -9.795751764 20.79922441
22.21177878 -1.101913483 15.51056771
19.79789802 -3.220506566 17.44666297
22.86846096 -2.944414608 15.25815245
14.00538926 -6.910205804 19.83675445
17.02817519 -5.174111559 18.8958794
23.99298531 -6.854658337 14.56899451
20.29876198 -5.074296425 17.17980903
23.47056777 -4.874046489 14.94814284
21.6296309 -4.03520694 16.28429944
9.034454099 -20.12052629 14.6180538
10.36899121 -16.84502765 16.77738021
7.887934376 -18.99007712 15.65482772
11.18078026 -19.83716908 14.48722657
12.18806238 -9.602742959 19.72069918
11.43225748 -13.32562641 18.49778117
10.56168604 -10.27640474 19.8560312
5.672353759 -16.66069633 17.44533761
9.159122566 -15.68397558 17.65595134
6.759540896 -17.82875698 16.59970419
6.254550049 -14.97402952 18.36894299
8.557419749 -17.35850132 16.70866703
15.66627444 -18.98982929 14.07880425
12.48133883 -16.41258072 16.65300787
13.40733917 -19.46604092 14.31262451
11.87038645 -18.15425696 15.63393664
7.324257568 -11.48119383 19.89391813
9.711070926 -13.89555128 18.52446664
8.928480336 -10.90308134 19.91030715
6.808629229 -13.24005872 19.19089721
10.17244376 -12.11468029 19.24871544
7.982159119 -14.46297535 18.46834006
1.502715514 -0.928729263 22.44612101
4.528921035 -2.799027132 22.17633083
1.50432445 -2.489227727 22.3620685
10.80353835 -6.676953901 20.7250403
7.616628399 -4.70733523 21.61658744
9.26532448 -7.386678313 20.88146902
1.510505473 -5.612204696 21.93463463
4.540618003 -4.390497107 22.00487098
1.505851144 -4.060463605 22.19023992
3.033360912 -6.633941697 21.68732707
3.022904893 -3.437868349 22.2181647
6.175153435 -8.663869796 20.96486597
6.125594302 -5.390572011 21.70673353
7.712080532 -8.052630369 20.95806056
4.593455716 -7.654878949 21.36382326
7.677821189 -6.375089931 21.33843604
4.581434033 -6.018640512 21.73271493
24.69079396 -15.25974988 12.02286723
21.14826409 -13.07034601 15.23500922
24.79543266 -13.18901911 12.83277102
22.608932 -16.51146487 12.74302294
14.11994713 -8.726607243 19.43492418
17.57848125 -10.86409888 17.64935878
15.72429579 -7.922936966 19.0743453
13.84888682 -10.68812996 18.96309885
24.4166571 -8.989374762 14.09136053
21.15662658 -11.09092668 15.86998402
24.69342941 -11.07340019 13.52236645
22.55995123 -8.003916735 15.56441451
22.97942135 -12.14402448 14.4626972
18.07344021 -18.33819721 13.74437908
19.11405631 -14.17090449 15.76875955
20.36257266 -17.53567616 13.31432111
16.36819043 -17.08614472 15.20651598
20.86477533 -15.34105964 14.37072492
18.81404409 -6.117388847 17.96784232
19.28072778 -10.00198435 17.12728235
17.30482054 -7.046670279 18.5860806
20.67863074 -7.040989292 16.85684513
17.49214215 -8.958680092 18.1724474
20.9717558 -9.064154725 16.42345692
13.03958112 -14.50987264 17.58810018
17.28229722 -12.95298778 17.03278473
13.48656842 -12.6335318 18.34255433
14.67460659 -15.79564678 16.48848772
15.55875784 -11.81330541 18.06695871
16.91241653 -15.05189944 16.20176224
1.529801527 11.77865366 20.0037313
4.563669966 10.71602808 20.15940082
2.503243358 12.97197367 19.44200482
1.516846679 10.26408558 20.5787955
10.56650816 8.180133927 19.76619591
7.578135553 9.526193749 20.09725061
4.534925405 15.35368569 18.14111035
5.594063423 11.88970701 19.58059395
3.51084058 14.16819017 18.81890744
4.057593257 12.44417421 19.53900475
1.501384943 7.201510722 21.5105297
4.533097586 9.170655568 20.68849328
1.509145609 8.72992383 21.08416817
3.034863808 9.729252661 20.65802751
21.91383341 1.087132586 15.30251134
19.15614366 3.116112952 16.88112455
22.06483458 2.840944189 14.72196185
20.83464313 0 16.36383958
13.50196475 6.661818066 19.12372119
16.36288379 4.97195884 18.15761673
22.19633395 6.341365345 13.47803382
19.28667927 4.821295396 16.32323523
22.15423039 4.600687548 14.10978225
20.67204537 3.856560536 15.56336205
18.41012216 -2.092275057 18.19335949
18.05103865 2.051465905 17.83850386
19.66058769 -1.066268319 17.33865269
19.43988522 1.054298786 17.14401541
9.046725053 20.14785478 14.63790862
10.17633631 16.53204858 16.46565802
7.878939949 18.96842318 15.63697689
11.08315987 19.663969 14.36073731
11.76088692 9.266179529 19.02951478
11.06587588 12.89856602 17.90496329
10.25796458 9.980887099 19.2850331
5.646749081 16.58549091 17.36659036
9.004482952 15.41917249 17.35785406
6.73832781 17.77280599 16.54761027
6.195354104 14.8323084 18.19509085
8.47681928 17.19500539 16.55129174
14.97913117 18.15691056 13.46128949
12.08534975 15.89186713 16.12466636
13.0812223 18.99255366 13.9644877
11.61726148 17.76713429 15.30055746
7.198736846 11.2844329 19.55298269
9.486805542 13.57465041 18.09666659
8.726138436 10.65599 19.45908934
6.714287083 13.05660101 18.92498312
9.896867908 11.78648841 18.7272595
7.858844428 14.2395399 18.18302657
1.501908807 0.9282306907 22.43407119
4.50787926 2.7860226 22.0732976
1.502218913 2.485743664 22.33076929
3.015505733 0 22.38186775
10.54278799 6.515801311 20.22482809
7.522649963 4.649253362 21.34986928
9.069576197 7.230620141 20.44030674
1.506323447 5.596666598 21.87390582
4.509320127 4.360233995 21.85319433
1.502592327 4.051676343 22.14221796
3.014774811 6.593294008 21.55444382
3.011568453 3.424975721 22.13484256
6.098328034 -1.871885738 22.0639581
6.072303998 1.863897644 21.96980226
4.556274592 -0.9380274099 22.25865937
4.548864946 0.9365019418 22.2224612
6.087832283 8.541356387 20.66840755
6.058815487 5.331806118 21.47009527
7.575459845 7.909976789 20.58678531
4.547771946 7.57874809 21.15135142
7.558549593 6.276055696 21.00695277
4.541341853 5.965971323 21.5425317
21.94249355 13.56120681 10.68461739
19.15101876 11.83598052 13.79621259
22.06469436 11.73650323 11.419489
20.3057592 14.82944129 11.44489068
13.52304267 8.357699999 18.6133352
16.39131651 10.13039072 16.45740732
14.97849117 7.547151429 18.16964757
13.22771756 10.2087313 18.11253993
22.1855626 8.167962374 12.8037495
19.26645433 10.10004272 14.45213022
22.14582045 9.930962939 12.12727056
20.76319089 7.366454357 14.32480533
20.64796683 10.91191161 12.99533558
16.87868696 17.12594208 12.83580045
17.53673298 13.00149817 14.4674956
18.61224393 16.02834217 12.16984692
15.42547708 16.10208135 14.33070838
18.90775343 13.90213738 13.02281569
17.83391351 5.798699264 17.03179521
17.83577762 9.25240845 15.84371725
16.42263255 6.687435817 17.63857484
19.31410567 6.576374081 15.74450901
16.42948062 8.414433161 17.06845678
19.30441759 8.343518282 15.1177266
12.52203594 13.93397112 16.89002282
16.08725319 12.05730878 15.8549941
12.89323722 12.07772929 17.53558777
13.96563235 15.03251173 15.69187945
14.68003957 11.14612057 17.04658376
15.79334418 14.05593506 15.12971295
12.6202158 -5.763109087 20.41993812
12.74923465 -1.90855459 20.62869499
14.12232415 -4.935182405 20.05108445
10.9661212 -4.785310273 20.96688336
12.28124352 5.608315042 19.87146944
12.62072626 1.889316943 20.42076405
13.727021 4.797039907 19.4898272
10.75673024 4.693937882 20.56653434
17.00853731 -3.109803788 18.95983605
14.1395445 -1.00116768 20.1222854
15.59995423 -4.045707505 19.56383637
16.95618237 -1.033296287 18.88659766
14.16498056 -2.953286179 20.14280122
7.73951581 -2.85974875 21.77714099
11.07425007 -0.9852310732 21.10678775
9.329973323 -3.811335454 21.41930333
7.747930619 -0.957696893 21.83393183
11.05491868 -2.872510344 21.09236286
16.58440023 3.032255491 18.48703998
14.05099596 0.9948978927 19.99627009
15.17032021 3.934285794 19.02503417
16.80952255 1.024358954 18.72324101
13.91270654 2.900689043 19.78406401
15.49414966 0 19.49021576
7.676640189 2.836516228 21.60022408
11.02586557 0.9809265 21.01457008
9.209450631 3.7621014 21.14261314
7.726028363 0.9549896253 21.77221053
10.91931752 2.837275736 20.83364102
9.403888738 0 21.48507076
24.77205252 0 -13.03474759
27.67568507 0 -9.97664133
24.90396794 1.835651705 -12.42135179
25.51465623 -1.880665055 -12.72594478
32.30202765 0 -2.238771147
30.38331564 0 -6.399475196
25.05687806 5.490263207 -11.10704367
27.79858143 1.940276328 -9.3066877
24.99705359 3.672308657 -11.77279148
26.36355072 1.887029001 -10.91585818
26.86861267 -5.88723604 -11.91013715
28.44587188 -1.985455696 -9.523394086
26.22520838 -3.852736459 -12.35121206
27.00825801 -1.93317534 -11.18279997
24.77205252 0 13.03474759
27.67568507 0 9.97664133
24.90396794 1.835651705 12.42135179
25.51465623 -1.880665055 12.72594478
32.30202765 0 2.238771147
30.38331564 0 6.399475196
25.05687806 5.490263207 11.10704367
27.79858143 1.940276328 9.3066877
24.99705359 3.672308657 11.77279148
26.36355072 1.887029001 10.91585818
26.86861267 -5.88723604 11.91013715
28.44587188 -1.985455696 9.523394086
26.22520838 -3.852736459 12.35121206
27.00825801 -1.93317534 11.18279997
25.0865415 13.07709946 -8.082091938
28.26491361 9.95917345 -6.155107692
25.11921416 11.14565597 -8.885751969
26.7364564 13.98372931 -6.10211052
32.31275028 2.163263359 -1.336970283
30.85504979 6.30131671 -3.894427901
31.64937686 2.129093355 -3.523041996
25.10569013 7.394823743 -10.37509282
28.1549774 7.945275087 -6.991905665
25.1222611 9.244409817 -9.652624207
26.54517038 5.70750203 -9.511409238
26.67857537 9.599266359 -7.970514656
29.74040656 15.60411293 -1.388234583
29.8888015 10.62237012 -3.924962545
28.43787212 14.90484332 -3.872874859
28.41366332 12.37662667 -5.05590685
29.25710134 2.014759417 -7.485734059
29.55357663 6.098263526 -5.896644102
30.55920581 2.073777263 -5.591852247
27.94628534 3.908788267 -8.548495949
30.71879799 4.179463336 -4.753191127
28.06606901 5.916556867 -7.772594474
28.16131516 -14.67991589 -9.072686971
30.76655754 -10.84063044 -6.699878073
28.13926455 -12.48568366 -9.95407435
29.5614995 -15.4612863 -6.74687529
32.63322954 -2.184718699 -1.350230412
32.13023723 -6.561739557 -4.055378072
32.06432685 -2.157007562 -3.569232044
27.4580035 -8.087692278 -11.34720191
30.4056468 -8.580409235 -7.550828798
27.88456327 -10.26087299 -10.71397234
28.42427471 -6.111530018 -10.18471177
29.42899393 -10.58889943 -8.792232126
31.19461787 -16.36710443 -1.456114839
31.87069265 -11.32672694 -4.185222179
30.62195327 -16.04956285 -4.170318808
30.92066024 -13.46864232 -5.50200008
29.86962578 -2.056940267 -7.642454816
31.1537179 -6.428446342 -6.215910488
31.08858176 -2.109701227 -5.688719689
29.21250035 -4.085891101 -8.935818762
31.68313481 -4.310666725 -4.90240521
29.88370643 -6.299729699 -8.275969513
25.0865415 13.07709946 8.082091938
28.26491361 9.95917345 6.155107692
25.11921416 11.14565597 8.885751969
26.7364564 13.98372931 6.10211052
32.31275028 2.163263359 1.336970283
30.85504979 6.30131671 3.894427901
31.64937686 2.129093355 3.523041996
32.23669052 4.343244549 0
25.10569013 7.394823743 10.37509282
28.1549774 7.945275087 6.991905665
25.1222611 9.244409817 9.652624207
26.54517038 5.70750203 9.511409238
26.67857537 9.599266359 7.970514656
29.74040656 15.60411293 1.388234583
29.8888015 10.62237012 3.924962545
28.43787212 14.90484332 3.872874859
30.74633775 13.45749067 0
28.41366332 12.37662667 5.05590685
29.25710134 2.014759417 7.485734059
29.55357663 6.098263526 5.896644102
30.55920581 2.073777263 5.591852247
27.94628534 3.908788267 8.548495949
30.71879799 4.179463336 4.753191127
28.06606901 5.916556867 7.772594474
31.10422914 8.596997496 -2.638853947
31.10422914 8.596997496 2.638853947
31.85965305 6.521566519 -1.342633774
31.12422728 11.04466 -1.365195055
31.85965305 6.521566519 1.342633774
31.12422728 11.04466 1.365195055
28.16131516 -14.67991589 9.072686971
30.76655754 -10.84063044 6.699878073
28.13926455 -12.48568366 9.95407435
29.5614995 -15.4612863 6.74687529
32.63322954 -2.184718699 1.350230412
32.13023723 -6.561739557 4.055378072
32.06432685 -2.157007562 3.569232044
32.83215172 -4.423470948 0
27.4580035 -8.087692278 11.34720191
30.4056468 -8.580409235 7.550828798
27.88456327 -10.26087299 10.71397234
28.42427471 -6.111530018 10.18471177
29.42899393 -10.58889943 8.792232126
31.19461787 -16.36710443 1.456114839
31.87069265 -11.32672694 4.185222179
30.62195327 -16.04956285 4.170318808
32.09933555 -14.04968983 0
30.92066024 -13.46864232 5.50200008
29.86962578 -2.056940267 7.642454816
31.1537179 -6.428446342 6.215910488
31.08858176 -2.109701227 5.688719689
29.21250035 -4.085891101 8.935818762
31.68313481 -4.310666725 4.90240521
29.88370643 -6.299729699 8.275969513
32.4927511 -8.980775526 -2.756654862
32.4927511 -8.980775526 2.756654862
32.78821249 -6.711639592 -1.38176525
32.50769262 -11.53559281 -1.425877687
32.78821249 -6.711639592 1.38176525
32.50769262 -11.53559281 1.425877687
-18.28290236 26.18187745 -1.298867779
-21.5334163 24.43541099 -3.9748867
-17.4027691 26.08274803 -3.358268161
-25.89424203 18.28217112 -9.020353709
-24.17788998 21.78810192 -6.620443398
-15.26670144 25.14200573 -7.182926882
-20.3795318 24.07938671 -6.019379212
-16.38044035 25.7194649 -5.341066687
-18.95404696 25.17572471 -4.696763413
-24.00357163 1.835692551 -14.13385096
-25.28724358 5.724507147 -13.44180885
-26.5345737 14.18471165 -10.98119069
-26.22726586 9.88960031 -12.43185055
-10.4329671 21.42569124 -13.24180542
-14.93876418 20.73703571 -12.81619289
-11.63085438 22.47309378 -11.95373629
-24.26451067 17.62875967 -10.89517266
-19.65119283 19.5722762 -12.09633193
-23.64104732 19.4889426 -9.819814247
-14.05243203 24.34920414 -8.964540898
-16.30388224 21.73506589 -11.3941616
-12.84867608 23.46319165 -10.52171841
-16.54313835 23.97856946 -8.507220226
-13.94074386 22.15010262 -11.70575117
-21.69411292 22.7158047 -7.38604681
-18.80414213 21.16842229 -10.98123633
-22.7738543 21.20390362 -8.63441011
-19.1159309 23.44989667 -7.984594019
-21.23792951 20.44286462 -10.46990601
-17.73446021 22.6458273 -9.787701345
-19.05887661 -27.29310488 -1.353995129
-21.36686702 -24.24641635 -3.94414311
-18.07990041 -27.09761211 -3.488936361
-23.255111 -16.41885938 -8.101002784
-22.64743521 -20.40892018 -6.201370884
-15.63460039 -25.74788104 -7.356021985
-20.01611813 -23.64999616 -5.912039913
-16.89711042 -26.53070548 -5.509534033
-19.17243399 -25.46579742 -4.750879151
-23.44717344 -1.793141549 -13.806231
-23.60921278 -5.344635799 -12.54982673
-23.52855694 -12.57777116 -9.737166814
-23.62993507 -8.910216353 -11.20070322
-10.48401794 -21.53053195 -13.30660054
-14.53813672 -20.18091032 -12.4724885
-11.72791971 -22.66064306 -12.05349624
-21.72962528 -15.78710353 -9.756966563
-18.25588738 -18.1825741 -11.2374488
-21.47724118 -17.70516826 -8.921031122
-14.29721468 -24.77334871 -9.120696364
-15.83885126 -21.1151228 -11.06916918
-13.00867425 -23.75536711 -10.65274014
-16.5025019 -23.91966866 -8.486323147
-13.83543667 -21.98278263 -11.61732692
-20.66516866 -21.63840195 -7.035729168
-17.81847876 -20.05882961 -10.40562898
-21.13197371 -19.6752086 -8.011912479
-18.62678579 -22.84985253 -7.780281441
-19.66328011 -18.92716392 -9.693633015
-17.22262579 -21.99224587 -9.505218406
-1.529801527 -11.77865366 -20.0037313
-4.563669966 -10.71602808 -20.15940082
-2.503243358 -12.97197367 -19.44200482
-1.516846679 -10.26408558 -20.5787955
-10.56650816 -8.180133927 -19.76619591
-7.578135553 -9.526193749 -20.09725061
-4.534925405 -15.35368569 -18.14111035
-5.594063423 -11.88970701 -19.58059395
-3.51084058 -14.16819017 -18.81890744
-4.057593257 -12.44417421 -19.53900475
-1.501384943 -7.201510722 -21.5105297
-4.533097586 -9.170655568 -20.68849328
-1.509145609 -8.72992383 -21.08416817
-3.034863808 -9.729252661 -20.65802751
-21.91383341 -1.087132586 -15.30251134
-19.15614366 -3.116112952 -16.88112455
-22.06483458 -2.840944189 -14.72196185
-13.50196475 -6.661818066 -19.12372119
-16.36288379 -4.97195884 -18.15761673
-22.19633395 -6.341365345 -13.47803382
-19.28667927 -4.821295396 -16.32323523
-22.15423039 -4.600687548 -14.10978225
-20.67204537 -3.856560536 -15.56336205
-9.046725053 -20.14785478 -14.63790862
-10.17633631 -16.53204858 -16.46565802
-7.878939949 -18.96842318 -15.63697689
-11.08315987 -19.663969 -14.36073731
-11.76088692 -9.266179529 -19.02951478
-11.06587588 -12.89856602 -17.90496329
-10.25796458 -9.980887099 -19.2850331
-5.646749081 -16.58549091 -17.36659036
-9.004482952 -15.41917249 -17.35785406
-6.73832781 -17.77280599 -16.54761027
-6.195354104 -14.8323084 -18.19509085
-8.47681928 -17.19500539 -16.55129174
-14.97913117 -18.15691056 -13.46128949
-12.08534975 -15.89186713 -16.12466636
-13.0812223 -18.99255366 -13.9644877
-11.61726148 -17.76713429 -15.30055746
-7.198736846 -11.2844329 -19.55298269
-9.486805542 -13.57465041 -18.09666659
-8.726138436 -10.65599 -19.45908934
-6.714287083 -13.05660101 -18.92498312
-9.896867908 -11.78648841 -18.7272595
-7.858844428 -14.2395399 -18.18302657
-1.501908807 -0.9282306907 -22.43407119
-4.50787926 -2.7860226 -22.0732976
-1.502218913 -2.485743664 -22.33076929
-10.54278799 -6.515801311 -20.22482809
-7.522649963 -4.649253362 -21.34986928
-9.069576197 -7.230620141 -20.44030674
-1.506323447 -5.596666598 -21.87390582
-4.509320127 -4.360233995 -21.85319433
-1.502592327 -4.051676343 -22.14221796
-3.014774811 -6.593294008 -21.55444382
-3.011568453 -3.424975721 -22.13484256
-6.087832283 -8.541356387 -20.66840755
-6.058815487 -5.331806118 -21.47009527
-7.575459845 -7.909976789 -20.58678531
-4.547771946 -7.57874809 -21.15135142
-7.558549593 -6.276055696 -21.00695277
-4.541341853 -5.965971323 -21.5425317
-21.94249355 -13.56120681 -10.68461739
-19.15101876 -11.83598052 -13.79621259
-22.06469436 -11.73650323 -11.419489
-20.3057592 -14.82944129 -11.44489068
-13.52304267 -8.357699999 -18.6133352
-16.39131651 -10.13039072 -16.45740732
-14.97849117 -7.547151429 -18.16964757
-13.22771756 -10.2087313 -18.11253993
-22.1855626 -8.167962374 -12.8037495
-19.26645433 -10.10004272 -14.45213022
-22.14582045 -9.930962939 -12.12727056
-20.76319089 -7.366454357 -14.32480533
-20.64796683 -10.91191161 -12.99533558
-16.87868696 -17.12594208 -12.83580045
-17.53673298 -13.00149817 -14.4674956
-18.61224393 -16.02834217 -12.16984692
-15.42547708 -16.10208135 -14.33070838
-18.90775343 -13.90213738 -13.02281569
-17.83391351 -5.798699264 -17.03179521
-17.83577762 -9.25240845 -15.84371725
-16.42263255 -6.687435817 -17.63857484
-19.31410567 -6.576374081 -15.74450901
-16.42948062 -8.414433161 -17.06845678
-19.30441759 -8.343518282 -15.1177266
-12.52203594 -13.93397112 -16.89002282
-16.08725319 -12.05730878 -15.8549941
-12.89323722 -12.07772929 -17.53558777
-13.96563235 -15.03251173 -15.69187945
-14.68003957 -11.14612057 -17.04658376
-15.79334418 -14.05593506 -15.12971295
-1.534452838 11.81446627 -20.06455199
-4.610552872 10.8261146 -20.36649978
-2.514255834 13.02904105 -19.5275357
-1.521876463 10.29812076 -20.64703371
-10.86991576 8.415018979 -20.33376412
-7.722506018 9.707676517 -20.48012175
-4.558594447 15.43382087 -18.23579387
-5.662323896 12.03478886 -19.81952235
-3.528972549 14.24136272 -18.91609893
-4.089886484 12.54321384 -19.69451011
-1.506161112 7.224419992 -21.57895848
-4.580574446 9.266703342 -20.90517176
-1.514225982 8.759312164 -21.15514572
-3.055606996 9.795751764 -20.79922441
-22.21177878 1.101913483 -15.51056771
-19.79789802 3.220506566 -17.44666297
-22.86846096 2.944414608 -15.25815245
-20.83464313 0 -16.36383958
-14.00538926 6.910205804 -19.83675445
-17.02817519 5.174111559 -18.8958794
-23.99298531 6.854658337 -14.56899451
-20.29876198 5.074296425 -17.17980903
-23.47056777 4.874046489 -14.94814284
-21.6296309 4.03520694 -16.28429944
-18.05103865 -2.051465905 -17.83850386
-18.41012216 2.092275057 -18.19335949
-19.43988522 -1.054298786 -17.14401541
-19.66058769 1.066268319 -17.33865269
-9.034454099 20.12052629 -14.6180538
-10.36899121 16.84502765 -16.77738021
-7.887934376 18.99007712 -15.65482772
-11.18078026 19.83716908 -14.48722657
-12.18806238 9.602742959 -19.72069918
-11.43225748 13.32562641 -18.49778117
-10.56168604 10.27640474 -19.8560312
-5.672353759 16.66069633 -17.44533761
-9.159122566 15.68397558 -17.65595134
-6.759540896 17.82875698 -16.59970419
-6.254550049 14.97402952 -18.36894299
-8.557419749 17.35850132 -16.70866703
-15.66627444 18.98982929 -14.07880425
-12.48133883 16.41258072 -16.65300787
-13.40733917 19.46604092 -14.31262451
-11.87038645 18.15425696 -15.63393664
-7.324257568 11.48119383 -19.89391813
-9.711070926 13.89555128 -18.52446664
-8.928480336 10.90308134 -19.91030715
-6.808629229 13.24005872 -19.19089721
-10.17244376 12.11468029 -19.24871544
-7.982159119 14.46297535 -18.46834006
-1.502715514 0.928729263 -22.44612101
-4.528921035 2.799027132 -22.17633083
-1.50432445 2.489227727 -22.3620685
-3.015505733 0 -22.38186775
-10.80353835 6.676953901 -20.7250403
-7.616628399 4.70733523 -21.61658744
-9.26532448 7.386678313 -20.88146902
-1.510505473 5.612204696 -21.93463463
-4.540618003 4.390497107 -22.00487098
-1.505851144 4.060463605 -22.19023992
-3.033360912 6.633941697 -21.68732707
-3.022904893 3.437868349 -22.2181647
-6.072303998 -1.863897644 -21.96980226
-6.098328034 1.871885738 -22.0639581
-4.548864946 -0.9365019418 -22.2224612
-4.556274592 0.9380274099 -22.25865937
-6.175153435 8.663869796 -20.96486597
-6.125594302 5.390572011 -21.70673353
-7.712080532 8.052630369 -20.95806056
-4.593455716 7.654878949 -21.36382326
-7.677821189 6.375089931 -21.33843604
-4.581434033 6.018640512 -21.73271493
-24.69079396 15.25974988 -12.02286723
-21.14826409 13.07034601 -15.23500922
-24.79543266 13.18901911 -12.83277102
-22.608932 16.51146487 -12.74302294
-14.11994713 8.726607243 -19.43492418
-17.57848125 10.86409888 -17.64935878
-15.72429579 7.922936966 -19.0743453
-13.84888682 10.68812996 -18.96309885
-24.4166571 8.989374762 -14.09136053
-21.15662658 11.09092668 -15.86998402
-24.69342941 11.07340019 -13.52236645
-22.55995123 8.003916735 -15.56441451
-22.97942135 12.14402448 -14.4626972
-18.07344021 18.33819721 -13.74437908
-19.11405631 14.17090449 -15.76875955
-20.36257266 17.53567616 -13.31432111
-16.36819043 17.08614472 -15.20651598
-20.86477533 15.34105964 -14.37072492
-18.81404409 6.117388847 -17.96784232
-19.28072778 10.00198435 -17.12728235
-17.30482054 7.046670279 -18.5860806
-20.67863074 7.040989292 -16.85684513
-17.49214215 8.958680092 -18.1724474
-20.9717558 9.064154725 -16.42345692
-13.03958112 14.50987264 -17.58810018
-17.28229722 12.95298778 -17.03278473
-13.48656842 12.6335318 -18.34255433
-14.67460659 15.79564678 -16.48848772
-15.55875784 11.81330541 -18.06695871
-16.91241653 15.05189944 -16.20176224
-12.28124352 -5.608315042 -19.87146944
-12.62072626 -1.889316943 -20.42076405
-13.727021 -4.797039907 -19.4898272
-10.75673024 -4.693937882 -20.56653434
-12.6202158 5.763109087 -20.41993812
-12.74923465 1.90855459 -20.62869499
-14.12232415 4.935182405 -20.05108445
-10.9661212 4.785310273 -20.96688336
-16.58440023 -3.032255491 -18.48703998
-14.05099596 -0.9948978927 -19.99627009
-15.17032021 -3.934285794 -19.02503417
-16.80952255 -1.024358954 -18.72324101
-13.91270654 -2.900689043 -19.78406401
-7.676640189 -2.836516228 -21.60022408
-11.02586557 -0.9809265 -21.01457008
-9.209450631 -3.7621014 -21.14261314
-7.726028363 -0.9549896253 -21.77221053
-10.91931752 -2.837275736 -20.83364102
-17.00853731 3.109803788 -18.95983605
-14.1395445 1.00116768 -20.1222854
-15.59995423 4.045707505 -19.56383637
-16.95618237 1.033296287 -18.88659766
-14.16498056 2.953286179 -20.14280122
-15.49414966 0 -19.49021576
-7.73951581 2.85974875 -21.77714099
-11.07425007 0.9852310732 -21.10678775
-9.329973323 3.811335454 -21.41930333
-7.747930619 0.957696893 -21.83393183
-11.05491868 2.872510344 -21.09236286
-9.403888738 0 -21.48507076
-18.28290236 26.18187745 1.298867779
-21.5334163 24.43541099 3.9748867
-17.4027691 26.08274803 3.358268161
-20.12792147 25.62711879 0
-25.89424203 18.28217112 9.020353709
-24.17788998 21.78810192 6.620443398
-15.26670144 25.14200573 7.182926882
-20.3795318 24.07938671 6.019379212
-16.38044035 25.7194649 5.341066687
-18.95404696 25.17572471 4.696763413
-23.54926176 23.82983672 -2.708215217
-23.54926176 23.82983672 2.708215217
-21.91202873 24.84641512 -1.34751543
-21.91202873 24.84641512 1.34751543
-24.00357163 1.835692551 14.13385096
-25.28724358 5.724507147 13.44180885
-26.5345737 14.18471165 10.98119069
-26.22726586 9.88960031 12.43185055
-10.4329671 21.42569124 13.24180542
-14.93876418 20.73703571 12.81619289
-11.63085438 22.47309378 11.95373629
-24.26451067 17.62875967 10.89517266
-19.65119283 19.5722762 12.09633193
-23.64104732 19.4889426 9.819814247
-14.05243203 24.34920414 8.964540898
-16.30388224 21.73506589 11.3941616
-12.84867608 23.46319165 10.52171841
-16.54313835 23.97856946 8.507220226
-13.94074386 22.15010262 11.70575117
-21.69411292 22.7158047 7.38604681
-18.80414213 21.16842229 10.98123633
-22.7738543 21.20390362 8.63441011
-19.1159309 23.44989667 7.984594019
-21.23792951 20.44286462 10.46990601
-17.73446021 22.6458273 9.787701345
-27.82622306 17.19755163 -7.853381242
-29.80117737 18.41814052 -2.757187204
-27.21013856 19.16456928 -6.697243604
-27.82622306 17.19755163 7.853381242
-29.80117737 18.41814052 2.757187204
-27.21013856 19.16456928 6.697243604
-25.07250539 22.49210606 -4.112407514
-28.72055837 20.18138622 -1.428967646
-26.27751276 20.95335437 -5.434063574
-25.51829853 22.91005143 -1.39612034
-28.19314289 19.82620573 -4.133606757
-25.07250539 22.49210606 4.112407514
-28.72055837 20.18138622 1.428967646
-26.27751276 20.95335437 5.434063574
-25.51829853 22.91005143 1.39612034
-28.19314289 19.82620573 4.133606757
-27.28173984 21.6881827 0
-19.05887661 -27.29310488 1.353995129
-21.36686702 -24.24641635 3.94414311
-18.07990041 -27.09761211 3.488936361
-20.68928038 -26.3418479 0
-23.255111 -16.41885938 8.101002784
-22.64743521 -20.40892018 6.201370884
-15.63460039 -25.74788104 7.356021985
-20.01611813 -23.64999616 5.912039913
-16.89711042 -26.53070548 5.509534033
-19.17243399 -25.46579742 4.750879151
-23.21404076 -23.49062176 -2.669664088
-23.21404076 -23.49062176 2.669664088
-22.10806313 -25.06870179 -1.35957088
-22.10806313 -25.06870179 1.35957088
-23.44717344 -1.793141549 13.806231
-23.60921278 -5.344635799 12.54982673
-23.52855694 -12.57777116 9.737166814
-23.62993507 -8.910216353 11.20070322
-10.48401794 -21.53053195 13.30660054
-14.53813672 -20.18091032 12.4724885
-11.72791971 -22.66064306 12.05349624
-21.72962528 -15.78710353 9.756966563
-18.25588738 -18.1825741 11.2374488
-21.47724118 -17.70516826 8.921031122
-14.29721468 -24.77334871 9.120696364
-15.83885126 -21.1151228 11.06916918
-13.00867425 -23.75536711 10.65274014
-16.5025019 -23.91966866 8.486323147
-13.83543667 -21.98278263 11.61732692
-20.66516866 -21.63840195 7.035729168
-17.81847876 -20.05882961 10.40562898
-21.13197371 -19.6752086 8.011912479
-18.62678579 -22.84985253 7.780281441
-19.66328011 -18.92716392 9.693633015
-17.22262579 -21.99224587 9.505218406
-24.98929892 -15.44423609 -7.052717538
-28.18381626 -17.41855638 -2.607549916
-24.8250506 -17.48471074 -6.110200834
-24.98929892 -15.44423609 7.052717538
-28.18381626 -17.41855638 2.607549916
-24.8250506 -17.48471074 6.110200834
-24.03671597 -21.56291749 -3.942516706
-27.6252608 -19.41174159 -1.37447202
-24.52878322 -19.55893969 -5.072434695
-25.01709865 -22.46007962 -1.368699414
-26.41891616 -18.57851993 -3.873474156
-24.03671597 -21.56291749 3.942516706
-27.6252608 -19.41174159 1.37447202
-24.52878322 -19.55893969 5.072434695
-25.01709865 -22.46007962 1.368699414
-26.41891616 -18.57851993 3.873474156
-26.56716934 -21.12012012 0
-1.529801527 -11.77865366 20.0037313
-4.563669966 -10.71602808 20.15940082
-2.503243358 -12.97197367 19.44200482
-1.516846679 -10.26408558 20.5787955
-10.56650816 -8.180133927 19.76619591
-7.578135553 -9.526193749 20.09725061
-4.534925405 -15.35368569 18.14111035
-5.594063423 -11.88970701 19.58059395
-3.51084058 -14.16819017 18.81890744
-4.057593257 -12.44417421 19.53900475
-1.501384943 -7.201510722 21.5105297
-4.533097586 -9.170655568 20.68849328
-1.509145609 -8.72992383 21.08416817
-3.034863808 -9.729252661 20.65802751
-21.91383341 -1.087132586 15.30251134
-19.15614366 -3.116112952 16.88112455
-22.06483458 -2.840944189 14.72196185
-13.50196475 -6.661818066 19.12372119
-16.36288379 -4.97195884 18.15761673
-22.19633395 -6.341365345 13.47803382
-19.28667927 -4.821295396 16.32323523
-22.15423039 -4.600687548 14.10978225
-20.67204537 -3.856560536 15.56336205
-9.046725053 -20.14785478 14.63790862
-10.17633631 -16.53204858 16.46565802
-7.878939949 -18.96842318 15.63697689
-11.08315987 -19.663969 14.36073731
-11.76088692 -9.266179529 19.02951478
-11.06587588 -12.89856602 17.90496329
-10.25796458 -9.980887099 19.2850331
-5.646749081 -16.58549091 17.36659036
-9.004482952 -15.41917249 17.35785406
-6.73832781 -17.77280599 16.54761027
-6.195354104 -14.8323084 18.19509085
-8.47681928 -17.19500539 16.55129174
-14.97913117 -18.15691056 13.46128949
-12.08534975 -15.89186713 16.12466636
-13.0812223 -18.99255366 13.9644877
-11.61726148 -17.76713429 15.30055746
-7.198736846 -11.2844329 19.55298269
-9.486805542 -13.57465041 18.09666659
-8.726138436 -10.65599 19.45908934
-6.714287083 -13.05660101 18.92498312
-9.896867908 -11.78648841 18.7272595
-7.858844428 -14.2395399 18.18302657
-1.501908807 -0.9282306907 22.43407119
-4.50787926 -2.7860226 22.0732976
-1.502218913 -2.485743664 22.33076929
-10.54278799 -6.515801311 20.22482809
-7.522649963 -4.649253362 21.34986928
-9.069576197 -7.230620141 20.44030674
-1.506323447 -5.596666598 21.87390582
-4.509320127 -4.360233995 21.85319433
-1.502592327 -4.051676343 22.14221796
-3.014774811 -6.593294008 21.55444382
-3.011568453 -3.424975721 22.13484256
-6.087832283 -8.541356387 20.66840755
-6.058815487 -5.331806118 21.47009527
-7.575459845 -7.909976789 20.58678531
-4.547771946 -7.57874809 21.15135142
-7.558549593 -6.276055696 21.00695277
-4.541341853 -5.965971323 21.5425317
-21.94249355 -13.56120681 10.68461739
-19.15101876 -11.83598052 13.79621259
-22.06469436 -11.73650323 11.419489
-20.3057592 -14.82944129 11.44489068
-13.52304267 -8.357699999 18.6133352
-16.39131651 -10.13039072 16.45740732
-14.97849117 -7.547151429 18.16964757
-13.22771756 -10.2087313 18.11253993
-22.1855626 -8.167962374 12.8037495
-19.26645433 -10.10004272 14.45213022
-22.14582045 -9.930962939 12.12727056
-20.76319089 -7.366454357 14.32480533
-20.64796683 -10.91191161 12.99533558
-16.87868696 -17.12594208 12.83580045
-17.53673298 -13.00149817 14.4674956
-18.61224393 -16.02834217 12.16984692
-15.42547708 -16.10208135 14.33070838
-18.90775343 -13.90213738 13.02281569
-17.83391351 -5.798699264 17.03179521
-17.83577762 -9.25240845 15.84371725
-16.42263255 -6.687435817 17.63857484
-19.31410567 -6.576374081 15.74450901
-16.42948062 -8.414433161 17.06845678
-19.30441759 -8.343518282 15.1177266
-12.52203594 -13.93397112 16.89002282
-16.08725319 -12.05730878 15.8549941
-12.89323722 -12.07772929 17.53558777
-13.96563235 -15.03251173 15.69187945
-14.68003957 -11.14612057 17.04658376
-15.79334418 -14.05593506 15.12971295
-1.534452838 11.81446627 20.06455199
-4.610552872 10.8261146 20.36649978
-2.514255834 13.02904105 19.5275357
-1.521876463 10.29812076 20.64703371
-10.86991576 8.415018979 20.33376412
-7.722506018 9.707676517 20.48012175
-4.558594447 15.43382087 18.23579387
-5.662323896 12.03478886 19.81952235
-3.528972549 14.24136272 18.91609893
-4.089886484 12.54321384 19.69451011
-1.506161112 7.224419992 21.57895848
-4.580574446 9.266703342 20.90517176
-1.514225982 8.759312164 21.15514572
-3.055606996 9.795751764 20.79922441
-22.21177878 1.101913483 15.51056771
-19.79789802 3.220506566 17.44666297
-22.86846096 2.944414608 15.25815245
-20.83464313 0 16.36383958
-14.00538926 6.910205804 19.83675445
-17.02817519 5.174111559 18.8958794
-23.99298531 6.854658337 14.56899451
-20.29876198 5.074296425 17.17980903
-23.47056777 4.874046489 14.94814284
-21.6296309 4.03520694 16.28429944
-18.05103865 -2.051465905 17.83850386
-18.41012216 2.092275057 18.19335949
-19.43988522 -1.054298786 17.14401541
-19.66058769 1.066268319 17.33865269
-9.034454099 20.12052629 14.6180538
-10.36899121 16.84502765 16.77738021
-7.887934376 18.99007712 15.65482772
-11.18078026 19.83716908 14.48722657
-12.18806238 9.602742959 19.72069918
-11.43225748 13.32562641 18.49778117
-10.56168604 10.27640474 19.8560312
-5.672353759 16.66069633 17.44533761
-9.159122566 15.68397558 17.65595134
-6.759540896 17.82875698 16.59970419
-6.254550049 14.97402952 18.36894299
-8.557419749 17.35850132 16.70866703
-15.66627444 18.98982929 14.07880425
-12.48133883 16.41258072 16.65300787
-13.40733917 19.46604092 14.31262451
-11.87038645 18.15425696 15.63393664
-7.324257568 11.48119383 19.89391813
-9.711070926 13.89555128 18.52446664
-8.928480336 10.90308134 19.91030715
-6.808629229 13.24005872 19.19089721
-10.17244376 12.11468029 19.24871544
-7.982159119 14.46297535 18.46834006
-1.502715514 0.928729263 22.44612101
-4.528921035 2.799027132 22.17633083
-1.50432445 2.489227727 22.3620685
-3.015505733 0 22.38186775
-10.80353835 6.676953901 20.7250403
-7.616628399 4.70733523 21.61658744
-9.26532448 7.386678313 20.88146902
-1.510505473 5.612204696 21.93463463
-4.540618003 4.390497107 22.00487098
-1.505851144 4.060463605 22.19023992
-3.033360912 6.633941697 21.68732707
-3.022904893 3.437868349 22.2181647
-6.072303998 -1.863897644 21.96980226
-6.098328034 1.871885738 22.0639581
-4.548864946 -0.9365019418 22.2224612
-4.556274592 0.9380274099 22.25865937
-6.175153435 8.663869796 20.96486597
-6.125594302 5.390572011 21.70673353
-7.712080532 8.052630369 20.95806056
-4.593455716 7.654878949 21.36382326
-7.677821189 6.375089931 21.33843604
