24.097659 -10.156511 -22.214000
18.821665 -17.124517 -21.567709
4.354633 16.078961 -28.707616
13.423317 13.123257 -29.529941
7.587329 20.346522 -28.232137
4.187151 11.393064 -29.396469
30.135976 3.117479 -23.669245
22.647402 8.848330 -28.313764
32.299501 8.680425 -23.277816
25.780112 0.000000 -25.476575
15.975465 30.387141 -25.848846
17.907558 17.355557 -28.975037
11.556350 25.275684 -27.418961
22.946358 28.900108 -25.220488
12.759641 19.024901 -28.879028
4.025499 2.487896 -29.878304
12.858201 7.946805 -29.666274
4.092102 6.783076 -29.780132
8.175883 0.000000 -29.580622
8.567020 9.773039 -29.723571
34.549255 21.352614 -20.694420
23.909121 14.776649 -28.106857
33.874416 14.966757 -22.315758
29.401386 25.657943 -23.344367
28.501373 12.012557 -26.273486
23.801430 21.655256 -27.274011
16.870189 -5.082399 -27.296539
17.909567 5.395528 -28.978288
21.161862 -2.768467 -26.619676
12.577835 -2.591176 -28.736588
22.008474 2.879223 -27.684637
12.860493 2.649407 -29.382377
35.328692 44.980928 4.653147
39.186223 31.343984 12.246081
30.512805 42.338522 11.378392
41.547377 42.042388 0.000000
34.885654 5.291774 19.539242
38.438428 17.472815 17.082234
21.395941 35.720443 22.076448
34.200637 29.092799 17.980339
25.795439 39.156431 17.300514
32.953101 35.747393 15.066559
43.762877 27.046946 -8.148301
43.762877 27.046946 8.148301
43.944415 34.934520 -4.570253
43.944415 34.934520 4.570253
22.177665 -28.236878 2.921023
26.544917 -21.232550 8.295548
20.589113 -28.568748 7.677793
24.924198 -25.221154 0.000000
31.886298 -4.836805 17.859321
29.715214 -13.507536 13.205593
15.973801 -26.668200 16.481854
24.587912 -20.915727 12.926630
18.453465 -28.011612 12.376390
22.804604 -24.738343 10.426542
29.404777 -18.173152 -5.474937
29.404777 -18.173152 5.474937
27.371319 -21.759395 -2.846638
27.371319 -21.759395 2.846638
4.166182 -15.383128 27.465266
12.098197 -11.827758 26.614811
6.923328 -18.565906 25.761414
4.060133 -11.047453 28.504720
28.627665 -2.961449 22.484595
20.221456 -7.900514 25.280848
28.225830 -7.585634 20.341977
12.733067 -24.219733 20.602536
15.167123 -14.699596 24.540920
9.878644 -21.606257 23.438382
17.470548 -22.003523 19.201991
11.134748 -16.602150 25.201391
3.998715 -2.471342 29.679504
12.066116 -7.457270 27.838787
4.018118 -6.660439 29.241714
8.126171 -9.270129 28.194030
26.281891 -16.243102 15.742408
19.982090 -12.349611 23.490356
27.391902 -12.102583 18.045213
22.129612 -19.312025 17.570661
24.097659 -10.156511 22.214000
18.821665 -17.124517 21.567709
4.354633 16.078961 28.707616
13.423317 13.123257 29.529941
7.587329 20.346522 28.232137
4.187151 11.393064 29.396469
30.135976 3.117479 23.669245
22.647402 8.848330 28.313764
32.299501 8.680425 23.277816
25.780112 0.000000 25.476575
15.975465 30.387141 25.848846
17.907558 17.355557 28.975037
11.556350 25.275684 27.418961
22.946358 28.900108 25.220488
12.759641 19.024901 28.879028
4.025499 2.487896 29.878304
12.858201 7.946805 29.666274
4.092102 6.783076 29.780132
8.175883 0.000000 29.580622
8.567020 9.773039 29.723571
34.549255 21.352614 20.694420
23.909121 14.776649 28.106857
33.874416 14.966757 22.315758
29.401386 25.657943 23.344367
28.501373 12.012557 26.273486
23.801430 21.655256 27.274011
16.870189 -5.082399 27.296539
17.909567 5.395528 28.978288
21.161862 -2.768467 26.619676
12.577835 -2.591176 28.736588
22.008474 2.879223 27.684637
12.860493 2.649407 29.382377
35.478438 0.000000 -15.639059
39.038285 0.000000 -5.437407
37.973016 5.408771 -14.717040
34.399375 -4.899751 -13.332019
35.478438 0.000000 15.639059
39.038285 0.000000 5.437407
37.973016 5.408771 14.717040
34.399375 -4.899751 13.332019
42.335938 18.349591 -11.340671
41.691891 5.617142 -3.471585
40.395041 11.642785 -13.281792
45.467736 19.900960 -4.099823
40.363549 5.546375 -9.193680
31.483709 -13.645929 -8.433648
37.025923 -4.988497 -3.083061
33.024935 -9.518550 -10.858519
32.236674 -14.109802 -2.906779
36.137890 -4.965725 -8.231194
42.335938 18.349591 11.340671
41.691891 5.617142 3.471585
40.395041 11.642785 13.281792
45.467736 19.900960 4.099823
40.363549 5.546375 9.193680
44.241976 12.228181 0.000000
31.483709 -13.645929 8.433648
37.025923 -4.988497 3.083061
33.024935 -9.518550 10.858519
32.236674 -14.109802 2.906779
36.137890 -4.965725 8.231194
34.824379 -9.625222 0.000000
-22.177665 28.236878 -2.921023
-26.544917 21.232550 -8.295548
-20.589113 28.568748 -7.677793
-31.886298 4.836805 -17.859321
-29.715214 13.507536 -13.205593
-15.973801 26.668200 -16.481854
-24.587912 20.915727 -12.926630
-18.453465 28.011612 -12.376390
-22.804604 24.738343 -10.426542
-35.328692 -44.980928 -4.653147
-39.186223 -31.343984 -12.246081
-30.512805 -42.338522 -11.378392
-34.885654 -5.291774 -19.539242
-38.438428 -17.472815 -17.082234
-21.395941 -35.720443 -22.076448
-34.200637 -29.092799 -17.980339
-25.795439 -39.156431 -17.300514
-32.953101 -35.747393 -15.066559
-4.354633 -16.078961 -28.707616
-13.423317 -13.123257 -29.529941
-7.587329 -20.346522 -28.232137
-4.187151 -11.393064 -29.396469
-30.135976 -3.117479 -23.669245
-22.647402 -8.848330 -28.313764
-32.299501 -8.680425 -23.277816
-15.975465 -30.387141 -25.848846
-17.907558 -17.355557 -28.975037
-11.556350 -25.275684 -27.418961
-22.946358 -28.900108 -25.220488
-12.759641 -19.024901 -28.879028
-4.025499 -2.487896 -29.878304
-12.858201 -7.946805 -29.666274
-4.092102 -6.783076 -29.780132
-8.567020 -9.773039 -29.723571
-34.549255 -21.352614 -20.694420
-23.909121 -14.776649 -28.106857
-33.874416 -14.966757 -22.315758
-29.401386 -25.657943 -23.344367
-28.501373 -12.012557 -26.273486
-23.801430 -21.655256 -27.274011
-4.166182 15.383128 -27.465266
-12.098197 11.827758 -26.614811
-6.923328 18.565906 -25.761414
-4.060133 11.047453 -28.504720
-28.627665 2.961449 -22.484595
-20.221456 7.900514 -25.280848
-28.225830 7.585634 -20.341977
-25.780112 0.000000 -25.476575
-12.733067 24.219733 -20.602536
-15.167123 14.699596 -24.540920
-9.878644 21.606257 -23.438382
-17.470548 22.003523 -19.201991
-11.134748 16.602150 -25.201391
-3.998715 2.471342 -29.679504
-12.066116 7.457270 -27.838787
-4.018118 6.660439 -29.241714
-8.175883 0.000000 -29.580622
-8.126171 9.270129 -28.194030
-26.281891 16.243102 -15.742408
-19.982090 12.349611 -23.490356
-27.391902 12.102583 -18.045213
-22.129612 19.312025 -17.570661
-24.097659 10.156511 -22.214000
-18.821665 17.124517 -21.567709
-17.909567 -5.395528 -28.978288
-16.870189 5.082399 -27.296539
-22.008474 -2.879223 -27.684637
-12.860493 -2.649407 -29.382377
-21.161862 2.768467 -26.619676
-12.577835 2.591176 -28.736588
-22.177665 28.236878 2.921023
-26.544917 21.232550 8.295548
-20.589113 28.568748 7.677793
-24.924198 25.221154 0.000000
-31.886298 4.836805 17.859321
-29.715214 13.507536 13.205593
-15.973801 26.668200 16.481854
-24.587912 20.915727 12.926630
-18.453465 28.011612 12.376390
-22.804604 24.738343 10.426542
-29.404777 18.173152 -5.474937
-29.404777 18.173152 5.474937
-27.371319 21.759395 -2.846638
-27.371319 21.759395 2.846638
-35.328692 -44.980928 4.653147
-39.186223 -31.343984 12.246081
-30.512805 -42.338522 11.378392
-41.547377 -42.042388 0.000000
-34.885654 -5.291774 19.539242
-38.438428 -17.472815 17.082234
-21.395941 -35.720443 22.076448
-34.200637 -29.092799 17.980339
-25.795439 -39.156431 17.300514
-32.953101 -35.747393 15.066559
-43.762877 -27.046946 -8.148301
-43.762877 -27.046946 8.148301
-43.944415 -34.934520 -4.570253
-43.944415 -34.934520 4.570253
-4.354633 -16.078961 28.707616
-13.423317 -13.123257 29.529941
-7.587329 -20.346522 28.232137
-4.187151 -11.393064 29.396469
-30.135976 -3.117479 23.669245
-22.647402 -8.848330 28.313764
-32.299501 -8.680425 23.277816
-15.975465 -30.387141 25.848846
-17.907558 -17.355557 28.975037
-11.556350 -25.275684 27.418961
-22.946358 -28.900108 25.220488
-12.759641 -19.024901 28.879028
-4.025499 -2.487896 29.878304
-12.858201 -7.946805 29.666274
-4.092102 -6.783076 29.780132
-8.567020 -9.773039 29.723571
-34.549255 -21.352614 20.694420
-23.909121 -14.776649 28.106857
-33.874416 -14.966757 22.315758
-29.401386 -25.657943 23.344367
-28.501373 -12.012557 26.273486
-23.801430 -21.655256 27.274011
-4.166182 15.383128 27.465266
-12.098197 11.827758 26.614811
-6.923328 18.565906 25.761414
-4.060133 11.047453 28.504720
-28.627665 2.961449 22.484595
-20.221456 7.900514 25.280848
-28.225830 7.585634 20.341977
-25.780112 0.000000 25.476575
-12.733067 24.219733 20.602536
-15.167123 14.699596 24.540920
-9.878644 21.606257 23.438382
-17.470548 22.003523 19.201991
-11.134748 16.602150 25.201391
-3.998715 2.471342 29.679504
-12.066116 7.457270 27.838787
-4.018118 6.660439 29.241714
-8.175883 0.000000 29.580622
-8.126171 9.270129 28.194030
-26.281891 16.243102 15.742408
-19.982090 12.349611 23.490356
-27.391902 12.102583 18.045213
-22.129612 19.312025 17.570661
-24.097659 10.156511 22.214000
-18.821665 17.124517 21.567709
-17.909567 -5.395528 28.978288
-16.870189 5.082399 27.296539
-22.008474 -2.879223 27.684637
-12.860493 -2.649407 29.382377
-21.161862 2.768467 26.619676
-12.577835 2.591176 28.736588
-35.478438 0.000000 -15.639059
-39.038285 0.000000 -5.437407
-34.399375 4.899751 -13.332019
-37.973016 -5.408771 -14.717040
-35.478438 0.000000 15.639059
-39.038285 0.000000 5.437407
-34.399375 4.899751 13.332019
-37.973016 -5.408771 14.717040
-31.483709 13.645929 -8.433648
-37.025923 4.988497 -3.083061
-33.024935 9.518550 -10.858519
-32.236674 14.109802 -2.906779
-36.137890 4.965725 -8.231194
-42.335938 -18.349591 -11.340671
-41.691891 -5.617142 -3.471585
-40.395041 -11.642785 -13.281792
-45.467736 -19.900960 -4.099823
-40.363549 -5.546375 -9.193680
-31.483709 13.645929 8.433648
-37.025923 4.988497 3.083061
-33.024935 9.518550 10.858519
-32.236674 14.109802 2.906779
-36.137890 4.965725 8.231194
-34.824379 9.625222 0.000000
-42.335938 -18.349591 11.340671
-41.691891 -5.617142 3.471585
-40.395041 -11.642785 13.281792
-45.467736 -19.900960 4.099823
-40.363549 -5.546375 9.193680
-44.241976 -12.228181 0.000000
-17.507710 33.272750 0.000000
-13.355037 37.047519 0.000000
-3.129234 45.150038 0.000000
-8.632008 40.982896 0.000000
26.037384 49.483078 0.000000
18.464722 51.222030 0.000000
3.408032 49.172663 0.000000
10.854815 51.536298 0.000000
-26.037384 -49.483078 0.000000
-18.464722 -51.222030 0.000000
-3.408032 -49.172663 0.000000
-10.854815 -51.536298 0.000000
17.507710 -33.272750 0.000000
13.355037 -37.047519 0.000000
3.129234 -45.150038 0.000000
8.632008 -40.982896 0.000000
-28.411199 -48.250845 3.690022
-24.560013 -46.203234 10.459453
-24.640578 -49.402687 3.641433
-16.212656 -39.175707 20.942342
-20.459027 -43.162064 16.275260
-17.105146 -51.092160 3.566114
-21.064932 -47.521324 10.412493
-20.858739 -50.377205 3.605859
-22.922475 -48.671068 7.150250
-1.365976 -19.227527 27.534620
-4.365270 -23.648266 26.835272
-11.860124 -34.046216 24.037728
-7.837670 -28.623207 25.794035
-1.992250 -48.149972 3.223529
-6.036588 -47.827105 9.767404
-5.549085 -49.850404 3.353499
-12.780254 -39.669478 20.678885
-9.738339 -44.719495 15.756963
-14.900898 -42.123487 18.690628
-13.145032 -51.375794 3.537940
-9.731065 -48.771431 10.063792
-9.329810 -50.986966 3.460025
-15.396701 -50.334072 7.040121
-7.692452 -49.714575 6.763945
-19.013576 -46.009125 13.551883
-11.683562 -47.047319 13.276654
-17.000516 -44.246143 16.281555
-17.371778 -48.482491 10.424266
-13.385388 -44.803014 16.120653
-13.560318 -48.964965 10.322215
18.772241 -31.880967 2.438123
17.109271 -32.186614 7.286381
16.831015 -33.745043 2.487320
12.471152 -30.134866 16.109337
14.973134 -31.588568 11.911204
12.567554 -37.538615 2.620108
15.069346 -33.995613 7.448848
14.755158 -35.636076 2.550730
16.009549 -33.992919 4.993888
1.343008 -18.904216 27.071624
4.099859 -22.210436 25.203670
0.000000 -20.995112 26.731236
9.743306 -27.969582 19.747428
6.920466 -25.273573 22.775486
-2.939598 -25.561252 25.865798
2.806922 -24.407567 24.698368
-1.428068 -23.221891 26.331689
1.398274 -22.737416 25.782335
1.893121 -45.754168 3.063135
5.250482 -41.598893 8.495459
4.859996 -43.659956 2.937060
0.000000 -46.199911 6.224507
10.191659 -31.634568 16.490451
7.990724 -36.694261 12.929263
11.514680 -32.550954 14.443196
10.124444 -39.570186 2.724959
7.917728 -39.683109 8.188453
7.607886 -41.576732 2.821437
11.564706 -37.806717 5.287946
6.466510 -41.791589 5.685978
-3.829772 -45.141612 12.476835
3.498117 -41.232382 11.396350
-1.938476 -45.998526 9.415748
1.846766 -43.822322 8.970286
13.948885 -33.753567 9.942036
9.271509 -37.334474 10.535710
12.781918 -33.266671 12.241364
12.842162 -35.840889 7.706183
10.448267 -34.972004 12.583340
10.452078 -37.741419 7.956200
-10.280490 -36.425992 22.512501
-3.219366 -34.796657 21.505516
-8.271340 -33.605514 23.668943
-8.932924 -39.139695 20.470884
8.554329 -30.309832 18.732506
3.017539 -32.615205 20.157305
7.144802 -29.028519 20.445286
7.521741 -32.956580 17.236985
-4.620331 -28.169212 25.270108
-1.593898 -32.035463 22.510706
-6.371793 -30.812091 24.569169
-1.505126 -27.510700 24.698808
-4.823003 -32.895149 23.132788
-5.723909 -43.587876 15.490971
-1.726034 -36.977137 19.401060
-7.398391 -41.578178 18.110920
-1.844297 -42.046964 14.920673
-5.198622 -38.172615 20.007012
4.279535 -26.091449 23.406182
1.545233 -31.057347 21.823403
5.708648 -27.605322 22.012133
1.466791 -26.810021 24.069746
4.407729 -30.062782 21.140988
0.000000 -29.364641 23.344028
5.042750 -38.400814 13.647508
1.662574 -35.617639 18.687763
6.348738 -35.679236 15.541417
1.765440 -40.249154 14.282707
4.670458 -34.294392 17.974359
0.000000 -38.799618 16.982364
-18.772241 31.880967 2.438123
-17.109271 32.186614 7.286381
-16.831015 33.745043 2.487320
-12.471152 30.134866 16.109337
-14.973134 31.588568 11.911204
-12.567554 37.538615 2.620108
-15.069346 33.995613 7.448848
-14.755158 35.636076 2.550730
-16.009549 33.992919 4.993888
-1.343008 18.904216 27.071624
-4.099859 22.210436 25.203670
-9.743306 27.969582 19.747428
-6.920466 25.273573 22.775486
-1.893121 45.754168 3.063135
-5.250482 41.598893 8.495459
-4.859996 43.659956 2.937060
-10.191659 31.634568 16.490451
-7.990724 36.694261 12.929263
-11.514680 32.550954 14.443196
-10.124444 39.570186 2.724959
-7.917728 39.683109 8.188453
-7.607886 41.576732 2.821437
-11.564706 37.806717 5.287946
-6.466510 41.791589 5.685978
-13.948885 33.753567 9.942036
-9.271509 37.334474 10.535710
-12.781918 33.266671 12.241364
-12.842162 35.840889 7.706183
-10.448267 34.972004 12.583340
-10.452078 37.741419 7.956200
28.411199 48.250845 3.690022
24.560013 46.203234 10.459453
24.640578 49.402687 3.641433
16.212656 39.175707 20.942342
20.459027 43.162064 16.275260
17.105146 51.092160 3.566114
21.064932 47.521324 10.412493
20.858739 50.377205 3.605859
22.922475 48.671068 7.150250
1.365976 19.227527 27.534620
4.365270 23.648266 26.835272
0.000000 20.995112 26.731236
11.860124 34.046216 24.037728
7.837670 28.623207 25.794035
-2.806922 24.407567 24.698368
2.939598 25.561252 25.865798
-1.398274 22.737416 25.782335
1.428068 23.221891 26.331689
1.992250 48.149972 3.223529
6.036588 47.827105 9.767404
5.549085 49.850404 3.353499
0.000000 46.199911 6.224507
12.780254 39.669478 20.678885
9.738339 44.719495 15.756963
14.900898 42.123487 18.690628
13.145032 51.375794 3.537940
9.731065 48.771431 10.063792
9.329810 50.986966 3.460025
15.396701 50.334072 7.040121
7.692452 49.714575 6.763945
-3.498117 41.232382 11.396350
3.829772 45.141612 12.476835
-1.846766 43.822322 8.970286
1.938476 45.998526 9.415748
19.013576 46.009125 13.551883
11.683562 47.047319 13.276654
17.000516 44.246143 16.281555
17.371778 48.482491 10.424266
13.385388 44.803014 16.120653
13.560318 48.964965 10.322215
-8.554329 30.309832 18.732506
-3.017539 32.615205 20.157305
-7.144802 29.028519 20.445286
-7.521741 32.956580 17.236985
10.280490 36.425992 22.512501
3.219366 34.796657 21.505516
8.271340 33.605514 23.668943
8.932924 39.139695 20.470884
-4.279535 26.091449 23.406182
-1.545233 31.057347 21.823403
-5.708648 27.605322 22.012133
-1.466791 26.810021 24.069746
-4.407729 30.062782 21.140988
-5.042750 38.400814 13.647508
-1.662574 35.617639 18.687763
-6.348738 35.679236 15.541417
-1.765440 40.249154 14.282707
-4.670458 34.294392 17.974359
4.620331 28.169212 25.270108
1.593898 32.035463 22.510706
6.371793 30.812091 24.569169
1.505126 27.510700 24.698808
4.823003 32.895149 23.132788
0.000000 29.364641 23.344028
5.723909 43.587876 15.490971
1.726034 36.977137 19.401060
7.398391 41.578178 18.110920
1.844297 42.046964 14.920673
5.198622 38.172615 20.007012
0.000000 38.799618 16.982364
0.000000 -14.911477 28.338706
0.000000 -10.501711 29.132255
0.000000 -2.069913 29.865661
0.000000 -6.240308 29.627625
0.000000 14.911477 28.338706
0.000000 10.501711 29.132255
0.000000 2.069913 29.865661
0.000000 6.240308 29.627625
-28.411199 -48.250845 -3.690022
-24.560013 -46.203234 -10.459453
-24.640578 -49.402687 -3.641433
-16.212656 -39.175707 -20.942342
-20.459027 -43.162064 -16.275260
-17.105146 -51.092160 -3.566114
-21.064932 -47.521324 -10.412493
-20.858739 -50.377205 -3.605859
-22.922475 -48.671068 -7.150250
-1.365976 -19.227527 -27.534620
-4.365270 -23.648266 -26.835272
-11.860124 -34.046216 -24.037728
-7.837670 -28.623207 -25.794035
-1.992250 -48.149972 -3.223529
-6.036588 -47.827105 -9.767404
-5.549085 -49.850404 -3.353499
-12.780254 -39.669478 -20.678885
-9.738339 -44.719495 -15.756963
-14.900898 -42.123487 -18.690628
-13.145032 -51.375794 -3.537940
-9.731065 -48.771431 -10.063792
-9.329810 -50.986966 -3.460025
-15.396701 -50.334072 -7.040121
-7.692452 -49.714575 -6.763945
-19.013576 -46.009125 -13.551883
-11.683562 -47.047319 -13.276654
-17.000516 -44.246143 -16.281555
-17.371778 -48.482491 -10.424266
-13.385388 -44.803014 -16.120653
-13.560318 -48.964965 -10.322215
18.772241 -31.880967 -2.438123
17.109271 -32.186614 -7.286381
16.831015 -33.745043 -2.487320
12.471152 -30.134866 -16.109337
14.973134 -31.588568 -11.911204
12.567554 -37.538615 -2.620108
15.069346 -33.995613 -7.448848
14.755158 -35.636076 -2.550730
16.009549 -33.992919 -4.993888
1.343008 -18.904216 -27.071624
4.099859 -22.210436 -25.203670
0.000000 -20.995112 -26.731236
9.743306 -27.969582 -19.747428
6.920466 -25.273573 -22.775486
-2.939598 -25.561252 -25.865798
2.806922 -24.407567 -24.698368
-1.428068 -23.221891 -26.331689
1.398274 -22.737416 -25.782335
1.893121 -45.754168 -3.063135
5.250482 -41.598893 -8.495459
4.859996 -43.659956 -2.937060
0.000000 -46.199911 -6.224507
10.191659 -31.634568 -16.490451
7.990724 -36.694261 -12.929263
11.514680 -32.550954 -14.443196
10.124444 -39.570186 -2.724959
7.917728 -39.683109 -8.188453
7.607886 -41.576732 -2.821437
11.564706 -37.806717 -5.287946
6.466510 -41.791589 -5.685978
-3.829772 -45.141612 -12.476835
3.498117 -41.232382 -11.396350
-1.938476 -45.998526 -9.415748
1.846766 -43.822322 -8.970286
13.948885 -33.753567 -9.942036
9.271509 -37.334474 -10.535710
12.781918 -33.266671 -12.241364
12.842162 -35.840889 -7.706183
10.448267 -34.972004 -12.583340
10.452078 -37.741419 -7.956200
-10.280490 -36.425992 -22.512501
-3.219366 -34.796657 -21.505516
-8.271340 -33.605514 -23.668943
-8.932924 -39.139695 -20.470884
8.554329 -30.309832 -18.732506
3.017539 -32.615205 -20.157305
7.144802 -29.028519 -20.445286
7.521741 -32.956580 -17.236985
-4.620331 -28.169212 -25.270108
-1.593898 -32.035463 -22.510706
-6.371793 -30.812091 -24.569169
-1.505126 -27.510700 -24.698808
-4.823003 -32.895149 -23.132788
-5.723909 -43.587876 -15.490971
-1.726034 -36.977137 -19.401060
-7.398391 -41.578178 -18.110920
-1.844297 -42.046964 -14.920673
-5.198622 -38.172615 -20.007012
4.279535 -26.091449 -23.406182
1.545233 -31.057347 -21.823403
5.708648 -27.605322 -22.012133
1.466791 -26.810021 -24.069746
4.407729 -30.062782 -21.140988
0.000000 -29.364641 -23.344028
5.042750 -38.400814 -13.647508
1.662574 -35.617639 -18.687763
6.348738 -35.679236 -15.541417
1.765440 -40.249154 -14.282707
4.670458 -34.294392 -17.974359
0.000000 -38.799618 -16.982364
-18.772241 31.880967 -2.438123
-17.109271 32.186614 -7.286381
-16.831015 33.745043 -2.487320
-12.471152 30.134866 -16.109337
-14.973134 31.588568 -11.911204
-12.567554 37.538615 -2.620108
-15.069346 33.995613 -7.448848
-14.755158 35.636076 -2.550730
-16.009549 33.992919 -4.993888
-1.343008 18.904216 -27.071624
-4.099859 22.210436 -25.203670
-9.743306 27.969582 -19.747428
-6.920466 25.273573 -22.775486
-1.893121 45.754168 -3.063135
-5.250482 41.598893 -8.495459
-4.859996 43.659956 -2.937060
-10.191659 31.634568 -16.490451
-7.990724 36.694261 -12.929263
-11.514680 32.550954 -14.443196
-10.124444 39.570186 -2.724959
-7.917728 39.683109 -8.188453
-7.607886 41.576732 -2.821437
-11.564706 37.806717 -5.287946
-6.466510 41.791589 -5.685978
-13.948885 33.753567 -9.942036
-9.271509 37.334474 -10.535710
-12.781918 33.266671 -12.241364
-12.842162 35.840889 -7.706183
-10.448267 34.972004 -12.583340
-10.452078 37.741419 -7.956200
28.411199 48.250845 -3.690022
24.560013 46.203234 -10.459453
24.640578 49.402687 -3.641433
16.212656 39.175707 -20.942342
20.459027 43.162064 -16.275260
17.105146 51.092160 -3.566114
21.064932 47.521324 -10.412493
20.858739 50.377205 -3.605859
22.922475 48.671068 -7.150250
1.365976 19.227527 -27.534620
4.365270 23.648266 -26.835272
0.000000 20.995112 -26.731236
11.860124 34.046216 -24.037728
7.837670 28.623207 -25.794035
-2.806922 24.407567 -24.698368
2.939598 25.561252 -25.865798
-1.398274 22.737416 -25.782335
1.428068 23.221891 -26.331689
1.992250 48.149972 -3.223529
6.036588 47.827105 -9.767404
5.549085 49.850404 -3.353499
0.000000 46.199911 -6.224507
12.780254 39.669478 -20.678885
9.738339 44.719495 -15.756963
14.900898 42.123487 -18.690628
13.145032 51.375794 -3.537940
9.731065 48.771431 -10.063792
9.329810 50.986966 -3.460025
15.396701 50.334072 -7.040121
7.692452 49.714575 -6.763945
-3.498117 41.232382 -11.396350
3.829772 45.141612 -12.476835
-1.846766 43.822322 -8.970286
1.938476 45.998526 -9.415748
19.013576 46.009125 -13.551883
11.683562 47.047319 -13.276654
17.000516 44.246143 -16.281555
17.371778 48.482491 -10.424266
13.385388 44.803014 -16.120653
13.560318 48.964965 -10.322215
-8.554329 30.309832 -18.732506
-3.017539 32.615205 -20.157305
-7.144802 29.028519 -20.445286
-7.521741 32.956580 -17.236985
10.280490 36.425992 -22.512501
3.219366 34.796657 -21.505516
8.271340 33.605514 -23.668943
8.932924 39.139695 -20.470884
-4.279535 26.091449 -23.406182
-1.545233 31.057347 -21.823403
-5.708648 27.605322 -22.012133
-1.466791 26.810021 -24.069746
-4.407729 30.062782 -21.140988
-5.042750 38.400814 -13.647508
-1.662574 35.617639 -18.687763
-6.348738 35.679236 -15.541417
-1.765440 40.249154 -14.282707
-4.670458 34.294392 -17.974359
4.620331 28.169212 -25.270108
1.593898 32.035463 -22.510706
6.371793 30.812091 -24.569169
1.505126 27.510700 -24.698808
4.823003 32.895149 -23.132788
0.000000 29.364641 -23.344028
5.723909 43.587876 -15.490971
1.726034 36.977137 -19.401060
7.398391 41.578178 -18.110920
1.844297 42.046964 -14.920673
5.198622 38.172615 -20.007012
0.000000 38.799618 -16.982364
0.000000 -14.911477 -28.338706
0.000000 -10.501711 -29.132255
0.000000 -2.069913 -29.865661
0.000000 -6.240308 -29.627625
0.000000 14.911477 -28.338706
0.000000 10.501711 -29.132255
0.000000 2.069913 -29.865661
0.000000 6.240308 -29.627625
32.861509 47.059049 -2.334572
37.096824 42.096253 -6.847760
30.925576 46.350326 -5.967808
39.294099 27.742903 -13.688243
38.852312 35.012076 -10.638626
26.523442 43.680198 -12.479182
34.455924 40.711314 -10.177038
28.728340 45.107306 -9.367268
32.960190 43.779394 -8.167449
33.721680 2.578893 -19.856095
35.966721 8.142119 -19.118643
38.918683 20.804943 -16.106288
37.771702 14.242698 -17.903969
17.767396 36.488061 -22.550862
24.858790 34.507380 -21.326734
19.975262 38.596127 -20.529791
36.876158 26.791430 -16.558014
31.272556 31.146969 -19.249886
36.654543 30.216863 -15.225248
24.282747 42.075675 -15.490819
27.077874 36.098112 -18.923693
22.146388 40.441906 -18.135569
28.114309 40.750484 -14.457633
23.613856 37.519470 -19.828061
35.519846 37.192665 -12.093200
30.514874 34.351566 -17.820065
36.215283 33.718726 -13.730553
31.898166 39.130121 -13.323646
33.680956 32.420073 -16.604088
29.437607 37.590034 -16.246703
20.847959 -29.855146 -1.481097
23.404843 -26.559045 -4.320336
20.163900 -30.221048 -3.891092
27.435205 -19.370141 -9.557154
25.581016 -23.052541 -7.004651
18.410762 -30.319810 -8.662196
22.630755 -26.739314 -6.684309
19.347217 -30.377697 -6.308425
21.453704 -28.495896 -5.316172
32.242115 -2.465742 -18.984894
31.445726 -7.118660 -16.715442
29.016672 -15.511579 -12.008394
30.354254 -11.445777 -14.388063
13.595676 -27.920797 -17.256001
18.266250 -25.356038 -15.670893
14.908562 -28.806267 -15.322435
26.480996 -19.239090 -11.890412
22.581836 -22.491151 -13.900296
25.650904 -21.145805 -10.654651
17.321488 -30.013626 -11.049987
19.500518 -25.996571 -13.628168
16.162806 -29.515182 -13.235643
19.589366 -28.393945 -10.073726
17.261748 -27.426765 -14.494329
23.748786 -24.867243 -8.085587
21.708709 -24.438185 -12.677444
24.737607 -23.032282 -9.378941
21.742533 -26.672002 -9.081708
23.732100 -22.843663 -11.699486
20.690848 -26.420955 -11.419341
2.114057 -16.277112 -27.643480
6.174631 -14.498752 -27.275605
3.461297 -17.936670 -26.882943
2.077705 -14.059262 -28.187868
14.085276 -10.904212 -26.348565
10.125968 -12.728979 -26.854113
6.241560 -21.131759 -24.968179
7.559098 -16.066222 -26.458698
4.848332 -19.565709 -25.988165
5.539903 -16.990250 -26.676946
2.025656 -9.716216 -29.021819
6.103941 -12.348540 -27.857626
2.050455 -11.861224 -28.646760
4.117478 -13.199928 -28.027278
30.612859 -1.518686 -21.377073
26.562964 -4.320974 -23.408297
30.415076 -3.916074 -20.293358
18.142253 -8.951319 -25.696067
22.329901 -6.785072 -24.779116
29.717819 -8.490210 -18.045222
26.460652 -6.614649 -22.394910
30.108097 -6.252438 -19.175511
28.470749 -5.311481 -21.434772
11.969816 -26.657836 -19.367569
13.426608 -21.812304 -21.724709
10.569737 -25.446474 -20.977280
14.392064 -25.534694 -18.648170
15.652849 -12.332583 -25.326842
14.637290 -17.061465 -23.683632
13.645387 -13.276812 -25.653406
7.724417 -22.687964 -23.756462
11.985423 -20.523700 -23.104184
9.140973 -24.109949 -22.447892
8.401784 -20.114725 -24.675138
11.316742 -22.955714 -22.096342
19.037980 -23.076833 -17.108854
15.800706 -20.777447 -21.081815
16.762708 -24.337682 -17.894553
15.129455 -23.138591 -19.926305
9.647986 -15.123772 -26.205557
12.608598 -18.041617 -24.051678
11.634984 -14.208149 -25.945749
9.043545 -17.586076 -25.490262
13.151753 -15.662832 -24.886286
10.532182 -19.083395 -24.368335
1.997812 -1.234716 -29.841397
6.005338 -3.711503 -29.405762
2.000297 -3.309921 -29.734794
14.089305 -8.707669 -27.028313
10.040501 -6.205371 -28.495727
12.097735 -9.644786 -27.264935
2.020065 -7.505447 -29.334146
6.012054 -5.813285 -29.135787
2.006358 -5.410059 -29.565714
4.043689 -8.843522 -28.910769
4.012529 -4.563342 -29.491844
8.151106 -11.436173 -27.673297
8.082104 -7.112316 -28.639847
10.111511 -10.558014 -27.478662
6.097039 -10.160563 -28.356878
10.084462 -8.373385 -28.027046
6.067888 -7.971399 -28.783933
27.376379 -16.919533 -13.330579
24.975882 -15.435944 -17.992389
28.054748 -14.922692 -14.519616
25.478294 -18.606980 -14.360275
18.071163 -11.168593 -24.873441
21.795119 -13.470124 -21.882999
20.130743 -10.143195 -24.419583
17.568225 -13.558597 -24.055940
29.215572 -10.756170 -16.860914
25.471102 -13.352702 -19.106354
28.672821 -12.857899 -15.701521
27.844946 -9.878950 -19.210603
26.867121 -14.198572 -16.909522
21.343086 -21.655739 -16.230859
22.837603 -16.931492 -18.840620
23.450649 -20.195041 -15.333498
19.834039 -20.704016 -18.426389
24.251339 -17.831068 -16.703238
24.310958 -7.904711 -23.217521
23.816985 -12.355193 -21.156890
22.227529 -9.051239 -23.873269
26.194369 -8.919076 -21.353175
22.045309 -11.290605 -22.902697
25.859568 -11.176705 -20.251213
16.451332 -18.306319 -22.189952
21.166491 -15.864170 -20.860901
17.026762 -15.949805 -23.157433
18.181128 -19.570043 -20.428440
19.428978 -14.751850 -22.561091
20.546565 -18.286260 -19.683205
2.163810 16.660179 -28.294044
6.575526 15.440099 -29.046504
3.611764 18.716399 -28.051577
2.119181 14.339919 -28.750565
15.753082 12.195356 -29.468440
11.112065 13.968565 -29.469247
6.852584 23.200475 -27.412465
8.243858 17.521620 -28.855523
5.179429 20.901871 -27.762923
5.917709 18.148936 -28.496237
2.052815 9.846491 -29.410944
6.434159 13.016586 -29.364701
2.084490 12.058107 -29.122265
4.274541 13.703447 -29.096395
31.440486 1.559744 -21.955008
28.580307 4.649133 -25.186057
32.629102 4.201140 -21.770587
29.428602 0.000000 -23.113663
20.395535 10.063079 -28.887538
24.795435 7.534239 -27.515077
34.717065 9.918466 -21.080859
29.646011 7.410927 -25.090831
33.735879 7.005806 -21.486005
31.265692 5.832903 -23.539000
25.146517 -2.857853 -24.850439
26.336083 2.993045 -26.026000
27.305279 -1.480869 -24.080498
27.988970 1.517948 -24.683445
15.088849 33.604198 -24.414271
16.691244 27.115895 -27.007001
12.869348 30.982751 -25.541215
18.726009 33.224069 -24.263775
18.048706 14.220233 -29.203420
17.644832 20.567105 -28.549937
15.595697 15.174443 -29.320002
8.763328 25.739429 -26.951636
14.393667 24.647550 -27.746532
10.733745 28.310995 -26.359333
9.496529 22.735658 -27.890289
13.714403 27.819306 -26.777860
25.612136 31.045676 -23.016847
20.122039 26.459869 -26.847478
22.276975 32.343815 -23.781152
19.516294 29.847707 -25.704008
10.724859 16.811831 -29.130524
14.939050 21.376256 -28.497159
13.133691 16.038306 -29.287831
10.151068 19.739764 -28.611942
15.327470 18.253962 -29.003268
12.215132 22.132753 -28.262179
2.001129 1.236766 -29.890947
6.097120 3.768228 -29.855182
2.009244 3.324726 -29.867801
4.017707 0.000000 -29.820463
15.385785 9.508938 -29.515425
10.485663 6.480496 -29.759131
13.153362 10.486373 -29.644026
2.040882 7.582790 -29.636433
6.157838 5.954249 -29.842287
2.021119 5.449861 -29.783232
4.143889 9.062659 -29.627159
4.062714 4.620416 -29.860700
8.108636 -2.488951 -29.337319
8.220546 2.523302 -29.742214
6.066495 -1.248946 -29.636505
6.097567 1.255342 -29.788297
8.706810 12.215838 -29.559931
8.411318 7.402027 -29.806452
10.911802 11.393645 -29.653504
6.365297 10.607608 -29.604527
10.703157 8.887103 -29.746542
6.273970 8.242128 -29.761510
36.875027 22.790020 -17.955824
32.159819 19.875861 -23.167629
36.648012 19.493563 -18.967023
34.509545 25.202568 -19.450539
20.947565 12.946307 -28.832569
26.843042 16.589912 -26.951275
23.321260 11.750789 -28.289837
20.956013 16.173184 -28.694793
35.567377 13.094687 -20.526673
31.880536 16.712716 -23.914191
36.208310 16.237077 -19.828029
33.178971 11.771378 -22.890619
34.316088 18.135157 -21.597724
28.897203 29.320517 -21.975568
29.645843 21.979030 -24.457298
31.811635 27.395287 -20.800433
26.291828 27.445060 -24.425858
32.116912 23.614319 -22.120694
27.699148 9.006382 -26.453320
29.151312 15.122405 -25.895431
25.602639 10.425613 -27.498275
30.547386 10.401260 -24.901676
26.300663 13.470004 -27.323549
31.307578 13.531377 -24.517673
20.573912 22.893744 -27.750586
26.838636 20.115412 -26.451154
20.838522 19.520468 -28.341659
23.492622 25.287299 -26.396470
23.954511 18.187953 -27.816177
26.707914 23.769805 -25.585656
16.503167 -7.536286 -26.702685
17.197786 -2.574501 -27.826602
18.577711 -6.492160 -26.376909
14.432666 -6.298014 -27.594809
18.034344 8.235508 -29.180181
17.722929 2.653114 -28.676301
20.226388 7.068306 -28.717724
15.387024 6.714469 -29.419512
22.871214 -4.181723 -25.495107
19.356091 -1.370532 -27.546064
20.715859 -5.372471 -25.979671
23.456527 -1.429422 -26.126989
18.985184 -3.958260 -26.997198
10.267089 -3.793686 -28.889125
14.976190 -1.332371 -28.543627
12.336712 -5.039601 -28.322028
10.373578 -1.282245 -29.233095
14.729990 -3.827441 -28.104258
24.386531 4.458780 -27.184267
19.700773 1.394937 -28.036588
22.371659 5.801888 -28.056203
23.970038 1.460715 -26.698961
19.989779 4.167711 -28.425746
21.616587 0.000000 -27.191679
10.545264 3.896472 -29.671843
15.178793 1.350396 -28.929775
12.881348 5.262088 -29.572379
10.467151 1.293811 -29.496786
15.313863 3.979155 -29.218266
12.737377 0.000000 -29.101094
32.861509 47.059049 2.334572
37.096824 42.096253 6.847760
30.925576 46.350326 5.967808
36.111624 45.977766 0.000000
39.294099 27.742903 13.688243
38.852312 35.012076 10.638626
26.523442 43.680198 12.479182
34.455924 40.711314 10.177038
28.728340 45.107306 9.367268
32.960190 43.779394 8.167449
40.478845 40.961126 -4.655153
40.478845 40.961126 4.655153
38.777182 43.970093 -2.384665
38.777182 43.970093 2.384665
33.721680 2.578893 19.856095
35.966721 8.142119 19.118643
38.918683 20.804943 16.106288
37.771702 14.242698 17.903969
17.767396 36.488061 22.550862
24.858790 34.507380 21.326734
19.975262 38.596127 20.529791
36.876158 26.791430 16.558014
31.272556 31.146969 19.249886
36.654543 30.216863 15.225248
24.282747 42.075675 15.490819
27.077874 36.098112 18.923693
22.146388 40.441906 18.135569
28.114309 40.750484 14.457633
23.613856 37.519470 19.828061
35.519846 37.192665 12.093200
30.514874 34.351566 17.820065
36.215283 33.718726 13.730553
31.898166 39.130121 13.323646
33.680956 32.420073 16.604088
29.437607 37.590034 16.246703
41.537878 25.671821 -11.723215
45.536118 28.142869 -4.212975
41.728105 29.389823 -10.270557
41.537878 25.671821 11.723215
45.536118 28.142869 4.212975
41.728105 29.389823 10.270557
41.384686 37.125478 -6.787941
45.574793 32.024534 -2.267536
41.703892 33.254153 -8.624165
43.277060 38.853674 -2.367712
44.019583 30.955801 -6.454039
41.384686 37.125478 6.787941
45.574793 32.024534 2.267536
41.703892 33.254153 8.624165
43.277060 38.853674 2.367712
44.019583 30.955801 6.454039
44.966219 35.746825 0.000000
20.847959 -29.855146 1.481097
23.404843 -26.559045 4.320336
20.163900 -30.221048 3.891092
22.273952 -28.359472 0.000000
27.435205 -19.370141 9.557154
25.581016 -23.052541 7.004651
18.410762 -30.319810 8.662196
22.630755 -26.739314 6.684309
19.347217 -30.377697 6.308425
21.453704 -28.495896 5.316172
24.827416 -25.123220 -2.855206
24.827416 -25.123220 2.855206
23.606964 -26.768331 -1.451748
23.606964 -26.768331 1.451748
32.242115 -2.465742 18.984894
31.445726 -7.118660 16.715442
29.016672 -15.511579 12.008394
30.354254 -11.445777 14.388063
13.595676 -27.920797 17.256001
18.266250 -25.356038 15.670893
14.908562 -28.806267 15.322435
26.480996 -19.239090 11.890412
22.581836 -22.491151 13.900296
25.650904 -21.145805 10.654651
17.321488 -30.013626 11.049987
19.500518 -25.996571 13.628168
16.162806 -29.515182 13.235643
19.589366 -28.393945 10.073726
17.261748 -27.426765 14.494329
23.748786 -24.867243 8.085587
21.708709 -24.438185 12.677444
24.737607 -23.032282 9.378941
21.742533 -26.672002 9.081708
23.732100 -22.843663 11.699486
20.690848 -26.420955 11.419341
28.931112 -17.880411 -8.165214
29.685817 -18.346844 -2.746514
28.031418 -19.743011 -6.899386
28.931112 -17.880411 8.165214
29.685817 -18.346844 2.746514
28.031418 -19.743011 6.899386
26.011669 -23.334613 -4.266450
28.623859 -20.113437 -1.424157
27.054246 -21.572712 -5.594688
26.199212 -23.521368 -1.433374
28.427340 -19.990900 -4.167944
26.011669 -23.334613 4.266450
28.623859 -20.113437 1.424157
27.054246 -21.572712 5.594688
26.199212 -23.521368 1.433374
28.427340 -19.990900 4.167944
27.470053 -21.837886 0.000000
2.114057 -16.277112 27.643480
6.174631 -14.498752 27.275605
3.461297 -17.936670 26.882943
2.077705 -14.059262 28.187868
14.085276 -10.904212 26.348565
10.125968 -12.728979 26.854113
6.241560 -21.131759 24.968179
7.559098 -16.066222 26.458698
4.848332 -19.565709 25.988165
5.539903 -16.990250 26.676946
2.025656 -9.716216 29.021819
6.103941 -12.348540 27.857626
2.050455 -11.861224 28.646760
4.117478 -13.199928 28.027278
30.612859 -1.518686 21.377073
26.562964 -4.320974 23.408297
30.415076 -3.916074 20.293358
18.142253 -8.951319 25.696067
22.329901 -6.785072 24.779116
29.717819 -8.490210 18.045222
26.460652 -6.614649 22.394910
30.108097 -6.252438 19.175511
28.470749 -5.311481 21.434772
11.969816 -26.657836 19.367569
13.426608 -21.812304 21.724709
10.569737 -25.446474 20.977280
14.392064 -25.534694 18.648170
15.652849 -12.332583 25.326842
14.637290 -17.061465 23.683632
13.645387 -13.276812 25.653406
7.724417 -22.687964 23.756462
11.985423 -20.523700 23.104184
9.140973 -24.109949 22.447892
8.401784 -20.114725 24.675138
11.316742 -22.955714 22.096342
19.037980 -23.076833 17.108854
15.800706 -20.777447 21.081815
16.762708 -24.337682 17.894553
15.129455 -23.138591 19.926305
9.647986 -15.123772 26.205557
12.608598 -18.041617 24.051678
11.634984 -14.208149 25.945749
9.043545 -17.586076 25.490262
13.151753 -15.662832 24.886286
10.532182 -19.083395 24.368335
1.997812 -1.234716 29.841397
6.005338 -3.711503 29.405762
2.000297 -3.309921 29.734794
14.089305 -8.707669 27.028313
10.040501 -6.205371 28.495727
12.097735 -9.644786 27.264935
2.020065 -7.505447 29.334146
6.012054 -5.813285 29.135787
2.006358 -5.410059 29.565714
4.043689 -8.843522 28.910769
4.012529 -4.563342 29.491844
8.151106 -11.436173 27.673297
8.082104 -7.112316 28.639847
10.111511 -10.558014 27.478662
6.097039 -10.160563 28.356878
10.084462 -8.373385 28.027046
6.067888 -7.971399 28.783933
27.376379 -16.919533 13.330579
24.975882 -15.435944 17.992389
28.054748 -14.922692 14.519616
25.478294 -18.606980 14.360275
18.071163 -11.168593 24.873441
21.795119 -13.470124 21.882999
20.130743 -10.143195 24.419583
17.568225 -13.558597 24.055940
29.215572 -10.756170 16.860914
25.471102 -13.352702 19.106354
28.672821 -12.857899 15.701521
27.844946 -9.878950 19.210603
26.867121 -14.198572 16.909522
21.343086 -21.655739 16.230859
22.837603 -16.931492 18.840620
23.450649 -20.195041 15.333498
19.834039 -20.704016 18.426389
24.251339 -17.831068 16.703238
24.310958 -7.904711 23.217521
23.816985 -12.355193 21.156890
22.227529 -9.051239 23.873269
26.194369 -8.919076 21.353175
22.045309 -11.290605 22.902697
25.859568 -11.176705 20.251213
16.451332 -18.306319 22.189952
21.166491 -15.864170 20.860901
17.026762 -15.949805 23.157433
18.181128 -19.570043 20.428440
19.428978 -14.751850 22.561091
20.546565 -18.286260 19.683205
2.163810 16.660179 28.294044
6.575526 15.440099 29.046504
3.611764 18.716399 28.051577
2.119181 14.339919 28.750565
15.753082 12.195356 29.468440
11.112065 13.968565 29.469247
6.852584 23.200475 27.412465
8.243858 17.521620 28.855523
5.179429 20.901871 27.762923
5.917709 18.148936 28.496237
2.052815 9.846491 29.410944
6.434159 13.016586 29.364701
2.084490 12.058107 29.122265
4.274541 13.703447 29.096395
31.440486 1.559744 21.955008
28.580307 4.649133 25.186057
32.629102 4.201140 21.770587
29.428602 0.000000 23.113663
20.395535 10.063079 28.887538
24.795435 7.534239 27.515077
34.717065 9.918466 21.080859
29.646011 7.410927 25.090831
33.735879 7.005806 21.486005
31.265692 5.832903 23.539000
25.146517 -2.857853 24.850439
26.336083 2.993045 26.026000
27.305279 -1.480869 24.080498
27.988970 1.517948 24.683445
15.088849 33.604198 24.414271
16.691244 27.115895 27.007001
12.869348 30.982751 25.541215
18.726009 33.224069 24.263775
18.048706 14.220233 29.203420
17.644832 20.567105 28.549937
15.595697 15.174443 29.320002
8.763328 25.739429 26.951636
14.393667 24.647550 27.746532
10.733745 28.310995 26.359333
9.496529 22.735658 27.890289
13.714403 27.819306 26.777860
25.612136 31.045676 23.016847
20.122039 26.459869 26.847478
22.276975 32.343815 23.781152
19.516294 29.847707 25.704008
10.724859 16.811831 29.130524
14.939050 21.376256 28.497159
13.133691 16.038306 29.287831
10.151068 19.739764 28.611942
15.327470 18.253962 29.003268
12.215132 22.132753 28.262179
2.001129 1.236766 29.890947
6.097120 3.768228 29.855182
2.009244 3.324726 29.867801
4.017707 0.000000 29.820463
15.385785 9.508938 29.515425
10.485663 6.480496 29.759131
13.153362 10.486373 29.644026
2.040882 7.582790 29.636433
6.157838 5.954249 29.842287
2.021119 5.449861 29.783232
4.143889 9.062659 29.627159
4.062714 4.620416 29.860700
8.108636 -2.488951 29.337319
8.220546 2.523302 29.742214
6.066495 -1.248946 29.636505
6.097567 1.255342 29.788297
8.706810 12.215838 29.559931
8.411318 7.402027 29.806452
10.911802 11.393645 29.653504
6.365297 10.607608 29.604527
10.703157 8.887103 29.746542
6.273970 8.242128 29.761510
36.875027 22.790020 17.955824
32.159819 19.875861 23.167629
36.648012 19.493563 18.967023
34.509545 25.202568 19.450539
20.947565 12.946307 28.832569
26.843042 16.589912 26.951275
23.321260 11.750789 28.289837
20.956013 16.173184 28.694793
35.567377 13.094687 20.526673
31.880536 16.712716 23.914191
36.208310 16.237077 19.828029
33.178971 11.771378 22.890619
34.316088 18.135157 21.597724
28.897203 29.320517 21.975568
29.645843 21.979030 24.457298
31.811635 27.395287 20.800433
26.291828 27.445060 24.425858
32.116912 23.614319 22.120694
27.699148 9.006382 26.453320
29.151312 15.122405 25.895431
25.602639 10.425613 27.498275
30.547386 10.401260 24.901676
26.300663 13.470004 27.323549
31.307578 13.531377 24.517673
20.573912 22.893744 27.750586
26.838636 20.115412 26.451154
20.838522 19.520468 28.341659
23.492622 25.287299 26.396470
23.954511 18.187953 27.816177
26.707914 23.769805 25.585656
16.503167 -7.536286 26.702685
17.197786 -2.574501 27.826602
18.577711 -6.492160 26.376909
14.432666 -6.298014 27.594809
18.034344 8.235508 29.180181
17.722929 2.653114 28.676301
20.226388 7.068306 28.717724
15.387024 6.714469 29.419512
22.871214 -4.181723 25.495107
19.356091 -1.370532 27.546064
20.715859 -5.372471 25.979671
23.456527 -1.429422 26.126989
18.985184 -3.958260 26.997198
10.267089 -3.793686 28.889125
14.976190 -1.332371 28.543627
12.336712 -5.039601 28.322028
10.373578 -1.282245 29.233095
14.729990 -3.827441 28.104258
24.386531 4.458780 27.184267
19.700773 1.394937 28.036588
22.371659 5.801888 28.056203
23.970038 1.460715 26.698961
19.989779 4.167711 28.425746
21.616587 0.000000 27.191679
10.545264 3.896472 29.671843
15.178793 1.350396 28.929775
12.881348 5.262088 29.572379
10.467151 1.293811 29.496786
15.313863 3.979155 29.218266
12.737377 0.000000 29.101094
34.092938 0.000000 -17.939282
36.665681 0.000000 -13.217391
35.326806 2.603911 -17.619951
33.714586 -2.485075 -16.815824
39.396333 0.000000 -2.730459
38.454462 0.000000 -8.099458
37.655521 8.250777 -16.691685
37.951754 2.648944 -12.705868
36.528056 5.366324 -17.203515
36.742517 2.629926 -15.213281
32.701372 -7.165264 -14.495643
36.045572 -2.515897 -12.067698
33.244001 -4.883865 -15.656833
34.984823 -2.504116 -14.485506
34.092938 0.000000 17.939282
36.665681 0.000000 13.217391
35.326806 2.603911 17.619951
33.714586 -2.485075 16.815824
39.396333 0.000000 2.730459
38.454462 0.000000 8.099458
37.655521 8.250777 16.691685
37.951754 2.648944 12.705868
36.528056 5.366324 17.203515
36.742517 2.629926 15.213281
32.701372 -7.165264 14.495643
36.045572 -2.515897 12.067698
33.244001 -4.883865 15.656833
34.984823 -2.504116 14.485506
41.062715 21.405151 -13.229111
42.962516 15.137890 -9.355730
40.459399 17.952255 -14.312238
43.194822 22.591801 -9.858434
40.666581 2.722533 -1.682618
42.505146 8.680537 -5.364867
40.368366 2.715631 -4.493594
38.751511 11.414169 -16.014319
41.828995 11.804054 -10.387662
39.674843 14.599423 -15.244104
39.221746 8.433105 -14.053558
41.437783 14.909803 -12.379989
46.169493 24.224080 -2.155118
44.350719 15.762082 -5.824085
45.040030 23.606358 -6.133877
44.142880 19.228071 -7.854752
39.012622 2.686563 -9.981786
41.696858 8.603982 -8.319519
39.805516 2.701241 -7.283781
39.282449 5.494354 -12.016118
41.170570 5.601485 -6.370418
40.593285 8.557396 -11.241872
29.921623 -15.597528 -9.639803
32.959301 -11.613246 -7.177381
30.692087 -13.618397 -10.857118
30.488533 -15.946144 -6.958454
38.295149 -2.563771 -1.584498
35.717203 -7.294281 -4.508114
38.055518 -2.560043 -4.236140
32.077665 -9.448403 -13.256308
33.785072 -9.534076 -8.390063
31.414071 -11.559650 -12.070101
33.746883 -7.255949 -12.091857
32.282975 -11.615796 -9.644890
31.053625 -16.293129 -1.449534
33.338627 -11.848425 -4.377990
30.866563 -16.177767 -4.203632
31.962152 -13.922303 -5.687322
36.938287 -2.543716 -9.451045
35.276965 -7.279262 -7.038597
37.598484 -2.551470 -6.879929
35.368440 -4.946910 -10.818861
36.676840 -4.990088 -5.675093
34.606989 -7.295436 -9.584032
41.062715 21.405151 13.229111
42.962516 15.137890 9.355730
40.459399 17.952255 14.312238
43.194822 22.591801 9.858434
40.666581 2.722533 1.682618
42.505146 8.680537 5.364867
40.368366 2.715631 4.493594
41.923186 5.648305 0.000000
38.751511 11.414169 16.014319
41.828995 11.804054 10.387662
39.674843 14.599423 15.244104
39.221746 8.433105 14.053558
41.437783 14.909803 12.379989
46.169493 24.224080 2.155118
44.350719 15.762082 5.824085
45.040030 23.606358 6.133877
45.986935 20.128210 0.000000
44.142880 19.228071 7.854752
39.012622 2.686563 9.981786
41.696858 8.603982 8.319519
39.805516 2.701241 7.283781
39.282449 5.494354 12.016118
41.170570 5.601485 6.370418
40.593285 8.557396 11.241872
43.910932 12.136683 -3.725363
43.910932 12.136683 3.725363
43.052041 8.812612 -1.814305
45.146648 16.020619 -1.980257
43.052041 8.812612 1.814305
45.146648 16.020619 1.980257
29.921623 -15.597528 9.639803
32.959301 -11.613246 7.177381
30.692087 -13.618397 10.857118
30.488533 -15.946144 6.958454
38.295149 -2.563771 1.584498
35.717203 -7.294281 4.508114
38.055518 -2.560043 4.236140
37.162171 -5.006854 0.000000
32.077665 -9.448403 13.256308
33.785072 -9.534076 8.390063
31.414071 -11.559650 12.070101
33.746883 -7.255949 12.091857
32.282975 -11.615796 9.644890
31.053625 -16.293129 1.449534
33.338627 -11.848425 4.377990
30.866563 -16.177767 4.203632
32.343276 -14.156461 0.000000
31.962152 -13.922303 5.687322
36.938287 -2.543716 9.451045
35.276965 -7.279262 7.038597
37.598484 -2.551470 6.879929
35.368440 -4.946910 10.818861
36.676840 -4.990088 5.675093
34.606989 -7.295436 9.584032
34.709747 -9.593538 -2.944743
34.709747 -9.593538 2.944743
35.957076 -7.360296 -1.515308
33.566506 -11.911321 -1.472320
35.957076 -7.360296 1.515308
33.566506 -11.911321 1.472320
-20.847959 29.855146 -1.481097
-23.404843 26.559045 -4.320336
-20.163900 30.221048 -3.891092
-27.435205 19.370141 -9.557154
-25.581016 23.052541 -7.004651
-18.410762 30.319810 -8.662196
-22.630755 26.739314 -6.684309
-19.347217 30.377697 -6.308425
-21.453704 28.495896 -5.316172
-32.242115 2.465742 -18.984894
-31.445726 7.118660 -16.715442
-29.016672 15.511579 -12.008394
-30.354254 11.445777 -14.388063
-13.595676 27.920797 -17.256001
-18.266250 25.356038 -15.670893
-14.908562 28.806267 -15.322435
-26.480996 19.239090 -11.890412
-22.581836 22.491151 -13.900296
-25.650904 21.145805 -10.654651
-17.321488 30.013626 -11.049987
-19.500518 25.996571 -13.628168
-16.162806 29.515182 -13.235643
-19.589366 28.393945 -10.073726
-17.261748 27.426765 -14.494329
-23.748786 24.867243 -8.085587
-21.708709 24.438185 -12.677444
-24.737607 23.032282 -9.378941
-21.742533 26.672002 -9.081708
-23.732100 22.843663 -11.699486
-20.690848 26.420955 -11.419341
-32.861509 -47.059049 -2.334572
-37.096824 -42.096253 -6.847760
-30.925576 -46.350326 -5.967808
-39.294099 -27.742903 -13.688243
-38.852312 -35.012076 -10.638626
-26.523442 -43.680198 -12.479182
-34.455924 -40.711314 -10.177038
-28.728340 -45.107306 -9.367268
-32.960190 -43.779394 -8.167449
-33.721680 -2.578893 -19.856095
-35.966721 -8.142119 -19.118643
-38.918683 -20.804943 -16.106288
-37.771702 -14.242698 -17.903969
-17.767396 -36.488061 -22.550862
-24.858790 -34.507380 -21.326734
-19.975262 -38.596127 -20.529791
-36.876158 -26.791430 -16.558014
-31.272556 -31.146969 -19.249886
-36.654543 -30.216863 -15.225248
-24.282747 -42.075675 -15.490819
-27.077874 -36.098112 -18.923693
-22.146388 -40.441906 -18.135569
-28.114309 -40.750484 -14.457633
-23.613856 -37.519470 -19.828061
-35.519846 -37.192665 -12.093200
-30.514874 -34.351566 -17.820065
-36.215283 -33.718726 -13.730553
-31.898166 -39.130121 -13.323646
-33.680956 -32.420073 -16.604088
-29.437607 -37.590034 -16.246703
-2.163810 -16.660179 -28.294044
-6.575526 -15.440099 -29.046504
-3.611764 -18.716399 -28.051577
-2.119181 -14.339919 -28.750565
-15.753082 -12.195356 -29.468440
-11.112065 -13.968565 -29.469247
-6.852584 -23.200475 -27.412465
-8.243858 -17.521620 -28.855523
-5.179429 -20.901871 -27.762923
-5.917709 -18.148936 -28.496237
-2.052815 -9.846491 -29.410944
-6.434159 -13.016586 -29.364701
-2.084490 -12.058107 -29.122265
-4.274541 -13.703447 -29.096395
-31.440486 -1.559744 -21.955008
-28.580307 -4.649133 -25.186057
