-16.868864 -38.055227 -8.338358
-16.319624 -39.414514 -2.821180
-18.283911 -38.822050 -5.703334
-1.262180 -17.766476 -25.442334
-4.059356 -21.991016 -24.954680
-10.855248 -31.161574 -22.001078
-7.389825 -26.987677 -24.320164
-1.634079 -39.493459 -2.643995
-4.882852 -38.686209 -7.900621
-4.395297 -39.485311 -2.656226
-10.976990 -34.072208 -17.761143
-8.036753 -36.905629 -13.003739
-12.422245 -35.116560 -15.581582
-10.096343 -39.460357 -2.717396
-7.699866 -38.591201 -7.963141
-7.223245 -39.474691 -2.678791
-11.943807 -39.046055 -5.461290
-6.059651 -39.162155 -5.328229
-15.340184 -37.120236 -10.933681
-9.365194 -37.711727 -10.642170
-13.887396 -36.143827 -13.300091
-13.714878 -38.276533 -8.229873
-10.924421 -36.565769 -13.156795
-10.648400 -38.450316 -8.105641
14.636663 -24.857500 -1.900997
13.448406 -25.299655 -5.727317
13.141781 -26.348380 -1.942118
10.217992 -24.690407 -13.198867
11.970486 -25.253933 -9.522583
9.901752 -29.576008 -2.064337
11.887046 -26.816520 -5.875822
11.561541 -27.922979 -1.998649
12.549753 -26.646768 -3.914668
1.227535 -17.278827 -24.744000
3.663370 -19.845815 -22.520377
0.000000 -19.219599 -24.470631
8.218950 -23.593696 -16.657912
6.015587 -21.968953 -19.797500
-2.705579 -23.526340 -23.806642
2.509386 -21.820342 -22.080318
-1.310184 -21.304978 -24.158070
1.265862 -20.584256 -23.340832
1.566353 -37.856611 -2.534412
4.297357 -34.047403 -6.953269
3.950634 -35.490666 -2.387502
0.000000 -38.885989 -5.239103
8.424632 -26.149775 -13.631341
6.551555 -30.085441 -10.600638
9.384809 -26.530002 -11.771637
8.040751 -31.426318 -2.164140
6.397894 -32.065807 -6.616652
6.103052 -33.352885 -2.263359
9.167903 -29.971216 -4.192011
5.232263 -33.814932 -4.600710
-3.229264 -38.063400 -10.520465
2.912474 -34.329393 -9.488411
-1.633277 -38.756395 -7.933307
1.542361 -36.599025 -7.491701
11.103135 -26.867409 -7.913734
7.500915 -30.204654 -8.523690
10.285122 -26.768423 -9.850159
10.190114 -28.439352 -6.114772
8.478550 -28.379050 -10.211117
8.360379 -30.188499 -6.363982
-9.259197 -32.807331 -20.276046
-2.906827 -31.418565 -19.417741
-7.799701 -31.689295 -22.319317
-7.865767 -34.463935 -18.025363
7.199577 -25.509652 -15.765832
2.617673 -28.293228 -17.486177
6.107466 -24.813941 -17.476886
6.301412 -27.609696 -14.440452
-4.273483 -26.054548 -23.373080
-1.432450 -28.790542 -20.230562
-5.937532 -28.712137 -22.894693
-1.368202 -25.007999 -22.451910
-4.428909 -30.207241 -21.242576
-4.869807 -37.083840 -13.179460
-1.529560 -32.768039 -17.192643
-6.388390 -35.902080 -15.638485
-1.607959 -36.658862 -13.008666
-4.736329 -34.778072 -18.227866
3.771052 -22.991332 -20.625122
1.362526 -27.385150 -19.243020
4.956264 -23.967018 -19.110995
1.312101 -23.982595 -21.531313
3.823851 -26.080462 -18.340510
0.000000 -26.308902 -20.914805
4.199177 -31.976962 -11.364495
1.440203 -30.853727 -16.188247
5.298936 -29.779464 -12.971552
1.499126 -34.177630 -12.128182
3.973983 -29.180293 -15.293961
0.000000 -33.659045 -14.732366
-14.636663 24.857500 -1.900997
-13.448406 25.299655 -5.727317
-13.141781 26.348380 -1.942118
-10.217992 24.690407 -13.198867
-11.970486 25.253933 -9.522583
-9.901752 29.576008 -2.064337
-11.887046 26.816520 -5.875822
-11.561541 27.922979 -1.998649
-12.549753 26.646768 -3.914668
-1.227535 17.278827 -24.744000
-3.663370 19.845815 -22.520377
-8.218950 23.593696 -16.657912
-6.015587 21.968953 -19.797500
-1.566353 37.856611 -2.534412
-4.297357 34.047403 -6.953269
-3.950634 35.490666 -2.387502
-8.424632 26.149775 -13.631341
-6.551555 30.085441 -10.600638
-9.384809 26.530002 -11.771637
-8.040751 31.426318 -2.164140
-6.397894 32.065807 -6.616652
-6.103052 33.352885 -2.263359
-9.167903 29.971216 -4.192011
-5.232263 33.814932 -4.600710
-11.103135 26.867409 -7.913734
-7.500915 30.204654 -8.523690
-10.285122 26.768423 -9.850159
-10.190114 28.439352 -6.114772
-8.478550 28.379050 -10.211117
-8.360379 30.188499 -6.363982
23.147013 39.310659 -3.006314
20.050296 37.719381 -8.538885
19.638779 39.374420 -2.902257
13.822002 33.399013 -17.854267
16.881232 35.614051 -13.429106
13.204761 39.441918 -2.752954
16.868864 38.055227 -8.338358
16.319624 39.414514 -2.821180
18.283911 38.822050 -5.703334
1.262180 17.766476 -25.442334
4.059356 21.991016 -24.954680
0.000000 19.219599 -24.470631
10.855248 31.161574 -22.001078
7.389825 26.987677 -24.320164
-2.509386 21.820342 -22.080318
2.705579 23.526340 -23.806642
-1.265862 20.584256 -23.340832
1.310184 21.304978 -24.158070
1.634079 39.493459 -2.643995
4.882852 38.686209 -7.900621
4.395297 39.485311 -2.656226
0.000000 38.885989 -5.239103
10.976990 34.072208 -17.761143
8.036753 36.905629 -13.003739
12.422245 35.116560 -15.581582
10.096343 39.460357 -2.717396
7.699866 38.591201 -7.963141
7.223245 39.474691 -2.678791
11.943807 39.046055 -5.461290
6.059651 39.162155 -5.328229
-2.912474 34.329393 -9.488411
3.229264 38.063400 -10.520465
-1.542361 36.599025 -7.491701
1.633277 38.756395 -7.933307
15.340184 37.120236 -10.933681
9.365194 37.711727 -10.642170
13.887396 36.143827 -13.300091
13.714878 38.276533 -8.229873
10.924421 36.565769 -13.156795
10.648400 38.450316 -8.105641
-7.199577 25.509652 -15.765832
-2.617673 28.293228 -17.486177
-6.107466 24.813941 -17.476886
-6.301412 27.609696 -14.440452
9.259197 32.807331 -20.276046
2.906827 31.418565 -19.417741
7.799701 31.689295 -22.319317
7.865767 34.463935 -18.025363
-3.771052 22.991332 -20.625122
-1.362526 27.385150 -19.243020
-4.956264 23.967018 -19.110995
-1.312101 23.982595 -21.531313
-3.823851 26.080462 -18.340510
-4.199177 31.976962 -11.364495
-1.440203 30.853727 -16.188247
-5.298936 29.779464 -12.971552
-1.499126 34.177630 -12.128182
-3.973983 29.180293 -15.293961
4.273483 26.054548 -23.373080
1.432450 28.790542 -20.230562
5.937532 28.712137 -22.894693
1.368202 25.007999 -22.451910
4.428909 30.207241 -21.242576
0.000000 26.308902 -20.914805
4.869807 37.083840 -13.179460
1.529560 32.768039 -17.192643
6.388390 35.902080 -15.638485
1.607959 36.658862 -13.008666
4.736329 34.778072 -18.227866
0.000000 33.659045 -14.732366
0.000000 -13.804096 -26.234171
0.000000 -9.777734 -27.123905
0.000000 -1.937674 -27.957664
0.000000 -5.831322 -27.685847
0.000000 13.804096 -26.234171
0.000000 9.777734 -27.123905
0.000000 1.937674 -27.957664
0.000000 5.831322 -27.685847
27.531926 39.426864 -1.955944
32.600119 36.993540 -6.017707
25.811173 38.685011 -4.980865
34.728440 24.519400 -12.097779
34.410008 31.008858 -9.422225
22.146789 36.472495 -10.419983
30.023148 35.473778 -8.867756
23.966529 37.630630 -7.814615
28.190700 37.444315 -6.985582
31.833682 2.434507 -18.744399
34.346254 7.775279 -18.257260
34.688548 18.543620 -14.355669
34.539837 13.024049 -16.372050
15.417901 31.663015 -19.568819
21.619739 30.011137 -18.547903
16.993449 32.834680 -17.465201
32.743548 23.788988 -14.702403
27.619289 27.508374 -17.001110
32.480641 26.776028 -13.491529
20.326390 35.220340 -12.966920
23.450522 31.262409 -16.388676
18.634341 34.028496 -15.259571
23.959390 34.728108 -12.320988
20.225841 32.136339 -16.983216
31.282042 32.755281 -10.650384
26.736885 30.098564 -15.613797
32.031590 29.823443 -12.144360
27.687610 33.964948 -11.564926
29.755196 28.641278 -14.668761
25.496932 32.558031 -14.071832
16.262807 -23.289017 -1.155355
18.406158 -20.886702 -3.397621
15.748372 -23.603188 -3.039014
22.292451 -15.739190 -7.765657
20.402869 -18.386211 -5.586759
14.504427 -23.886652 -6.824280
17.821880 -21.057399 -5.263941
15.160076 -23.803331 -4.943150
16.812894 -22.331738 -4.166191
29.086398 -2.224406 -17.126735
27.519660 -6.229880 -14.628483
24.102370 -12.884517 -9.974636
25.846474 -9.746014 -12.251353
11.175644 -22.950891 -14.184431
14.778109 -20.514024 -12.678364
12.095805 -23.371469 -12.431594
21.518599 -15.633788 -9.662212
18.178873 -18.105869 -11.190042
20.653961 -17.026482 -8.579064
13.755448 -23.834608 -8.775084
15.622840 -20.827153 -10.918207
12.961037 -23.668377 -10.613731
15.492527 -22.455753 -7.966949
13.898316 -22.082691 -11.670126
18.823757 -19.710269 -6.408796
17.358080 -19.540544 -10.136766
19.752093 -18.390452 -7.488749
17.183172 -21.078943 -7.177294
19.006673 -18.295137 -9.369938
16.446020 -21.000568 -9.076607
1.937014 -14.913970 -25.328451
5.585071 -13.114397 -24.671303
3.140702 -16.275328 -24.392973
1.912458 -12.941081 -25.945991
12.427498 -9.620831 -23.247448
9.043413 -11.368139 -23.983172
5.530148 -18.723165 -22.122311
6.761908 -14.371862 -23.668336
4.349775 -17.553756 -23.315787
4.990638 -15.305716 -24.032005
1.878365 -9.009728 -26.911577
5.554168 -11.236325 -25.348529
1.894923 -10.961523 -26.473839
3.768227 -12.080290 -25.649961
27.467885 -1.362666 -19.180926
23.225584 -3.778085 -20.467271
26.906953 -3.464388 -17.952690
15.843839 -7.817290 -22.440672
19.401810 -5.895355 -21.529862
25.603417 -7.314749 -15.546879
22.873573 -5.717949 -19.358995
26.275521 -5.456541 -16.734586
24.830618 -4.632381 -18.694227
10.006387 -22.285107 -16.190675
11.368604 -18.468957 -18.394788
8.966972 -21.587843 -17.796345
11.906247 -21.124307 -15.427233
13.631900 -10.740315 -22.056877
12.564652 -14.645564 -20.330035
11.956421 -11.633467 -22.478142
6.747440 -19.818414 -20.751769
10.293592 -17.626627 -19.842856
7.871079 -20.760517 -19.329359
7.380101 -17.668712 -21.674564
9.658910 -19.592845 -18.859366
15.516224 -18.807946 -13.943958
13.254644 -17.429454 -17.684777
13.747811 -19.960371 -14.676086
12.602143 -19.273386 -16.597699
8.567682 -13.430333 -23.271268
10.900999 -15.598217 -20.794327
10.262376 -12.531978 -22.884864
7.987742 -15.532962 -22.514362
11.445823 -13.631187 -21.658256
9.175405 -16.625032 -21.229155
1.868474 -1.154780 -27.909465
5.566522 -3.440300 -27.257051
1.868168 -3.091285 -27.770671
12.531708 -7.745022 -24.040286
9.147405 -5.653407 -25.961052
10.818555 -8.624974 -24.382019
1.878697 -6.980200 -27.281280
5.551764 -5.368213 -26.905117
1.870317 -5.043231 -27.561017
3.733979 -8.166188 -26.696466
3.730320 -4.242393 -27.417625
7.372873 -10.344295 -25.031165
7.395772 -6.508338 -26.207749
9.093794 -9.495357 -24.712952
5.577516 -9.294791 -25.940615
9.130132 -7.580981 -25.374744
5.578329 -7.328264 -26.461636
22.511245 -13.912714 -10.961563
20.703136 -12.795241 -14.914343
23.316037 -12.402109 -12.067116
20.778990 -15.175045 -11.711617
15.638922 -9.665385 -21.525666
18.388642 -11.364805 -18.462786
17.351760 -8.742961 -21.048540
15.081931 -11.639754 -20.651490
24.847905 -9.148145 -14.340242
21.316376 -11.174672 -15.989815
24.101194 -10.807821 -13.198053
23.710297 -8.412042 -16.358054
22.380584 -11.827555 -14.085804
17.333682 -17.587603 -13.181813
18.885374 -14.001363 -15.580101
19.047743 -16.403382 -12.454603
16.292198 -17.006819 -15.135917
19.892745 -14.626364 -13.701234
20.921150 -6.802515 -19.980177
20.084075 -10.418725 -17.840904
19.117966 -7.784999 -20.533473
22.389491 -7.623530 -18.251508
18.775474 -9.615944 -19.505690
21.864866 -9.450164 -17.122871
13.906896 -15.474982 -18.757955
17.697187 -13.263946 -17.441685
14.502512 -13.585216 -19.724300
15.139909 -16.296495 -17.011305
16.448581 -12.488922 -19.100229
17.023065 -15.150376 -16.307762
2.012642 15.496270 -26.317374
6.194046 14.544341 -27.361370
3.368115 17.453796 -26.159225
1.975890 13.370310 -26.806564
14.909167 11.542033 -27.889773
10.530034 13.236916 -27.925699
6.447441 21.828799 -25.791765
7.797936 16.573850 -27.294687
4.847784 19.563499 -25.985229
5.562288 17.058901 -26.784738
1.920301 9.210876 -27.512398
6.057588 12.254768 -27.646080
1.947249 11.264211 -27.204878
4.008295 12.849907 -27.284083
28.882273 1.432833 -20.168599
26.365283 4.288817 -23.234093
30.822758 3.968565 -20.565369
26.486172 0.000000 -20.802635
19.159416 9.453183 -27.136742
23.057728 7.006227 -25.586772
32.951139 9.413951 -20.008555
28.025305 7.005782 -23.719150
32.888351 6.829803 -20.946224
29.543829 5.511674 -22.242662
22.151881 -2.517519 -21.891062
23.919747 2.718433 -23.638113
24.240042 -1.314629 -21.377269
25.290465 1.371598 -22.303636
13.594903 30.277048 -21.997015
15.845294 25.741600 -25.638225
12.092096 29.111531 -23.998639
16.620371 29.488203 -21.535445
17.225671 13.571779 -27.871720
17.254390 20.111999 -27.918189
14.888131 14.485988 -27.989773
8.314005 24.419689 -25.569743
14.048852 24.057092 -27.081836
10.309651 27.192417 -25.317866
9.035492 21.631887 -26.536271
13.250196 26.877675 -25.871480
22.616168 27.414123 -20.324462
18.725577 24.623564 -24.984274
19.656270 28.538829 -20.983493
17.728573 27.113613 -23.349483
10.194725 15.980816 -27.690591
14.490141 20.733913 -27.640838
12.521493 15.290715 -27.922642
9.663227 18.791110 -27.236908
14.755119 17.572331 -27.920242
11.741940 21.275370 -27.167354
1.873641 1.157973 -27.986643
5.707779 3.527602 -27.948733
1.882092 3.114325 -27.977653
3.754254 0.000000 -27.865051
14.448744 8.929815 -27.717846
9.818375 6.068090 -27.865318
12.394938 9.881728 -27.934748
1.910953 7.100045 -27.749683
5.775810 5.584851 -27.990892
1.893248 5.105064 -27.898932
3.888370 8.503842 -27.800305
3.808029 4.330769 -27.988777
7.495913 -2.300875 -27.120467
7.666575 2.353260 -27.737927
5.644378 -1.162042 -27.574346
5.692231 1.171893 -27.808120
8.215856 11.527018 -27.893124
7.896799 6.949246 -27.983197
10.299439 10.754242 -27.989370
5.987757 9.978448 -27.848617
10.062199 8.354899 -27.965172
5.894337 7.743404 -27.960664
32.912445 20.341010 -16.026296
29.256859 18.081733 -21.076364
32.978174 17.541527 -17.067714
30.784488 22.482132 -17.350994
19.955732 12.333321 -27.467393
25.634762 15.843154 -25.738123
22.166695 11.169043 -26.889293
20.301668 15.668181 -27.798807
32.983509 12.143396 -19.035469
29.466018 15.446954 -22.103015
32.998798 14.797819 -18.070469
31.360951 11.126373 -21.636343
31.222217 16.500127 -19.650515
25.619887 25.995192 -19.483255
26.961907 19.989195 -22.243098
28.313458 24.382755 -18.513106
23.573781 24.607793 -21.900716
28.845675 21.209105 -19.867612
26.218709 8.525017 -25.039467
27.643165 14.340045 -24.555728
24.278181 9.886282 -26.075753
29.667124 10.101535 -24.184102
25.570559 13.096078 -26.565051
29.577043 12.783426 -23.162452
19.676634 21.895293 -26.540316
25.009648 18.744595 -24.648572
20.504249 19.207339 -27.887028
21.588698 23.237928 -24.257208
23.156102 17.581745 -26.889058
24.366051 21.685567 -23.342197
14.593496 -6.664221 -23.612772
15.458066 -2.314065 -25.011676
16.362714 -5.718108 -23.232023
12.928993 -5.641853 -24.719832
16.831530 7.686235 -27.233987
16.216130 2.427547 -26.238250
18.754925 6.554089 -26.628520
14.331943 6.254061 -27.402229
20.085325 -3.672357 -22.389608
17.364136 -1.229489 -24.711269
18.198666 -4.719660 -22.822870
20.843446 -1.270183 -23.216416
16.872130 -3.517705 -23.992406
9.406482 -3.475692 -26.467585
13.617029 -1.211452 -25.953157
11.185380 -4.569277 -25.678856
9.560189 -1.181704 -26.940938
13.293154 -3.454093 -25.362830
22.293407 4.076078 -24.851010
17.857533 1.264424 -25.413434
20.596013 5.341390 -25.829373
21.585588 1.315409 -24.043048
18.316576 3.818861 -26.046428
19.397543 0.000000 -24.400326
9.825405 3.630484 -27.646333
13.913113 1.237793 -26.517473
11.995173 4.900081 -27.537939
9.701091 1.199121 -27.338005
14.148104 3.676244 -26.994042
11.703862 0.000000 -26.739822
27.531926 39.426864 1.955944
32.600119 36.993540 6.017707
25.811173 38.685011 4.980865
31.091089 39.585559 0.000000
34.728440 24.519400 12.097779
34.410008 31.008858 9.422225
22.146789 36.472495 10.419983
30.023148 35.473778 8.867756
23.966529 37.630630 7.814615
28.190700 37.444315 6.985582
36.400719 36.834411 -4.186160
36.400719 36.834411 4.186160
34.518343 39.140925 -2.122761
34.518343 39.140925 2.122761
31.833682 2.434507 18.744399
34.346254 7.775279 18.257260
34.688548 18.543620 14.355669
34.539837 13.024049 16.372050
15.417901 31.663015 19.568819
21.619739 30.011137 18.547903
16.993449 32.834680 17.465201
32.743548 23.788988 14.702403
27.619289 27.508374 17.001110
32.480641 26.776028 13.491529
20.326390 35.220340 12.966920
23.450522 31.262409 16.388676
18.634341 34.028496 15.259571
23.959390 34.728108 12.320988
20.225841 32.136339 16.983216
31.282042 32.755281 10.650384
26.736885 30.098564 15.613797
32.031590 29.823443 12.144360
27.687610 33.964948 11.564926
29.755196 28.641278 14.668761
25.496932 32.558031 14.071832
36.476190 22.543525 -10.294657
39.158952 24.201563 -3.622963
36.635786 25.803215 -9.017183
36.476190 22.543525 10.294657
39.158952 24.201563 3.622963
36.635786 25.803215 9.017183
36.809238 33.020923 -6.037473
39.423675 27.702261 -1.961492
36.769585 29.319599 -7.603774
39.077888 35.083704 -2.137973
38.334703 26.958034 -5.620537
36.809238 33.020923 6.037473
39.423675 27.702261 1.961492
36.769585 29.319599 7.603774
39.077888 35.083704 2.137973
38.334703 26.958034 5.620537
39.585559 31.469358 0.000000
16.262807 -23.289017 1.155355
18.406158 -20.886702 3.397621
15.748372 -23.603188 3.039014
17.413929 -22.171630 0.000000
22.292451 -15.739190 7.765657
20.402869 -18.386211 5.586759
14.504427 -23.886652 6.824280
17.821880 -21.057399 5.263941
15.160076 -23.803331 4.943150
16.812894 -22.331738 4.166191
19.611595 -19.845256 -2.255375
19.611595 -19.845256 2.255375
18.535271 -21.017453 -1.139856
18.535271 -21.017453 1.139856
29.086398 -2.224406 17.126735
27.519660 -6.229880 14.628483
24.102370 -12.884517 9.974636
25.846474 -9.746014 12.251353
11.175644 -22.950891 14.184431
14.778109 -20.514024 12.678364
12.095805 -23.371469 12.431594
21.518599 -15.633788 9.662212
18.178873 -18.105869 11.190042
20.653961 -17.026482 8.579064
13.755448 -23.834608 8.775084
15.622840 -20.827153 10.918207
12.961037 -23.668377 10.613731
15.492527 -22.455753 7.966949
13.898316 -22.082691 11.670126
18.823757 -19.710269 6.408796
17.358080 -19.540544 10.136766
19.752093 -18.390452 7.488749
17.183172 -21.078943 7.177294
19.006673 -18.295137 9.369938
16.446020 -21.000568 9.076607
23.753203 -14.680287 -6.703855
24.385621 -15.071142 -2.256143
22.756871 -16.028056 -5.601159
23.753203 -14.680287 6.703855
24.385621 -15.071142 2.256143
22.756871 -16.028056 5.601159
20.712291 -18.580634 -3.397243
23.229134 -16.322668 -1.155746
21.738073 -17.333663 -4.495329
20.841463 -18.711239 -1.140248
23.071161 -16.224285 -3.382635
20.712291 -18.580634 3.397243
23.229134 -16.322668 1.155746
21.738073 -17.333663 4.495329
20.841463 -18.711239 1.140248
23.071161 -16.224285 3.382635
22.053597 -17.531963 0.000000
1.937014 -14.913970 25.328451
5.585071 -13.114397 24.671303
3.140702 -16.275328 24.392973
1.912458 -12.941081 25.945991
12.427498 -9.620831 23.247448
9.043413 -11.368139 23.983172
5.530148 -18.723165 22.122311
6.761908 -14.371862 23.668336
4.349775 -17.553756 23.315787
4.990638 -15.305716 24.032005
1.878365 -9.009728 26.911577
5.554168 -11.236325 25.348529
1.894923 -10.961523 26.473839
3.768227 -12.080290 25.649961
27.467885 -1.362666 19.180926
23.225584 -3.778085 20.467271
26.906953 -3.464388 17.952690
15.843839 -7.817290 22.440672
19.401810 -5.895355 21.529862
25.603417 -7.314749 15.546879
22.873573 -5.717949 19.358995
26.275521 -5.456541 16.734586
24.830618 -4.632381 18.694227
10.006387 -22.285107 16.190675
11.368604 -18.468957 18.394788
8.966972 -21.587843 17.796345
11.906247 -21.124307 15.427233
13.631900 -10.740315 22.056877
12.564652 -14.645564 20.330035
11.956421 -11.633467 22.478142
6.747440 -19.818414 20.751769
10.293592 -17.626627 19.842856
7.871079 -20.760517 19.329359
7.380101 -17.668712 21.674564
9.658910 -19.592845 18.859366
15.516224 -18.807946 13.943958
13.254644 -17.429454 17.684777
13.747811 -19.960371 14.676086
12.602143 -19.273386 16.597699
8.567682 -13.430333 23.271268
10.900999 -15.598217 20.794327
10.262376 -12.531978 22.884864
7.987742 -15.532962 22.514362
11.445823 -13.631187 21.658256
9.175405 -16.625032 21.229155
1.868474 -1.154780 27.909465
5.566522 -3.440300 27.257051
1.868168 -3.091285 27.770671
12.531708 -7.745022 24.040286
9.147405 -5.653407 25.961052
10.818555 -8.624974 24.382019
1.878697 -6.980200 27.281280
5.551764 -5.368213 26.905117
1.870317 -5.043231 27.561017
3.733979 -8.166188 26.696466
3.730320 -4.242393 27.417625
7.372873 -10.344295 25.031165
7.395772 -6.508338 26.207749
9.093794 -9.495357 24.712952
5.577516 -9.294791 25.940615
9.130132 -7.580981 25.374744
5.578329 -7.328264 26.461636
22.511245 -13.912714 10.961563
20.703136 -12.795241 14.914343
23.316037 -12.402109 12.067116
20.778990 -15.175045 11.711617
15.638922 -9.665385 21.525666
18.388642 -11.364805 18.462786
17.351760 -8.742961 21.048540
15.081931 -11.639754 20.651490
24.847905 -9.148145 14.340242
21.316376 -11.174672 15.989815
24.101194 -10.807821 13.198053
23.710297 -8.412042 16.358054
22.380584 -11.827555 14.085804
17.333682 -17.587603 13.181813
18.885374 -14.001363 15.580101
19.047743 -16.403382 12.454603
16.292198 -17.006819 15.135917
19.892745 -14.626364 13.701234
20.921150 -6.802515 19.980177
20.084075 -10.418725 17.840904
19.117966 -7.784999 20.533473
22.389491 -7.623530 18.251508
18.775474 -9.615944 19.505690
21.864866 -9.450164 17.122871
13.906896 -15.474982 18.757955
17.697187 -13.263946 17.441685
14.502512 -13.585216 19.724300
15.139909 -16.296495 17.011305
16.448581 -12.488922 19.100229
17.023065 -15.150376 16.307762
2.012642 15.496270 26.317374
6.194046 14.544341 27.361370
3.368115 17.453796 26.159225
1.975890 13.370310 26.806564
14.909167 11.542033 27.889773
10.530034 13.236916 27.925699
6.447441 21.828799 25.791765
7.797936 16.573850 27.294687
4.847784 19.563499 25.985229
5.562288 17.058901 26.784738
1.920301 9.210876 27.512398
6.057588 12.254768 27.646080
1.947249 11.264211 27.204878
4.008295 12.849907 27.284083
28.882273 1.432833 20.168599
26.365283 4.288817 23.234093
30.822758 3.968565 20.565369
26.486172 0.000000 20.802635
19.159416 9.453183 27.136742
23.057728 7.006227 25.586772
32.951139 9.413951 20.008555
28.025305 7.005782 23.719150
32.888351 6.829803 20.946224
29.543829 5.511674 22.242662
22.151881 -2.517519 21.891062
23.919747 2.718433 23.638113
24.240042 -1.314629 21.377269
25.290465 1.371598 22.303636
13.594903 30.277048 21.997015
15.845294 25.741600 25.638225
12.092096 29.111531 23.998639
16.620371 29.488203 21.535445
17.225671 13.571779 27.871720
17.254390 20.111999 27.918189
14.888131 14.485988 27.989773
8.314005 24.419689 25.569743
14.048852 24.057092 27.081836
10.309651 27.192417 25.317866
9.035492 21.631887 26.536271
13.250196 26.877675 25.871480
22.616168 27.414123 20.324462
18.725577 24.623564 24.984274
19.656270 28.538829 20.983493
17.728573 27.113613 23.349483
10.194725 15.980816 27.690591
14.490141 20.733913 27.640838
12.521493 15.290715 27.922642
9.663227 18.791110 27.236908
14.755119 17.572331 27.920242
11.741940 21.275370 27.167354
1.873641 1.157973 27.986643
5.707779 3.527602 27.948733
1.882092 3.114325 27.977653
3.754254 0.000000 27.865051
14.448744 8.929815 27.717846
9.818375 6.068090 27.865318
12.394938 9.881728 27.934748
1.910953 7.100045 27.749683
5.775810 5.584851 27.990892
1.893248 5.105064 27.898932
3.888370 8.503842 27.800305
3.808029 4.330769 27.988777
7.495913 -2.300875 27.120467
7.666575 2.353260 27.737927
5.644378 -1.162042 27.574346
5.692231 1.171893 27.808120
8.215856 11.527018 27.893124
7.896799 6.949246 27.983197
10.299439 10.754242 27.989370
5.987757 9.978448 27.848617
10.062199 8.354899 27.965172
5.894337 7.743404 27.960664
32.912445 20.341010 16.026296
29.256859 18.081733 21.076364
32.978174 17.541527 17.067714
30.784488 22.482132 17.350994
19.955732 12.333321 27.467393
25.634762 15.843154 25.738123
22.166695 11.169043 26.889293
20.301668 15.668181 27.798807
32.983509 12.143396 19.035469
29.466018 15.446954 22.103015
32.998798 14.797819 18.070469
31.360951 11.126373 21.636343
31.222217 16.500127 19.650515
25.619887 25.995192 19.483255
26.961907 19.989195 22.243098
28.313458 24.382755 18.513106
23.573781 24.607793 21.900716
28.845675 21.209105 19.867612
26.218709 8.525017 25.039467
27.643165 14.340045 24.555728
24.278181 9.886282 26.075753
29.667124 10.101535 24.184102
25.570559 13.096078 26.565051
29.577043 12.783426 23.162452
19.676634 21.895293 26.540316
25.009648 18.744595 24.648572
20.504249 19.207339 27.887028
21.588698 23.237928 24.257208
23.156102 17.581745 26.889058
24.366051 21.685567 23.342197
14.593496 -6.664221 23.612772
15.458066 -2.314065 25.011676
16.362714 -5.718108 23.232023
12.928993 -5.641853 24.719832
16.831530 7.686235 27.233987
16.216130 2.427547 26.238250
18.754925 6.554089 26.628520
14.331943 6.254061 27.402229
20.085325 -3.672357 22.389608
17.364136 -1.229489 24.711269
18.198666 -4.719660 22.822870
20.843446 -1.270183 23.216416
16.872130 -3.517705 23.992406
9.406482 -3.475692 26.467585
13.617029 -1.211452 25.953157
11.185380 -4.569277 25.678856
9.560189 -1.181704 26.940938
13.293154 -3.454093 25.362830
22.293407 4.076078 24.851010
17.857533 1.264424 25.413434
20.596013 5.341390 25.829373
21.585588 1.315409 24.043048
18.316576 3.818861 26.046428
19.397543 0.000000 24.400326
9.825405 3.630484 27.646333
13.913113 1.237793 26.517473
11.995173 4.900081 27.537939
9.701091 1.199121 27.338005
14.148104 3.676244 26.994042
11.703862 0.000000 26.739822
31.757526 0.000000 -16.710417
35.267055 0.000000 -12.713209
33.999912 2.506107 -16.958136
30.813633 -2.271248 -15.368915
39.396769 0.000000 -2.730490
37.938276 0.000000 -7.990736
35.654712 7.812376 -15.804780
37.458612 2.614524 -12.540770
35.515258 5.217534 -16.726520
36.063767 2.581343 -14.932244
28.876755 -6.327244 -12.800293
33.837077 -2.361749 -11.328316
29.847033 -4.384817 -14.056972
32.417199 -2.320332 -13.422378
31.757526 0.000000 16.710417
35.267055 0.000000 12.713209
33.999912 2.506107 16.958136
30.813633 -2.271248 15.368915
39.396769 0.000000 2.730490
37.938276 0.000000 7.990736
35.654712 7.812376 15.804780
37.458612 2.614524 12.540770
35.515258 5.217534 16.726520
36.063767 2.581343 14.932244
28.876755 -6.327244 12.800293
33.837077 -2.361749 11.328316
29.847033 -4.384817 14.056972
32.417199 -2.320332 13.422378
36.281138 18.912613 -11.688638
38.256291 13.479646 -8.330879
36.120531 16.027054 -12.777393
37.719481 19.728083 -8.608787
39.549312 2.647734 -1.636390
39.198021 8.005145 -4.947452
39.326177 2.645521 -4.377583
35.813665 10.548833 -14.800234
38.039062 10.734543 -9.446484
35.962827 13.233487 -13.817851
36.834995 7.919927 -13.198360
37.224482 13.393808 -11.121219
39.495468 20.722371 -1.843585
39.073326 13.886516 -5.131064
38.857053 20.365739 -5.291834
38.553165 16.793263 -6.860123
38.286959 2.636591 -9.796117
38.645169 7.974278 -7.710634
38.899868 2.639783 -7.118062
37.652874 5.266428 -11.517647
39.052844 5.313357 -6.042737
37.847626 7.978589 -10.481491
24.927280 -12.994080 -8.030783
28.540954 -10.056437 -6.215220
25.907977 -11.495638 -9.164772
25.426750 -13.298725 -5.803194
37.046017 -2.480145 -1.532814
32.517002 -6.640726 -4.104194
36.693430 -2.468413 -4.084519
27.870135 -8.209085 -11.517518
29.776431 -8.402846 -7.394571
26.893383 -9.896142 -10.333135
30.070072 -6.465395 -10.774418
27.800025 -10.002777 -8.305560
25.938939 -13.609569 -1.210788
28.935541 -10.283585 -3.799781
25.767818 -13.505416 -3.509248
27.160358 -11.830703 -4.832895
35.079589 -2.415719 -8.975478
31.952005 -6.593170 -6.375188
36.027187 -2.444840 -6.592407
32.468603 -4.541315 -9.931829
34.215789 -4.655248 -5.294289
31.106662 -6.557539 -8.614654
36.281138 18.912613 11.688638
38.256291 13.479646 8.330879
36.120531 16.027054 12.777393
37.719481 19.728083 8.608787
39.549312 2.647734 1.636390
39.198021 8.005145 4.947452
39.326177 2.645521 4.377583
39.585559 5.333357 0.000000
35.813665 10.548833 14.800234
38.039062 10.734543 9.446484
35.962827 13.233487 13.817851
36.834995 7.919927 13.198360
37.224482 13.393808 11.121219
39.495468 20.722371 1.843585
39.073326 13.886516 5.131064
38.857053 20.365739 5.291834
39.585559 17.326366 0.000000
38.553165 16.793263 6.860123
38.286959 2.636591 9.796117
38.645169 7.974278 7.710634
38.899868 2.639783 7.118062
37.652874 5.266428 11.517647
39.052844 5.313357 6.042737
37.847626 7.978589 10.481491
39.390978 10.887399 -3.341894
39.390978 10.887399 3.341894
39.541472 8.094010 -1.666362
39.526757 14.026359 -1.733753
39.541472 8.094010 1.666362
39.526757 14.026359 1.733753
24.927280 -12.994080 8.030783
28.540954 -10.056437 6.215220
25.907977 -11.495638 9.164772
25.426750 -13.298725 5.803194
37.046017 -2.480145 1.532814
32.517002 -6.640726 4.104194
36.693430 -2.468413 4.084519
34.885448 -4.700111 0.000000
27.870135 -8.209085 11.517518
29.776431 -8.402846 7.394571
26.893383 -9.896142 10.333135
30.070072 -6.465395 10.774418
27.800025 -10.002777 8.305560
25.938939 -13.609569 1.210788
28.935541 -10.283585 3.799781
25.767818 -13.505416 3.509248
27.534063 -12.051497 0.000000
27.160358 -11.830703 4.832895
35.079589 -2.415719 8.975478
31.952005 -6.593170 6.375188
36.027187 -2.444840 6.592407
32.468603 -4.541315 9.931829
34.215789 -4.655248 5.294289
31.106662 -6.557539 8.614654
30.877493 -8.534329 -2.619618
30.877493 -8.534329 2.619618
32.819220 -6.717987 -1.383072
29.186937 -10.357198 -1.280220
32.819220 -6.717987 1.383072
29.186937 -10.357198 1.280220
-16.262807 23.289017 -1.155355
-18.406158 20.886702 -3.397621
-15.748372 23.603188 -3.039014
-22.292451 15.739190 -7.765657
-20.402869 18.386211 -5.586759
-14.504427 23.886652 -6.824280
-17.821880 21.057399 -5.263941
-15.160076 23.803331 -4.943150
-16.812894 22.331738 -4.166191
-29.086398 2.224406 -17.126735
-27.519660 6.229880 -14.628483
-24.102370 12.884517 -9.974636
-25.846474 9.746014 -12.251353
-11.175644 22.950891 -14.184431
-14.778109 20.514024 -12.678364
-12.095805 23.371469 -12.431594
-21.518599 15.633788 -9.662212
-18.178873 18.105869 -11.190042
-20.653961 17.026482 -8.579064
-13.755448 23.834608 -8.775084
-15.622840 20.827153 -10.918207
-12.961037 23.668377 -10.613731
-15.492527 22.455753 -7.966949
-13.898316 22.082691 -11.670126
-18.823757 19.710269 -6.408796
-17.358080 19.540544 -10.136766
-19.752093 18.390452 -7.488749
-17.183172 21.078943 -7.177294
-19.006673 18.295137 -9.369938
-16.446020 21.000568 -9.076607
-27.531926 -39.426864 -1.955944
-32.600119 -36.993540 -6.017707
-25.811173 -38.685011 -4.980865
-34.728440 -24.519400 -12.097779
-34.410008 -31.008858 -9.422225
-22.146789 -36.472495 -10.419983
-30.023148 -35.473778 -8.867756
-23.966529 -37.630630 -7.814615
-28.190700 -37.444315 -6.985582
-31.833682 -2.434507 -18.744399
-34.346254 -7.775279 -18.257260
-34.688548 -18.543620 -14.355669
-34.539837 -13.024049 -16.372050
-15.417901 -31.663015 -19.568819
-21.619739 -30.011137 -18.547903
-16.993449 -32.834680 -17.465201
-32.743548 -23.788988 -14.702403
-27.619289 -27.508374 -17.001110
-32.480641 -26.776028 -13.491529
-20.326390 -35.220340 -12.966920
-23.450522 -31.262409 -16.388676
-18.634341 -34.028496 -15.259571
-23.959390 -34.728108 -12.320988
-20.225841 -32.136339 -16.983216
-31.282042 -32.755281 -10.650384
-26.736885 -30.098564 -15.613797
-32.031590 -29.823443 -12.144360
-27.687610 -33.964948 -11.564926
-29.755196 -28.641278 -14.668761
-25.496932 -32.558031 -14.071832
-2.012642 -15.496270 -26.317374
-6.194046 -14.544341 -27.361370
-3.368115 -17.453796 -26.159225
-1.975890 -13.370310 -26.806564
-14.909167 -11.542033 -27.889773
-10.530034 -13.236916 -27.925699
-6.447441 -21.828799 -25.791765
-7.797936 -16.573850 -27.294687
-4.847784 -19.563499 -25.985229
-5.562288 -17.058901 -26.784738
-1.920301 -9.210876 -27.512398
-6.057588 -12.254768 -27.646080
-1.947249 -11.264211 -27.204878
-4.008295 -12.849907 -27.284083
-28.882273 -1.432833 -20.168599
-26.365283 -4.288817 -23.234093
-30.822758 -3.968565 -20.565369
-19.159416 -9.453183 -27.136742
-23.057728 -7.006227 -25.586772
-32.951139 -9.413951 -20.008555
-28.025305 -7.005782 -23.719150
-32.888351 -6.829803 -20.946224
-29.543829 -5.511674 -22.242662
-13.594903 -30.277048 -21.997015
-15.845294 -25.741600 -25.638225
-12.092096 -29.111531 -23.998639
-16.620371 -29.488203 -21.535445
-17.225671 -13.571779 -27.871720
-17.254390 -20.111999 -27.918189
-14.888131 -14.485988 -27.989773
-8.314005 -24.419689 -25.569743
-14.048852 -24.057092 -27.081836
-10.309651 -27.192417 -25.317866
-9.035492 -21.631887 -26.536271
-13.250196 -26.877675 -25.871480
-22.616168 -27.414123 -20.324462
-18.725577 -24.623564 -24.984274
-19.656270 -28.538829 -20.983493
-17.728573 -27.113613 -23.349483
-10.194725 -15.980816 -27.690591
-14.490141 -20.733913 -27.640838
-12.521493 -15.290715 -27.922642
-9.663227 -18.791110 -27.236908
-14.755119 -17.572331 -27.920242
-11.741940 -21.275370 -27.167354
-1.873641 -1.157973 -27.986643
-5.707779 -3.527602 -27.948733
-1.882092 -3.114325 -27.977653
-14.448744 -8.929815 -27.717846
-9.818375 -6.068090 -27.865318
-12.394938 -9.881728 -27.934748
-1.910953 -7.100045 -27.749683
-5.775810 -5.584851 -27.990892
-1.893248 -5.105064 -27.898932
-3.888370 -8.503842 -27.800305
-3.808029 -4.330769 -27.988777
-8.215856 -11.527018 -27.893124
-7.896799 -6.949246 -27.983197
-10.299439 -10.754242 -27.989370
-5.987757 -9.978448 -27.848617
-10.062199 -8.354899 -27.965172
-5.894337 -7.743404 -27.960664
-32.912445 -20.341010 -16.026296
-29.256859 -18.081733 -21.076364
-32.978174 -17.541527 -17.067714
-30.784488 -22.482132 -17.350994
-19.955732 -12.333321 -27.467393
-25.634762 -15.843154 -25.738123
-22.166695 -11.169043 -26.889293
-20.301668 -15.668181 -27.798807
-32.983509 -12.143396 -19.035469
-29.466018 -15.446954 -22.103015
-32.998798 -14.797819 -18.070469
-31.360951 -11.126373 -21.636343
-31.222217 -16.500127 -19.650515
-25.619887 -25.995192 -19.483255
-26.961907 -19.989195 -22.243098
-28.313458 -24.382755 -18.513106
-23.573781 -24.607793 -21.900716
-28.845675 -21.209105 -19.867612
-26.218709 -8.525017 -25.039467
-27.643165 -14.340045 -24.555728
-24.278181 -9.886282 -26.075753
-29.667124 -10.101535 -24.184102
-25.570559 -13.096078 -26.565051
-29.577043 -12.783426 -23.162452
-19.676634 -21.895293 -26.540316
-25.009648 -18.744595 -24.648572
-20.504249 -19.207339 -27.887028
-21.588698 -23.237928 -24.257208
-23.156102 -17.581745 -26.889058
-24.366051 -21.685567 -23.342197
-1.937014 14.913970 -25.328451
-5.585071 13.114397 -24.671303
-3.140702 16.275328 -24.392973
-1.912458 12.941081 -25.945991
-12.427498 9.620831 -23.247448
-9.043413 11.368139 -23.983172
-5.530148 18.723165 -22.122311
-6.761908 14.371862 -23.668336
-4.349775 17.553756 -23.315787
-4.990638 15.305716 -24.032005
-1.878365 9.009728 -26.911577
-5.554168 11.236325 -25.348529
-1.894923 10.961523 -26.473839
-3.768227 12.080290 -25.649961
-27.467885 1.362666 -19.180926
-23.225584 3.778085 -20.467271
-26.906953 3.464388 -17.952690
-26.486172 0.000000 -20.802635
-15.843839 7.817290 -22.440672
-19.401810 5.895355 -21.529862
-25.603417 7.314749 -15.546879
-22.873573 5.717949 -19.358995
-26.275521 5.456541 -16.734586
-24.830618 4.632381 -18.694227
-23.919747 -2.718433 -23.638113
-22.151881 2.517519 -21.891062
-25.290465 -1.371598 -22.303636
-24.240042 1.314629 -21.377269
-10.006387 22.285107 -16.190675
-11.368604 18.468957 -18.394788
-8.966972 21.587843 -17.796345
-11.906247 21.124307 -15.427233
-13.631900 10.740315 -22.056877
-12.564652 14.645564 -20.330035
-11.956421 11.633467 -22.478142
-6.747440 19.818414 -20.751769
-10.293592 17.626627 -19.842856
-7.871079 20.760517 -19.329359
-7.380101 17.668712 -21.674564
-9.658910 19.592845 -18.859366
-15.516224 18.807946 -13.943958
-13.254644 17.429454 -17.684777
-13.747811 19.960371 -14.676086
-12.602143 19.273386 -16.597699
-8.567682 13.430333 -23.271268
-10.900999 15.598217 -20.794327
-10.262376 12.531978 -22.884864
-7.987742 15.532962 -22.514362
-11.445823 13.631187 -21.658256
-9.175405 16.625032 -21.229155
-1.868474 1.154780 -27.909465
-5.566522 3.440300 -27.257051
-1.868168 3.091285 -27.770671
-3.754254 0.000000 -27.865051
-12.531708 7.745022 -24.040286
-9.147405 5.653407 -25.961052
-10.818555 8.624974 -24.382019
-1.878697 6.980200 -27.281280
-5.551764 5.368213 -26.905117
-1.870317 5.043231 -27.561017
-3.733979 8.166188 -26.696466
-3.730320 4.242393 -27.417625
-7.666575 -2.353260 -27.737927
-7.495913 2.300875 -27.120467
-5.692231 -1.171893 -27.808120
-5.644378 1.162042 -27.574346
-7.372873 10.344295 -25.031165
-7.395772 6.508338 -26.207749
-9.093794 9.495357 -24.712952
-5.577516 9.294791 -25.940615
-9.130132 7.580981 -25.374744
-5.578329 7.328264 -26.461636
-22.511245 13.912714 -10.961563
-20.703136 12.795241 -14.914343
-23.316037 12.402109 -12.067116
-20.778990 15.175045 -11.711617
-15.638922 9.665385 -21.525666
-18.388642 11.364805 -18.462786
-17.351760 8.742961 -21.048540
-15.081931 11.639754 -20.651490
-24.847905 9.148145 -14.340242
-21.316376 11.174672 -15.989815
-24.101194 10.807821 -13.198053
-23.710297 8.412042 -16.358054
-22.380584 11.827555 -14.085804
-17.333682 17.587603 -13.181813
-18.885374 14.001363 -15.580101
-19.047743 16.403382 -12.454603
-16.292198 17.006819 -15.135917
-19.892745 14.626364 -13.701234
-20.921150 6.802515 -19.980177
-20.084075 10.418725 -17.840904
-19.117966 7.784999 -20.533473
-22.389491 7.623530 -18.251508
-18.775474 9.615944 -19.505690
-21.864866 9.450164 -17.122871
-13.906896 15.474982 -18.757955
-17.697187 13.263946 -17.441685
-14.502512 13.585216 -19.724300
-15.139909 16.296495 -17.011305
-16.448581 12.488922 -19.100229
-17.023065 15.150376 -16.307762
-16.831530 -7.686235 -27.233987
-16.216130 -2.427547 -26.238250
-18.754925 -6.554089 -26.628520
-14.331943 -6.254061 -27.402229
-14.593496 6.664221 -23.612772
-15.458066 2.314065 -25.011676
-16.362714 5.718108 -23.232023
-12.928993 5.641853 -24.719832
-22.293407 -4.076078 -24.851010
-17.857533 -1.264424 -25.413434
-20.596013 -5.341390 -25.829373
-21.585588 -1.315409 -24.043048
-18.316576 -3.818861 -26.046428
-9.825405 -3.630484 -27.646333
-13.913113 -1.237793 -26.517473
-11.995173 -4.900081 -27.537939
-9.701091 -1.199121 -27.338005
-14.148104 -3.676244 -26.994042
-20.085325 3.672357 -22.389608
-17.364136 1.229489 -24.711269
-18.198666 4.719660 -22.822870
-20.843446 1.270183 -23.216416
-16.872130 3.517705 -23.992406
-19.397543 0.000000 -24.400326
-9.406482 3.475692 -26.467585
-13.617029 1.211452 -25.953157
-11.185380 4.569277 -25.678856
-9.560189 1.181704 -26.940938
-13.293154 3.454093 -25.362830
-11.703862 0.000000 -26.739822
-16.262807 23.289017 1.155355
-18.406158 20.886702 3.397621
-15.748372 23.603188 3.039014
-17.413929 22.171630 0.000000
-22.292451 15.739190 7.765657
-20.402869 18.386211 5.586759
-14.504427 23.886652 6.824280
-17.821880 21.057399 5.263941
-15.160076 23.803331 4.943150
-16.812894 22.331738 4.166191
-19.611595 19.845256 -2.255375
-19.611595 19.845256 2.255375
-18.535271 21.017453 -1.139856
-18.535271 21.017453 1.139856
-29.086398 2.224406 17.126735
-27.519660 6.229880 14.628483
-24.102370 12.884517 9.974636
-25.846474 9.746014 12.251353
-11.175644 22.950891 14.184431
-14.778109 20.514024 12.678364
-12.095805 23.371469 12.431594
-21.518599 15.633788 9.662212
-18.178873 18.105869 11.190042
-20.653961 17.026482 8.579064
-13.755448 23.834608 8.775084
-15.622840 20.827153 10.918207
-12.961037 23.668377 10.613731
-15.492527 22.455753 7.966949
-13.898316 22.082691 11.670126
-18.823757 19.710269 6.408796
-17.358080 19.540544 10.136766
-19.752093 18.390452 7.488749
-17.183172 21.078943 7.177294
-19.006673 18.295137 9.369938
-16.446020 21.000568 9.076607
-23.753203 14.680287 -6.703855
-24.385621 15.071142 -2.256143
-22.756871 16.028056 -5.601159
-23.753203 14.680287 6.703855
-24.385621 15.071142 2.256143
-22.756871 16.028056 5.601159
-20.712291 18.580634 -3.397243
-23.229134 16.322668 -1.155746
-21.738073 17.333663 -4.495329
-20.841463 18.711239 -1.140248
-23.071161 16.224285 -3.382635
-20.712291 18.580634 3.397243
-23.229134 16.322668 1.155746
-21.738073 17.333663 4.495329
-20.841463 18.711239 1.140248
-23.071161 16.224285 3.382635
-22.053597 17.531963 0.000000
-27.531926 -39.426864 1.955944
-32.600119 -36.993540 6.017707
-25.811173 -38.685011 4.980865
-31.091089 -39.585559 0.000000
-34.728440 -24.519400 12.097779
-34.410008 -31.008858 9.422225
-22.146789 -36.472495 10.419983
-30.023148 -35.473778 8.867756
-23.966529 -37.630630 7.814615
-28.190700 -37.444315 6.985582
-36.400719 -36.834411 -4.186160
-36.400719 -36.834411 4.186160
-34.518343 -39.140925 -2.122761
-34.518343 -39.140925 2.122761
-31.833682 -2.434507 18.744399
-34.346254 -7.775279 18.257260
-34.688548 -18.543620 14.355669
-34.539837 -13.024049 16.372050
-15.417901 -31.663015 19.568819
-21.619739 -30.011137 18.547903
-16.993449 -32.834680 17.465201
-32.743548 -23.788988 14.702403
-27.619289 -27.508374 17.001110
-32.480641 -26.776028 13.491529
-20.326390 -35.220340 12.966920
-23.450522 -31.262409 16.388676
-18.634341 -34.028496 15.259571
-23.959390 -34.728108 12.320988
-20.225841 -32.136339 16.983216
-31.282042 -32.755281 10.650384
-26.736885 -30.098564 15.613797
-32.031590 -29.823443 12.144360
-27.687610 -33.964948 11.564926
-29.755196 -28.641278 14.668761
-25.496932 -32.558031 14.071832
-36.476190 -22.543525 -10.294657
-39.158952 -24.201563 -3.622963
-36.635786 -25.803215 -9.017183
-36.476190 -22.543525 10.294657
-39.158952 -24.201563 3.622963
-36.635786 -25.803215 9.017183
-36.809238 -33.020923 -6.037473
-39.423675 -27.702261 -1.961492
-36.769585 -29.319599 -7.603774
-39.077888 -35.083704 -2.137973
-38.334703 -26.958034 -5.620537
-36.809238 -33.020923 6.037473
-39.423675 -27.702261 1.961492
-36.769585 -29.319599 7.603774
-39.077888 -35.083704 2.137973
-38.334703 -26.958034 5.620537
-39.585559 -31.469358 0.000000
-2.012642 -15.496270 26.317374
-6.194046 -14.544341 27.361370
-3.368115 -17.453796 26.159225
-1.975890 -13.370310 26.806564
-14.909167 -11.542033 27.889773
-10.530034 -13.236916 27.925699
-6.447441 -21.828799 25.791765
-7.797936 -16.573850 27.294687
-4.847784 -19.563499 25.985229
-5.562288 -17.058901 26.784738
-1.920301 -9.210876 27.512398
-6.057588 -12.254768 27.646080
-1.947249 -11.264211 27.204878
-4.008295 -12.849907 27.284083
-28.882273 -1.432833 20.168599
-26.365283 -4.288817 23.234093
-30.822758 -3.968565 20.565369
-19.159416 -9.453183 27.136742
-23.057728 -7.006227 25.586772
-32.951139 -9.413951 20.008555
-28.025305 -7.005782 23.719150
-32.888351 -6.829803 20.946224
-29.543829 -5.511674 22.242662
-13.594903 -30.277048 21.997015
-15.845294 -25.741600 25.638225
-12.092096 -29.111531 23.998639
-16.620371 -29.488203 21.535445
-17.225671 -13.571779 27.871720
-17.254390 -20.111999 27.918189
-14.888131 -14.485988 27.989773
-8.314005 -24.419689 25.569743
-14.048852 -24.057092 27.081836
-10.309651 -27.192417 25.317866
-9.035492 -21.631887 26.536271
-13.250196 -26.877675 25.871480
-22.616168 -27.414123 20.324462
-18.725577 -24.623564 24.984274
-19.656270 -28.538829 20.983493
-17.728573 -27.113613 23.349483
-10.194725 -15.980816 27.690591
-14.490141 -20.733913 27.640838
-12.521493 -15.290715 27.922642
-9.663227 -18.791110 27.236908
-14.755119 -17.572331 27.920242
-11.741940 -21.275370 27.167354
-1.873641 -1.157973 27.986643
-5.707779 -3.527602 27.948733
-1.882092 -3.114325 27.977653
-14.448744 -8.929815 27.717846
-9.818375 -6.068090 27.865318
-12.394938 -9.881728 27.934748
-1.910953 -7.100045 27.749683
-5.775810 -5.584851 27.990892
-1.893248 -5.105064 27.898932
-3.888370 -8.503842 27.800305
-3.808029 -4.330769 27.988777
-8.215856 -11.527018 27.893124
-7.896799 -6.949246 27.983197
-10.299439 -10.754242 27.989370
-5.987757 -9.978448 27.848617
-10.062199 -8.354899 27.965172
-5.894337 -7.743404 27.960664
-32.912445 -20.341010 16.026296
-29.256859 -18.081733 21.076364
-32.978174 -17.541527 17.067714
-30.784488 -22.482132 17.350994
-19.955732 -12.333321 27.467393
-25.634762 -15.843154 25.738123
-22.166695 -11.169043 26.889293
-20.301668 -15.668181 27.798807
-32.983509 -12.143396 19.035469
-29.466018 -15.446954 22.103015
-32.998798 -14.797819 18.070469
-31.360951 -11.126373 21.636343
-31.222217 -16.500127 19.650515
-25.619887 -25.995192 19.483255
-26.961907 -19.989195 22.243098
-28.313458 -24.382755 18.513106
-23.573781 -24.607793 21.900716
-28.845675 -21.209105 19.867612
-26.218709 -8.525017 25.039467
-27.643165 -14.340045 24.555728
-24.278181 -9.886282 26.075753
-29.667124 -10.101535 24.184102
-25.570559 -13.096078 26.565051
-29.577043 -12.783426 23.162452
-19.676634 -21.895293 26.540316
-25.009648 -18.744595 24.648572
-20.504249 -19.207339 27.887028
-21.588698 -23.237928 24.257208
-23.156102 -17.581745 26.889058
-24.366051 -21.685567 23.342197
-1.937014 14.913970 25.328451
-5.585071 13.114397 24.671303
-3.140702 16.275328 24.392973
-1.912458 12.941081 25.945991
-12.427498 9.620831 23.247448
-9.043413 11.368139 23.983172
-5.530148 18.723165 22.122311
-6.761908 14.371862 23.668336
-4.349775 17.553756 23.315787
-4.990638 15.305716 24.032005
-1.878365 9.009728 26.911577
-5.554168 11.236325 25.348529
-1.894923 10.961523 26.473839
-3.768227 12.080290 25.649961
-27.467885 1.362666 19.180926
-23.225584 3.778085 20.467271
-26.906953 3.464388 17.952690
-26.486172 0.000000 20.802635
-15.843839 7.817290 22.440672
-19.401810 5.895355 21.529862
-25.603417 7.314749 15.546879
-22.873573 5.717949 19.358995
-26.275521 5.456541 16.734586
-24.830618 4.632381 18.694227
-23.919747 -2.718433 23.638113
-22.151881 2.517519 21.891062
-25.290465 -1.371598 22.303636
-24.240042 1.314629 21.377269
-10.006387 22.285107 16.190675
-11.368604 18.468957 18.394788
-8.966972 21.587843 17.796345
-11.906247 21.124307 15.427233
-13.631900 10.740315 22.056877
-12.564652 14.645564 20.330035
-11.956421 11.633467 22.478142
-6.747440 19.818414 20.751769
-10.293592 17.626627 19.842856
-7.871079 20.760517 19.329359
-7.380101 17.668712 21.674564
-9.658910 19.592845 18.859366
-15.516224 18.807946 13.943958
-13.254644 17.429454 17.684777
-13.747811 19.960371 14.676086
-12.602143 19.273386 16.597699
-8.567682 13.430333 23.271268
-10.900999 15.598217 20.794327
-10.262376 12.531978 22.884864
-7.987742 15.532962 22.514362
-11.445823 13.631187 21.658256
-9.175405 16.625032 21.229155
-1.868474 1.154780 27.909465
-5.566522 3.440300 27.257051
-1.868168 3.091285 27.770671
-3.754254 0.000000 27.865051
-12.531708 7.745022 24.040286
-9.147405 5.653407 25.961052
-10.818555 8.624974 24.382019
-1.878697 6.980200 27.281280
-5.551764 5.368213 26.905117
-1.870317 5.043231 27.561017
-3.733979 8.166188 26.696466
-3.730320 4.242393 27.417625
-7.666575 -2.353260 27.737927
-7.495913 2.300875 27.120467
-5.692231 -1.171893 27.808120
-5.644378 1.162042 27.574346
-7.372873 10.344295 25.031165
-7.395772 6.508338 26.207749
-9.093794 9.495357 24.712952
-5.577516 9.294791 25.940615
-9.130132 7.580981 25.374744
-5.578329 7.328264 26.461636
-22.511245 13.912714 10.961563
-20.703136 12.795241 14.914343
-23.316037 12.402109 12.067116
-20.778990 15.175045 11.711617
-15.638922 9.665385 21.525666
-18.388642 11.364805 18.462786
-17.351760 8.742961 21.048540
-15.081931 11.639754 20.651490
-24.847905 9.148145 14.340242
-21.316376 11.174672 15.989815
-24.101194 10.807821 13.198053
-23.710297 8.412042 16.358054
-22.380584 11.827555 14.085804
-17.333682 17.587603 13.181813
-18.885374 14.001363 15.580101
-19.047743 16.403382 12.454603
-16.292198 17.006819 15.135917
-19.892745 14.626364 13.701234
-20.921150 6.802515 19.980177
-20.084075 10.418725 17.840904
-19.117966 7.784999 20.533473
-22.389491 7.623530 18.251508
-18.775474 9.615944 19.505690
-21.864866 9.450164 17.122871
-13.906896 15.474982 18.757955
-17.697187 13.263946 17.441685
-14.502512 13.585216 19.724300
-15.139909 16.296495 17.011305
-16.448581 12.488922 19.100229
-17.023065 15.150376 16.307762
-16.831530 -7.686235 27.233987
-16.216130 -2.427547 26.238250
-18.754925 -6.554089 26.628520
-14.331943 -6.254061 27.402229
-14.593496 6.664221 23.612772
-15.458066 2.314065 25.011676
-16.362714 5.718108 23.232023
-12.928993 5.641853 24.719832
-22.293407 -4.076078 24.851010
-17.857533 -1.264424 25.413434
-20.596013 -5.341390 25.829373
-21.585588 -1.315409 24.043048
-18.316576 -3.818861 26.046428
-9.825405 -3.630484 27.646333
-13.913113 -1.237793 26.517473
-11.995173 -4.900081 27.537939
-9.701091 -1.199121 27.338005
-14.148104 -3.676244 26.994042
-20.085325 3.672357 22.389608
-17.364136 1.229489 24.711269
-18.198666 4.719660 22.822870
-20.843446 1.270183 23.216416
-16.872130 3.517705 23.992406
-19.397543 0.000000 24.400326
-9.406482 3.475692 26.467585
-13.617029 1.211452 25.953157
-11.185380 4.569277 25.678856
-9.560189 1.181704 26.940938
-13.293154 3.454093 25.362830
-11.703862 0.000000 26.739822
-31.757526 0.000000 -16.710417
-35.267055 0.000000 -12.713209
-30.813633 2.271248 -15.368915
-33.999912 -2.506107 -16.958136
-39.396769 0.000000 -2.730490
-37.938276 0.000000 -7.990736
-28.876755 6.327244 -12.800293
