2.202295 -47.180181 24.754365
8.102904 -45.537465 19.835535
2.292398 -52.262949 18.545890
6.076843 -44.621239 23.386861
0.000000 -51.469952 22.528094
-22.381751 38.011011 2.906923
-20.564719 38.687134 8.757964
-20.095842 40.290800 2.969803
-15.624911 37.755500 20.183135
-18.304748 38.617219 14.561520
-15.141330 45.226348 3.156694
-18.177155 41.006659 8.985052
-17.679407 42.698608 3.056247
-19.190538 40.747082 5.986140
-1.877094 26.422033 37.837451
-5.601866 30.347360 34.437183
-12.568062 36.078457 25.472556
-9.198775 33.593970 30.273479
-2.395199 57.888687 3.875513
-6.571332 52.063812 10.632638
-6.041138 54.270788 3.650864
-12.882582 39.987101 20.844456
-10.018353 46.005351 16.210036
-14.350842 40.568529 18.000677
-12.295567 48.055762 3.309309
-9.783382 49.033642 10.117898
-9.332522 51.001785 3.461031
-14.019159 45.830684 6.410241
-8.000950 51.708328 7.035206
-16.978432 41.084476 12.101339
-11.470074 46.187647 13.034056
-15.727563 40.933112 15.062436
-15.582281 43.488224 9.350444
-12.965031 43.396013 15.614398
-12.784328 46.162944 9.731526
35.395409 60.112155 4.597126
30.660043 57.678842 13.057293
30.030769 60.209656 4.438006
21.136006 51.072323 27.301971
25.814047 54.459461 20.535206
20.192147 60.312870 4.209698
25.795135 58.192402 12.750655
24.955262 60.270966 4.314027
27.958963 59.364995 8.721291
1.930070 27.167725 38.905313
6.207391 33.627708 38.159614
0.000000 29.389777 37.419427
16.599375 47.650928 33.643094
11.300200 41.268385 37.189340
-3.837244 33.366720 33.764264
4.137254 35.975459 36.404085
-1.935701 31.476552 35.691788
2.003476 32.578649 36.941473
2.498763 60.391684 4.043083
7.466646 59.157272 12.081287
6.721097 60.379225 4.061786
0.000000 59.462767 8.011410
16.785537 52.101743 27.159570
12.289454 56.434487 19.884754
18.995559 53.698720 23.826679
15.438890 60.341067 4.155324
11.774301 59.011991 12.176891
11.045473 60.362985 4.096291
18.263952 59.707534 8.351168
9.266156 59.885069 8.147697
-4.453629 52.495019 14.509266
4.938050 58.204900 16.087439
-2.358512 55.965642 11.455984
2.497537 59.264598 12.131269
23.457543 56.762655 16.719311
14.320849 57.667138 16.273544
21.236003 55.269573 20.337922
20.972196 58.530814 12.584765
16.705151 55.914788 20.118801
16.283071 58.796556 12.394795
-11.009280 39.008253 24.108426
-4.002831 43.264777 26.739103
-9.339273 37.944402 26.724896
-9.635845 42.219550 22.081713
14.158762 50.167548 31.005250
4.444994 48.043907 29.692767
11.926964 48.457896 34.129731
12.027990 52.700755 27.563604
-5.766529 35.157348 31.539042
-2.083515 41.876184 29.425592
-7.578904 36.649324 29.223705
-2.006408 36.673143 32.924750
-5.847267 39.881111 28.045512
-6.421200 48.897783 17.378092
-2.202295 47.180181 24.754365
-8.102904 45.537465 19.835535
-2.292398 52.262949 18.545890
-6.076843 44.621239 23.386861
6.534825 39.841485 35.741100
2.190440 44.025248 30.935698
9.079417 43.905354 35.009571
2.092195 38.241147 34.332487
6.772495 46.191604 32.483226
0.000000 40.230432 31.982013
7.446697 56.706999 20.153459
2.338936 50.107464 26.290243
9.768849 54.899903 23.913692
2.458822 56.057142 19.892287
7.242589 53.181120 27.873262
0.000000 51.469952 22.528094
0.000000 -21.108625 40.116156
0.000000 -14.951686 41.476699
0.000000 -2.963008 42.751647
0.000000 -8.917004 42.335996
0.000000 21.108625 40.116156
0.000000 14.951686 41.476699
0.000000 2.963008 42.751647
0.000000 8.917004 42.335996
-35.395409 -60.112155 -4.597126
-30.660043 -57.678842 -13.057293
-30.030769 -60.209656 -4.438006
-21.136006 -51.072323 -27.301971
-25.814047 -54.459461 -20.535206
-20.192147 -60.312870 -4.209698
-25.795135 -58.192402 -12.750655
-24.955262 -60.270966 -4.314027
-27.958963 -59.364995 -8.721291
-1.930070 -27.167725 -38.905313
-6.207391 -33.627708 -38.159614
-16.599375 -47.650928 -33.643094
-11.300200 -41.268385 -37.189340
-2.498763 -60.391684 -4.043083
-7.466646 -59.157272 -12.081287
-6.721097 -60.379225 -4.061786
-16.785537 -52.101743 -27.159570
-12.289454 -56.434487 -19.884754
-18.995559 -53.698720 -23.826679
-15.438890 -60.341067 -4.155324
-11.774301 -59.011991 -12.176891
-11.045473 -60.362985 -4.096291
-18.263952 -59.707534 -8.351168
-9.266156 -59.885069 -8.147697
-23.457543 -56.762655 -16.719311
-14.320849 -57.667138 -16.273544
-21.236003 -55.269573 -20.337922
-20.972196 -58.530814 -12.584765
-16.705151 -55.914788 -20.118801
-16.283071 -58.796556 -12.394795
22.381751 -38.011011 -2.906923
20.564719 -38.687134 -8.757964
20.095842 -40.290800 -2.969803
15.624911 -37.755500 -20.183135
18.304748 -38.617219 -14.561520
15.141330 -45.226348 -3.156694
18.177155 -41.006659 -8.985052
17.679407 -42.698608 -3.056247
19.190538 -40.747082 -5.986140
1.877094 -26.422033 -37.837451
5.601866 -30.347360 -34.437183
0.000000 -29.389777 -37.419427
12.568062 -36.078457 -25.472556
9.198775 -33.593970 -30.273479
-4.137254 -35.975459 -36.404085
3.837244 -33.366720 -33.764264
-2.003476 -32.578649 -36.941473
1.935701 -31.476552 -35.691788
2.395199 -57.888687 -3.875513
6.571332 -52.063812 -10.632638
6.041138 -54.270788 -3.650864
0.000000 -59.462767 -8.011410
12.882582 -39.987101 -20.844456
10.018353 -46.005351 -16.210036
14.350842 -40.568529 -18.000677
12.295567 -48.055762 -3.309309
9.783382 -49.033642 -10.117898
9.332522 -51.001785 -3.461031
14.019159 -45.830684 -6.410241
8.000950 -51.708328 -7.035206
-4.938050 -58.204900 -16.087439
4.453629 -52.495019 -14.509266
-2.497537 -59.264598 -12.131269
2.358512 -55.965642 -11.455984
16.978432 -41.084476 -12.101339
11.470074 -46.187647 -13.034056
15.727563 -40.933112 -15.062436
15.582281 -43.488224 -9.350444
12.965031 -43.396013 -15.614398
12.784328 -46.162944 -9.731526
-14.158762 -50.167548 -31.005250
-4.444994 -48.043907 -29.692767
-11.926964 -48.457896 -34.129731
-12.027990 -52.700755 -27.563604
11.009280 -39.008253 -24.108426
4.002831 -43.264777 -26.739103
9.339273 -37.944402 -26.724896
9.635845 -42.219550 -22.081713
-6.534825 -39.841485 -35.741100
-2.190440 -44.025248 -30.935698
-9.079417 -43.905354 -35.009571
-2.092195 -38.241147 -34.332487
-6.772495 -46.191604 -32.483226
-7.446697 -56.706999 -20.153459
-2.338936 -50.107464 -26.290243
-9.768849 -54.899903 -23.913692
-2.458822 -56.057142 -19.892287
-7.242589 -53.181120 -27.873262
5.766529 -35.157348 -31.539042
2.083515 -41.876184 -29.425592
7.578904 -36.649324 -29.223705
2.006408 -36.673143 -32.924750
5.847267 -39.881111 -28.045512
0.000000 -40.230432 -31.982013
6.421200 -48.897783 -17.378092
2.202295 -47.180181 -24.754365
8.102904 -45.537465 -19.835535
2.292398 -52.262949 -18.545890
6.076843 -44.621239 -23.386861
0.000000 -51.469952 -22.528094
-22.381751 38.011011 -2.906923
-20.564719 38.687134 -8.757964
-20.095842 40.290800 -2.969803
-15.624911 37.755500 -20.183135
-18.304748 38.617219 -14.561520
-15.141330 45.226348 -3.156694
-18.177155 41.006659 -8.985052
-17.679407 42.698608 -3.056247
-19.190538 40.747082 -5.986140
-1.877094 26.422033 -37.837451
-5.601866 30.347360 -34.437183
-12.568062 36.078457 -25.472556
-9.198775 33.593970 -30.273479
-2.395199 57.888687 -3.875513
-6.571332 52.063812 -10.632638
-6.041138 54.270788 -3.650864
-12.882582 39.987101 -20.844456
-10.018353 46.005351 -16.210036
-14.350842 40.568529 -18.000677
-12.295567 48.055762 -3.309309
-9.783382 49.033642 -10.117898
-9.332522 51.001785 -3.461031
-14.019159 45.830684 -6.410241
-8.000950 51.708328 -7.035206
-16.978432 41.084476 -12.101339
-11.470074 46.187647 -13.034056
-15.727563 40.933112 -15.062436
-15.582281 43.488224 -9.350444
-12.965031 43.396013 -15.614398
-12.784328 46.162944 -9.731526
35.395409 60.112155 -4.597126
30.660043 57.678842 -13.057293
30.030769 60.209656 -4.438006
21.136006 51.072323 -27.301971
25.814047 54.459461 -20.535206
20.192147 60.312870 -4.209698
25.795135 58.192402 -12.750655
24.955262 60.270966 -4.314027
27.958963 59.364995 -8.721291
1.930070 27.167725 -38.905313
6.207391 33.627708 -38.159614
0.000000 29.389777 -37.419427
16.599375 47.650928 -33.643094
11.300200 41.268385 -37.189340
-3.837244 33.366720 -33.764264
4.137254 35.975459 -36.404085
-1.935701 31.476552 -35.691788
2.003476 32.578649 -36.941473
2.498763 60.391684 -4.043083
7.466646 59.157272 -12.081287
6.721097 60.379225 -4.061786
0.000000 59.462767 -8.011410
16.785537 52.101743 -27.159570
12.289454 56.434487 -19.884754
18.995559 53.698720 -23.826679
15.438890 60.341067 -4.155324
11.774301 59.011991 -12.176891
11.045473 60.362985 -4.096291
18.263952 59.707534 -8.351168
9.266156 59.885069 -8.147697
-4.453629 52.495019 -14.509266
4.938050 58.204900 -16.087439
-2.358512 55.965642 -11.455984
2.497537 59.264598 -12.131269
23.457543 56.762655 -16.719311
14.320849 57.667138 -16.273544
21.236003 55.269573 -20.337922
20.972196 58.530814 -12.584765
16.705151 55.914788 -20.118801
16.283071 58.796556 -12.394795
-11.009280 39.008253 -24.108426
-4.002831 43.264777 -26.739103
-9.339273 37.944402 -26.724896
-9.635845 42.219550 -22.081713
14.158762 50.167548 -31.005250
4.444994 48.043907 -29.692767
11.926964 48.457896 -34.129731
12.027990 52.700755 -27.563604
-5.766529 35.157348 -31.539042
-2.083515 41.876184 -29.425592
-7.578904 36.649324 -29.223705
-2.006408 36.673143 -32.924750
-5.847267 39.881111 -28.045512
-6.421200 48.897783 -17.378092
-2.202295 47.180181 -24.754365
-8.102904 45.537465 -19.835535
-2.292398 52.262949 -18.545890
-6.076843 44.621239 -23.386861
6.534825 39.841485 -35.741100
2.190440 44.025248 -30.935698
9.079417 43.905354 -35.009571
2.092195 38.241147 -34.332487
6.772495 46.191604 -32.483226
0.000000 40.230432 -31.982013
7.446697 56.706999 -20.153459
2.338936 50.107464 -26.290243
9.768849 54.899903 -23.913692
2.458822 56.057142 -19.892287
7.242589 53.181120 -27.873262
0.000000 51.469952 -22.528094
0.000000 -21.108625 -40.116156
0.000000 -14.951686 -41.476699
0.000000 -2.963008 -42.751647
0.000000 -8.917004 -42.335996
0.000000 21.108625 -40.116156
0.000000 14.951686 -41.476699
0.000000 2.963008 -42.751647
0.000000 8.917004 -42.335996
42.100627 60.289850 -2.990945
49.850688 56.568917 -9.202016
39.469326 59.155441 -7.616522
53.105225 37.494004 -18.499399
52.618292 47.417401 -14.408057
33.865909 55.772157 -15.933786
45.910096 54.244963 -13.560188
36.648576 57.543128 -11.949770
43.107996 57.258223 -10.682049
48.678686 3.722742 -28.663122
52.520802 11.889620 -27.918210
53.044223 28.356099 -21.952067
52.816821 19.915810 -25.035428
23.576386 48.417709 -29.923790
33.059967 45.891729 -28.362649
25.985645 50.209368 -26.707028
50.070014 36.377088 -22.482277
42.234219 42.064612 -25.997360
49.667988 40.944741 -20.630660
31.082235 53.857416 -19.828451
35.859521 47.805120 -25.060852
28.494826 52.034900 -23.334275
36.637659 53.104716 -18.840720
30.928480 49.141495 -25.969998
47.835142 50.087955 -16.286105
40.884885 46.025418 -23.875941
48.981317 45.604715 -18.570628
42.338692 51.937725 -17.684583
45.500355 43.797000 -22.430832
38.988802 49.786329 -21.518036
24.868380 -35.612555 -1.766718
28.145899 -31.939038 -5.195495
24.081728 -36.092971 -4.647128
34.088648 -24.067687 -11.874905
31.199183 -28.115397 -8.543029
22.179541 -36.526432 -10.435392
27.252446 -32.200062 -8.049390
23.182130 -36.399021 -7.558851
25.709549 -34.148725 -6.370759
44.477658 -3.401465 -26.189460
42.081871 -9.526462 -22.369242
36.856298 -19.702444 -15.252781
39.523307 -14.903182 -18.734238
17.089310 -35.095507 -21.690216
22.598043 -31.369156 -19.387205
18.496380 -35.738636 -19.009854
32.905308 -23.906510 -14.775036
27.798343 -27.686709 -17.111327
31.583142 -26.036158 -13.118733
21.034234 -36.446849 -13.418478
23.889769 -31.847980 -16.695649
19.819456 -36.192655 -16.230056
23.690500 -34.338364 -12.182713
21.252703 -33.767893 -17.845450
28.784473 -30.140088 -9.800054
26.543223 -29.880553 -15.500702
30.204044 -28.121882 -11.451470
26.275762 -32.233005 -10.975206
29.064180 -27.976131 -14.328102
25.148540 -32.113157 -13.879554
2.961997 -22.805796 -38.731169
8.540448 -20.053967 -37.726287
4.802626 -24.887526 -37.300677
2.924448 -19.788941 -39.675484
19.003590 -14.711758 -35.548990
13.828794 -17.383665 -36.674026
8.456463 -28.630653 -33.828479
10.340016 -21.976827 -36.192594
6.651487 -26.842442 -35.653490
7.631467 -23.404837 -36.748700
2.872315 -13.777284 -41.152016
8.493192 -17.182101 -38.761872
2.897634 -16.761886 -40.482646
5.762209 -18.472655 -39.222808
42.002698 -2.083730 -29.330640
35.515556 -5.777284 -31.297663
41.144945 -5.297592 -27.452475
24.227711 -11.953861 -34.315302
29.668407 -9.014921 -32.922532
39.151634 -11.185397 -23.773613
34.977276 -8.743640 -29.602935
40.179387 -8.343906 -25.589804
37.969904 -7.083635 -28.586401
15.301333 -34.077419 -24.758078
17.384377 -28.241928 -28.128512
13.711905 -33.011193 -27.213399
18.206517 -32.302374 -23.590655
20.845310 -16.423624 -33.728420
19.213321 -22.395362 -31.087807
18.283241 -17.789393 -34.372599
10.317893 -30.305460 -31.732706
15.740514 -26.953874 -30.342835
12.036113 -31.746082 -29.557617
11.285330 -27.018228 -33.143804
14.769986 -29.960529 -28.838924
23.726736 -28.760295 -21.322496
20.268427 -26.652365 -27.042794
21.022557 -30.522533 -22.442034
19.270650 -29.472025 -25.380481
13.101328 -20.537083 -35.585414
16.669335 -23.852116 -31.797784
15.692780 -19.163357 -34.994541
12.214509 -23.752332 -34.427986
17.502456 -20.844220 -33.118865
14.030631 -25.422277 -32.462702
2.857189 -1.765840 -42.677943
8.512084 -5.260757 -41.680301
2.856721 -4.727059 -42.465706
19.162945 -11.843351 -36.761363
13.987815 -8.644945 -39.698515
16.543265 -13.188936 -37.283926
2.872821 -10.673818 -41.717350
8.489517 -8.208839 -41.142138
2.860008 -7.711890 -42.145113
5.709838 -12.487381 -40.823077
5.704244 -6.487283 -41.925844
11.274277 -15.818047 -38.276573
11.309293 -9.952268 -40.075754
13.905835 -14.519888 -37.789974
8.528896 -14.213191 -39.667263
13.961402 -11.592507 -38.801957
8.530139 -11.206064 -40.463986
34.423219 -21.274719 -16.761947
31.658337 -19.565928 -22.806366
35.653872 -18.964767 -18.452510
31.774330 -23.205020 -17.908896
23.914361 -14.779888 -32.916114
28.119113 -17.378568 -28.232491
26.533559 -13.369357 -32.186514
23.062635 -17.799007 -31.579363
37.996338 -13.988947 -21.928477
32.596077 -17.087823 -24.450931
36.854501 -16.526851 -20.181889
36.256759 -12.863329 -25.014027
34.223419 -18.086184 -21.539400
26.505915 -26.894199 -20.157056
28.878695 -21.410276 -23.824414
29.126982 -25.083340 -19.045039
24.913323 -26.006090 -23.145188
30.419123 -22.366001 -20.951333
31.991715 -10.402110 -30.552820
30.711696 -15.931862 -27.281537
29.234365 -11.904482 -31.398896
34.237039 -11.657572 -27.909414
28.710640 -14.704285 -29.827256
33.434804 -14.450780 -26.183552
21.265822 -23.663672 -28.683851
27.061771 -20.282651 -26.671068
22.176613 -20.773924 -30.161544
23.151293 -24.919894 -26.012950
25.152456 -19.097517 -29.207241
26.030933 -23.167298 -24.937122
3.077646 23.696224 -40.243386
9.471667 22.240576 -41.839820
5.150375 26.689587 -40.001552
3.021446 20.445297 -40.991435
22.798452 17.649576 -42.647832
16.102071 20.241318 -42.702767
9.859147 33.379653 -39.439649
11.924265 25.344013 -41.737851
7.413021 29.915653 -39.735485
8.505610 26.085732 -40.958060
2.936442 14.084872 -42.070765
9.263002 18.739459 -42.275187
2.977648 17.224742 -41.600519
6.129312 19.649521 -41.721637
44.165519 2.191026 -30.840946
40.316647 6.558273 -35.528568
47.132825 6.068558 -31.447671
40.501505 0.000000 -31.810487
29.297749 14.455398 -41.496329
35.258877 10.713618 -39.126182
50.387453 14.395406 -30.596214
42.855081 10.712938 -36.270296
50.291439 10.443838 -32.030057
45.177143 8.428212 -34.012514
33.873696 -3.849680 -33.474863
36.577040 4.156910 -36.146378
37.066821 -2.010274 -32.689193
38.673082 2.097388 -34.105752
20.788736 46.298348 -33.636881
24.229937 39.362938 -39.204861
18.490709 44.516090 -36.697677
25.415151 45.092080 -32.931069
26.340748 20.753375 -42.620226
26.384665 30.754397 -42.691284
22.766284 22.151345 -42.800747
12.713416 37.341529 -39.100141
21.482896 36.787062 -41.412369
15.765071 41.581465 -38.714983
13.816682 33.078544 -40.578114
20.261625 41.100175 -39.561546
34.583663 41.920487 -31.079286
28.634340 37.653286 -38.204867
30.057516 43.640339 -32.087048
27.109764 41.460961 -35.705016
15.589331 24.437171 -42.343251
22.157695 31.705400 -42.267170
19.147323 23.381899 -42.698094
14.776588 28.734550 -41.649498
22.562888 26.870847 -42.694423
17.955265 32.533373 -41.543139
2.865090 1.770723 -42.795960
8.728089 5.394255 -42.737990
2.878013 4.762291 -42.782213
5.740843 0.000000 -42.610027
22.094393 13.655086 -42.384927
15.013834 9.279060 -42.610435
18.953801 15.110710 -42.716605
2.922146 10.857082 -42.433612
8.832118 8.540112 -42.802458
2.895074 7.806443 -42.661836
5.945927 13.003706 -42.511021
5.823072 6.622424 -42.799224
11.462425 -3.518399 -41.471442
11.723393 3.598503 -42.415635
8.631139 -1.776944 -42.165495
8.704313 1.792009 -42.522971
12.563331 17.626616 -42.652955
12.075443 10.626486 -42.790692
15.749456 16.444920 -42.800131
9.156219 15.258609 -42.584897
15.386678 12.775950 -42.763128
9.013364 11.840877 -42.756235
50.328284 31.104590 -24.506716
44.738320 27.649803 -32.229062
50.428793 26.823743 -26.099208
47.074304 34.378701 -26.532387
30.515440 18.859579 -42.001946
39.199566 24.226664 -39.357621
33.896349 17.079215 -41.117941
31.044430 23.959102 -42.508730
50.436952 18.569154 -29.108214
45.058156 23.620812 -33.798971
50.460331 22.628183 -27.632577
47.955806 17.013968 -33.085357
47.743660 25.231278 -30.048716
39.176821 39.750720 -29.792949
41.228978 30.566610 -34.013180
43.295712 37.285052 -28.309439
36.048004 37.629170 -33.489624
44.109555 32.432044 -30.380690
40.092513 13.036086 -38.289266
42.270730 21.928175 -37.549554
37.125141 15.117674 -39.873910
45.365679 15.446829 -36.981280
39.101390 20.025955 -40.622123
45.227931 19.547861 -35.419017
30.088655 33.481333 -40.584301
38.243669 28.663422 -37.691527
31.354209 29.371029 -42.643633
33.012501 35.534431 -37.093070
35.409307 26.885242 -41.117582
37.259508 33.160629 -35.693876
22.315741 -10.190638 -36.107627
23.637804 -3.538568 -38.246770
25.021153 -8.743883 -35.525402
19.770455 -8.627277 -37.800496
25.738045 11.753457 -41.645032
24.797003 3.712100 -40.122394
28.679218 10.022229 -40.719177
21.915785 9.563439 -41.902301
30.713608 -5.615609 -34.237217
26.552483 -1.880081 -37.787401
27.828611 -7.217099 -34.899744
31.872894 -1.942309 -35.501536
25.800130 -5.379123 -36.688147
14.383985 -5.314878 -40.473083
20.822571 -1.852500 -39.686441
17.104198 -6.987140 -39.266993
14.619026 -1.807011 -41.196913
20.327314 -5.281850 -38.783739
34.090111 6.232961 -38.001087
27.306965 1.933503 -38.861121
31.494530 8.167822 -39.497157
33.007745 2.011466 -36.765587
28.008913 5.839636 -39.829067
29.661882 0.000000 -37.311920
15.024583 5.551579 -42.275574
21.275330 1.892780 -40.549370
18.342498 7.492991 -42.109822
14.834488 1.833644 -41.804091
21.634667 5.621552 -41.278119
17.897038 0.000000 -40.889376
42.100627 60.289850 2.990945
49.850688 56.568917 9.202016
39.469326 59.155441 7.616522
47.543145 60.532521 0.000000
53.105225 37.494004 18.499399
52.618292 47.417401 14.408057
33.865909 55.772157 15.933786
45.910096 54.244963 13.560188
36.648576 57.543128 11.949770
43.107996 57.258223 10.682049
55.662401 56.325584 -6.401294
55.662401 56.325584 6.401294
52.783953 59.852605 -3.246034
52.783953 59.852605 3.246034
48.678686 3.722742 28.663122
52.520802 11.889620 27.918210
53.044223 28.356099 21.952067
52.816821 19.915810 25.035428
23.576386 48.417709 29.923790
33.059967 45.891729 28.362649
25.985645 50.209368 26.707028
50.070014 36.377088 22.482277
42.234219 42.064612 25.997360
49.667988 40.944741 20.630660
31.082235 53.857416 19.828451
35.859521 47.805120 25.060852
28.494826 52.034900 23.334275
36.637659 53.104716 18.840720
30.928480 49.141495 25.969998
47.835142 50.087955 16.286105
40.884885 46.025418 23.875941
48.981317 45.604715 18.570628
42.338692 51.937725 17.684583
45.500355 43.797000 22.430832
38.988802 49.786329 21.518036
55.777808 34.472581 -15.742143
59.880171 37.007981 -5.540078
56.021855 39.457158 -13.788684
55.777808 34.472581 15.742143
59.880171 37.007981 5.540078
56.021855 39.457158 13.788684
56.287090 50.494164 -9.232242
60.284973 42.361096 -2.999429
56.226454 44.834259 -11.627361
59.756211 53.648478 -3.269296
58.619766 41.223057 -8.594681
56.287090 50.494164 9.232242
60.284973 42.361096 2.999429
56.226454 44.834259 11.627361
59.756211 53.648478 3.269296
58.619766 41.223057 8.594681
60.532521 48.121578 0.000000
24.868380 -35.612555 1.766718
28.145899 -31.939038 5.195495
24.081728 -36.092971 4.647128
26.628625 -33.903895 0.000000
34.088648 -24.067687 11.874905
31.199183 -28.115397 8.543029
22.179541 -36.526432 10.435392
27.252446 -32.200062 8.049390
23.182130 -36.399021 7.558851
25.709549 -34.148725 6.370759
29.989201 -30.346504 -3.448822
29.989201 -30.346504 3.448822
28.343332 -32.138978 -1.743019
28.343332 -32.138978 1.743019
44.477658 -3.401465 26.189460
42.081871 -9.526462 22.369242
36.856298 -19.702444 15.252781
39.523307 -14.903182 18.734238
17.089310 -35.095507 21.690216
22.598043 -31.369156 19.387205
18.496380 -35.738636 19.009854
32.905308 -23.906510 14.775036
27.798343 -27.686709 17.111327
31.583142 -26.036158 13.118733
21.034234 -36.446849 13.418478
23.889769 -31.847980 16.695649
19.819456 -36.192655 16.230056
23.690500 -34.338364 12.182713
21.252703 -33.767893 17.845450
28.784473 -30.140088 9.800054
26.543223 -29.880553 15.500702
30.204044 -28.121882 11.451470
26.275762 -32.233005 10.975206
29.064180 -27.976131 14.328102
25.148540 -32.113157 13.879554
36.322368 -22.448458 -10.251244
37.289434 -23.046137 -3.449996
34.798820 -24.509408 -8.565049
36.322368 -22.448458 10.251244
37.289434 -23.046137 3.449996
34.798820 -24.509408 8.565049
31.672338 -28.412700 -5.194916
35.520984 -24.959915 -1.767317
33.240918 -26.505886 -6.874062
31.869861 -28.612415 -1.743618
35.279419 -24.809473 -5.172579
31.672338 -28.412700 5.194916
35.520984 -24.959915 1.767317
33.240918 -26.505886 6.874062
31.869861 -28.612415 1.743618
35.279419 -24.809473 5.172579
33.723404 -26.809117 0.000000
2.961997 -22.805796 38.731169
8.540448 -20.053967 37.726287
4.802626 -24.887526 37.300677
2.924448 -19.788941 39.675484
19.003590 -14.711758 35.548990
13.828794 -17.383665 36.674026
8.456463 -28.630653 33.828479
10.340016 -21.976827 36.192594
6.651487 -26.842442 35.653490
7.631467 -23.404837 36.748700
2.872315 -13.777284 41.152016
8.493192 -17.182101 38.761872
2.897634 -16.761886 40.482646
5.762209 -18.472655 39.222808
42.002698 -2.083730 29.330640
35.515556 -5.777284 31.297663
41.144945 -5.297592 27.452475
24.227711 -11.953861 34.315302
29.668407 -9.014921 32.922532
39.151634 -11.185397 23.773613
34.977276 -8.743640 29.602935
40.179387 -8.343906 25.589804
37.969904 -7.083635 28.586401
15.301333 -34.077419 24.758078
17.384377 -28.241928 28.128512
13.711905 -33.011193 27.213399
18.206517 -32.302374 23.590655
20.845310 -16.423624 33.728420
19.213321 -22.395362 31.087807
18.283241 -17.789393 34.372599
10.317893 -30.305460 31.732706
15.740514 -26.953874 30.342835
12.036113 -31.746082 29.557617
11.285330 -27.018228 33.143804
14.769986 -29.960529 28.838924
23.726736 -28.760295 21.322496
20.268427 -26.652365 27.042794
21.022557 -30.522533 22.442034
19.270650 -29.472025 25.380481
13.101328 -20.537083 35.585414
16.669335 -23.852116 31.797784
15.692780 -19.163357 34.994541
12.214509 -23.752332 34.427986
17.502456 -20.844220 33.118865
14.030631 -25.422277 32.462702
2.857189 -1.765840 42.677943
8.512084 -5.260757 41.680301
2.856721 -4.727059 42.465706
19.162945 -11.843351 36.761363
13.987815 -8.644945 39.698515
16.543265 -13.188936 37.283926
2.872821 -10.673818 41.717350
8.489517 -8.208839 41.142138
2.860008 -7.711890 42.145113
5.709838 -12.487381 40.823077
5.704244 -6.487283 41.925844
11.274277 -15.818047 38.276573
11.309293 -9.952268 40.075754
13.905835 -14.519888 37.789974
8.528896 -14.213191 39.667263
13.961402 -11.592507 38.801957
8.530139 -11.206064 40.463986
34.423219 -21.274719 16.761947
31.658337 -19.565928 22.806366
35.653872 -18.964767 18.452510
31.774330 -23.205020 17.908896
23.914361 -14.779888 32.916114
28.119113 -17.378568 28.232491
26.533559 -13.369357 32.186514
23.062635 -17.799007 31.579363
37.996338 -13.988947 21.928477
32.596077 -17.087823 24.450931
36.854501 -16.526851 20.181889
36.256759 -12.863329 25.014027
34.223419 -18.086184 21.539400
26.505915 -26.894199 20.157056
28.878695 -21.410276 23.824414
29.126982 -25.083340 19.045039
24.913323 -26.006090 23.145188
30.419123 -22.366001 20.951333
31.991715 -10.402110 30.552820
30.711696 -15.931862 27.281537
29.234365 -11.904482 31.398896
34.237039 -11.657572 27.909414
28.710640 -14.704285 29.827256
33.434804 -14.450780 26.183552
21.265822 -23.663672 28.683851
27.061771 -20.282651 26.671068
22.176613 -20.773924 30.161544
23.151293 -24.919894 26.012950
25.152456 -19.097517 29.207241
26.030933 -23.167298 24.937122
3.077646 23.696224 40.243386
9.471667 22.240576 41.839820
5.150375 26.689587 40.001552
3.021446 20.445297 40.991435
22.798452 17.649576 42.647832
16.102071 20.241318 42.702767
9.859147 33.379653 39.439649
11.924265 25.344013 41.737851
7.413021 29.915653 39.735485
8.505610 26.085732 40.958060
2.936442 14.084872 42.070765
9.263002 18.739459 42.275187
2.977648 17.224742 41.600519
6.129312 19.649521 41.721637
44.165519 2.191026 30.840946
40.316647 6.558273 35.528568
47.132825 6.068558 31.447671
40.501505 0.000000 31.810487
29.297749 14.455398 41.496329
35.258877 10.713618 39.126182
50.387453 14.395406 30.596214
42.855081 10.712938 36.270296
50.291439 10.443838 32.030057
45.177143 8.428212 34.012514
33.873696 -3.849680 33.474863
36.577040 4.156910 36.146378
37.066821 -2.010274 32.689193
38.673082 2.097388 34.105752
20.788736 46.298348 33.636881
24.229937 39.362938 39.204861
18.490709 44.516090 36.697677
25.415151 45.092080 32.931069
26.340748 20.753375 42.620226
26.384665 30.754397 42.691284
22.766284 22.151345 42.800747
12.713416 37.341529 39.100141
21.482896 36.787062 41.412369
15.765071 41.581465 38.714983
13.816682 33.078544 40.578114
20.261625 41.100175 39.561546
34.583663 41.920487 31.079286
28.634340 37.653286 38.204867
30.057516 43.640339 32.087048
27.109764 41.460961 35.705016
15.589331 24.437171 42.343251
22.157695 31.705400 42.267170
19.147323 23.381899 42.698094
14.776588 28.734550 41.649498
22.562888 26.870847 42.694423
17.955265 32.533373 41.543139
2.865090 1.770723 42.795960
8.728089 5.394255 42.737990
2.878013 4.762291 42.782213
5.740843 0.000000 42.610027
22.094393 13.655086 42.384927
15.013834 9.279060 42.610435
18.953801 15.110710 42.716605
2.922146 10.857082 42.433612
8.832118 8.540112 42.802458
2.895074 7.806443 42.661836
5.945927 13.003706 42.511021
5.823072 6.622424 42.799224
11.462425 -3.518399 41.471442
11.723393 3.598503 42.415635
8.631139 -1.776944 42.165495
8.704313 1.792009 42.522971
12.563331 17.626616 42.652955
12.075443 10.626486 42.790692
15.749456 16.444920 42.800131
9.156219 15.258609 42.584897
15.386678 12.775950 42.763128
9.013364 11.840877 42.756235
50.328284 31.104590 24.506716
44.738320 27.649803 32.229062
50.428793 26.823743 26.099208
47.074304 34.378701 26.532387
30.515440 18.859579 42.001946
39.199566 24.226664 39.357621
33.896349 17.079215 41.117941
31.044430 23.959102 42.508730
50.436952 18.569154 29.108214
45.058156 23.620812 33.798971
50.460331 22.628183 27.632577
47.955806 17.013968 33.085357
47.743660 25.231278 30.048716
39.176821 39.750720 29.792949
41.228978 30.566610 34.013180
43.295712 37.285052 28.309439
36.048004 37.629170 33.489624
44.109555 32.432044 30.380690
40.092513 13.036086 38.289266
42.270730 21.928175 37.549554
37.125141 15.117674 39.873910
45.365679 15.446829 36.981280
39.101390 20.025955 40.622123
45.227931 19.547861 35.419017
30.088655 33.481333 40.584301
38.243669 28.663422 37.691527
31.354209 29.371029 42.643633
33.012501 35.534431 37.093070
35.409307 26.885242 41.117582
37.259508 33.160629 35.693876
22.315741 -10.190638 36.107627
23.637804 -3.538568 38.246770
25.021153 -8.743883 35.525402
19.770455 -8.627277 37.800496
25.738045 11.753457 41.645032
24.797003 3.712100 40.122394
28.679218 10.022229 40.719177
21.915785 9.563439 41.902301
30.713608 -5.615609 34.237217
26.552483 -1.880081 37.787401
27.828611 -7.217099 34.899744
31.872894 -1.942309 35.501536
25.800130 -5.379123 36.688147
14.383985 -5.314878 40.473083
20.822571 -1.852500 39.686441
17.104198 -6.987140 39.266993
14.619026 -1.807011 41.196913
20.327314 -5.281850 38.783739
34.090111 6.232961 38.001087
27.306965 1.933503 38.861121
31.494530 8.167822 39.497157
33.007745 2.011466 36.765587
28.008913 5.839636 39.829067
29.661882 0.000000 37.311920
15.024583 5.551579 42.275574
21.275330 1.892780 40.549370
18.342498 7.492991 42.109822
14.834488 1.833644 41.804091
21.634667 5.621552 41.278119
17.897038 0.000000 40.889376
48.562231 0.000000 -25.552845
53.928851 0.000000 -19.440487
51.991191 3.832229 -25.931646
47.118871 -3.473095 -23.501479
60.243830 0.000000 -4.175346
58.013566 0.000000 -12.219087
54.521639 11.946347 -24.167984
57.280085 3.998017 -19.176801
54.308391 7.978427 -25.577469
55.147149 3.947278 -22.833740
44.157081 -9.675347 -19.573653
51.742191 -3.611485 -17.322769
45.640788 -6.705073 -21.495313
49.570974 -3.548151 -20.524918
48.562231 0.000000 25.552845
53.928851 0.000000 19.440487
51.991191 3.832229 25.931646
47.118871 -3.473095 23.501479
60.243830 0.000000 4.175346
58.013566 0.000000 12.219087
54.521639 11.946347 24.167984
57.280085 3.998017 19.176801
54.308391 7.978427 25.577469
55.147149 3.947278 22.833740
44.157081 -9.675347 19.573653
51.742191 -3.611485 17.322769
45.640788 -6.705073 21.495313
49.570974 -3.548151 20.524918
55.479543 28.920348 -17.873758
58.499860 20.612490 -12.739220
55.233949 24.507876 -19.538636
57.678995 30.167328 -13.164183
60.477093 4.048800 -2.502296
59.939913 12.241120 -7.565428
60.135883 4.045416 -6.694010
54.764703 16.130818 -22.631876
58.167684 16.414797 -14.445153
54.992796 20.236074 -21.129658
56.326477 12.110809 -20.182360
56.922063 20.481230 -17.006086
60.394757 31.687752 -2.819131
59.749236 21.234659 -7.846200
59.418521 31.142405 -8.092043
58.953828 25.679530 -10.490202
58.546757 4.031761 -14.979797
59.094517 12.193920 -11.790767
59.483991 4.036641 -10.884631
57.577142 8.053194 -17.612286
59.717915 8.124954 -9.240292
57.874948 12.200512 -16.027841
38.117716 -19.869983 -12.280325
43.643590 -15.377867 -9.504044
39.617355 -17.578631 -14.014371
38.881483 -20.335834 -8.873992
56.649163 -3.792530 -2.343912
49.723590 -10.154710 -6.275956
56.110001 -3.774590 -6.245870
42.617801 -12.552976 -17.612089
45.532826 -12.849267 -11.307458
41.124195 -15.132751 -15.800982
45.981851 -9.886601 -16.475773
42.510593 -15.295813 -12.700502
39.664700 -20.811163 -1.851485
44.246974 -15.725212 -5.810461
39.403029 -20.651896 -5.366189
41.532441 -18.090998 -7.390253
53.642186 -3.694012 -13.724912
48.859620 -10.081989 -9.748661
55.091212 -3.738543 -10.080822
49.649580 -6.944382 -15.187322
52.321300 -7.118604 -8.095797
47.566958 -10.027504 -13.173155
55.479543 28.920348 17.873758
58.499860 20.612490 12.739220
55.233949 24.507876 19.538636
57.678995 30.167328 13.164183
60.477093 4.048800 2.502296
59.939913 12.241120 7.565428
60.135883 4.045416 6.694010
60.532521 8.155538 0.000000
54.764703 16.130818 22.631876
58.167684 16.414797 14.445153
54.992796 20.236074 21.129658
56.326477 12.110809 20.182360
56.922063 20.481230 17.006086
60.394757 31.687752 2.819131
59.749236 21.234659 7.846200
59.418521 31.142405 8.092043
60.532521 26.494727 0.000000
58.953828 25.679530 10.490202
58.546757 4.031761 14.979797
59.094517 12.193920 11.790767
59.483991 4.036641 10.884631
57.577142 8.053194 17.612286
59.717915 8.124954 9.240292
57.874948 12.200512 16.027841
60.234975 16.648538 -5.110279
60.234975 16.648538 5.110279
60.465104 12.377009 -2.548128
60.442602 21.448500 -2.651180
60.465104 12.377009 2.548128
60.442602 21.448500 2.651180
38.117716 -19.869983 12.280325
43.643590 -15.377867 9.504044
39.617355 -17.578631 14.014371
38.881483 -20.335834 8.873992
56.649163 -3.792530 2.343912
49.723590 -10.154710 6.275956
56.110001 -3.774590 6.245870
53.345314 -7.187206 0.000000
42.617801 -12.552976 17.612089
45.532826 -12.849267 11.307458
41.124195 -15.132751 15.800982
45.981851 -9.886601 16.475773
42.510593 -15.295813 12.700502
39.664700 -20.811163 1.851485
44.246974 -15.725212 5.810461
39.403029 -20.651896 5.366189
42.103894 -18.428626 0.000000
41.532441 -18.090998 7.390253
53.642186 -3.694012 13.724912
48.859620 -10.081989 9.748661
55.091212 -3.738543 10.080822
49.649580 -6.944382 15.187322
52.321300 -7.118604 8.095797
47.566958 -10.027504 13.173155
47.216523 -13.050326 -4.005806
47.216523 -13.050326 4.005806
50.185728 -10.272854 -2.114934
44.631397 -15.837778 -1.957657
50.185728 -10.272854 2.114934
44.631397 -15.837778 1.957657
-24.868380 35.612555 -1.766718
-28.145899 31.939038 -5.195495
-24.081728 36.092971 -4.647128
-34.088648 24.067687 -11.874905
-31.199183 28.115397 -8.543029
-22.179541 36.526432 -10.435392
-27.252446 32.200062 -8.049390
-23.182130 36.399021 -7.558851
-25.709549 34.148725 -6.370759
-44.477658 3.401465 -26.189460
-42.081871 9.526462 -22.369242
-36.856298 19.702444 -15.252781
-39.523307 14.903182 -18.734238
-17.089310 35.095507 -21.690216
-22.598043 31.369156 -19.387205
-18.496380 35.738636 -19.009854
-32.905308 23.906510 -14.775036
-27.798343 27.686709 -17.111327
-31.583142 26.036158 -13.118733
-21.034234 36.446849 -13.418478
-23.889769 31.847980 -16.695649
-19.819456 36.192655 -16.230056
-23.690500 34.338364 -12.182713
-21.252703 33.767893 -17.845450
-28.784473 30.140088 -9.800054
-26.543223 29.880553 -15.500702
-30.204044 28.121882 -11.451470
-26.275762 32.233005 -10.975206
-29.064180 27.976131 -14.328102
-25.148540 32.113157 -13.879554
-42.100627 -60.289850 -2.990945
-49.850688 -56.568917 -9.202016
-39.469326 -59.155441 -7.616522
-53.105225 -37.494004 -18.499399
-52.618292 -47.417401 -14.408057
-33.865909 -55.772157 -15.933786
-45.910096 -54.244963 -13.560188
-36.648576 -57.543128 -11.949770
-43.107996 -57.258223 -10.682049
-48.678686 -3.722742 -28.663122
-52.520802 -11.889620 -27.918210
-53.044223 -28.356099 -21.952067
-52.816821 -19.915810 -25.035428
-23.576386 -48.417709 -29.923790
-33.059967 -45.891729 -28.362649
-25.985645 -50.209368 -26.707028
-50.070014 -36.377088 -22.482277
-42.234219 -42.064612 -25.997360
-49.667988 -40.944741 -20.630660
-31.082235 -53.857416 -19.828451
-35.859521 -47.805120 -25.060852
-28.494826 -52.034900 -23.334275
-36.637659 -53.104716 -18.840720
-30.928480 -49.141495 -25.969998
-47.835142 -50.087955 -16.286105
-40.884885 -46.025418 -23.875941
-48.981317 -45.604715 -18.570628
-42.338692 -51.937725 -17.684583
-45.500355 -43.797000 -22.430832
-38.988802 -49.786329 -21.518036
-3.077646 -23.696224 -40.243386
-9.471667 -22.240576 -41.839820
-5.150375 -26.689587 -40.001552
-3.021446 -20.445297 -40.991435
-22.798452 -17.649576 -42.647832
-16.102071 -20.241318 -42.702767
-9.859147 -33.379653 -39.439649
-11.924265 -25.344013 -41.737851
-7.413021 -29.915653 -39.735485
-8.505610 -26.085732 -40.958060
-2.936442 -14.084872 -42.070765
-9.263002 -18.739459 -42.275187
-2.977648 -17.224742 -41.600519
-6.129312 -19.649521 -41.721637
-44.165519 -2.191026 -30.840946
-40.316647 -6.558273 -35.528568
-47.132825 -6.068558 -31.447671
-29.297749 -14.455398 -41.496329
-35.258877 -10.713618 -39.126182
-50.387453 -14.395406 -30.596214
-42.855081 -10.712938 -36.270296
-50.291439 -10.443838 -32.030057
-45.177143 -8.428212 -34.012514
-20.788736 -46.298348 -33.636881
-24.229937 -39.362938 -39.204861
-18.490709 -44.516090 -36.697677
-25.415151 -45.092080 -32.931069
-26.340748 -20.753375 -42.620226
-26.384665 -30.754397 -42.691284
-22.766284 -22.151345 -42.800747
-12.713416 -37.341529 -39.100141
-21.482896 -36.787062 -41.412369
-15.765071 -41.581465 -38.714983
-13.816682 -33.078544 -40.578114
-20.261625 -41.100175 -39.561546
-34.583663 -41.920487 -31.079286
-28.634340 -37.653286 -38.204867
-30.057516 -43.640339 -32.087048
-27.109764 -41.460961 -35.705016
-15.589331 -24.437171 -42.343251
-22.157695 -31.705400 -42.267170
-19.147323 -23.381899 -42.698094
-14.776588 -28.734550 -41.649498
-22.562888 -26.870847 -42.694423
-17.955265 -32.533373 -41.543139
-2.865090 -1.770723 -42.795960
-8.728089 -5.394255 -42.737990
-2.878013 -4.762291 -42.782213
-22.094393 -13.655086 -42.384927
-15.013834 -9.279060 -42.610435
-18.953801 -15.110710 -42.716605
-2.922146 -10.857082 -42.433612
-8.832118 -8.540112 -42.802458
-2.895074 -7.806443 -42.661836
-5.945927 -13.003706 -42.511021
-5.823072 -6.622424 -42.799224
-12.563331 -17.626616 -42.652955
-12.075443 -10.626486 -42.790692
-15.749456 -16.444920 -42.800131
-9.156219 -15.258609 -42.584897
-15.386678 -12.775950 -42.763128
-9.013364 -11.840877 -42.756235
-50.328284 -31.104590 -24.506716
-44.738320 -27.649803 -32.229062
-50.428793 -26.823743 -26.099208
-47.074304 -34.378701 -26.532387
-30.515440 -18.859579 -42.001946
-39.199566 -24.226664 -39.357621
-33.896349 -17.079215 -41.117941
-31.044430 -23.959102 -42.508730
-50.436952 -18.569154 -29.108214
-45.058156 -23.620812 -33.798971
-50.460331 -22.628183 -27.632577
-47.955806 -17.013968 -33.085357
-47.743660 -25.231278 -30.048716
-39.176821 -39.750720 -29.792949
-41.228978 -30.566610 -34.013180
-43.295712 -37.285052 -28.309439
-36.048004 -37.629170 -33.489624
-44.109555 -32.432044 -30.380690
-40.092513 -13.036086 -38.289266
-42.270730 -21.928175 -37.549554
-37.125141 -15.117674 -39.873910
-45.365679 -15.446829 -36.981280
-39.101390 -20.025955 -40.622123
-45.227931 -19.547861 -35.419017
-30.088655 -33.481333 -40.584301
-38.243669 -28.663422 -37.691527
-31.354209 -29.371029 -42.643633
-33.012501 -35.534431 -37.093070
-35.409307 -26.885242 -41.117582
-37.259508 -33.160629 -35.693876
-2.961997 22.805796 -38.731169
-8.540448 20.053967 -37.726287
-4.802626 24.887526 -37.300677
-2.924448 19.788941 -39.675484
-19.003590 14.711758 -35.548990
-13.828794 17.383665 -36.674026
-8.456463 28.630653 -33.828479
-10.340016 21.976827 -36.192594
-6.651487 26.842442 -35.653490
-7.631467 23.404837 -36.748700
-2.872315 13.777284 -41.152016
-8.493192 17.182101 -38.761872
-2.897634 16.761886 -40.482646
-5.762209 18.472655 -39.222808
-42.002698 2.083730 -29.330640
-35.515556 5.777284 -31.297663
-41.144945 5.297592 -27.452475
-40.501505 0.000000 -31.810487
-24.227711 11.953861 -34.315302
-29.668407 9.014921 -32.922532
-39.151634 11.185397 -23.773613
-34.977276 8.743640 -29.602935
-40.179387 8.343906 -25.589804
-37.969904 7.083635 -28.586401
-36.577040 -4.156910 -36.146378
-33.873696 3.849680 -33.474863
-38.673082 -2.097388 -34.105752
-37.066821 2.010274 -32.689193
-15.301333 34.077419 -24.758078
-17.384377 28.241928 -28.128512
-13.711905 33.011193 -27.213399
-18.206517 32.302374 -23.590655
-20.845310 16.423624 -33.728420
-19.213321 22.395362 -31.087807
-18.283241 17.789393 -34.372599
-10.317893 30.305460 -31.732706
-15.740514 26.953874 -30.342835
-12.036113 31.746082 -29.557617
-11.285330 27.018228 -33.143804
-14.769986 29.960529 -28.838924
-23.726736 28.760295 -21.322496
-20.268427 26.652365 -27.042794
-21.022557 30.522533 -22.442034
-19.270650 29.472025 -25.380481
-13.101328 20.537083 -35.585414
-16.669335 23.852116 -31.797784
-15.692780 19.163357 -34.994541
-12.214509 23.752332 -34.427986
-17.502456 20.844220 -33.118865
-14.030631 25.422277 -32.462702
-2.857189 1.765840 -42.677943
-8.512084 5.260757 -41.680301
-2.856721 4.727059 -42.465706
-5.740843 0.000000 -42.610027
-19.162945 11.843351 -36.761363
-13.987815 8.644945 -39.698515
-16.543265 13.188936 -37.283926
-2.872821 10.673818 -41.717350
-8.489517 8.208839 -41.142138
-2.860008 7.711890 -42.145113
-5.709838 12.487381 -40.823077
-5.704244 6.487283 -41.925844
-11.723393 -3.598503 -42.415635
-11.462425 3.518399 -41.471442
-8.704313 -1.792009 -42.522971
-8.631139 1.776944 -42.165495
-11.274277 15.818047 -38.276573
-11.309293 9.952268 -40.075754
-13.905835 14.519888 -37.789974
-8.528896 14.213191 -39.667263
-13.961402 11.592507 -38.801957
-8.530139 11.206064 -40.463986
-34.423219 21.274719 -16.761947
-31.658337 19.565928 -22.806366
-35.653872 18.964767 -18.452510
-31.774330 23.205020 -17.908896
-23.914361 14.779888 -32.916114
-28.119113 17.378568 -28.232491
-26.533559 13.369357 -32.186514
-23.062635 17.799007 -31.579363
-37.996338 13.988947 -21.928477
-32.596077 17.087823 -24.450931
-36.854501 16.526851 -20.181889
-36.256759 12.863329 -25.014027
-34.223419 18.086184 -21.539400
-26.505915 26.894199 -20.157056
-28.878695 21.410276 -23.824414
-29.126982 25.083340 -19.045039
-24.913323 26.006090 -23.145188
-30.419123 22.366001 -20.951333
-31.991715 10.402110 -30.552820
-30.711696 15.931862 -27.281537
-29.234365 11.904482 -31.398896
-34.237039 11.657572 -27.909414
-28.710640 14.704285 -29.827256
-33.434804 14.450780 -26.183552
-21.265822 23.663672 -28.683851
-27.061771 20.282651 -26.671068
-22.176613 20.773924 -30.161544
-23.151293 24.919894 -26.012950
-25.152456 19.097517 -29.207241
-26.030933 23.167298 -24.937122
-25.738045 -11.753457 -41.645032
-24.797003 -3.712100 -40.122394
-28.679218 -10.022229 -40.719177
-21.915785 -9.563439 -41.902301
-22.315741 10.190638 -36.107627
-23.637804 3.538568 -38.246770
-25.021153 8.743883 -35.525402
-19.770455 8.627277 -37.800496
-34.090111 -6.232961 -38.001087
-27.306965 -1.933503 -38.861121
-31.494530 -8.167822 -39.497157
-33.007745 -2.011466 -36.765587
-28.008913 -5.839636 -39.829067
-15.024583 -5.551579 -42.275574
-21.275330 -1.892780 -40.549370
-18.342498 -7.492991 -42.109822
-14.834488 -1.833644 -41.804091
-21.634667 -5.621552 -41.278119
-30.713608 5.615609 -34.237217
-26.552483 1.880081 -37.787401
-27.828611 7.217099 -34.899744
-31.872894 1.942309 -35.501536
-25.800130 5.379123 -36.688147
-29.661882 0.000000 -37.311920
-14.383985 5.314878 -40.473083
-20.822571 1.852500 -39.686441
-17.104198 6.987140 -39.266993
-14.619026 1.807011 -41.196913
-20.327314 5.281850 -38.783739
-17.897038 0.000000 -40.889376
-24.868380 35.612555 1.766718
-28.145899 31.939038 5.195495
-24.081728 36.092971 4.647128
-26.628625 33.903895 0.000000
-34.088648 24.067687 11.874905
-31.199183 28.115397 8.543029
-22.179541 36.526432 10.435392
-27.252446 32.200062 8.049390
-23.182130 36.399021 7.558851
-25.709549 34.148725 6.370759
-29.989201 30.346504 -3.448822
-29.989201 30.346504 3.448822
-28.343332 32.138978 -1.743019
-28.343332 32.138978 1.743019
-44.477658 3.401465 26.189460
-42.081871 9.526462 22.369242
-36.856298 19.702444 15.252781
-39.523307 14.903182 18.734238
-17.089310 35.095507 21.690216
-22.598043 31.369156 19.387205
-18.496380 35.738636 19.009854
-32.905308 23.906510 14.775036
-27.798343 27.686709 17.111327
-31.583142 26.036158 13.118733
-21.034234 36.446849 13.418478
-23.889769 31.847980 16.695649
-19.819456 36.192655 16.230056
-23.690500 34.338364 12.182713
-21.252703 33.767893 17.845450
-28.784473 30.140088 9.800054
-26.543223 29.880553 15.500702
-30.204044 28.121882 11.451470
-26.275762 32.233005 10.975206
-29.064180 27.976131 14.328102
-25.148540 32.113157 13.879554
-36.322368 22.448458 -10.251244
-37.289434 23.046137 -3.449996
-34.798820 24.509408 -8.565049
-36.322368 22.448458 10.251244
-37.289434 23.046137 3.449996
-34.798820 24.509408 8.565049
-31.672338 28.412700 -5.194916
-35.520984 24.959915 -1.767317
-33.240918 26.505886 -6.874062
-31.869861 28.612415 -1.743618
-35.279419 24.809473 -5.172579
-31.672338 28.412700 5.194916
-35.520984 24.959915 1.767317
-33.240918 26.505886 6.874062
-31.869861 28.612415 1.743618
-35.279419 24.809473 5.172579
-33.723404 26.809117 0.000000
-42.100627 -60.289850 2.990945
-49.850688 -56.568917 9.202016
-39.469326 -59.155441 7.616522
-47.543145 -60.532521 0.000000
-53.105225 -37.494004 18.499399
-52.618292 -47.417401 14.408057
-33.865909 -55.772157 15.933786
-45.910096 -54.244963 13.560188
-36.648576 -57.543128 11.949770
-43.107996 -57.258223 10.682049
-55.662401 -56.325584 -6.401294
-55.662401 -56.325584 6.401294
-52.783953 -59.852605 -3.246034
-52.783953 -59.852605 3.246034
-48.678686 -3.722742 28.663122
-52.520802 -11.889620 27.918210
-53.044223 -28.356099 21.952067
-52.816821 -19.915810 25.035428
-23.576386 -48.417709 29.923790
-33.059967 -45.891729 28.362649
-25.985645 -50.209368 26.707028
-50.070014 -36.377088 22.482277
-42.234219 -42.064612 25.997360
-49.667988 -40.944741 20.630660
-31.082235 -53.857416 19.828451
-35.859521 -47.805120 25.060852
-28.494826 -52.034900 23.334275
-36.637659 -53.104716 18.840720
-30.928480 -49.141495 25.969998
-47.835142 -50.087955 16.286105
-40.884885 -46.025418 23.875941
-48.981317 -45.604715 18.570628
-42.338692 -51.937725 17.684583
-45.500355 -43.797000 22.430832
-38.988802 -49.786329 21.518036
-55.777808 -34.472581 -15.742143
-59.880171 -37.007981 -5.540078
-56.021855 -39.457158 -13.788684
-55.777808 -34.472581 15.742143
-59.880171 -37.007981 5.540078
-56.021855 -39.457158 13.788684
-56.287090 -50.494164 -9.232242
-60.284973 -42.361096 -2.999429
-56.226454 -44.834259 -11.627361
-59.756211 -53.648478 -3.269296
-58.619766 -41.223057 -8.594681
-56.287090 -50.494164 9.232242
-60.284973 -42.361096 2.999429
-56.226454 -44.834259 11.627361
-59.756211 -53.648478 3.269296
-58.619766 -41.223057 8.594681
-60.532521 -48.121578 0.000000
-3.077646 -23.696224 40.243386
-9.471667 -22.240576 41.839820
-5.150375 -26.689587 40.001552
-3.021446 -20.445297 40.991435
-22.798452 -17.649576 42.647832
-16.102071 -20.241318 42.702767
-9.859147 -33.379653 39.439649
-11.924265 -25.344013 41.737851
-7.413021 -29.915653 39.735485
-8.505610 -26.085732 40.958060
-2.936442 -14.084872 42.070765
-9.263002 -18.739459 42.275187
-2.977648 -17.224742 41.600519
-6.129312 -19.649521 41.721637
-44.165519 -2.191026 30.840946
-40.316647 -6.558273 35.528568
-47.132825 -6.068558 31.447671
-29.297749 -14.455398 41.496329
-35.258877 -10.713618 39.126182
-50.387453 -14.395406 30.596214
-42.855081 -10.712938 36.270296
-50.291439 -10.443838 32.030057
-45.177143 -8.428212 34.012514
-20.788736 -46.298348 33.636881
-24.229937 -39.362938 39.204861
-18.490709 -44.516090 36.697677
-25.415151 -45.092080 32.931069
-26.340748 -20.753375 42.620226
-26.384665 -30.754397 42.691284
-22.766284 -22.151345 42.800747
-12.713416 -37.341529 39.100141
-21.482896 -36.787062 41.412369
-15.765071 -41.581465 38.714983
-13.816682 -33.078544 40.578114
-20.261625 -41.100175 39.561546
-34.583663 -41.920487 31.079286
-28.634340 -37.653286 38.204867
-30.057516 -43.640339 32.087048
-27.109764 -41.460961 35.705016
-15.589331 -24.437171 42.343251
-22.157695 -31.705400 42.267170
-19.147323 -23.381899 42.698094
-14.776588 -28.734550 41.649498
-22.562888 -26.870847 42.694423
-17.955265 -32.533373 41.543139
-2.865090 -1.770723 42.795960
-8.728089 -5.394255 42.737990
-2.878013 -4.762291 42.782213
-22.094393 -13.655086 42.384927
-15.013834 -9.279060 42.610435
-18.953801 -15.110710 42.716605
-2.922146 -10.857082 42.433612
-8.832118 -8.540112 42.802458
-2.895074 -7.806443 42.661836
-5.945927 -13.003706 42.511021
-5.823072 -6.622424 42.799224
-12.563331 -17.626616 42.652955
-12.075443 -10.626486 42.790692
-15.749456 -16.444920 42.800131
-9.156219 -15.258609 42.584897
-15.386678 -12.775950 42.763128
-9.013364 -11.840877 42.756235
-50.328284 -31.104590 24.506716
-44.738320 -27.649803 32.229062
-50.428793 -26.823743 26.099208
-47.074304 -34.378701 26.532387
-30.515440 -18.859579 42.001946
-39.199566 -24.226664 39.357621
-33.896349 -17.079215 41.117941
-31.044430 -23.959102 42.508730
-50.436952 -18.569154 29.108214
-45.058156 -23.620812 33.798971
-50.460331 -22.628183 27.632577
-47.955806 -17.013968 33.085357
-47.743660 -25.231278 30.048716
-39.176821 -39.750720 29.792949
-41.228978 -30.566610 34.013180
-43.295712 -37.285052 28.309439
-36.048004 -37.629170 33.489624
-44.109555 -32.432044 30.380690
-40.092513 -13.036086 38.289266
-42.270730 -21.928175 37.549554
-37.125141 -15.117674 39.873910
-45.365679 -15.446829 36.981280
-39.101390 -20.025955 40.622123
-45.227931 -19.547861 35.419017
-30.088655 -33.481333 40.584301
-38.243669 -28.663422 37.691527
-31.354209 -29.371029 42.643633
-33.012501 -35.534431 37.093070
-35.409307 -26.885242 41.117582
-37.259508 -33.160629 35.693876
-2.961997 22.805796 38.731169
-8.540448 20.053967 37.726287
-4.802626 24.887526 37.300677
-2.924448 19.788941 39.675484
-19.003590 14.711758 35.548990
-13.828794 17.383665 36.674026
-8.456463 28.630653 33.828479
