-10.287908 3.099388 -5.174416
-6.551447 7.670568 -4.740672
-17.915178 -18.128626 -4.147670
-14.857181 -4.475950 -7.472582
-13.020151 -15.244258 -9.421470
-4.061841 -6.781228 -13.482612
-11.130095 -2.546467 -10.999048
-7.701872 -10.643725 -12.461890
-3.872218 -2.393162 -14.009816
-13.294180 -8.216255 -11.354585
-3.460687 5.777604 -11.487182
-9.241900 2.114465 -9.133085
-5.217022 7.209748 -8.441320
-3.647350 2.254186 -13.196238
-8.086950 4.998010 -6.907080
-7.611197 0.000000 -12.315176
-7.342106 7.429583 1.699823
-10.287908 3.099388 5.174416
-6.551447 7.670568 4.740672
-9.004787 5.565264 0.000000
-17.915178 -18.128626 4.147670
-14.857181 -4.475950 7.472582
-13.020151 -15.244258 9.421470
-21.590508 -13.343668 0.000000
-4.061841 -6.781228 13.482612
-11.130095 -2.546467 10.999048
-7.701872 -10.643725 12.461890
-3.872218 -2.393162 14.009816
-13.294180 -8.216255 11.354585
-3.460687 5.777604 11.487182
-9.241900 2.114465 9.133085
-5.217022 7.209748 8.441320
-3.647350 2.254186 13.196238
-8.086950 4.998010 6.907080
-7.611197 0.000000 12.315176
-13.059419 0.000000 -3.709907
-13.059419 0.000000 3.709907
-10.976072 3.033712 -1.874937
-16.566130 -4.578766 -2.829833
-10.976072 3.033712 1.874937
-16.566130 -4.578766 2.829833
-4.634476 10.513675 0.000000
-1.850449 13.285445 0.000000
8.825432 20.021190 0.000000
2.331051 16.735962 0.000000
-8.825432 -20.021190 0.000000
-2.331051 -16.735962 0.000000
4.634476 -10.513675 0.000000
1.850449 -13.285445 0.000000
-11.231944 -20.053680 3.041925
-7.467447 -16.803243 7.638188
-7.448138 -19.217741 2.737322
-1.210426 -9.190077 11.700920
-4.008733 -12.827542 10.260399
-1.316432 -15.809655 2.130032
-4.262130 -15.910989 6.896272
-4.008712 -17.599680 2.418381
-5.816892 -17.691407 5.099072
5.394267 -9.631005 1.460919
4.443741 -9.999302 4.545346
4.213939 -10.872837 1.548697
1.128902 -8.571106 10.912839
3.055779 -9.778183 7.821300
0.000000 -10.183945 10.305280
1.149238 -13.801742 1.859507
3.025822 -11.295716 4.895882
2.797425 -12.281699 1.687634
0.000000 -14.328188 3.960214
3.668161 -11.156288 3.215500
-2.556824 -13.732182 8.486956
2.089202 -11.220682 6.934763
-1.242090 -11.943086 9.494403
-1.294819 -14.359763 6.285184
1.131193 -10.876775 8.646717
1.149197 -12.744786 5.578317
-5.394267 9.631005 1.460919
-4.443741 9.999302 4.545346
-4.213939 10.872837 1.548697
-1.128902 8.571106 10.912839
-3.055779 9.778183 7.821300
-1.149238 13.801742 1.859507
-3.025822 11.295716 4.895882
-2.797425 12.281699 1.687634
-3.668161 11.156288 3.215500
11.231944 20.053680 3.041925
7.467447 16.803243 7.638188
7.448138 19.217741 2.737322
1.210426 9.190077 11.700920
4.008733 12.827542 10.260399
0.000000 10.183945 10.305280
1.316432 15.809655 2.130032
4.262130 15.910989 6.896272
4.008712 17.599680 2.418381
0.000000 14.328188 3.960214
5.816892 17.691407 5.099072
-2.089202 11.220682 6.934763
2.556824 13.732182 8.486956
-1.131193 10.876775 8.646717
-1.149197 12.744786 5.578317
1.242090 11.943086 9.494403
1.294819 14.359763 6.285184
0.000000 -5.744504 13.031861
0.000000 -1.952244 14.016286
0.000000 5.744504 13.031861
0.000000 1.952244 14.016286
-11.231944 -20.053680 -3.041925
-7.467447 -16.803243 -7.638188
-7.448138 -19.217741 -2.737322
-1.210426 -9.190077 -11.700920
-4.008733 -12.827542 -10.260399
-1.316432 -15.809655 -2.130032
-4.262130 -15.910989 -6.896272
-4.008712 -17.599680 -2.418381
-5.816892 -17.691407 -5.099072
5.394267 -9.631005 -1.460919
4.443741 -9.999302 -4.545346
4.213939 -10.872837 -1.548697
1.128902 -8.571106 -10.912839
3.055779 -9.778183 -7.821300
0.000000 -10.183945 -10.305280
1.149238 -13.801742 -1.859507
3.025822 -11.295716 -4.895882
2.797425 -12.281699 -1.687634
0.000000 -14.328188 -3.960214
3.668161 -11.156288 -3.215500
-2.556824 -13.732182 -8.486956
2.089202 -11.220682 -6.934763
-1.242090 -11.943086 -9.494403
-1.294819 -14.359763 -6.285184
1.131193 -10.876775 -8.646717
1.149197 -12.744786 -5.578317
-5.394267 9.631005 -1.460919
-4.443741 9.999302 -4.545346
-4.213939 10.872837 -1.548697
-1.128902 8.571106 -10.912839
-3.055779 9.778183 -7.821300
-1.149238 13.801742 -1.859507
-3.025822 11.295716 -4.895882
-2.797425 12.281699 -1.687634
-3.668161 11.156288 -3.215500
11.231944 20.053680 -3.041925
7.467447 16.803243 -7.638188
7.448138 19.217741 -2.737322
1.210426 9.190077 -11.700920
4.008733 12.827542 -10.260399
0.000000 10.183945 -10.305280
1.316432 15.809655 -2.130032
4.262130 15.910989 -6.896272
4.008712 17.599680 -2.418381
0.000000 14.328188 -3.960214
5.816892 17.691407 -5.099072
-2.089202 11.220682 -6.934763
2.556824 13.732182 -8.486956
-1.131193 10.876775 -8.646717
-1.149197 12.744786 -5.578317
1.242090 11.943086 -9.494403
1.294819 14.359763 -6.285184
0.000000 -5.744504 -13.031861
0.000000 -1.952244 -14.016286
0.000000 5.744504 -13.031861
0.000000 1.952244 -14.016286
15.747143 20.049457 -2.074058
18.774376 15.017108 -5.867178
13.751832 19.081571 -5.128133
13.268812 2.012735 -7.431781
16.596103 7.544030 -7.375393
9.251725 15.445720 -9.545980
16.280446 13.848975 -8.559137
11.464049 17.401962 -7.688721
15.546114 16.864363 -7.107873
6.575139 -8.371549 -0.866012
8.078283 -6.461597 -2.524543
6.215151 -8.623931 -2.317664
11.069441 -1.679114 -6.199926
9.535456 -4.334497 -4.237605
5.274564 -8.805865 -5.442324
7.710236 -6.558719 -4.053511
5.781725 -8.776424 -3.877693
6.994572 -7.587683 -3.198003
1.800535 -6.648260 -11.869903
5.013769 -4.901693 -11.029785
2.829547 -7.587840 -10.528627
1.818458 -4.947948 -12.766731
10.563298 -1.092743 -8.296572
7.887654 -3.081703 -9.861138
9.911078 -2.663582 -7.142781
4.538497 -8.632735 -7.343443
5.863271 -5.682535 -9.486971
3.773235 -8.252700 -8.952496
5.984066 -7.536715 -6.577125
4.434803 -6.612387 -10.037336
1.873415 -1.157834 -13.904976
5.214222 -3.222566 -12.030185
1.850035 -3.066620 -13.463562
3.583038 -4.087438 -12.431472
8.526620 -5.269741 -5.107301
7.427769 -4.590614 -8.731866
9.208270 -4.068496 -6.066216
7.325979 -6.393221 -5.816745
8.674916 -3.656242 -7.996817
6.714933 -6.109448 -7.694628
1.964800 7.254788 -12.952807
6.217816 6.078825 -13.678566
3.364807 9.023217 -12.520307
1.938503 5.274586 -13.609525
11.711351 1.211505 -9.198270
9.983713 3.900632 -12.481630
13.078242 3.514751 -9.425313
10.189947 0.000000 -10.069970
6.832452 12.996097 -11.055140
8.187943 7.935550 -13.248370
5.018994 10.977386 -11.908224
10.296833 12.968489 -11.317315
5.784921 8.625442 -13.093071
1.901123 1.174959 -14.110632
5.980530 3.696171 -13.798202
1.924251 3.189641 -14.003667
3.803959 0.000000 -13.762852
4.008044 4.572274 -13.906045
15.767292 9.744722 -9.444341
10.749831 6.643761 -12.637184
14.544492 6.426203 -9.581608
13.656210 11.917474 -10.842876
12.280713 5.175988 -11.320758
10.827136 9.850853 -12.406794
7.073523 -2.131006 -11.445201
8.043571 2.423247 -13.014772
8.614145 -1.126932 -10.835802
5.619905 -1.157764 -12.839800
9.350525 1.223267 -11.762101
5.902594 1.216001 -13.485659
15.747143 20.049457 2.074058
18.774376 15.017108 5.867178
13.751832 19.081571 5.128133
18.878646 19.103573 0.000000
13.268812 2.012735 7.431781
16.596103 7.544030 7.375393
9.251725 15.445720 9.545980
16.280446 13.848975 8.559137
11.464049 17.401962 7.688721
15.546114 16.864363 7.107873
20.418712 12.619458 -3.801802
20.418712 12.619458 3.801802
20.816702 16.548667 -2.164953
20.816702 16.548667 2.164953
6.575139 -8.371549 0.866012
8.078283 -6.461597 2.524543
6.215151 -8.623931 2.317664
7.384793 -7.472778 0.000000
11.069441 -1.679114 6.199926
9.535456 -4.334497 4.237605
5.274564 -8.805865 5.442324
7.710236 -6.558719 4.053511
5.781725 -8.776424 3.877693
6.994572 -7.587683 3.198003
8.956134 -5.535195 -1.667561
8.956134 -5.535195 1.667561
8.190263 -6.511019 -0.851794
8.190263 -6.511019 0.851794
1.800535 -6.648260 11.869903
5.013769 -4.901693 11.029785
2.829547 -7.587840 10.528627
1.818458 -4.947948 12.766731
10.563298 -1.092743 8.296572
7.887654 -3.081703 9.861138
9.911078 -2.663582 7.142781
4.538497 -8.632735 7.343443
5.863271 -5.682535 9.486971
3.773235 -8.252700 8.952496
5.984066 -7.536715 6.577125
4.434803 -6.612387 10.037336
1.873415 -1.157834 13.904976
5.214222 -3.222566 12.030185
1.850035 -3.066620 13.463562
3.583038 -4.087438 12.431472
8.526620 -5.269741 5.107301
7.427769 -4.590614 8.731866
9.208270 -4.068496 6.066216
7.325979 -6.393221 5.816745
8.674916 -3.656242 7.996817
6.714933 -6.109448 7.694628
1.964800 7.254788 12.952807
6.217816 6.078825 13.678566
3.364807 9.023217 12.520307
1.938503 5.274586 13.609525
11.711351 1.211505 9.198270
9.983713 3.900632 12.481630
13.078242 3.514751 9.425313
10.189947 0.000000 10.069970
6.832452 12.996097 11.055140
8.187943 7.935550 13.248370
5.018994 10.977386 11.908224
10.296833 12.968489 11.317315
5.784921 8.625442 13.093071
1.901123 1.174959 14.110632
5.980530 3.696171 13.798202
1.924251 3.189641 14.003667
3.803959 0.000000 13.762852
4.008044 4.572274 13.906045
15.767292 9.744722 9.444341
10.749831 6.643761 12.637184
14.544492 6.426203 9.581608
13.656210 11.917474 10.842876
12.280713 5.175988 11.320758
10.827136 9.850853 12.406794
7.073523 -2.131006 11.445201
8.043571 2.423247 13.014772
8.614145 -1.126932 10.835802
5.619905 -1.157764 12.839800
9.350525 1.223267 11.762101
5.902594 1.216001 13.485659
12.573130 0.000000 -5.542294
13.348229 0.000000 -1.859194
14.063612 2.003182 -5.450574
11.610648 -1.653788 -4.499890
12.573130 0.000000 5.542294
13.348229 0.000000 1.859194
14.063612 2.003182 5.450574
11.610648 -1.653788 4.499890
18.014183 7.807856 -4.825520
14.921707 2.010399 -1.242495
15.905612 4.584365 -5.229727
19.265469 8.432382 -1.737166
14.633625 2.010814 -3.333128
9.877536 -4.281203 -2.645929
12.146890 -1.636549 -1.011443
10.699610 -3.083875 -3.518006
9.972658 -4.364973 -0.899234
11.968847 -1.644645 -2.726166
18.014183 7.807856 4.825520
14.921707 2.010399 1.242495
15.905612 4.584365 5.229727
19.265469 8.432382 1.737166
14.633625 2.010814 3.333128
16.912624 4.674534 0.000000
9.877536 -4.281203 2.645929
12.146890 -1.636549 1.011443
10.699610 -3.083875 3.518006
9.972658 -4.364973 0.899234
11.968847 -1.644645 2.726166
11.051532 -3.054568 0.000000
-6.575139 8.371549 -0.866012
-8.078283 6.461597 -2.524543
-6.215151 8.623931 -2.317664
-11.069441 1.679114 -6.199926
-9.535456 4.334497 -4.237605
-5.274564 8.805865 -5.442324
-7.710236 6.558719 -4.053511
-5.781725 8.776424 -3.877693
-6.994572 7.587683 -3.198003
-15.747143 -20.049457 -2.074058
-18.774376 -15.017108 -5.867178
-13.751832 -19.081571 -5.128133
-13.268812 -2.012735 -7.431781
-16.596103 -7.544030 -7.375393
-9.251725 -15.445720 -9.545980
-16.280446 -13.848975 -8.559137
-11.464049 -17.401962 -7.688721
-15.546114 -16.864363 -7.107873
-1.964800 -7.254788 -12.952807
-6.217816 -6.078825 -13.678566
-3.364807 -9.023217 -12.520307
-1.938503 -5.274586 -13.609525
-11.711351 -1.211505 -9.198270
-9.983713 -3.900632 -12.481630
-13.078242 -3.514751 -9.425313
-6.832452 -12.996097 -11.055140
-8.187943 -7.935550 -13.248370
-5.018994 -10.977386 -11.908224
-10.296833 -12.968489 -11.317315
-5.784921 -8.625442 -13.093071
-1.901123 -1.174959 -14.110632
-5.980530 -3.696171 -13.798202
-1.924251 -3.189641 -14.003667
-4.008044 -4.572274 -13.906045
-15.767292 -9.744722 -9.444341
-10.749831 -6.643761 -12.637184
-14.544492 -6.426203 -9.581608
-13.656210 -11.917474 -10.842876
-12.280713 -5.175988 -11.320758
-10.827136 -9.850853 -12.406794
-1.800535 6.648260 -11.869903
-5.013769 4.901693 -11.029785
-2.829547 7.587840 -10.528627
-1.818458 4.947948 -12.766731
-10.563298 1.092743 -8.296572
-7.887654 3.081703 -9.861138
-9.911078 2.663582 -7.142781
-10.189947 0.000000 -10.069970
-4.538497 8.632735 -7.343443
-5.863271 5.682535 -9.486971
-3.773235 8.252700 -8.952496
-5.984066 7.536715 -6.577125
-4.434803 6.612387 -10.037336
-1.873415 1.157834 -13.904976
-5.214222 3.222566 -12.030185
-1.850035 3.066620 -13.463562
-3.803959 0.000000 -13.762852
-3.583038 4.087438 -12.431472
-8.526620 5.269741 -5.107301
-7.427769 4.590614 -8.731866
-9.208270 4.068496 -6.066216
-7.325979 6.393221 -5.816745
-8.674916 3.656242 -7.996817
-6.714933 6.109448 -7.694628
-8.043571 -2.423247 -13.014772
-7.073523 2.131006 -11.445201
-9.350525 -1.223267 -11.762101
-5.902594 -1.216001 -13.485659
-8.614145 1.126932 -10.835802
-5.619905 1.157764 -12.839800
-6.575139 8.371549 0.866012
-8.078283 6.461597 2.524543
-6.215151 8.623931 2.317664
-7.384793 7.472778 0.000000
-11.069441 1.679114 6.199926
-9.535456 4.334497 4.237605
-5.274564 8.805865 5.442324
-7.710236 6.558719 4.053511
-5.781725 8.776424 3.877693
-6.994572 7.587683 3.198003
-8.956134 5.535195 -1.667561
-8.956134 5.535195 1.667561
-8.190263 6.511019 -0.851794
-8.190263 6.511019 0.851794
-15.747143 -20.049457 2.074058
-18.774376 -15.017108 5.867178
-13.751832 -19.081571 5.128133
-18.878646 -19.103573 0.000000
-13.268812 -2.012735 7.431781
-16.596103 -7.544030 7.375393
-9.251725 -15.445720 9.545980
-16.280446 -13.848975 8.559137
-11.464049 -17.401962 7.688721
-15.546114 -16.864363 7.107873
-20.418712 -12.619458 -3.801802
-20.418712 -12.619458 3.801802
-20.816702 -16.548667 -2.164953
-20.816702 -16.548667 2.164953
-1.964800 -7.254788 12.952807
-6.217816 -6.078825 13.678566
-3.364807 -9.023217 12.520307
-1.938503 -5.274586 13.609525
-11.711351 -1.211505 9.198270
-9.983713 -3.900632 12.481630
-13.078242 -3.514751 9.425313
-6.832452 -12.996097 11.055140
-8.187943 -7.935550 13.248370
-5.018994 -10.977386 11.908224
-10.296833 -12.968489 11.317315
-5.784921 -8.625442 13.093071
-1.901123 -1.174959 14.110632
-5.980530 -3.696171 13.798202
-1.924251 -3.189641 14.003667
-4.008044 -4.572274 13.906045
-15.767292 -9.744722 9.444341
-10.749831 -6.643761 12.637184
-14.544492 -6.426203 9.581608
-13.656210 -11.917474 10.842876
-12.280713 -5.175988 11.320758
-10.827136 -9.850853 12.406794
-1.800535 6.648260 11.869903
-5.013769 4.901693 11.029785
-2.829547 7.587840 10.528627
-1.818458 4.947948 12.766731
-10.563298 1.092743 8.296572
-7.887654 3.081703 9.861138
-9.911078 2.663582 7.142781
-10.189947 0.000000 10.069970
-4.538497 8.632735 7.343443
-5.863271 5.682535 9.486971
-3.773235 8.252700 8.952496
-5.984066 7.536715 6.577125
-4.434803 6.612387 10.037336
-1.873415 1.157834 13.904976
-5.214222 3.222566 12.030185
-1.850035 3.066620 13.463562
-3.803959 0.000000 13.762852
-3.583038 4.087438 12.431472
-8.526620 5.269741 5.107301
-7.427769 4.590614 8.731866
-9.208270 4.068496 6.066216
-7.325979 6.393221 5.816745
-8.674916 3.656242 7.996817
-6.714933 6.109448 7.694628
-8.043571 -2.423247 13.014772
-7.073523 2.131006 11.445201
-9.350525 -1.223267 11.762101
-5.902594 -1.216001 13.485659
-8.614145 1.126932 10.835802
-5.619905 1.157764 12.839800
-12.573130 0.000000 -5.542294
-13.348229 0.000000 -1.859194
-11.610648 1.653788 -4.499890
-14.063612 -2.003182 -5.450574
-12.573130 0.000000 5.542294
-13.348229 0.000000 1.859194
-11.610648 1.653788 4.499890
-14.063612 -2.003182 5.450574
-9.877536 4.281203 -2.645929
-12.146890 1.636549 -1.011443
-10.699610 3.083875 -3.518006
-9.972658 4.364973 -0.899234
-11.968847 1.644645 -2.726166
-18.014183 -7.807856 -4.825520
-14.921707 -2.010399 -1.242495
-15.905612 -4.584365 -5.229727
-19.265469 -8.432382 -1.737166
-14.633625 -2.010814 -3.333128
-9.877536 4.281203 2.645929
-12.146890 1.636549 1.011443
-10.699610 3.083875 3.518006
-9.972658 4.364973 0.899234
-11.968847 1.644645 2.726166
-11.051532 3.054568 0.000000
-18.014183 -7.807856 4.825520
-14.921707 -2.010399 1.242495
-15.905612 -4.584365 5.229727
-19.265469 -8.432382 1.737166
-14.633625 -2.010814 3.333128
-16.912624 -4.674534 0.000000
-5.209598 9.900648 0.000000
-4.020639 11.153448 0.000000
-0.976031 14.082622 0.000000
-2.640020 12.534240 0.000000
10.763853 20.456303 0.000000
6.982157 19.368841 0.000000
1.096125 15.815397 0.000000
3.720623 17.664709 0.000000
-10.763853 -20.456303 0.000000
-6.982157 -19.368841 0.000000
-1.096125 -15.815397 0.000000
-3.720623 -17.664709 0.000000
5.209598 -9.900648 0.000000
4.020639 -11.153448 0.000000
0.976031 -14.082622 0.000000
2.640020 -12.534240 0.000000
-12.054698 -20.472538 1.565654
-10.326820 -19.427208 4.397917
-10.088465 -20.226688 1.490893
-6.542951 -15.810163 8.451713
-8.418049 -17.759416 6.696601
-6.369135 -19.024268 1.327850
-8.464619 -19.095715 4.184101
-8.166457 -19.723305 1.411739
-9.303196 -19.753385 2.901963
-0.593121 -8.348790 11.955816
-1.856318 -10.056354 11.411619
-4.809680 -13.806888 9.748109
-3.251468 -11.874377 10.700691
-0.637657 -15.411309 1.031751
-2.030800 -16.089770 3.285904
-1.816161 -16.315551 1.097568
-4.979090 -15.454928 8.056337
-3.519970 -16.164079 5.695431
-5.809018 -16.421567 7.286420
-4.644095 -18.150894 1.249942
-3.380830 -16.944489 3.496428
-3.155691 -17.245701 1.170310
-5.649011 -18.467443 2.583003
-2.585129 -16.707106 2.273095
-7.546972 -18.262193 5.379087
-4.219735 -16.992012 4.795110
-6.675034 -17.372679 6.392743
-6.633940 -18.514508 3.980822
-5.025191 -16.820109 6.052074
-4.921654 -17.771605 3.746400
5.581950 -9.479847 0.724979
5.188753 -9.761280 2.209751
5.026892 -10.078578 0.742884
4.144154 -10.013792 5.353120
4.715922 -9.949102 3.751540
3.801976 -11.356301 0.792643
4.599749 -10.376781 2.273677
4.432802 -10.705930 0.766300
4.822471 -10.239505 1.504282
0.574426 -8.085633 11.578963
1.658097 -8.982517 10.193065
0.000000 -8.893937 11.323871
3.452290 -9.910302 6.996993
2.624073 -9.583128 8.635913
-1.217040 -10.582761 10.708848
1.122531 -9.760961 9.877257
-0.598383 -9.730335 11.033390
0.576158 -9.368947 10.623606
0.595145 -14.383843 0.962965
1.665398 -13.194737 2.694671
1.510522 -13.569827 0.912859
0.000000 -14.778200 1.991065
3.429652 -10.645526 5.549294
2.599666 -11.937946 4.206348
3.761852 -10.634415 4.718600
3.088492 -12.071005 0.831257
2.484309 -12.451185 2.569253
2.341338 -12.795299 0.868301
3.535616 -11.558445 1.616655
2.014607 -13.019946 1.771436
-1.295143 -15.265877 4.219385
1.139141 -13.427079 3.711153
-0.635652 -15.083515 3.087546
0.594545 -14.108101 2.887882
4.338654 -10.498693 3.092366
2.941763 -11.845881 3.342882
4.066132 -10.582658 3.894173
3.952726 -11.031571 2.371908
3.360404 -11.247805 4.047093
3.247202 -11.725323 2.471794
-4.036607 -14.302568 8.839473
-1.214002 -13.121597 8.109593
-3.285457 -13.348436 9.401534
-3.381971 -14.818140 7.750199
2.990825 -10.597137 6.549391
1.096716 -11.853902 7.326114
2.583292 -10.495622 7.392247
2.579221 -11.300882 5.910599
-1.886512 -11.501677 10.317953
-0.610599 -12.272316 8.623521
-2.565889 -12.407875 9.893882
-0.604660 -11.051979 9.922346
-1.880704 -12.827284 9.020504
-2.008847 -15.297478 5.436667
-0.626480 -13.421188 7.041791
-2.696087 -15.151724 6.599896
-0.632376 -14.417146 5.116030
-1.923872 -14.126669 7.404063
1.655346 -10.092303 9.053628
0.580909 -11.675576 8.204204
2.135809 -10.328138 8.235526
0.578715 -10.577758 9.496596
1.625760 -11.088447 7.797706
0.000000 -11.418929 9.077714
1.668102 -12.702688 4.514489
0.591868 -12.679690 6.652744
2.136555 -12.007216 5.230189
0.593928 -13.540595 4.804979
1.632143 -11.984549 6.281336
0.000000 -13.545386 5.928736
-5.581950 9.479847 0.724979
-5.188753 9.761280 2.209751
-5.026892 10.078578 0.742884
-4.144154 10.013792 5.353120
-4.715922 9.949102 3.751540
-3.801976 11.356301 0.792643
-4.599749 10.376781 2.273677
-4.432802 10.705930 0.766300
-4.822471 10.239505 1.504282
-0.574426 8.085633 11.578963
-1.658097 8.982517 10.193065
-3.452290 9.910302 6.996993
-2.624073 9.583128 8.635913
-0.595145 14.383843 0.962965
-1.665398 13.194737 2.694671
-1.510522 13.569827 0.912859
-3.429652 10.645526 5.549294
-2.599666 11.937946 4.206348
-3.761852 10.634415 4.718600
-3.088492 12.071005 0.831257
-2.484309 12.451185 2.569253
-2.341338 12.795299 0.868301
-3.535616 11.558445 1.616655
-2.014607 13.019946 1.771436
-4.338654 10.498693 3.092366
-2.941763 11.845881 3.342882
-4.066132 10.582658 3.894173
-3.952726 11.031571 2.371908
-3.360404 11.247805 4.047093
-3.247202 11.725323 2.471794
12.054698 20.472538 1.565654
10.326820 19.427208 4.397917
10.088465 20.226688 1.490893
6.542951 15.810163 8.451713
8.418049 17.759416 6.696601
6.369135 19.024268 1.327850
8.464619 19.095715 4.184101
8.166457 19.723305 1.411739
9.303196 19.753385 2.901963
0.593121 8.348790 11.955816
1.856318 10.056354 11.411619
0.000000 8.893937 11.323871
4.809680 13.806888 9.748109
3.251468 11.874377 10.700691
-1.122531 9.760961 9.877257
1.217040 10.582761 10.708848
-0.576158 9.368947 10.623606
0.598383 9.730335 11.033390
0.637657 15.411309 1.031751
2.030800 16.089770 3.285904
1.816161 16.315551 1.097568
0.000000 14.778200 1.991065
4.979090 15.454928 8.056337
3.519970 16.164079 5.695431
5.809018 16.421567 7.286420
4.644095 18.150894 1.249942
3.380830 16.944489 3.496428
3.155691 17.245701 1.170310
5.649011 18.467443 2.583003
2.585129 16.707106 2.273095
-1.139141 13.427079 3.711153
1.295143 15.265877 4.219385
-0.594545 14.108101 2.887882
0.635652 15.083515 3.087546
7.546972 18.262193 5.379087
4.219735 16.992012 4.795110
6.675034 17.372679 6.392743
6.633940 18.514508 3.980822
5.025191 16.820109 6.052074
4.921654 17.771605 3.746400
-2.990825 10.597137 6.549391
-1.096716 11.853902 7.326114
-2.583292 10.495622 7.392247
-2.579221 11.300882 5.910599
4.036607 14.302568 8.839473
1.214002 13.121597 8.109593
3.285457 13.348436 9.401534
3.381971 14.818140 7.750199
-1.655346 10.092303 9.053628
-0.580909 11.675576 8.204204
-2.135809 10.328138 8.235526
-0.578715 10.577758 9.496596
-1.625760 11.088447 7.797706
-1.668102 12.702688 4.514489
-0.591868 12.679690 6.652744
-2.136555 12.007216 5.230189
-0.593928 13.540595 4.804979
-1.632143 11.984549 6.281336
1.886512 11.501677 10.317953
0.610599 12.272316 8.623521
2.565889 12.407875 9.893882
0.604660 11.051979 9.922346
1.880704 12.827284 9.020504
0.000000 11.418929 9.077714
2.008847 15.297478 5.436667
0.626480 13.421188 7.041791
2.696087 15.151724 6.599896
0.632376 14.417146 5.116030
1.923872 14.126669 7.404063
0.000000 13.545386 5.928736
0.000000 -6.648907 12.636001
0.000000 -4.819157 13.368574
0.000000 -0.977885 14.109383
0.000000 -2.919563 13.861452
0.000000 6.648907 12.636001
0.000000 4.819157 13.368574
0.000000 0.977885 14.109383
0.000000 2.919563 13.861452
-12.054698 -20.472538 -1.565654
-10.326820 -19.427208 -4.397917
-10.088465 -20.226688 -1.490893
-6.542951 -15.810163 -8.451713
-8.418049 -17.759416 -6.696601
-6.369135 -19.024268 -1.327850
-8.464619 -19.095715 -4.184101
-8.166457 -19.723305 -1.411739
-9.303196 -19.753385 -2.901963
-0.593121 -8.348790 -11.955816
-1.856318 -10.056354 -11.411619
-4.809680 -13.806888 -9.748109
-3.251468 -11.874377 -10.700691
-0.637657 -15.411309 -1.031751
-2.030800 -16.089770 -3.285904
-1.816161 -16.315551 -1.097568
-4.979090 -15.454928 -8.056337
-3.519970 -16.164079 -5.695431
-5.809018 -16.421567 -7.286420
-4.644095 -18.150894 -1.249942
-3.380830 -16.944489 -3.496428
-3.155691 -17.245701 -1.170310
-5.649011 -18.467443 -2.583003
-2.585129 -16.707106 -2.273095
-7.546972 -18.262193 -5.379087
-4.219735 -16.992012 -4.795110
-6.675034 -17.372679 -6.392743
-6.633940 -18.514508 -3.980822
-5.025191 -16.820109 -6.052074
-4.921654 -17.771605 -3.746400
5.581950 -9.479847 -0.724979
5.188753 -9.761280 -2.209751
5.026892 -10.078578 -0.742884
4.144154 -10.013792 -5.353120
4.715922 -9.949102 -3.751540
3.801976 -11.356301 -0.792643
4.599749 -10.376781 -2.273677
4.432802 -10.705930 -0.766300
4.822471 -10.239505 -1.504282
0.574426 -8.085633 -11.578963
1.658097 -8.982517 -10.193065
0.000000 -8.893937 -11.323871
3.452290 -9.910302 -6.996993
2.624073 -9.583128 -8.635913
-1.217040 -10.582761 -10.708848
1.122531 -9.760961 -9.877257
-0.598383 -9.730335 -11.033390
0.576158 -9.368947 -10.623606
0.595145 -14.383843 -0.962965
1.665398 -13.194737 -2.694671
1.510522 -13.569827 -0.912859
0.000000 -14.778200 -1.991065
3.429652 -10.645526 -5.549294
2.599666 -11.937946 -4.206348
3.761852 -10.634415 -4.718600
3.088492 -12.071005 -0.831257
2.484309 -12.451185 -2.569253
2.341338 -12.795299 -0.868301
3.535616 -11.558445 -1.616655
2.014607 -13.019946 -1.771436
-1.295143 -15.265877 -4.219385
1.139141 -13.427079 -3.711153
-0.635652 -15.083515 -3.087546
0.594545 -14.108101 -2.887882
4.338654 -10.498693 -3.092366
2.941763 -11.845881 -3.342882
4.066132 -10.582658 -3.894173
3.952726 -11.031571 -2.371908
3.360404 -11.247805 -4.047093
3.247202 -11.725323 -2.471794
-4.036607 -14.302568 -8.839473
-1.214002 -13.121597 -8.109593
-3.285457 -13.348436 -9.401534
-3.381971 -14.818140 -7.750199
2.990825 -10.597137 -6.549391
1.096716 -11.853902 -7.326114
2.583292 -10.495622 -7.392247
2.579221 -11.300882 -5.910599
-1.886512 -11.501677 -10.317953
-0.610599 -12.272316 -8.623521
-2.565889 -12.407875 -9.893882
-0.604660 -11.051979 -9.922346
-1.880704 -12.827284 -9.020504
-2.008847 -15.297478 -5.436667
-0.626480 -13.421188 -7.041791
-2.696087 -15.151724 -6.599896
-0.632376 -14.417146 -5.116030
-1.923872 -14.126669 -7.404063
1.655346 -10.092303 -9.053628
0.580909 -11.675576 -8.204204
2.135809 -10.328138 -8.235526
0.578715 -10.577758 -9.496596
1.625760 -11.088447 -7.797706
0.000000 -11.418929 -9.077714
1.668102 -12.702688 -4.514489
0.591868 -12.679690 -6.652744
2.136555 -12.007216 -5.230189
0.593928 -13.540595 -4.804979
1.632143 -11.984549 -6.281336
0.000000 -13.545386 -5.928736
-5.581950 9.479847 -0.724979
-5.188753 9.761280 -2.209751
-5.026892 10.078578 -0.742884
-4.144154 10.013792 -5.353120
-4.715922 9.949102 -3.751540
-3.801976 11.356301 -0.792643
-4.599749 10.376781 -2.273677
-4.432802 10.705930 -0.766300
-4.822471 10.239505 -1.504282
-0.574426 8.085633 -11.578963
-1.658097 8.982517 -10.193065
-3.452290 9.910302 -6.996993
-2.624073 9.583128 -8.635913
-0.595145 14.383843 -0.962965
-1.665398 13.194737 -2.694671
-1.510522 13.569827 -0.912859
-3.429652 10.645526 -5.549294
-2.599666 11.937946 -4.206348
-3.761852 10.634415 -4.718600
-3.088492 12.071005 -0.831257
-2.484309 12.451185 -2.569253
-2.341338 12.795299 -0.868301
-3.535616 11.558445 -1.616655
-2.014607 13.019946 -1.771436
-4.338654 10.498693 -3.092366
-2.941763 11.845881 -3.342882
-4.066132 10.582658 -3.894173
-3.952726 11.031571 -2.371908
-3.360404 11.247805 -4.047093
-3.247202 11.725323 -2.471794
12.054698 20.472538 -1.565654
10.326820 19.427208 -4.397917
10.088465 20.226688 -1.490893
6.542951 15.810163 -8.451713
8.418049 17.759416 -6.696601
6.369135 19.024268 -1.327850
8.464619 19.095715 -4.184101
8.166457 19.723305 -1.411739
9.303196 19.753385 -2.901963
0.593121 8.348790 -11.955816
1.856318 10.056354 -11.411619
0.000000 8.893937 -11.323871
4.809680 13.806888 -9.748109
3.251468 11.874377 -10.700691
-1.122531 9.760961 -9.877257
1.217040 10.582761 -10.708848
-0.576158 9.368947 -10.623606
0.598383 9.730335 -11.033390
0.637657 15.411309 -1.031751
2.030800 16.089770 -3.285904
1.816161 16.315551 -1.097568
0.000000 14.778200 -1.991065
4.979090 15.454928 -8.056337
3.519970 16.164079 -5.695431
5.809018 16.421567 -7.286420
4.644095 18.150894 -1.249942
3.380830 16.944489 -3.496428
3.155691 17.245701 -1.170310
5.649011 18.467443 -2.583003
2.585129 16.707106 -2.273095
-1.139141 13.427079 -3.711153
1.295143 15.265877 -4.219385
-0.594545 14.108101 -2.887882
0.635652 15.083515 -3.087546
7.546972 18.262193 -5.379087
4.219735 16.992012 -4.795110
6.675034 17.372679 -6.392743
6.633940 18.514508 -3.980822
5.025191 16.820109 -6.052074
4.921654 17.771605 -3.746400
-2.990825 10.597137 -6.549391
-1.096716 11.853902 -7.326114
-2.583292 10.495622 -7.392247
-2.579221 11.300882 -5.910599
4.036607 14.302568 -8.839473
1.214002 13.121597 -8.109593
3.285457 13.348436 -9.401534
3.381971 14.818140 -7.750199
-1.655346 10.092303 -9.053628
-0.580909 11.675576 -8.204204
-2.135809 10.328138 -8.235526
-0.578715 10.577758 -9.496596
-1.625760 11.088447 -7.797706
-1.668102 12.702688 -4.514489
-0.591868 12.679690 -6.652744
-2.136555 12.007216 -5.230189
-0.593928 13.540595 -4.804979
-1.632143 11.984549 -6.281336
1.886512 11.501677 -10.317953
0.610599 12.272316 -8.623521
2.565889 12.407875 -9.893882
0.604660 11.051979 -9.922346
1.880704 12.827284 -9.020504
0.000000 11.418929 -9.077714
2.008847 15.297478 -5.436667
0.626480 13.421188 -7.041791
2.696087 15.151724 -6.599896
0.632376 14.417146 -5.116030
1.923872 14.126669 -7.404063
0.000000 13.545386 -5.928736
0.000000 -6.648907 -12.636001
0.000000 -4.819157 -13.368574
0.000000 -0.977885 -14.109383
0.000000 -2.919563 -13.861452
0.000000 6.648907 -12.636001
0.000000 4.819157 -13.368574
0.000000 0.977885 -14.109383
0.000000 2.919563 -13.861452
14.316281 20.501510 -1.017068
16.969374 19.256286 -3.132403
13.502714 20.237462 -2.605662
18.635530 13.157286 -6.491755
18.530137 16.698583 -5.073963
11.550982 19.022764 -5.434695
15.902981 18.790128 -4.697167
12.559606 19.720248 -4.095231
14.810150 19.671591 -3.669916
12.548676 0.959670 -7.388947
14.038138 3.177943 -7.462180
17.438816 9.322350 -7.216960
15.718018 5.926844 -7.450416
7.402706 15.202588 -9.395716
11.149972 15.477677 -9.565730
8.396424 16.223539 -8.629516
17.448812 12.676988 -7.834810
14.766141 14.706842 -9.089329
17.540061 14.459479 -7.285639
10.474963 18.150382 -6.682347
12.320492 16.424721 -8.610322
9.430757 17.221670 -7.722801
12.624851 18.299181 -6.492262
10.352827 16.449350 -8.693052
16.765593 17.555175 -5.708067
14.292990 16.090074 -8.346815
17.309311 16.116067 -6.562600
14.761585 18.108334 -6.165814
16.042764 15.442186 -7.908786
13.551995 17.305074 -7.479387
6.172841 -8.839766 -0.438536
6.963854 -7.902352 -1.285469
6.000607 -8.993530 -1.157956
8.441188 -5.959751 -2.940519
7.712720 -6.950380 -2.111914
5.609171 -9.237477 -2.639094
6.790219 -8.022967 -2.005586
5.812761 -9.126806 -1.895330
6.404170 -8.506342 -1.586936
11.470131 -0.877188 -6.753875
10.674921 -2.416580 -5.674412
9.167783 -4.900865 -3.794038
9.908374 -3.736183 -4.696617
4.572114 -9.389534 -5.803051
5.931484 -8.233706 -5.088710
4.866516 -9.403063 -5.001614
8.262158 -6.002660 -3.709848
7.142081 -7.113400 -4.396323
7.906799 -6.518119 -3.284258
5.380255 -9.322580 -3.432254
6.171131 -8.226871 -4.312768
5.136187 -9.379281 -4.205999
6.010353 -8.711749 -3.090792
5.542115 -8.805730 -4.653598
7.178955 -7.517051 -2.444170
6.786428 -7.639698 -3.963136
7.544557 -7.024462 -2.860421
6.609947 -8.108555 -2.760930
7.354621 -7.079292 -3.625692
6.403761 -8.177213 -3.534255
0.920365 -7.086316 -12.034717
2.645811 -6.212672 -11.687515
1.469629 -7.615717 -11.414208
0.921219 -6.233638 -12.498022
5.757843 -4.457473 -10.770887
4.248947 -5.341194 -11.268227
2.499336 -8.461885 -9.998119
3.149613 -6.694235 -11.024417
2.001406 -8.076784 -10.727993
2.331582 -7.150696 -11.227542
0.925539 -4.439422 -13.260318
2.667108 -5.395676 -12.172347
0.923992 -5.344995 -12.909022
1.813333 -5.813235 -12.343184
11.218178 -0.556527 -7.833696
9.905493 -1.611318 -8.729099
10.859151 -1.398163 -7.245375
7.192783 -3.548892 -10.187612
8.570023 -2.604052 -9.510010
10.130183 -2.894135 -6.151239
9.619286 -2.404635 -8.141260
10.492497 -2.178938 -6.682555
10.239406 -1.910256 -7.708942
4.183233 -9.316429 -6.768613
4.882478 -7.931869 -7.900015
3.821140 -9.199335 -7.583645
4.930633 -8.748029 -6.388748
6.176587 -4.866415 -9.993927
5.543602 -6.461714 -8.969737
5.467074 -5.319403 -10.278130
2.990073 -8.782368 -9.195976
4.513572 -7.728988 -8.700769
3.420874 -9.022791 -8.400791
3.322660 -7.954787 -9.758297
4.175700 -8.470297 -8.153202
6.289542 -7.623850 -5.652220
5.628670 -7.401530 -7.509954
5.634306 -8.180417 -6.014743
5.284599 -8.082127 -6.960101
3.971498 -6.225551 -10.787258
4.849645 -6.939348 -9.250998
4.728470 -5.774207 -10.544381
3.650903 -7.099545 -10.290485
5.162782 -6.148518 -9.769228
4.108959 -7.445075 -9.506908
0.942734 -0.582642 -14.081662
2.779430 -1.717782 -13.609766
0.939818 -1.555130 -13.970570
5.889634 -3.639994 -11.298418
4.463310 -2.758477 -12.667224
5.122784 -4.084084 -11.545334
0.934090 -3.470563 -13.564285
2.753008 -2.661988 -13.341704
0.936267 -2.524604 -13.796839
1.838379 -4.020523 -13.143680
1.865750 -2.121867 -13.713148
3.528565 -4.950651 -11.979604
3.623035 -3.188299 -12.838631
4.332144 -4.523442 -11.772871
2.711328 -4.518360 -12.610185
4.405168 -3.657723 -12.242978
2.741239 -3.601171 -13.003473
8.682645 -5.366170 -4.227903
8.330252 -5.148379 -6.001035
9.036026 -4.806382 -4.676557
8.118687 -5.929136 -4.575918
6.994936 -4.323109 -9.627944
7.788962 -4.813843 -7.820368
7.663455 -3.861354 -9.296148
6.660247 -5.140167 -9.119789
9.751356 -3.590114 -5.627710
8.654775 -4.537088 -6.492110
9.394302 -4.212735 -5.144413
9.558653 -3.391260 -6.594644
8.866415 -4.685669 -5.580309
6.941569 -7.043256 -5.278882
7.707121 -5.713956 -6.358239
7.536697 -6.490392 -4.927963
6.671287 -6.963909 -6.197816
7.934251 -5.833747 -5.464758
8.962267 -2.914082 -8.559169
8.382649 -4.348546 -7.446400
8.322393 -3.388949 -8.938588
9.298210 -3.166003 -7.579733
8.059060 -4.127484 -8.372493
8.973996 -3.878630 -7.027739
5.985074 -6.659927 -8.072811
7.413402 -5.556304 -7.306371
6.321883 -5.922018 -8.598145
6.352625 -6.837923 -7.137853
7.072656 -5.370059 -8.212827
7.047836 -6.272511 -6.751688
0.963119 7.415500 -12.593772
3.000036 7.044434 -13.252257
1.594017 8.260301 -12.380292
0.958469 6.485697 -13.003383
7.273241 5.630629 -13.605659
5.139720 6.460952 -13.630562
2.963700 10.034060 -11.855720
3.732657 7.933445 -13.065213
2.264001 9.136501 -12.135564
2.648678 8.123192 -12.754490
0.951788 4.565328 -13.636392
2.971281 6.011032 -13.560558
0.955792 5.528953 -13.353310
1.956260 6.271434 -13.316075
11.834399 0.587098 -8.264005
11.483701 1.868044 -10.119876
12.512537 1.611044 -8.348537
11.128517 0.000000 -8.740503
9.190331 4.534474 -13.016871
10.632746 3.230823 -11.798979
13.988163 3.996338 -8.493877
12.125197 3.031064 -10.262132
13.234672 2.748396 -8.429015
12.379683 2.309544 -9.320291
9.712747 -1.103835 -9.598388
10.666871 1.212269 -10.541278
10.418448 -0.565032 -9.188019
10.949147 0.593814 -9.656041
6.276783 13.978950 -10.156049
7.311025 11.877185 -11.829487
5.384671 12.963511 -10.686715
8.014958 14.220303 -10.385189
8.278686 6.522619 -13.395195
7.995931 9.320188 -12.937688
7.177751 6.983873 -13.494214
3.745704 11.001789 -11.519922
6.344299 10.863904 -12.229843
4.535796 11.963476 -11.138756
4.168756 9.980426 -12.243189
5.901594 11.971229 -11.523073
11.655842 14.128596 -10.474751
8.970835 11.796374 -11.969179
9.841482 14.288793 -10.505995
8.546031 13.070076 -11.255583
4.900573 7.681930 -13.310783
6.718441 9.613404 -12.815841
6.034887 7.369548 -13.457661
4.557650 8.862805 -12.846255
6.992289 8.327335 -13.231096
5.433456 9.844948 -12.571400
0.946182 0.584773 -14.133161
2.873578 1.775969 -14.070773
0.949046 1.570400 -14.107749
1.893100 0.000000 -14.051079
7.103260 4.390056 -13.626587
4.905381 3.031692 -13.921855
6.115533 4.875542 -13.782714
0.954800 3.547511 -13.865024
2.900155 2.804271 -14.054814
0.951268 2.565055 -14.017901
1.936268 4.234605 -13.843545
1.917049 2.180209 -14.090195
3.735465 -1.146604 -13.515041
3.850405 1.181885 -13.930898
2.833921 -0.583436 -13.844485
2.866107 0.590063 -14.001724
4.046158 5.676845 -13.736851
3.949394 3.475498 -13.995121
5.082970 5.307423 -13.813288
2.967723 4.945636 -13.802660
5.004440 4.155313 -13.908492
2.944373 3.868029 -13.967071
16.968141 10.486888 -8.262420
14.544465 8.988974 -10.477695
16.337637 8.690205 -8.455475
16.189228 11.823109 -9.124699
9.494745 5.868075 -13.068721
12.023393 7.430866 -12.071872
10.389423 5.234876 -12.602881
9.543388 7.365283 -13.067636
14.801468 5.449392 -8.542235
14.048681 7.364732 -10.538180
15.587409 6.989941 -8.535820
13.811534 4.900116 -9.528763
15.204331 8.035092 -9.569242
13.464463 13.661704 -10.239373
13.589732 10.075245 -11.211289
14.980975 12.901195 -9.795497
12.059289 12.588243 -11.203424
14.896880 10.953098 -10.260305
11.709055 3.807201 -11.182416
12.820844 6.650884 -11.388896
11.136848 4.535019 -11.961427
12.776228 4.350253 -10.414949
11.611592 5.946930 -12.063191
13.430698 5.804851 -10.517884
9.295375 10.343485 -12.537825
12.194935 9.140037 -12.018871
9.480348 8.880708 -12.893850
10.650382 11.463999 -11.966842
10.863941 8.248670 -12.615299
12.240039 10.893525 -11.725716
6.783118 -3.097558 -10.975316
7.351315 -1.100488 -11.894678
7.520286 -2.628036 -10.677413
6.149626 -2.683526 -11.757893
8.192154 3.741004 -13.255184
7.845460 1.174462 -12.694220
8.999952 3.145120 -12.778265
7.062695 3.081964 -13.503653
8.970792 -1.640200 -9.999963
8.162521 -0.577957 -11.616256
8.253270 -2.140411 -10.350391
9.403330 -0.573031 -10.473873
7.846332 -1.635898 -11.157594
4.632739 -1.711796 -13.035417
6.612214 -0.588262 -12.602442
5.425270 -2.216247 -12.455073
4.745794 -0.586612 -13.373809
6.393380 -1.661256 -12.198326
10.235834 1.871498 -11.410137
8.475426 0.600113 -12.061559
9.689839 2.512973 -12.151986
9.831032 0.599095 -10.950268
8.754949 1.825337 -12.449660
8.990848 0.000000 -11.309660
4.913952 1.815704 -13.826682
6.810299 0.605885 -12.979979
5.963265 2.436020 -13.690177
4.841304 0.598418 -13.642959
6.960161 1.808528 -13.279722
5.776213 0.000000 -13.196917
14.316281 20.501510 1.017068
16.969374 19.256286 3.132403
13.502714 20.237462 2.605662
15.935705 20.289537 0.000000
18.635530 13.157286 6.491755
18.530137 16.698583 5.073963
11.550982 19.022764 5.434695
15.902981 18.790128 4.697167
12.559606 19.720248 4.095231
14.810150 19.671591 3.669916
18.613972 18.835746 -2.140646
18.613972 18.835746 2.140646
17.409034 19.740394 -1.070596
17.409034 19.740394 1.070596
12.548676 0.959670 7.388947
14.038138 3.177943 7.462180
17.438816 9.322350 7.216960
15.718018 5.926844 7.450416
7.402706 15.202588 9.395716
11.149972 15.477677 9.565730
8.396424 16.223539 8.629516
17.448812 12.676988 7.834810
14.766141 14.706842 9.089329
17.540061 14.459479 7.285639
10.474963 18.150382 6.682347
12.320492 16.424721 8.610322
9.430757 17.221670 7.722801
12.624851 18.299181 6.492262
10.352827 16.449350 8.693052
16.765593 17.555175 5.708067
14.292990 16.090074 8.346815
17.309311 16.116067 6.562600
14.761585 18.108334 6.165814
16.042764 15.442186 7.908786
13.551995 17.305074 7.479387
19.327616 11.945124 -5.454824
21.260766 13.139876 -1.967034
19.844799 13.977033 -4.884409
19.327616 11.945124 5.454824
21.260766 13.139876 1.967034
19.844799 13.977033 4.884409
19.510330 17.502376 -3.200096
21.596872 15.175709 -1.074534
19.918916 15.883090 -4.119136
20.094008 18.040183 -1.099354
20.919284 14.711025 -3.067132
19.510330 17.502376 3.200096
21.596872 15.175709 1.074534
19.918916 15.883090 4.119136
20.094008 18.040183 1.099354
20.919284 14.711025 3.067132
21.176316 16.834550 0.000000
6.172841 -8.839766 0.438536
6.963854 -7.902352 1.285469
6.000607 -8.993530 1.157956
6.585181 -8.384334 0.000000
8.441188 -5.959751 2.940519
7.712720 -6.950380 2.111914
5.609171 -9.237477 2.639094
6.790219 -8.022967 2.005586
5.812761 -9.126806 1.895330
6.404170 -8.506342 1.586936
7.374215 -7.462074 -0.848050
7.374215 -7.462074 0.848050
6.987141 -7.922836 -0.429685
6.987141 -7.922836 0.429685
11.470131 -0.877188 6.753875
10.674921 -2.416580 5.674412
9.167783 -4.900865 3.794038
9.908374 -3.736183 4.696617
4.572114 -9.389534 5.803051
5.931484 -8.233706 5.088710
4.866516 -9.403063 5.001614
8.262158 -6.002660 3.709848
7.142081 -7.113400 4.396323
7.906799 -6.518119 3.284258
5.380255 -9.322580 3.432254
6.171131 -8.226871 4.312768
5.136187 -9.379281 4.205999
6.010353 -8.711749 3.090792
5.542115 -8.805730 4.653598
7.178955 -7.517051 2.444170
6.786428 -7.639698 3.963136
7.544557 -7.024462 2.860421
6.609947 -8.108555 2.760930
7.354621 -7.079292 3.625692
6.403761 -8.177213 3.534255
8.893809 -5.496676 -2.510095
8.992723 -5.557809 -0.832001
8.521626 -6.001928 -2.097432
8.893809 -5.496676 2.510095
8.992723 -5.557809 0.832001
8.521626 -6.001928 2.097432
7.772084 -6.972201 -1.274782
8.600101 -6.043126 -0.427891
8.146161 -6.495645 -1.684587
7.791674 -6.995280 -0.426287
8.574188 -6.029608 -1.257125
7.772084 -6.972201 1.274782
8.600101 -6.043126 0.427891
8.146161 -6.495645 1.684587
7.791674 -6.995280 0.426287
8.574188 -6.029608 1.257125
8.201916 -6.520283 0.000000
0.920365 -7.086316 12.034717
2.645811 -6.212672 11.687515
1.469629 -7.615717 11.414208
0.921219 -6.233638 12.498022
5.757843 -4.457473 10.770887
4.248947 -5.341194 11.268227
2.499336 -8.461885 9.998119
3.149613 -6.694235 11.024417
2.001406 -8.076784 10.727993
2.331582 -7.150696 11.227542
0.925539 -4.439422 13.260318
2.667108 -5.395676 12.172347
0.923992 -5.344995 12.909022
1.813333 -5.813235 12.343184
11.218178 -0.556527 7.833696
9.905493 -1.611318 8.729099
10.859151 -1.398163 7.245375
7.192783 -3.548892 10.187612
8.570023 -2.604052 9.510010
10.130183 -2.894135 6.151239
9.619286 -2.404635 8.141260
10.492497 -2.178938 6.682555
10.239406 -1.910256 7.708942
4.183233 -9.316429 6.768613
4.882478 -7.931869 7.900015
3.821140 -9.199335 7.583645
4.930633 -8.748029 6.388748
6.176587 -4.866415 9.993927
5.543602 -6.461714 8.969737
5.467074 -5.319403 10.278130
2.990073 -8.782368 9.195976
4.513572 -7.728988 8.700769
3.420874 -9.022791 8.400791
3.322660 -7.954787 9.758297
4.175700 -8.470297 8.153202
6.289542 -7.623850 5.652220
5.628670 -7.401530 7.509954
5.634306 -8.180417 6.014743
5.284599 -8.082127 6.960101
3.971498 -6.225551 10.787258
4.849645 -6.939348 9.250998
4.728470 -5.774207 10.544381
3.650903 -7.099545 10.290485
5.162782 -6.148518 9.769228
4.108959 -7.445075 9.506908
0.942734 -0.582642 14.081662
2.779430 -1.717782 13.609766
0.939818 -1.555130 13.970570
5.889634 -3.639994 11.298418
4.463310 -2.758477 12.667224
5.122784 -4.084084 11.545334
0.934090 -3.470563 13.564285
2.753008 -2.661988 13.341704
0.936267 -2.524604 13.796839
1.838379 -4.020523 13.143680
1.865750 -2.121867 13.713148
3.528565 -4.950651 11.979604
3.623035 -3.188299 12.838631
4.332144 -4.523442 11.772871
2.711328 -4.518360 12.610185
4.405168 -3.657723 12.242978
2.741239 -3.601171 13.003473
8.682645 -5.366170 4.227903
8.330252 -5.148379 6.001035
9.036026 -4.806382 4.676557
8.118687 -5.929136 4.575918
6.994936 -4.323109 9.627944
7.788962 -4.813843 7.820368
7.663455 -3.861354 9.296148
6.660247 -5.140167 9.119789
9.751356 -3.590114 5.627710
8.654775 -4.537088 6.492110
9.394302 -4.212735 5.144413
9.558653 -3.391260 6.594644
8.866415 -4.685669 5.580309
6.941569 -7.043256 5.278882
7.707121 -5.713956 6.358239
7.536697 -6.490392 4.927963
6.671287 -6.963909 6.197816
7.934251 -5.833747 5.464758
8.962267 -2.914082 8.559169
8.382649 -4.348546 7.446400
8.322393 -3.388949 8.938588
9.298210 -3.166003 7.579733
8.059060 -4.127484 8.372493
8.973996 -3.878630 7.027739
5.985074 -6.659927 8.072811
7.413402 -5.556304 7.306371
6.321883 -5.922018 8.598145
6.352625 -6.837923 7.137853
7.072656 -5.370059 8.212827
7.047836 -6.272511 6.751688
0.963119 7.415500 12.593772
3.000036 7.044434 13.252257
1.594017 8.260301 12.380292
0.958469 6.485697 13.003383
7.273241 5.630629 13.605659
5.139720 6.460952 13.630562
2.963700 10.034060 11.855720
3.732657 7.933445 13.065213
2.264001 9.136501 12.135564
2.648678 8.123192 12.754490
0.951788 4.565328 13.636392
2.971281 6.011032 13.560558
0.955792 5.528953 13.353310
1.956260 6.271434 13.316075
11.834399 0.587098 8.264005
11.483701 1.868044 10.119876
12.512537 1.611044 8.348537
11.128517 0.000000 8.740503
9.190331 4.534474 13.016871
10.632746 3.230823 11.798979
13.988163 3.996338 8.493877
12.125197 3.031064 10.262132
13.234672 2.748396 8.429015
12.379683 2.309544 9.320291
9.712747 -1.103835 9.598388
10.666871 1.212269 10.541278
10.418448 -0.565032 9.188019
10.949147 0.593814 9.656041
6.276783 13.978950 10.156049
7.311025 11.877185 11.829487
5.384671 12.963511 10.686715
8.014958 14.220303 10.385189
8.278686 6.522619 13.395195
7.995931 9.320188 12.937688
7.177751 6.983873 13.494214
3.745704 11.001789 11.519922
6.344299 10.863904 12.229843
4.535796 11.963476 11.138756
4.168756 9.980426 12.243189
5.901594 11.971229 11.523073
11.655842 14.128596 10.474751
8.970835 11.796374 11.969179
9.841482 14.288793 10.505995
8.546031 13.070076 11.255583
4.900573 7.681930 13.310783
6.718441 9.613404 12.815841
6.034887 7.369548 13.457661
4.557650 8.862805 12.846255
6.992289 8.327335 13.231096
5.433456 9.844948 12.571400
0.946182 0.584773 14.133161
2.873578 1.775969 14.070773
0.949046 1.570400 14.107749
1.893100 0.000000 14.051079
7.103260 4.390056 13.626587
4.905381 3.031692 13.921855
6.115533 4.875542 13.782714
0.954800 3.547511 13.865024
2.900155 2.804271 14.054814
0.951268 2.565055 14.017901
1.936268 4.234605 13.843545
1.917049 2.180209 14.090195
3.735465 -1.146604 13.515041
3.850405 1.181885 13.930898
2.833921 -0.583436 13.844485
2.866107 0.590063 14.001724
4.046158 5.676845 13.736851
3.949394 3.475498 13.995121
5.082970 5.307423 13.813288
2.967723 4.945636 13.802660
5.004440 4.155313 13.908492
2.944373 3.868029 13.967071
16.968141 10.486888 8.262420
14.544465 8.988974 10.477695
16.337637 8.690205 8.455475
16.189228 11.823109 9.124699
9.494745 5.868075 13.068721
12.023393 7.430866 12.071872
10.389423 5.234876 12.602881
9.543388 7.365283 13.067636
14.801468 5.449392 8.542235
14.048681 7.364732 10.538180
15.587409 6.989941 8.535820
13.811534 4.900116 9.528763
15.204331 8.035092 9.569242
13.464463 13.661704 10.239373
13.589732 10.075245 11.211289
14.980975 12.901195 9.795497
12.059289 12.588243 11.203424
14.896880 10.953098 10.260305
11.709055 3.807201 11.182416
12.820844 6.650884 11.388896
11.136848 4.535019 11.961427
12.776228 4.350253 10.414949
11.611592 5.946930 12.063191
13.430698 5.804851 10.517884
9.295375 10.343485 12.537825
12.194935 9.140037 12.018871
9.480348 8.880708 12.893850
10.650382 11.463999 11.966842
10.863941 8.248670 12.615299
12.240039 10.893525 11.725716
6.783118 -3.097558 10.975316
7.351315 -1.100488 11.894678
7.520286 -2.628036 10.677413
6.149626 -2.683526 11.757893
8.192154 3.741004 13.255184
7.845460 1.174462 12.694220
8.999952 3.145120 12.778265
7.062695 3.081964 13.503653
8.970792 -1.640200 9.999963
8.162521 -0.577957 11.616256
8.253270 -2.140411 10.350391
9.403330 -0.573031 10.473873
7.846332 -1.635898 11.157594
4.632739 -1.711796 13.035417
6.612214 -0.588262 12.602442
5.425270 -2.216247 12.455073
4.745794 -0.586612 13.373809
6.393380 -1.661256 12.198326
10.235834 1.871498 11.410137
8.475426 0.600113 12.061559
9.689839 2.512973 12.151986
9.831032 0.599095 10.950268
8.754949 1.825337 12.449660
8.990848 0.000000 11.309660
4.913952 1.815704 13.826682
6.810299 0.605885 12.979979
5.963265 2.436020 13.690177
4.841304 0.598418 13.642959
6.960161 1.808528 13.279722
5.776213 0.000000 13.196917
12.251560 0.000000 -6.446619
12.841609 0.000000 -4.629194
12.946556 0.954280 -6.457353
11.802424 -0.869947 -5.886695
13.420297 0.000000 -0.930127
13.228038 0.000000 -2.786151
14.509668 3.179243 -6.431748
13.569871 0.947145 -4.543057
13.701273 2.012849 -6.452850
13.288592 0.951160 -5.502157
10.938250 -2.396702 -4.848634
12.314177 -0.859501 -4.122664
11.362125 -1.669206 -5.351188
12.083716 -0.864918 -5.003276
12.251560 0.000000 6.446619
12.841609 0.000000 4.629194
12.946556 0.954280 6.457353
11.802424 -0.869947 5.886695
13.420297 0.000000 0.930127
13.228038 0.000000 2.786151
14.509668 3.179243 6.431748
13.569871 0.947145 4.543057
13.701273 2.012849 6.452850
13.288592 0.951160 5.502157
10.938250 -2.396702 4.848634
12.314177 -0.859501 4.122664
11.362125 -1.669206 5.351188
12.083716 -0.864918 5.003276
18.331144 9.555649 -5.905716
17.366761 6.119197 -3.781872
17.356895 7.701434 -6.139884
19.319320 10.104411 -4.409284
14.158136 0.947854 -0.585806
15.731551 3.212747 -1.985587
14.097550 0.948360 -1.569265
15.424668 4.543301 -6.374346
16.290526 4.597152 -4.045530
16.364326 6.021693 -6.287599
14.941567 3.212600 -5.353718
16.924059 6.089476 -5.056247
20.654012 10.836689 -0.964096
17.852199 6.344606 -2.344330
20.154838 10.563544 -2.744832
18.740430 8.163090 -3.334659
13.810185 0.951024 -3.533480
15.546387 3.207936 -3.101875
13.980225 0.948712 -2.558161
14.385040 2.012005 -4.400243
14.813627 2.015476 -2.292147
15.292148 3.223710 -4.234995
9.340304 -4.868909 -3.009151
10.420879 -3.671808 -2.269302
9.721325 -4.313453 -3.438853
9.414130 -4.923788 -2.148604
12.776154 -0.855334 -0.528625
11.549216 -2.358618 -1.457706
12.728602 -0.856269 -1.416881
10.512076 -3.096308 -4.344185
10.853541 -3.062846 -2.695329
10.113284 -3.721454 -3.885786
11.147534 -2.396842 -3.994277
10.283750 -3.700215 -3.072382
9.486611 -4.977408 -0.442820
10.467608 -3.720150 -1.374594
9.462801 -4.959639 -1.288713
9.940419 -4.329919 -1.768791
12.500538 -0.860836 -3.198393
11.461839 -2.365105 -2.286910
12.636790 -0.857545 -2.312333
11.810618 -1.651926 -3.612753
12.075965 -1.643002 -1.868542
11.321722 -2.386712 -3.135429
18.331144 9.555649 5.905716
17.366761 6.119197 3.781872
17.356895 7.701434 6.139884
19.319320 10.104411 4.409284
