0 36.49040825 29.00880389
6.754414425 51.43523018 18.27989162
2.121496908 45.44922116 23.84616962
8.86068777 49.79613087 21.6905548
2.230237422 50.84578658 18.04299976
6.569281401 48.23713422 25.28202268
0 46.68504545 20.43376901
0 -19.14626078 36.38675582
0 -13.56170168 37.6208157
0 -2.687551458 38.77723796
0 -8.088034516 38.40022785
0 19.14626078 36.38675582
0 13.56170168 37.6208157
0 2.687551458 38.77723796
0 8.088034516 38.40022785
-32.10487308 -54.52382531 -4.169753631
-27.80973038 -52.31672565 -11.84342093
-27.23895723 -54.61226194 -4.025426471
-19.17109636 -46.3243817 -24.76384223
-23.41424323 -49.39663485 -18.62614952
-18.3149832 -54.7058812 -3.818343269
-23.39708894 -52.78254249 -11.56528959
-22.6352947 -54.66787218 -3.912972927
-25.359757 -53.84612529 -7.910515986
-1.750641008 -24.64207609 -35.288479
-5.630320278 -30.50150598 -34.61210353
-15.05621296 -43.22105708 -30.51546211
-10.24967676 -37.43186705 -33.73203101
-2.26646488 -54.77736836 -3.667217209
-6.772508828 -53.65771363 -10.95814947
-6.096270266 -54.76606732 -3.684182172
-15.2250688 -47.25810142 -24.63467881
-11.14696393 -51.18805201 -18.03616652
-17.22963558 -48.70661568 -21.61163078
-14.00361306 -54.73145627 -3.769023994
-10.67970251 -53.52593799 -11.04486538
-10.01863042 -54.7513374 -3.715478711
-16.56604276 -54.15682019 -7.574800755
-8.404727495 -54.3178507 -7.390245725
-21.27681173 -51.48571213 -15.16499903
-12.98951082 -52.30610953 -14.76067351
-19.26179699 -50.13143398 -18.44720579
-19.02251508 -53.089494 -11.414822
-15.15215604 -50.71666692 -18.24845547
-14.76931427 -53.3305314 -11.24251214
20.30103027 -34.47731519 -2.636680559
18.65291914 -35.09058304 -7.943779746
18.22763109 -36.54516416 -2.693715037
14.17233998 -34.24555773 -18.30680859
16.60304622 -35.02716716 -13.20780767
13.73371567 -41.02187864 -2.863231718
16.48731453 -37.19447244 -8.14975605
16.03584035 -38.72912997 -2.772122474
17.40648853 -36.95902773 -5.429638216
1.702589911 -23.96570737 -34.31989084
5.081088411 -27.52611591 -31.23572895
0 -26.6575545 -33.9407284
11.39967167 -32.72442156 -23.10449844
8.343610628 -30.47090469 -27.45910324
-3.752634308 -32.63099885 -33.01977711
3.480514286 -30.26478158 -30.62536781
-1.817223078 -29.5499728 -33.50720738
1.7557486 -28.55033265 -32.37369873
2.172528839 -52.50706223 -3.515225503
5.960427395 -47.22369722 -9.644174113
5.479523624 -49.22550126 -3.311461331
0 -53.934808 -7.26662871
11.68495211 -36.2696983 -18.90664968
9.086996643 -41.72846163 -14.70306942
13.01671557 -36.79707326 -16.32724322
11.15250923 -43.58825605 -3.001659267
8.873869592 -44.475227 -9.177287
8.464923243 -46.26040177 -3.139275607
12.71586706 -41.5700319 -5.814313099
7.257141194 -46.90126029 -6.381177346
-4.478983675 -52.79387846 -14.59186913
4.039596872 -47.6148166 -13.16041164
-2.265353038 -53.75506205 -11.00348495
2.139252459 -50.7627936 -10.39097741
15.40003113 -37.26505549 -10.97633707
10.40375792 -41.89381022 -11.82234466
14.26544936 -37.12776297 -13.66215625
14.13367303 -39.44533867 -8.481179337
11.75973616 -39.3617001 -14.16280436
11.59583256 -41.87140317 -8.826834203
-12.84249224 -45.50371906 -28.12284499
-4.031764597 -43.57750235 -26.9323776
-10.81817286 -43.95300515 -30.95685861
-10.9098073 -47.80142646 -25.00115192
9.985801792 -35.38184885 -21.86718518
3.630708017 -39.24266492 -24.25330073
8.471046766 -34.41689894 -24.24041474
8.740048438 -38.29460697 -20.02888527
-5.927314244 -36.13761959 -32.41842648
-1.986805481 -39.9324386 -28.05975969
-8.235348213 -39.82369083 -31.75490443
-1.897693508 -34.68605684 -31.14076533
-6.142889824 -41.89739875 -29.46342132
-6.754414425 -51.43523018 -18.27989162
-2.121496908 -45.44922116 -23.84616962
-8.86068777 -49.79613087 -21.6905548
-2.230237422 -50.84578658 -18.04299976
-6.569281401 -48.23713422 -25.28202268
5.230443773 -31.88894321 -28.60701322
1.889820844 -37.9831622 -26.6900405
6.874331184 -33.2422179 -26.50692164
1.819882292 -33.26382282 -29.86389907
5.303675458 -36.17356193 -25.43825936
0 -36.49040825 -29.00880389
5.824252666 -44.35199822 -15.76253703
1.997558827 -42.7940727 -22.45307379
7.349616975 -41.30407235 -17.99152322
2.079285216 -47.40432174 -16.82177076
5.511908674 -40.47302319 -21.21270069
0 -46.68504545 -20.43376901
-20.30103027 34.47731519 -2.636680559
-18.65291914 35.09058304 -7.943779746
-18.22763109 36.54516416 -2.693715037
-14.17233998 34.24555773 -18.30680859
-16.60304622 35.02716716 -13.20780767
-13.73371567 41.02187864 -2.863231718
-16.48731453 37.19447244 -8.14975605
-16.03584035 38.72912997 -2.772122474
-17.40648853 36.95902773 -5.429638216
-1.702589911 23.96570737 -34.31989084
-5.081088411 27.52611591 -31.23572895
-11.39967167 32.72442156 -23.10449844
-8.343610628 30.47090469 -27.45910324
-2.172528839 52.50706223 -3.515225503
-5.960427395 47.22369722 -9.644174113
-5.479523624 49.22550126 -3.311461331
-11.68495211 36.2696983 -18.90664968
-9.086996643 41.72846163 -14.70306942
-13.01671557 36.79707326 -16.32724322
-11.15250923 43.58825605 -3.001659267
-8.873869592 44.475227 -9.177287
-8.464923243 46.26040177 -3.139275607
-12.71586706 41.5700319 -5.814313099
-7.257141194 46.90126029 -6.381177346
-15.40003113 37.26505549 -10.97633707
-10.40375792 41.89381022 -11.82234466
-14.26544936 37.12776297 -13.66215625
-14.13367303 39.44533867 -8.481179337
-11.75973616 39.3617001 -14.16280436
-11.59583256 41.87140317 -8.826834203
32.10487308 54.52382531 -4.169753631
27.80973038 52.31672565 -11.84342093
27.23895723 54.61226194 -4.025426471
19.17109636 46.3243817 -24.76384223
23.41424323 49.39663485 -18.62614952
18.3149832 54.7058812 -3.818343269
23.39708894 52.78254249 -11.56528959
22.6352947 54.66787218 -3.912972927
25.359757 53.84612529 -7.910515986
1.750641008 24.64207609 -35.288479
5.630320278 30.50150598 -34.61210353
0 26.6575545 -33.9407284
15.05621296 43.22105708 -30.51546211
10.24967676 37.43186705 -33.73203101
-3.480514286 30.26478158 -30.62536781
3.752634308 32.63099885 -33.01977711
-1.7557486 28.55033265 -32.37369873
1.817223078 29.5499728 -33.50720738
2.26646488 54.77736836 -3.667217209
6.772508828 53.65771363 -10.95814947
6.096270266 54.76606732 -3.684182172
0 53.934808 -7.26662871
15.2250688 47.25810142 -24.63467881
11.14696393 51.18805201 -18.03616652
17.22963558 48.70661568 -21.61163078
14.00361306 54.73145627 -3.769023994
10.67970251 53.52593799 -11.04486538
10.01863042 54.7513374 -3.715478711
16.56604276 54.15682019 -7.574800755
8.404727495 54.3178507 -7.390245725
-4.039596872 47.6148166 -13.16041164
4.478983675 52.79387846 -14.59186913
-2.139252459 50.7627936 -10.39097741
2.265353038 53.75506205 -11.00348495
21.27681173 51.48571213 -15.16499903
12.98951082 52.30610953 -14.76067351
19.26179699 50.13143398 -18.44720579
19.02251508 53.089494 -11.414822
15.15215604 50.71666692 -18.24845547
14.76931427 53.3305314 -11.24251214
-9.985801792 35.38184885 -21.86718518
-3.630708017 39.24266492 -24.25330073
-8.471046766 34.41689894 -24.24041474
-8.740048438 38.29460697 -20.02888527
12.84249224 45.50371906 -28.12284499
4.031764597 43.57750235 -26.9323776
10.81817286 43.95300515 -30.95685861
10.9098073 47.80142646 -25.00115192
-5.230443773 31.88894321 -28.60701322
-1.889820844 37.9831622 -26.6900405
-6.874331184 33.2422179 -26.50692164
-1.819882292 33.26382282 -29.86389907
-5.303675458 36.17356193 -25.43825936
-5.824252666 44.35199822 -15.76253703
-1.997558827 42.7940727 -22.45307379
-7.349616975 41.30407235 -17.99152322
-2.079285216 47.40432174 -16.82177076
-5.511908674 40.47302319 -21.21270069
5.927314244 36.13761959 -32.41842648
1.986805481 39.9324386 -28.05975969
8.235348213 39.82369083 -31.75490443
1.897693508 34.68605684 -31.14076533
6.142889824 41.89739875 -29.46342132
0 36.49040825 -29.00880389
6.754414425 51.43523018 -18.27989162
2.121496908 45.44922116 -23.84616962
8.86068777 49.79613087 -21.6905548
2.230237422 50.84578658 -18.04299976
6.569281401 48.23713422 -25.28202268
0 46.68504545 -20.43376901
0 -19.14626078 -36.38675582
0 -13.56170168 -37.6208157
0 -2.687551458 -38.77723796
0 -8.088034516 -38.40022785
0 19.14626078 -36.38675582
0 13.56170168 -37.6208157
0 2.687551458 -38.77723796
0 8.088034516 -38.40022785
38.18673971 54.68500127 -2.712891246
45.21631619 51.30998509 -8.346549907
35.80005769 53.65605203 -6.908451938
48.16829493 34.0083718 -16.77960132
47.72662968 43.00923997 -13.06861148
30.71756291 50.58729586 -14.45250038
41.64206116 49.20207706 -12.29956408
33.24153944 52.19362781 -10.83885873
39.100459 51.93520909 -9.688991787
44.15326986 3.376657016 -25.99845327
47.63820307 10.78430051 -25.32279241
48.11296425 25.7199732 -19.91129163
47.90670274 18.06433598 -22.70800822
21.38460608 43.91655441 -27.1419233
29.98654581 41.62540246 -25.72591351
23.56988857 45.54165145 -24.22420771
45.41525229 32.99529008 -20.39221074
38.30791279 38.15407318 -23.58051404
45.05060086 37.13831129 -18.71272986
28.19267316 48.85055859 -17.98509831
32.52583877 43.3609148 -22.73106844
25.84580325 47.19747244 -21.1650027
33.23163756 48.16783324 -17.08919149
28.05321186 44.57305348 -23.55569552
43.38814571 45.43152549 -14.77206634
37.08401927 41.74666277 -21.65631258
44.42776676 41.36507032 -16.84420887
38.40267358 47.10933159 -16.04053496
41.27041208 39.72540951 -20.34554901
35.36420586 45.15794045 -19.51761041
22.55648946 -32.30183212 -1.602475186
25.52931413 -28.96982412 -4.712495674
21.84296902 -32.73758642 -4.21510778
30.9195955 -21.83023296 -10.77095393
28.29874911 -25.5016476 -7.748826176
20.11761841 -33.13075057 -9.465265477
24.71892092 -29.20658148 -7.301078369
21.02700254 -33.01518411 -6.856141862
23.31945948 -30.97408661 -5.778501253
40.34279013 -3.085247498 -23.75475582
38.16972792 -8.640834243 -20.2896842
33.42995076 -17.87080574 -13.83480543
35.84902085 -13.51770671 -16.99260884
15.50060106 -31.8328515 -19.67378419
20.497215 -28.45292115 -17.58487235
16.77686277 -32.41619214 -17.24260203
29.84626449 -21.68404016 -13.40147384
25.21406899 -25.11281256 -15.52057172
28.64701367 -23.61570525 -11.89914936
19.07878571 -33.05856574 -12.17102879
21.66885574 -28.88723068 -15.143537
17.97693946 -32.82800292 -14.72122837
21.48811167 -31.14609618 -11.05014625
19.27694394 -30.62865875 -16.18644682
26.10852337 -27.33811334 -8.888991057
24.07563125 -27.10270566 -14.05967871
27.39612397 -25.50753002 -10.38688343
23.83303403 -29.2364619 -9.95489584
26.36222679 -25.37532829 -12.99608969
22.81060516 -29.12775572 -12.58924084
2.686635203 -20.68565432 -35.13052364
7.746485224 -18.18964865 -34.21906092
4.35614932 -22.57385567 -33.83301739
2.652576912 -17.94926068 -35.98705037
17.23692056 -13.34407891 -32.244176
12.54319966 -15.76759209 -33.26462363
7.670307406 -25.96900248 -30.68361233
9.37875631 -19.93375052 -32.82794727
6.033131312 -24.34703308 -32.33896189
6.922007579 -21.22900516 -33.33235502
2.605290112 -12.49647851 -37.32631702
7.703622039 -15.58476583 -35.15837234
2.628255547 -15.20361627 -36.71917515
5.226525375 -16.75534361 -35.57645806
38.09791534 -1.890015519 -26.60391593
32.21385064 -5.2401986 -28.38807404
37.31990353 -4.805101198 -24.90035418
21.97538097 -10.84256941 -31.12517818
26.91028207 -8.176848075 -29.86188707
35.51190039 -10.14554633 -21.56349762
31.72561217 -7.930787139 -26.85089657
36.44410852 -7.568213984 -23.21084626
34.44003032 -6.425104986 -25.92886439
13.87884422 -30.90941044 -22.45644167
15.76823709 -25.61641575 -25.51354355
12.43717675 -29.94230609 -24.68350395
16.51394682 -29.29938231 -21.39754862
18.90742462 -14.89680091 -30.59285567
17.42715409 -20.31337601 -28.19772764
16.58353843 -16.13560112 -31.17714874
9.358689891 -27.4881111 -28.78267323
14.27719621 -24.44810571 -27.52201203
10.91717542 -28.7948058 -26.80979157
10.23618858 -24.50647748 -30.06258851
13.39689353 -27.17524684 -26.15791205
21.52097887 -26.08659234 -19.34024901
18.38417154 -24.17462609 -24.52875908
19.06819374 -27.68500409 -20.35570919
17.479153 -26.73215706 -23.0209835
11.88336206 -18.62785161 -32.27721441
15.119669 -21.63470307 -28.841701
14.23389988 -17.38183458 -31.74127151
11.07898674 -21.54419488 -31.22738639
15.87533927 -18.90643627 -30.03996829
12.72627228 -23.05889416 -29.44480568
2.591570167 -1.601678447 -38.71038598
7.720757634 -4.771690637 -37.80548926
2.591146144 -4.287607521 -38.51787928
17.3814605 -10.74233336 -33.3438414
12.68743752 -7.841267618 -36.00794055
15.00531936 -11.96282627 -33.81782386
2.605749327 -9.681526399 -37.83909457
7.700288796 -7.445703571 -37.31735665
2.5941273 -6.994954006 -38.22709
5.179022731 -11.32649093 -37.02795781
5.173948865 -5.884192746 -38.02820535
10.22616337 -14.3475217 -34.71818905
10.25792396 -9.027055179 -36.35010921
12.61307808 -13.17004603 -34.27682753
7.736006354 -12.89186091 -35.97959416
12.66347982 -10.51480892 -35.19473136
7.737134367 -10.16429136 -36.70224964
31.2230625 -19.29691386 -15.20367208
28.71521817 -17.74698082 -20.68617129
32.33930832 -17.20170651 -16.73707188
28.82042754 -21.04776452 -16.24399459
21.69116122 -13.40587489 -29.85606602
25.5050183 -15.76296819 -25.60785613
24.06686543 -12.1264736 -29.19429319
20.91861558 -16.14432155 -28.64358559
34.46400657 -12.68846385 -19.88989484
29.56578111 -15.49925312 -22.1778492
33.42832012 -14.99043167 -18.3056791
32.88614715 -11.66748903 -22.68859629
31.04183717 -16.40480083 -19.53698854
24.04179155 -24.39397865 -18.28315434
26.19398555 -19.41986889 -21.60957638
26.41919089 -22.75146581 -17.27451619
22.59725444 -23.58843278 -20.99349419
27.59120801 -20.28674458 -19.00359119
29.01760396 -9.435077648 -27.71247532
27.85658157 -14.45075601 -24.74530751
26.51659051 -10.79778145 -28.47989594
31.05419083 -10.57382512 -25.31481373
26.04155393 -13.33730019 -27.05436331
30.32653597 -13.10736292 -23.74939712
19.2888437 -21.46377731 -26.01725563
24.54597251 -18.39707291 -24.191591
20.1149629 -18.84267485 -27.35757447
20.99903141 -22.60321467 -23.59465444
22.81415703 -17.32211578 -26.49198846
23.61096632 -21.01354884 -22.61884112
2.791532027 21.49330377 -36.5021577
8.591132857 20.17297957 -37.9501787
4.671570357 24.20838848 -36.28280611
2.740557227 18.54459934 -37.18066401
20.67899252 16.00878226 -38.68307405
14.60514133 18.35958265 -38.73290249
8.942590515 30.27651213 -35.77313998
10.81572486 22.98790521 -37.85768961
6.723869043 27.13454316 -36.0414739
7.714885261 23.66067028 -37.15039192
2.663455112 12.7754715 -38.15965425
8.401866189 16.99734442 -38.34507174
2.70083121 15.62344323 -37.7331247
5.55949977 17.82280239 -37.8429829
40.05966962 1.987337012 -27.97381624
36.56860823 5.948583167 -32.22565256
42.75111975 5.504394097 -28.52413652
36.73628086 0 -28.85322312
26.57408186 13.11155093 -37.63862087
31.9810338 9.717625927 -35.48881493
45.7031805 13.05713662 -27.75183568
38.87105599 9.717009376 -32.898426
45.61609311 9.472926292 -29.05238095
40.97724719 7.644683028 -30.85053862
30.72462583 -3.49179477 -30.36287092
33.17665337 3.770462994 -32.78602803
33.62090235 -1.823389188 -29.65024028
35.0778368 1.902404275 -30.93510932
18.85610984 41.99422008 -30.50982662
21.97739939 35.70356006 -35.5601792
16.77171961 40.37764942 -33.28607576
23.05242993 40.90009281 -29.86963053
23.89197925 18.82403687 -38.65803448
23.93181297 27.89531286 -38.72248681
20.6498156 20.09204423 -38.82177347
11.5315126 33.8700719 -35.46519469
19.48573714 33.36715098 -37.56246564
14.29947016 37.7158423 -35.11584269
12.53221364 30.00339522 -36.80576799
18.37800235 37.27929534 -35.88370455
31.36859105 38.02334698 -28.18999849
25.97234745 34.15284648 -34.65314997
27.26321706 39.58331273 -29.10407382
24.58950382 37.60654065 -32.38569749
14.1400681 22.16536777 -38.40680842
20.09780413 28.75790631 -38.33780073
17.36729154 21.20819952 -38.72866333
13.40288211 26.06324124 -37.77755026
20.46532838 24.37279734 -38.725334
16.28605325 29.50890645 -37.68107916
2.59873662 1.606107559 -38.81743157
7.916681501 4.892778246 -38.76485076
2.610458606 4.319564135 -38.80496269
5.207144897 0 -38.64878357
20.0403868 12.38564019 -38.44461051
13.61807205 8.416431386 -38.64915416
17.19175987 13.70594198 -38.74545376
2.650488478 9.847752391 -38.48876909
8.01103943 7.746180238 -38.82332514
2.625932805 7.080716198 -38.69577629
5.393163835 11.79481621 -38.55898175
5.28173022 6.006769578 -38.82039166
10.39681974 -3.191310552 -37.61604721
10.63352739 3.263968116 -38.4724635
7.828744271 -1.61175025 -38.24557728
7.895115847 1.625414562 -38.56982075
11.39537999 15.98795714 -38.68772115
10.95284855 9.638594385 -38.81265281
14.28530713 14.91611733 -38.82121442
8.305010363 13.84009184 -38.62598978
13.95625479 11.58823281 -38.7876512
8.175436106 10.74008937 -38.78139924
45.64951255 28.21295033 -22.22844795
40.57922018 25.07933731 -29.232886
45.74067735 24.33007223 -23.67289359
42.69803869 31.18268328 -24.06580224
27.6785704 17.10629726 -38.09723311
35.55537657 21.9744312 -35.69873807
30.74517296 15.49144526 -37.29540918
28.15838257 21.73174323 -38.55690345
45.74807812 16.84287153 -26.40216717
40.86932227 21.42490227 -30.65684829
45.76928414 20.52455296 -25.0637132
43.49759201 15.43226318 -30.00957517
43.30516841 22.88565135 -27.25523538
35.53474561 36.05529248 -27.02324564
37.39612418 27.72498394 -30.8511433
39.2707238 33.81884531 -25.67765064
32.6967996 34.13097204 -30.37625984
40.00890773 29.41699731 -27.55634788
36.36531005 11.82418522 -34.72970265
38.34102911 19.88962125 -34.05875746
33.67380029 13.71225822 -36.16703014
41.14825674 14.01081332 -33.54331337
35.46632747 18.16424079 -36.84568561
41.02331428 17.73059306 -32.12628647
27.29146176 30.36873888 -36.81137906
34.68834425 25.99872538 -34.18753265
28.43936307 26.64054982 -38.67926563
29.94349178 32.230971 -33.64471091
32.11747943 24.38585377 -37.29508363
33.79567606 30.07784941 -32.37559264
20.24115664 -9.243264583 -32.75087942
21.44031424 -3.209605227 -34.69115716
22.69505997 -7.931007635 -32.22278141
17.93249328 -7.825241282 -34.28637055
23.34530644 10.66079612 -37.7734993
22.49174827 3.36700442 -36.39241317
26.01305311 9.090512343 -36.93371708
19.87838293 8.674373402 -38.00685116
27.85831618 -5.093553643 -31.05435215
24.08403002 -1.705299096 -34.27449346
25.2415232 -6.546161505 -31.65528709
28.90982856 -1.761741993 -32.20113398
23.40161958 -4.879052205 -33.27743157
13.04677688 -4.820780112 -36.71050059
18.88679918 -1.680281852 -35.9969893
15.51410503 -6.337580665 -35.61653501
13.25996791 -1.639022171 -37.36704025
18.43758406 -4.7908223 -35.17820659
30.92092193 5.653513786 -34.46831433
24.76837195 1.753754761 -35.24839497
28.56663961 7.408500471 -35.82530145
29.93917808 1.824469735 -33.34767214
25.40506296 5.296754271 -36.12635618
26.90436361 0 -33.84321586
13.6278222 5.035476181 -38.34542274
19.29746741 1.716817338 -36.77969578
16.63728634 6.79640521 -38.19508056
13.45539904 1.663178788 -37.91777183
19.62339917 5.098944527 -37.44069656
16.2332394 0 -37.08809269
38.18673971 54.68500127 2.712891246
45.21631619 51.30998509 8.346549907
35.80005769 53.65605203 6.908451938
43.12329401 54.90511178 0
48.16829493 34.0083718 16.77960132
47.72662968 43.00923997 13.06861148
30.71756291 50.58729586 14.45250038
41.64206116 49.20207706 12.29956408
33.24153944 52.19362781 10.83885873
39.100459 51.93520909 9.688991787
50.48774284 51.08927321 -5.806197867
50.48774284 51.08927321 5.806197867
47.87689025 54.28840497 -2.944266327
47.87689025 54.28840497 2.944266327
44.15326986 3.376657016 25.99845327
47.63820307 10.78430051 25.32279241
48.11296425 25.7199732 19.91129163
47.90670274 18.06433598 22.70800822
21.38460608 43.91655441 27.1419233
29.98654581 41.62540246 25.72591351
23.56988857 45.54165145 24.22420771
45.41525229 32.99529008 20.39221074
38.30791279 38.15407318 23.58051404
45.05060086 37.13831129 18.71272986
28.19267316 48.85055859 17.98509831
32.52583877 43.3609148 22.73106844
25.84580325 47.19747244 21.1650027
33.23163756 48.16783324 17.08919149
28.05321186 44.57305348 23.55569552
43.38814571 45.43152549 14.77206634
37.08401927 41.74666277 21.65631258
44.42776676 41.36507032 16.84420887
38.40267358 47.10933159 16.04053496
41.27041208 39.72540951 20.34554901
35.36420586 45.15794045 19.51761041
50.59242086 31.26783566 -14.27867405
54.31340764 33.56753197 -5.025044169
50.81378072 35.78902101 -12.50681863
50.59242086 31.26783566 14.27867405
54.31340764 33.56753197 5.025044169
50.81378072 35.78902101 12.50681863
51.05435755 45.79997122 -8.373966637
54.68057773 38.42299454 -2.720586954
50.99935881 40.6662399 -10.54642274
54.20097205 48.66104438 -2.965365399
53.17017638 37.39075349 -7.795675752
51.05435755 45.79997122 8.373966637
54.68057773 38.42299454 2.720586954
50.99935881 40.6662399 10.54642274
54.20097205 48.66104438 2.965365399
53.17017638 37.39075349 7.795675752
54.90511178 43.64795289 0
22.55648946 -32.30183212 1.602475186
25.52931413 -28.96982412 4.712495674
21.84296902 -32.73758642 4.21510778
24.15309378 -30.75201801 0
30.9195955 -21.83023296 10.77095393
28.29874911 -25.5016476 7.748826176
20.11761841 -33.13075057 9.465265477
24.71892092 -29.20658148 7.301078369
21.02700254 -33.01518411 6.856141862
23.31945948 -30.97408661 5.778501253
27.20125351 -27.5253397 -3.128202039
27.20125351 -27.5253397 3.128202039
25.70839304 -29.15117597 -1.580978955
25.70839304 -29.15117597 1.580978955
40.34279013 -3.085247498 23.75475582
38.16972792 -8.640834243 20.2896842
33.42995076 -17.87080574 13.83480543
35.84902085 -13.51770671 16.99260884
15.50060106 -31.8328515 19.67378419
20.497215 -28.45292115 17.58487235
16.77686277 -32.41619214 17.24260203
29.84626449 -21.68404016 13.40147384
25.21406899 -25.11281256 15.52057172
28.64701367 -23.61570525 11.89914936
19.07878571 -33.05856574 12.17102879
21.66885574 -28.88723068 15.143537
17.97693946 -32.82800292 14.72122837
21.48811167 -31.14609618 11.05014625
19.27694394 -30.62865875 16.18644682
26.10852337 -27.33811334 8.888991057
24.07563125 -27.10270566 14.05967871
27.39612397 -25.50753002 10.38688343
23.83303403 -29.2364619 9.95489584
26.36222679 -25.37532829 12.99608969
22.81060516 -29.12775572 12.58924084
32.94565748 -20.36153611 -9.298236701
33.82281942 -20.903652 -3.129267135
31.56374582 -22.23088985 -7.76879891
32.94565748 -20.36153611 9.298236701
33.82281942 -20.903652 3.129267135
31.56374582 -22.23088985 7.76879891
28.7279171 -25.77131198 -4.711970357
32.2187743 -22.63951554 -1.603018488
30.1506748 -24.04176451 -6.235014903
28.90707738 -25.9524603 -1.58152232
31.99966588 -22.50305905 -4.691709457
28.7279171 -25.77131198 4.711970357
32.2187743 -22.63951554 1.603018488
30.1506748 -24.04176451 6.235014903
28.90707738 -25.9524603 1.58152232
31.99966588 -22.50305905 4.691709457
30.58830601 -24.31680578 0
2.686635203 -20.68565432 35.13052364
7.746485224 -18.18964865 34.21906092
4.35614932 -22.57385567 33.83301739
2.652576912 -17.94926068 35.98705037
17.23692056 -13.34407891 32.244176
12.54319966 -15.76759209 33.26462363
7.670307406 -25.96900248 30.68361233
9.37875631 -19.93375052 32.82794727
6.033131312 -24.34703308 32.33896189
6.922007579 -21.22900516 33.33235502
2.605290112 -12.49647851 37.32631702
7.703622039 -15.58476583 35.15837234
2.628255547 -15.20361627 36.71917515
5.226525375 -16.75534361 35.57645806
38.09791534 -1.890015519 26.60391593
32.21385064 -5.2401986 28.38807404
37.31990353 -4.805101198 24.90035418
21.97538097 -10.84256941 31.12517818
26.91028207 -8.176848075 29.86188707
35.51190039 -10.14554633 21.56349762
31.72561217 -7.930787139 26.85089657
36.44410852 -7.568213984 23.21084626
34.44003032 -6.425104986 25.92886439
13.87884422 -30.90941044 22.45644167
15.76823709 -25.61641575 25.51354355
12.43717675 -29.94230609 24.68350395
16.51394682 -29.29938231 21.39754862
18.90742462 -14.89680091 30.59285567
17.42715409 -20.31337601 28.19772764
16.58353843 -16.13560112 31.17714874
9.358689891 -27.4881111 28.78267323
14.27719621 -24.44810571 27.52201203
10.91717542 -28.7948058 26.80979157
10.23618858 -24.50647748 30.06258851
13.39689353 -27.17524684 26.15791205
21.52097887 -26.08659234 19.34024901
18.38417154 -24.17462609 24.52875908
19.06819374 -27.68500409 20.35570919
17.479153 -26.73215706 23.0209835
11.88336206 -18.62785161 32.27721441
15.119669 -21.63470307 28.841701
14.23389988 -17.38183458 31.74127151
11.07898674 -21.54419488 31.22738639
15.87533927 -18.90643627 30.03996829
12.72627228 -23.05889416 29.44480568
2.591570167 -1.601678447 38.71038598
7.720757634 -4.771690637 37.80548926
2.591146144 -4.287607521 38.51787928
17.3814605 -10.74233336 33.3438414
12.68743752 -7.841267618 36.00794055
15.00531936 -11.96282627 33.81782386
2.605749327 -9.681526399 37.83909457
7.700288796 -7.445703571 37.31735665
2.5941273 -6.994954006 38.22709
5.179022731 -11.32649093 37.02795781
5.173948865 -5.884192746 38.02820535
10.22616337 -14.3475217 34.71818905
10.25792396 -9.027055179 36.35010921
12.61307808 -13.17004603 34.27682753
7.736006354 -12.89186091 35.97959416
12.66347982 -10.51480892 35.19473136
7.737134367 -10.16429136 36.70224964
31.2230625 -19.29691386 15.20367208
28.71521817 -17.74698082 20.68617129
32.33930832 -17.20170651 16.73707188
28.82042754 -21.04776452 16.24399459
21.69116122 -13.40587489 29.85606602
25.5050183 -15.76296819 25.60785613
24.06686543 -12.1264736 29.19429319
20.91861558 -16.14432155 28.64358559
34.46400657 -12.68846385 19.88989484
29.56578111 -15.49925312 22.1778492
33.42832012 -14.99043167 18.3056791
32.88614715 -11.66748903 22.68859629
31.04183717 -16.40480083 19.53698854
24.04179155 -24.39397865 18.28315434
26.19398555 -19.41986889 21.60957638
26.41919089 -22.75146581 17.27451619
22.59725444 -23.58843278 20.99349419
27.59120801 -20.28674458 19.00359119
29.01760396 -9.435077648 27.71247532
27.85658157 -14.45075601 24.74530751
26.51659051 -10.79778145 28.47989594
31.05419083 -10.57382512 25.31481373
26.04155393 -13.33730019 27.05436331
30.32653597 -13.10736292 23.74939712
19.2888437 -21.46377731 26.01725563
24.54597251 -18.39707291 24.191591
20.1149629 -18.84267485 27.35757447
20.99903141 -22.60321467 23.59465444
22.81415703 -17.32211578 26.49198846
23.61096632 -21.01354884 22.61884112
2.791532027 21.49330377 36.5021577
8.591132857 20.17297957 37.9501787
4.671570357 24.20838848 36.28280611
2.740557227 18.54459934 37.18066401
20.67899252 16.00878226 38.68307405
14.60514133 18.35958265 38.73290249
8.942590515 30.27651213 35.77313998
10.81572486 22.98790521 37.85768961
6.723869043 27.13454316 36.0414739
7.714885261 23.66067028 37.15039192
2.663455112 12.7754715 38.15965425
8.401866189 16.99734442 38.34507174
2.70083121 15.62344323 37.7331247
5.55949977 17.82280239 37.8429829
40.05966962 1.987337012 27.97381624
36.56860823 5.948583167 32.22565256
42.75111975 5.504394097 28.52413652
36.73628086 0 28.85322312
26.57408186 13.11155093 37.63862087
31.9810338 9.717625927 35.48881493
45.7031805 13.05713662 27.75183568
38.87105599 9.717009376 32.898426
45.61609311 9.472926292 29.05238095
40.97724719 7.644683028 30.85053862
30.72462583 -3.49179477 30.36287092
33.17665337 3.770462994 32.78602803
33.62090235 -1.823389188 29.65024028
35.0778368 1.902404275 30.93510932
18.85610984 41.99422008 30.50982662
21.97739939 35.70356006 35.5601792
16.77171961 40.37764942 33.28607576
23.05242993 40.90009281 29.86963053
23.89197925 18.82403687 38.65803448
23.93181297 27.89531286 38.72248681
20.6498156 20.09204423 38.82177347
11.5315126 33.8700719 35.46519469
19.48573714 33.36715098 37.56246564
14.29947016 37.7158423 35.11584269
12.53221364 30.00339522 36.80576799
18.37800235 37.27929534 35.88370455
31.36859105 38.02334698 28.18999849
25.97234745 34.15284648 34.65314997
27.26321706 39.58331273 29.10407382
24.58950382 37.60654065 32.38569749
14.1400681 22.16536777 38.40680842
20.09780413 28.75790631 38.33780073
17.36729154 21.20819952 38.72866333
13.40288211 26.06324124 37.77755026
20.46532838 24.37279734 38.725334
16.28605325 29.50890645 37.68107916
2.59873662 1.606107559 38.81743157
7.916681501 4.892778246 38.76485076
2.610458606 4.319564135 38.80496269
5.207144897 0 38.64878357
20.0403868 12.38564019 38.44461051
13.61807205 8.416431386 38.64915416
17.19175987 13.70594198 38.74545376
2.650488478 9.847752391 38.48876909
8.01103943 7.746180238 38.82332514
2.625932805 7.080716198 38.69577629
5.393163835 11.79481621 38.55898175
5.28173022 6.006769578 38.82039166
10.39681974 -3.191310552 37.61604721
10.63352739 3.263968116 38.4724635
7.828744271 -1.61175025 38.24557728
7.895115847 1.625414562 38.56982075
11.39537999 15.98795714 38.68772115
10.95284855 9.638594385 38.81265281
14.28530713 14.91611733 38.82121442
8.305010363 13.84009184 38.62598978
13.95625479 11.58823281 38.7876512
8.175436106 10.74008937 38.78139924
45.64951255 28.21295033 22.22844795
40.57922018 25.07933731 29.232886
45.74067735 24.33007223 23.67289359
42.69803869 31.18268328 24.06580224
27.6785704 17.10629726 38.09723311
35.55537657 21.9744312 35.69873807
30.74517296 15.49144526 37.29540918
28.15838257 21.73174323 38.55690345
45.74807812 16.84287153 26.40216717
40.86932227 21.42490227 30.65684829
45.76928414 20.52455296 25.0637132
43.49759201 15.43226318 30.00957517
43.30516841 22.88565135 27.25523538
35.53474561 36.05529248 27.02324564
37.39612418 27.72498394 30.8511433
39.2707238 33.81884531 25.67765064
32.6967996 34.13097204 30.37625984
40.00890773 29.41699731 27.55634788
36.36531005 11.82418522 34.72970265
38.34102911 19.88962125 34.05875746
33.67380029 13.71225822 36.16703014
41.14825674 14.01081332 33.54331337
35.46632747 18.16424079 36.84568561
41.02331428 17.73059306 32.12628647
27.29146176 30.36873888 36.81137906
34.68834425 25.99872538 34.18753265
28.43936307 26.64054982 38.67926563
29.94349178 32.230971 33.64471091
32.11747943 24.38585377 37.29508363
33.79567606 30.07784941 32.37559264
20.24115664 -9.243264583 32.75087942
21.44031424 -3.209605227 34.69115716
22.69505997 -7.931007635 32.22278141
17.93249328 -7.825241282 34.28637055
23.34530644 10.66079612 37.7734993
22.49174827 3.36700442 36.39241317
26.01305311 9.090512343 36.93371708
19.87838293 8.674373402 38.00685116
27.85831618 -5.093553643 31.05435215
24.08403002 -1.705299096 34.27449346
25.2415232 -6.546161505 31.65528709
28.90982856 -1.761741993 32.20113398
23.40161958 -4.879052205 33.27743157
13.04677688 -4.820780112 36.71050059
18.88679918 -1.680281852 35.9969893
15.51410503 -6.337580665 35.61653501
13.25996791 -1.639022171 37.36704025
18.43758406 -4.7908223 35.17820659
30.92092193 5.653513786 34.46831433
24.76837195 1.753754761 35.24839497
28.56663961 7.408500471 35.82530145
29.93917808 1.824469735 33.34767214
25.40506296 5.296754271 36.12635618
26.90436361 0 33.84321586
13.6278222 5.035476181 38.34542274
19.29746741 1.716817338 36.77969578
16.63728634 6.79640521 38.19508056
13.45539904 1.663178788 37.91777183
19.62339917 5.098944527 37.44069656
16.2332394 0 37.08809269
44.0476406 0 -23.17732359
48.91535258 0 -17.63320138
47.15782713 3.475965999 -23.52090887
42.73846317 -3.150218191 -21.31666276
54.64325906 0 -3.787184913
52.62033219 0 -11.083139
49.45303235 10.83575389 -21.92120617
51.95503882 3.626340869 -17.39402861
49.2596091 7.236712449 -23.19965847
50.02039108 3.580319268 -20.71099986
40.05201553 -8.775878094 -17.75398693
46.93197547 -3.275742731 -15.71235712
41.39778984 -6.08173525 -19.49699974
44.96260621 -3.218297215 -18.61681828
44.0476406 0 23.17732359
48.91535258 0 17.63320138
47.15782713 3.475965999 23.52090887
42.73846317 -3.150218191 21.31666276
54.64325906 0 3.787184913
52.62033219 0 11.083139
49.45303235 10.83575389 21.92120617
51.95503882 3.626340869 17.39402861
49.2596091 7.236712449 23.19965847
50.02039108 3.580319268 20.71099986
40.05201553 -8.775878094 17.75398693
46.93197547 -3.275742731 15.71235712
41.39778984 -6.08173525 19.49699974
44.96260621 -3.218297215 18.61681828
50.32188433 26.23176599 -16.21212297
53.06141793 18.69624906 -11.55491738
50.09912251 22.22950051 -17.72222545
52.31686429 27.36282092 -11.94037397
54.85483723 3.67240357 -2.269670227
54.36759593 11.1031239 -6.862107952
54.54534802 3.669334108 -6.071700956
49.67349971 14.631216 -20.52790294
52.76012201 14.88879487 -13.10225864
49.88038767 18.35482657 -19.16533848
51.09008343 10.98492685 -18.30610558
51.63030078 18.57719172 -15.4251141
54.78015571 28.74189814 -2.55705
54.1946449 19.26057746 -7.116777546
53.89467501 28.24725014 -7.339766176
53.47318221 23.29223112 -9.514979646
53.10395459 3.656947808 -13.5871998
53.60079207 11.06031122 -10.69463769
53.95405883 3.661374616 -9.872741031
52.22447968 7.304528345 -15.97495866
54.16623601 7.369617703 -8.3812678
52.49460008 11.06629099 -14.53781213
34.57410062 -18.02276939 -11.13868406
39.58626113 -13.94826272 -8.620500446
35.93432551 -15.9444331 -12.7115244
35.26686382 -18.44531189 -8.049021062
51.38277079 -3.43995681 -2.126010228
45.10103376 -9.210677009 -5.692511451
50.89373191 -3.423685303 -5.665222277
38.65583539 -11.38598811 -15.97478014
41.29986471 -11.65473449 -10.25625963
37.30108238 -13.72593377 -14.33204317
41.7071455 -8.96749255 -14.94410182
38.55859328 -13.87383705 -11.51979926
35.97726925 -18.87645251 -1.679361351
40.13355219 -14.26331683 -5.270291255
35.73992481 -18.73199153 -4.867321144
37.67137523 -16.40916703 -6.703217459
48.6553373 -3.350598472 -12.44897474
44.31738293 -9.144716503 -8.842375933
49.96965496 -3.390989116 -9.143658022
45.03390404 -6.298797624 -13.77543175
47.45724792 -6.456822555 -7.343170454
43.1448934 -9.095296359 -11.94851192
50.32188433 26.23176599 16.21212297
53.06141793 18.69624906 11.55491738
50.09912251 22.22950051 17.72222545
52.31686429 27.36282092 11.94037397
54.85483723 3.67240357 2.269670227
54.36759593 11.1031239 6.862107952
54.54534802 3.669334108 6.071700956
54.90511178 7.397357595 0
49.67349971 14.631216 20.52790294
52.76012201 14.88879487 13.10225864
49.88038767 18.35482657 19.16533848
51.09008343 10.98492685 18.30610558
51.63030078 18.57719172 15.4251141
54.78015571 28.74189814 2.55705
54.1946449 19.26057746 7.116777546
53.89467501 28.24725014 7.339766176
54.90511178 24.03164356 0
53.47318221 23.29223112 9.514979646
53.10395459 3.656947808 13.5871998
53.60079207 11.06031122 10.69463769
53.95405883 3.661374616 9.872741031
52.22447968 7.304528345 15.97495866
54.16623601 7.369617703 8.3812678
52.49460008 11.06629099 14.53781213
54.63522769 15.10080554 -4.635202037
54.63522769 15.10080554 4.635202037
54.8439626 11.22637932 -2.311241631
54.82355251 19.45453913 -2.404713284
54.8439626 11.22637932 2.311241631
54.82355251 19.45453913 2.404713284
34.57410062 -18.02276939 11.13868406
39.58626113 -13.94826272 8.620500446
35.93432551 -15.9444331 12.7115244
35.26686382 -18.44531189 8.049021062
51.38277079 -3.43995681 2.126010228
45.10103376 -9.210677009 5.692511451
50.89373191 -3.423685303 5.665222277
48.38606447 -6.519047314 0
38.65583539 -11.38598811 15.97478014
41.29986471 -11.65473449 10.25625963
37.30108238 -13.72593377 14.33204317
41.7071455 -8.96749255 14.94410182
38.55859328 -13.87383705 11.51979926
35.97726925 -18.87645251 1.679361351
40.13355219 -14.26331683 5.270291255
35.73992481 -18.73199153 4.867321144
38.18970373 -16.71540805 0
37.67137523 -16.40916703 6.703217459
48.6553373 -3.350598472 12.44897474
44.31738293 -9.144716503 8.842375933
49.96965496 -3.390989116 9.143658022
45.03390404 -6.298797624 13.77543175
47.45724792 -6.456822555 7.343170454
43.1448934 -9.095296359 11.94851192
42.82703657 -11.83710178 -3.633406055
42.82703657 -11.83710178 3.633406055
45.52020944 -9.317837623 -1.918318774
40.48223733 -14.3654184 -1.775663367
45.52020944 -9.317837623 1.918318774
40.48223733 -14.3654184 1.775663367
-22.55648946 32.30183212 -1.602475186
-25.52931413 28.96982412 -4.712495674
-21.84296902 32.73758642 -4.21510778
-30.9195955 21.83023296 -10.77095393
-28.29874911 25.5016476 -7.748826176
-20.11761841 33.13075057 -9.465265477
-24.71892092 29.20658148 -7.301078369
-21.02700254 33.01518411 -6.856141862
-23.31945948 30.97408661 -5.778501253
-40.34279013 3.085247498 -23.75475582
-38.16972792 8.640834243 -20.2896842
-33.42995076 17.87080574 -13.83480543
-35.84902085 13.51770671 -16.99260884
-15.50060106 31.8328515 -19.67378419
-20.497215 28.45292115 -17.58487235
-16.77686277 32.41619214 -17.24260203
-29.84626449 21.68404016 -13.40147384
-25.21406899 25.11281256 -15.52057172
-28.64701367 23.61570525 -11.89914936
-19.07878571 33.05856574 -12.17102879
-21.66885574 28.88723068 -15.143537
-17.97693946 32.82800292 -14.72122837
-21.48811167 31.14609618 -11.05014625
-19.27694394 30.62865875 -16.18644682
-26.10852337 27.33811334 -8.888991057
-24.07563125 27.10270566 -14.05967871
-27.39612397 25.50753002 -10.38688343
-23.83303403 29.2364619 -9.95489584
-26.36222679 25.37532829 -12.99608969
-22.81060516 29.12775572 -12.58924084
-38.18673971 -54.68500127 -2.712891246
-45.21631619 -51.30998509 -8.346549907
-35.80005769 -53.65605203 -6.908451938
-48.16829493 -34.0083718 -16.77960132
-47.72662968 -43.00923997 -13.06861148
-30.71756291 -50.58729586 -14.45250038
-41.64206116 -49.20207706 -12.29956408
-33.24153944 -52.19362781 -10.83885873
-39.100459 -51.93520909 -9.688991787
-44.15326986 -3.376657016 -25.99845327
-47.63820307 -10.78430051 -25.32279241
-48.11296425 -25.7199732 -19.91129163
-47.90670274 -18.06433598 -22.70800822
-21.38460608 -43.91655441 -27.1419233
-29.98654581 -41.62540246 -25.72591351
-23.56988857 -45.54165145 -24.22420771
-45.41525229 -32.99529008 -20.39221074
-38.30791279 -38.15407318 -23.58051404
-45.05060086 -37.13831129 -18.71272986
-28.19267316 -48.85055859 -17.98509831
-32.52583877 -43.3609148 -22.73106844
-25.84580325 -47.19747244 -21.1650027
-33.23163756 -48.16783324 -17.08919149
-28.05321186 -44.57305348 -23.55569552
-43.38814571 -45.43152549 -14.77206634
-37.08401927 -41.74666277 -21.65631258
-44.42776676 -41.36507032 -16.84420887
-38.40267358 -47.10933159 -16.04053496
-41.27041208 -39.72540951 -20.34554901
-35.36420586 -45.15794045 -19.51761041
-2.791532027 -21.49330377 -36.5021577
-8.591132857 -20.17297957 -37.9501787
-4.671570357 -24.20838848 -36.28280611
-2.740557227 -18.54459934 -37.18066401
-20.67899252 -16.00878226 -38.68307405
-14.60514133 -18.35958265 -38.73290249
-8.942590515 -30.27651213 -35.77313998
-10.81572486 -22.98790521 -37.85768961
-6.723869043 -27.13454316 -36.0414739
-7.714885261 -23.66067028 -37.15039192
-2.663455112 -12.7754715 -38.15965425
-8.401866189 -16.99734442 -38.34507174
-2.70083121 -15.62344323 -37.7331247
-5.55949977 -17.82280239 -37.8429829
-40.05966962 -1.987337012 -27.97381624
-36.56860823 -5.948583167 -32.22565256
-42.75111975 -5.504394097 -28.52413652
-26.57408186 -13.11155093 -37.63862087
-31.9810338 -9.717625927 -35.48881493
-45.7031805 -13.05713662 -27.75183568
-38.87105599 -9.717009376 -32.898426
-45.61609311 -9.472926292 -29.05238095
-40.97724719 -7.644683028 -30.85053862
-18.85610984 -41.99422008 -30.50982662
-21.97739939 -35.70356006 -35.5601792
-16.77171961 -40.37764942 -33.28607576
-23.05242993 -40.90009281 -29.86963053
-23.89197925 -18.82403687 -38.65803448
-23.93181297 -27.89531286 -38.72248681
-20.6498156 -20.09204423 -38.82177347
-11.5315126 -33.8700719 -35.46519469
-19.48573714 -33.36715098 -37.56246564
-14.29947016 -37.7158423 -35.11584269
-12.53221364 -30.00339522 -36.80576799
-18.37800235 -37.27929534 -35.88370455
-31.36859105 -38.02334698 -28.18999849
-25.97234745 -34.15284648 -34.65314997
-27.26321706 -39.58331273 -29.10407382
-24.58950382 -37.60654065 -32.38569749
-14.1400681 -22.16536777 -38.40680842
-20.09780413 -28.75790631 -38.33780073
-17.36729154 -21.20819952 -38.72866333
-13.40288211 -26.06324124 -37.77755026
-20.46532838 -24.37279734 -38.725334
-16.28605325 -29.50890645 -37.68107916
-2.59873662 -1.606107559 -38.81743157
-7.916681501 -4.892778246 -38.76485076
-2.610458606 -4.319564135 -38.80496269
-20.0403868 -12.38564019 -38.44461051
-13.61807205 -8.416431386 -38.64915416
-17.19175987 -13.70594198 -38.74545376
-2.650488478 -9.847752391 -38.48876909
-8.01103943 -7.746180238 -38.82332514
-2.625932805 -7.080716198 -38.69577629
-5.393163835 -11.79481621 -38.55898175
-5.28173022 -6.006769578 -38.82039166
-11.39537999 -15.98795714 -38.68772115
-10.95284855 -9.638594385 -38.81265281
-14.28530713 -14.91611733 -38.82121442
-8.305010363 -13.84009184 -38.62598978
-13.95625479 -11.58823281 -38.7876512
-8.175436106 -10.74008937 -38.78139924
-45.64951255 -28.21295033 -22.22844795
-40.57922018 -25.07933731 -29.232886
-45.74067735 -24.33007223 -23.67289359
-42.69803869 -31.18268328 -24.06580224
-27.6785704 -17.10629726 -38.09723311
-35.55537657 -21.9744312 -35.69873807
-30.74517296 -15.49144526 -37.29540918
-28.15838257 -21.73174323 -38.55690345
-45.74807812 -16.84287153 -26.40216717
-40.86932227 -21.42490227 -30.65684829
-45.76928414 -20.52455296 -25.0637132
-43.49759201 -15.43226318 -30.00957517
-43.30516841 -22.88565135 -27.25523538
-35.53474561 -36.05529248 -27.02324564
-37.39612418 -27.72498394 -30.8511433
-39.2707238 -33.81884531 -25.67765064
-32.6967996 -34.13097204 -30.37625984
-40.00890773 -29.41699731 -27.55634788
-36.36531005 -11.82418522 -34.72970265
-38.34102911 -19.88962125 -34.05875746
-33.67380029 -13.71225822 -36.16703014
-41.14825674 -14.01081332 -33.54331337
-35.46632747 -18.16424079 -36.84568561
-41.02331428 -17.73059306 -32.12628647
-27.29146176 -30.36873888 -36.81137906
-34.68834425 -25.99872538 -34.18753265
-28.43936307 -26.64054982 -38.67926563
-29.94349178 -32.230971 -33.64471091
-32.11747943 -24.38585377 -37.29508363
-33.79567606 -30.07784941 -32.37559264
-2.686635203 20.68565432 -35.13052364
-7.746485224 18.18964865 -34.21906092
-4.35614932 22.57385567 -33.83301739
-2.652576912 17.94926068 -35.98705037
-17.23692056 13.34407891 -32.244176
-12.54319966 15.76759209 -33.26462363
-7.670307406 25.96900248 -30.68361233
-9.37875631 19.93375052 -32.82794727
-6.033131312 24.34703308 -32.33896189
-6.922007579 21.22900516 -33.33235502
-2.605290112 12.49647851 -37.32631702
-7.703622039 15.58476583 -35.15837234
-2.628255547 15.20361627 -36.71917515
-5.226525375 16.75534361 -35.57645806
-38.09791534 1.890015519 -26.60391593
-32.21385064 5.2401986 -28.38807404
-37.31990353 4.805101198 -24.90035418
-36.73628086 0 -28.85322312
-21.97538097 10.84256941 -31.12517818
-26.91028207 8.176848075 -29.86188707
-35.51190039 10.14554633 -21.56349762
-31.72561217 7.930787139 -26.85089657
-36.44410852 7.568213984 -23.21084626
-34.44003032 6.425104986 -25.92886439
-33.17665337 -3.770462994 -32.78602803
-30.72462583 3.49179477 -30.36287092
-35.0778368 -1.902404275 -30.93510932
-33.62090235 1.823389188 -29.65024028
-13.87884422 30.90941044 -22.45644167
-15.76823709 25.61641575 -25.51354355
-12.43717675 29.94230609 -24.68350395
-16.51394682 29.29938231 -21.39754862
-18.90742462 14.89680091 -30.59285567
-17.42715409 20.31337601 -28.19772764
-16.58353843 16.13560112 -31.17714874
-9.358689891 27.4881111 -28.78267323
-14.27719621 24.44810571 -27.52201203
-10.91717542 28.7948058 -26.80979157
-10.23618858 24.50647748 -30.06258851
-13.39689353 27.17524684 -26.15791205
-21.52097887 26.08659234 -19.34024901
-18.38417154 24.17462609 -24.52875908
-19.06819374 27.68500409 -20.35570919
-17.479153 26.73215706 -23.0209835
-11.88336206 18.62785161 -32.27721441
-15.119669 21.63470307 -28.841701
-14.23389988 17.38183458 -31.74127151
-11.07898674 21.54419488 -31.22738639
-15.87533927 18.90643627 -30.03996829
-12.72627228 23.05889416 -29.44480568
-2.591570167 1.601678447 -38.71038598
-7.720757634 4.771690637 -37.80548926
-2.591146144 4.287607521 -38.51787928
-5.207144897 0 -38.64878357
-17.3814605 10.74233336 -33.3438414
-12.68743752 7.841267618 -36.00794055
-15.00531936 11.96282627 -33.81782386
-2.605749327 9.681526399 -37.83909457
-7.700288796 7.445703571 -37.31735665
-2.5941273 6.994954006 -38.22709
-5.179022731 11.32649093 -37.02795781
-5.173948865 5.884192746 -38.02820535
-10.63352739 -3.263968116 -38.4724635
-10.39681974 3.191310552 -37.61604721
-7.895115847 -1.625414562 -38.56982075
-7.828744271 1.61175025 -38.24557728
-10.22616337 14.3475217 -34.71818905
-10.25792396 9.027055179 -36.35010921
-12.61307808 13.17004603 -34.27682753
-7.736006354 12.89186091 -35.97959416
-12.66347982 10.51480892 -35.19473136
-7.737134367 10.16429136 -36.70224964
-31.2230625 19.29691386 -15.20367208
-28.71521817 17.74698082 -20.68617129
-32.33930832 17.20170651 -16.73707188
-28.82042754 21.04776452 -16.24399459
-21.69116122 13.40587489 -29.85606602
-25.5050183 15.76296819 -25.60785613
-24.06686543 12.1264736 -29.19429319
-20.91861558 16.14432155 -28.64358559
-34.46400657 12.68846385 -19.88989484
-29.56578111 15.49925312 -22.1778492
-33.42832012 14.99043167 -18.3056791
-32.88614715 11.66748903 -22.68859629
-31.04183717 16.40480083 -19.53698854
-24.04179155 24.39397865 -18.28315434
-26.19398555 19.41986889 -21.60957638
-26.41919089 22.75146581 -17.27451619
-22.59725444 23.58843278 -20.99349419
-27.59120801 20.28674458 -19.00359119
-29.01760396 9.435077648 -27.71247532
-27.85658157 14.45075601 -24.74530751
-26.51659051 10.79778145 -28.47989594
-31.05419083 10.57382512 -25.31481373
-26.04155393 13.33730019 -27.05436331
-30.32653597 13.10736292 -23.74939712
-19.2888437 21.46377731 -26.01725563
-24.54597251 18.39707291 -24.191591
-20.1149629 18.84267485 -27.35757447
-20.99903141 22.60321467 -23.59465444
-22.81415703 17.32211578 -26.49198846
-23.61096632 21.01354884 -22.61884112
-23.34530644 -10.66079612 -37.7734993
-22.49174827 -3.36700442 -36.39241317
-26.01305311 -9.090512343 -36.93371708
-19.87838293 -8.674373402 -38.00685116
-20.24115664 9.243264583 -32.75087942
-21.44031424 3.209605227 -34.69115716
-22.69505997 7.931007635 -32.22278141
-17.93249328 7.825241282 -34.28637055
-30.92092193 -5.653513786 -34.46831433
-24.76837195 -1.753754761 -35.24839497
-28.56663961 -7.408500471 -35.82530145
-29.93917808 -1.824469735 -33.34767214
-25.40506296 -5.296754271 -36.12635618
-13.6278222 -5.035476181 -38.34542274
-19.29746741 -1.716817338 -36.77969578
-16.63728634 -6.79640521 -38.19508056
-13.45539904 -1.663178788 -37.91777183
-19.62339917 -5.098944527 -37.44069656
-27.85831618 5.093553643 -31.05435215
-24.08403002 1.705299096 -34.27449346
-25.2415232 6.546161505 -31.65528709
-28.90982856 1.761741993 -32.20113398
-23.40161958 4.879052205 -33.27743157
-26.90436361 0 -33.84321586
-13.04677688 4.820780112 -36.71050059
-18.88679918 1.680281852 -35.9969893
-15.51410503 6.337580665 -35.61653501
-13.25996791 1.639022171 -37.36704025
-18.43758406 4.7908223 -35.17820659
-16.2332394 0 -37.08809269
-22.55648946 32.30183212 1.602475186
-25.52931413 28.96982412 4.712495674
-21.84296902 32.73758642 4.21510778
-24.15309378 30.75201801 0
-30.9195955 21.83023296 10.77095393
-28.29874911 25.5016476 7.748826176
-20.11761841 33.13075057 9.465265477
-24.71892092 29.20658148 7.301078369
-21.02700254 33.01518411 6.856141862
-23.31945948 30.97408661 5.778501253
-27.20125351 27.5253397 -3.128202039
-27.20125351 27.5253397 3.128202039
-25.70839304 29.15117597 -1.580978955
-25.70839304 29.15117597 1.580978955
-40.34279013 3.085247498 23.75475582
-38.16972792 8.640834243 20.2896842
-33.42995076 17.87080574 13.83480543
-35.84902085 13.51770671 16.99260884
-15.50060106 31.8328515 19.67378419
-20.497215 28.45292115 17.58487235
-16.77686277 32.41619214 17.24260203
-29.84626449 21.68404016 13.40147384
-25.21406899 25.11281256 15.52057172
-28.64701367 23.61570525 11.89914936
-19.07878571 33.05856574 12.17102879
-21.66885574 28.88723068 15.143537
-17.97693946 32.82800292 14.72122837
-21.48811167 31.14609618 11.05014625
-19.27694394 30.62865875 16.18644682
-26.10852337 27.33811334 8.888991057
-24.07563125 27.10270566 14.05967871
-27.39612397 25.50753002 10.38688343
-23.83303403 29.2364619 9.95489584
-26.36222679 25.37532829 12.99608969
-22.81060516 29.12775572 12.58924084
-32.94565748 20.36153611 -9.298236701
-33.82281942 20.903652 -3.129267135
-31.56374582 22.23088985 -7.76879891
-32.94565748 20.36153611 9.298236701
-33.82281942 20.903652 3.129267135
-31.56374582 22.23088985 7.76879891
-28.7279171 25.77131198 -4.711970357
-32.2187743 22.63951554 -1.603018488
-30.1506748 24.04176451 -6.235014903
-28.90707738 25.9524603 -1.58152232
-31.99966588 22.50305905 -4.691709457
-28.7279171 25.77131198 4.711970357
-32.2187743 22.63951554 1.603018488
-30.1506748 24.04176451 6.235014903
-28.90707738 25.9524603 1.58152232
-31.99966588 22.50305905 4.691709457
-30.58830601 24.31680578 0
-38.18673971 -54.68500127 2.712891246
-45.21631619 -51.30998509 8.346549907
-35.80005769 -53.65605203 6.908451938
-43.12329401 -54.90511178 0
-48.16829493 -34.0083718 16.77960132
-47.72662968 -43.00923997 13.06861148
