-14.689785 24.524541 -15.157000
-22.407768 19.061186 -11.780461
-16.609351 25.212322 -11.139578
-20.474225 22.210358 -9.361065
-34.326032 -43.704329 -4.521086
-39.115853 -31.287697 -12.224090
-29.381960 -40.769401 -10.956693
-38.505593 -5.840880 -21.566748
-39.086808 -17.767546 -17.370377
-20.908057 -34.905921 -21.573046
-34.258667 -29.142163 -18.010847
-24.837267 -37.701965 -16.657886
-32.657350 -35.426563 -14.931338
-4.605321 -17.004596 -30.360259
-14.364330 -14.043235 -31.600076
-8.089641 -21.693543 -30.101217
-4.435013 -12.067487 -31.136619
-31.308272 -3.238750 -24.589984
-23.897443 -9.336721 -29.876563
-35.424392 -9.520233 -25.529884
-16.670044 -31.708308 -26.972698
-19.528653 -18.926683 -31.598025
-12.556196 -27.462515 -29.791227
-23.304526 -29.351207 -25.614153
-13.800799 -20.577290 -31.235492
-4.254767 -2.629591 -31.579990
-13.603821 -8.407624 -31.386560
-4.333457 -7.183146 -31.536582
-9.104361 -10.386023 -31.587894
-35.089016 -21.686205 -21.017727
-26.198747 -16.191716 -30.798474
-35.357824 -15.622172 -23.292996
-29.766390 -25.976474 -23.634176
-31.333789 -13.206344 -28.884498
-25.299695 -23.018423 -28.990871
-4.281769 15.809918 -28.227264
-12.122759 11.851771 -26.668845
-6.958661 18.660657 -25.892888
-4.214872 11.468491 -29.591087
-28.543800 2.952774 -22.418726
-19.867229 7.762118 -24.837994
-27.460875 7.380054 -19.790684
-26.005746 0.000000 -25.699552
-12.092485 23.001274 -19.566052
-14.803573 14.347252 -23.952684
-9.656884 21.121231 -22.912228
-16.295565 20.523675 -17.910559
-11.018613 16.428991 -24.938542
-4.207884 2.600615 -31.232011
-12.270799 7.583771 -28.311029
-4.204383 6.969193 -30.597254
-8.572093 0.000000 -31.014125
-8.348135 9.523340 -28.964142
-24.469644 15.123072 -14.656903
-19.263884 11.905735 -22.646054
-26.033641 11.502462 -17.150419
-20.467142 17.861224 -16.250678
-23.170478 9.765729 -21.359295
-17.842487 16.233631 -20.445671
-18.678982 -5.627326 -30.223228
-16.977268 5.114658 -27.469797
-22.571682 -2.952904 -28.393100
-13.431915 -2.767127 -30.687905
-21.200950 2.773580 -26.668845
-12.958273 2.669551 -29.605775
-19.593916 24.947217 2.580717
-24.113455 19.287690 7.535692
-18.277427 25.361131 6.815752
-22.212878 22.477531 0.000000
-31.972344 4.849857 17.907515
-28.204095 12.820632 12.534044
-14.689785 24.524541 15.157000
-22.407768 19.061186 11.780461
-16.609351 25.212322 11.139578
-20.474225 22.210358 9.361065
-27.261559 16.848570 -5.075886
-27.261559 16.848570 5.075886
-24.814407 19.726726 -2.580717
-24.814407 19.726726 2.580717
-34.326032 -43.704329 4.521086
-39.115853 -31.287697 12.224090
-29.381960 -40.769401 10.956693
-44.164220 -44.690410 0.000000
-38.505593 -5.840880 21.566748
-39.086808 -17.767546 17.370377
-20.908057 -34.905921 21.573046
-34.258667 -29.142163 18.010847
-24.837267 -37.701965 16.657886
-32.657350 -35.426563 14.931338
-42.930967 -26.532797 -7.993406
-42.930967 -26.532797 7.993406
-43.657932 -34.706775 -4.540458
-43.657932 -34.706775 4.540458
-4.605321 -17.004596 30.360259
-14.364330 -14.043235 31.600076
-8.089641 -21.693543 30.101217
-4.435013 -12.067487 31.136619
-31.308272 -3.238750 24.589984
-23.897443 -9.336721 29.876563
-35.424392 -9.520233 25.529884
-16.670044 -31.708308 26.972698
-19.528653 -18.926683 31.598025
-12.556196 -27.462515 29.791227
-23.304526 -29.351207 25.614153
-13.800799 -20.577290 31.235492
-4.254767 -2.629591 31.579990
-13.603821 -8.407624 31.386560
-4.333457 -7.183146 31.536582
-9.104361 -10.386023 31.587894
-35.089016 -21.686205 21.017727
-26.198747 -16.191716 30.798474
-35.357824 -15.622172 23.292996
-29.766390 -25.976474 23.634176
-31.333789 -13.206344 28.884498
-25.299695 -23.018423 28.990871
-4.281769 15.809918 28.227264
-12.122759 11.851771 26.668845
-6.958661 18.660657 25.892888
-4.214872 11.468491 29.591087
-28.543800 2.952774 22.418726
-19.867229 7.762118 24.837994
-27.460875 7.380054 19.790684
-26.005746 0.000000 25.699552
-12.092485 23.001274 19.566052
-14.803573 14.347252 23.952684
-9.656884 21.121231 22.912228
-16.295565 20.523675 17.910559
-11.018613 16.428991 24.938542
-4.207884 2.600615 31.232011
-12.270799 7.583771 28.311029
-4.204383 6.969193 30.597254
-8.572093 0.000000 31.014125
-8.348135 9.523340 28.964142
-24.469644 15.123072 14.656903
-19.263884 11.905735 22.646054
-26.033641 11.502462 17.150419
-20.467142 17.861224 16.250678
-23.170478 9.765729 21.359295
-17.842487 16.233631 20.445671
-18.678982 -5.627326 30.223228
-16.977268 5.114658 27.469797
-22.571682 -2.952904 28.393100
-13.431915 -2.767127 30.687905
-21.200950 2.773580 26.668845
-12.958273 2.669551 29.605775
-37.924777 0.000000 -16.717416
-43.847855 0.000000 -6.107303
-35.269454 5.023683 -13.669232
-41.376298 -5.893525 -16.036035
-37.924777 0.000000 16.717416
-43.847855 0.000000 6.107303
-35.269454 5.023683 13.669232
-41.376298 -5.893525 16.036035
-30.142404 13.064569 -8.074348
-39.173807 5.277881 -3.261910
-32.630870 9.404971 -10.728951
-30.963225 13.552421 -2.791952
-37.804564 5.194744 -8.610815
-42.260790 -18.317019 -11.320541
-44.512885 -5.997214 -3.706482
-41.797514 -12.047010 -13.742922
-44.373623 -19.422073 -4.001167
-43.427067 -5.967334 -9.891463
-30.142404 13.064569 8.074348
-39.173807 5.277881 3.261910
-32.630870 9.404971 10.728951
-30.963225 13.552421 2.791952
-37.804564 5.194744 8.610815
-35.013043 9.677367 0.000000
-42.260790 -18.317019 11.320541
-44.512885 -5.997214 3.706482
-41.797514 -12.047010 13.742922
-44.373623 -19.422073 4.001167
-43.427067 -5.967334 9.891463
-44.690410 -12.352125 0.000000
-15.408027 29.282382 0.000000
-11.841504 32.848905 0.000000
-2.896621 41.793789 0.000000
-7.775244 36.915166 0.000000
23.515541 44.690410 0.000000
16.110177 44.690410 0.000000
3.097378 44.690410 0.000000
9.412902 44.690410 0.000000
-23.515541 -44.690410 0.000000
-16.110177 -44.690410 0.000000
-3.097378 -44.690410 0.000000
-9.412902 -44.690410 0.000000
15.408027 -29.282382 0.000000
11.841504 -32.848905 0.000000
2.896621 -41.793789 0.000000
7.775244 -36.915166 0.000000
-26.131992 -44.380059 3.394001
-22.635930 -42.583574 9.640037
-22.171345 -44.452042 3.276525
-15.604451 -37.706063 20.156707
-19.058191 -40.206745 15.160888
-14.907612 -44.528244 3.107968
-19.044228 -42.962729 9.413650
-18.424161 -44.497307 3.184992
-20.641756 -43.828440 6.438821
-1.424947 -20.057595 28.723311
-4.582840 -24.826920 28.172770
-12.255113 -35.180089 24.838279
-8.342798 -30.467937 27.456429
-1.844805 -44.586432 2.984958
-5.512532 -43.675081 8.919464
-4.962103 -44.577233 2.998766
-12.392554 -38.466071 20.051574
-9.073151 -41.664882 14.680667
-14.024185 -39.645099 17.590942
-11.398341 -44.549061 3.067824
-8.692820 -43.567821 8.990047
-8.154736 -44.565244 3.024241
-13.484049 -44.081332 6.165563
-6.841088 -44.212404 6.015344
-17.318414 -41.907165 12.343660
-10.572906 -42.574933 12.014556
-15.678278 -40.804840 15.015235
-15.483513 -43.212575 9.291176
-12.333206 -41.281195 14.853461
-12.021589 -43.408769 9.150923
16.524169 -28.063058 2.146145
15.182677 -28.562232 6.465897
14.836511 -29.746199 2.192569
11.535678 -27.874417 14.900958
13.514169 -28.510614 10.750590
11.178656 -33.390052 2.330548
13.419968 -30.274708 6.633552
13.052487 -31.523853 2.256389
14.168136 -30.083066 4.419493
1.385835 -19.507059 27.934921
4.135788 -22.405080 25.424546
0.000000 -21.698108 27.626299
9.278844 -26.636278 18.806072
6.791342 -24.802011 22.350534
-3.054484 -26.560236 26.876684
2.832990 -24.634236 24.927738
-1.479142 -24.052412 27.273432
1.429104 -23.238748 26.350804
1.768345 -42.738500 2.861243
4.851533 -38.438067 7.849945
4.460098 -40.067450 2.695388
0.000000 -43.900624 5.914725
9.511051 -29.521981 15.389203
7.396426 -33.965181 11.967669
10.595049 -29.951242 13.289677
9.077665 -35.478974 2.443222
7.222950 -36.200930 7.469919
6.890085 -37.653986 2.555236
10.350171 -33.836226 4.732602
5.907002 -38.175617 5.194005
-3.645701 -42.971956 11.877157
3.288059 -38.756422 10.712011
-1.843900 -43.754318 8.956366
1.741260 -41.318740 8.457811
12.534966 -30.332159 8.934268
8.468213 -34.099767 9.622882
11.611465 -30.220409 11.120410
11.504205 -32.106816 6.903317
9.571922 -32.038738 11.527916
9.438511 -34.081529 7.184665
-10.453239 -37.038079 22.890791
-3.281684 -35.470221 21.921802
-8.805529 -35.775864 25.197557
-8.880116 -38.908314 20.349867
8.128015 -28.799310 17.798952
2.955241 -31.941849 19.741148
6.895069 -28.013882 19.730659
7.114025 -31.170170 16.302655
-4.824580 -29.414475 26.387211
-1.617175 -32.503295 22.839443
-6.703221 -32.414779 25.847132
-1.544641 -28.232965 25.347249
-5.000049 -34.102688 23.981963
-5.497804 -41.866075 14.879049
-1.726808 -36.993720 19.409761
-7.212220 -40.531918 17.655183
-1.815318 -41.386293 14.686229
-5.347114 -39.262961 20.578484
4.257357 -25.956234 23.284884
1.538233 -30.916667 21.724550
5.595411 -27.057742 21.575499
1.481306 -27.075327 24.307935
4.316965 -29.443730 20.705654
0.000000 -29.701630 23.611924
4.740692 -36.100627 12.830030
1.625927 -34.832542 18.275840
5.982273 -33.619746 14.644329
1.692449 -38.585088 13.692201
4.486458 -32.943308 17.266230
0.000000 -37.999628 16.632213
-16.524169 28.063058 2.146145
-15.182677 28.562232 6.465897
-14.836511 29.746199 2.192569
-11.535678 27.874417 14.900958
-13.514169 28.510614 10.750590
-11.178656 33.390052 2.330548
-13.419968 30.274708 6.633552
-13.052487 31.523853 2.256389
-14.168136 30.083066 4.419493
-1.385835 19.507059 27.934921
-4.135788 22.405080 25.424546
-9.278844 26.636278 18.806072
-6.791342 24.802011 22.350534
-1.768345 42.738500 2.861243
-4.851533 38.438067 7.849945
-4.460098 40.067450 2.695388
-9.511051 29.521981 15.389203
-7.396426 33.965181 11.967669
-10.595049 29.951242 13.289677
-9.077665 35.478974 2.443222
-7.222950 36.200930 7.469919
-6.890085 37.653986 2.555236
-10.350171 33.836226 4.732602
-5.907002 38.175617 5.194005
-12.534966 30.332159 8.934268
-8.468213 34.099767 9.622882
-11.611465 30.220409 11.120410
-11.504205 32.106816 6.903317
-9.571922 32.038738 11.527916
-9.438511 34.081529 7.184665
26.131992 44.380059 3.394001
22.635930 42.583574 9.640037
22.171345 44.452042 3.276525
15.604451 37.706063 20.156707
19.058191 40.206745 15.160888
14.907612 44.528244 3.107968
19.044228 42.962729 9.413650
18.424161 44.497307 3.184992
20.641756 43.828440 6.438821
1.424947 20.057595 28.723311
4.582840 24.826920 28.172770
0.000000 21.698108 27.626299
12.255113 35.180089 24.838279
8.342798 30.467937 27.456429
-2.832990 24.634236 24.927738
3.054484 26.560236 26.876684
-1.429104 23.238748 26.350804
1.479142 24.052412 27.273432
1.844805 44.586432 2.984958
5.512532 43.675081 8.919464
4.962103 44.577233 2.998766
0.000000 43.900624 5.914725
12.392554 38.466071 20.051574
9.073151 41.664882 14.680667
14.024185 39.645099 17.590942
11.398341 44.549061 3.067824
8.692820 43.567821 8.990047
8.154736 44.565244 3.024241
13.484049 44.081332 6.165563
6.841088 44.212404 6.015344
-3.288059 38.756422 10.712011
3.645701 42.971956 11.877157
-1.741260 41.318740 8.457811
1.843900 43.754318 8.956366
17.318414 41.907165 12.343660
10.572906 42.574933 12.014556
15.678278 40.804840 15.015235
15.483513 43.212575 9.291176
12.333206 41.281195 14.853461
12.021589 43.408769 9.150923
-8.128015 28.799310 17.798952
-2.955241 31.941849 19.741148
-6.895069 28.013882 19.730659
-7.114025 31.170170 16.302655
10.453239 37.038079 22.890791
3.281684 35.470221 21.921802
8.805529 35.775864 25.197557
8.880116 38.908314 20.349867
-4.257357 25.956234 23.284884
-1.538233 30.916667 21.724550
-5.595411 27.057742 21.575499
-1.481306 27.075327 24.307935
-4.316965 29.443730 20.705654
-4.740692 36.100627 12.830030
-1.625927 34.832542 18.275840
-5.982273 33.619746 14.644329
-1.692449 38.585088 13.692201
-4.486458 32.943308 17.266230
4.824580 29.414475 26.387211
1.617175 32.503295 22.839443
6.703221 32.414779 25.847132
1.544641 28.232965 25.347249
5.000049 34.102688 23.981963
0.000000 29.701630 23.611924
5.497804 41.866075 14.879049
1.726808 36.993720 19.409761
7.212220 40.531918 17.655183
1.815318 41.386293 14.686229
5.347114 39.262961 20.578484
0.000000 37.999628 16.632213
0.000000 -15.584236 29.617261
0.000000 -11.038644 30.621733
0.000000 -2.187552 31.563011
0.000000 -6.583314 31.256141
0.000000 15.584236 29.617261
0.000000 11.038644 30.621733
0.000000 2.187552 31.563011
0.000000 6.583314 31.256141
-26.131992 -44.380059 -3.394001
-22.635930 -42.583574 -9.640037
-22.171345 -44.452042 -3.276525
-15.604451 -37.706063 -20.156707
-19.058191 -40.206745 -15.160888
-14.907612 -44.528244 -3.107968
-19.044228 -42.962729 -9.413650
-18.424161 -44.497307 -3.184992
-20.641756 -43.828440 -6.438821
-1.424947 -20.057595 -28.723311
-4.582840 -24.826920 -28.172770
-12.255113 -35.180089 -24.838279
-8.342798 -30.467937 -27.456429
-1.844805 -44.586432 -2.984958
-5.512532 -43.675081 -8.919464
-4.962103 -44.577233 -2.998766
-12.392554 -38.466071 -20.051574
-9.073151 -41.664882 -14.680667
-14.024185 -39.645099 -17.590942
-11.398341 -44.549061 -3.067824
-8.692820 -43.567821 -8.990047
-8.154736 -44.565244 -3.024241
-13.484049 -44.081332 -6.165563
-6.841088 -44.212404 -6.015344
-17.318414 -41.907165 -12.343660
-10.572906 -42.574933 -12.014556
-15.678278 -40.804840 -15.015235
-15.483513 -43.212575 -9.291176
-12.333206 -41.281195 -14.853461
-12.021589 -43.408769 -9.150923
16.524169 -28.063058 -2.146145
15.182677 -28.562232 -6.465897
14.836511 -29.746199 -2.192569
11.535678 -27.874417 -14.900958
13.514169 -28.510614 -10.750590
11.178656 -33.390052 -2.330548
13.419968 -30.274708 -6.633552
13.052487 -31.523853 -2.256389
14.168136 -30.083066 -4.419493
1.385835 -19.507059 -27.934921
4.135788 -22.405080 -25.424546
0.000000 -21.698108 -27.626299
9.278844 -26.636278 -18.806072
6.791342 -24.802011 -22.350534
-3.054484 -26.560236 -26.876684
2.832990 -24.634236 -24.927738
-1.479142 -24.052412 -27.273432
1.429104 -23.238748 -26.350804
1.768345 -42.738500 -2.861243
4.851533 -38.438067 -7.849945
4.460098 -40.067450 -2.695388
0.000000 -43.900624 -5.914725
9.511051 -29.521981 -15.389203
7.396426 -33.965181 -11.967669
10.595049 -29.951242 -13.289677
9.077665 -35.478974 -2.443222
7.222950 -36.200930 -7.469919
6.890085 -37.653986 -2.555236
10.350171 -33.836226 -4.732602
5.907002 -38.175617 -5.194005
-3.645701 -42.971956 -11.877157
3.288059 -38.756422 -10.712011
-1.843900 -43.754318 -8.956366
1.741260 -41.318740 -8.457811
12.534966 -30.332159 -8.934268
8.468213 -34.099767 -9.622882
11.611465 -30.220409 -11.120410
11.504205 -32.106816 -6.903317
9.571922 -32.038738 -11.527916
9.438511 -34.081529 -7.184665
-10.453239 -37.038079 -22.890791
-3.281684 -35.470221 -21.921802
-8.805529 -35.775864 -25.197557
-8.880116 -38.908314 -20.349867
8.128015 -28.799310 -17.798952
2.955241 -31.941849 -19.741148
6.895069 -28.013882 -19.730659
7.114025 -31.170170 -16.302655
-4.824580 -29.414475 -26.387211
-1.617175 -32.503295 -22.839443
-6.703221 -32.414779 -25.847132
-1.544641 -28.232965 -25.347249
-5.000049 -34.102688 -23.981963
-5.497804 -41.866075 -14.879049
-1.726808 -36.993720 -19.409761
-7.212220 -40.531918 -17.655183
-1.815318 -41.386293 -14.686229
-5.347114 -39.262961 -20.578484
4.257357 -25.956234 -23.284884
1.538233 -30.916667 -21.724550
5.595411 -27.057742 -21.575499
1.481306 -27.075327 -24.307935
4.316965 -29.443730 -20.705654
0.000000 -29.701630 -23.611924
4.740692 -36.100627 -12.830030
1.625927 -34.832542 -18.275840
5.982273 -33.619746 -14.644329
1.692449 -38.585088 -13.692201
4.486458 -32.943308 -17.266230
0.000000 -37.999628 -16.632213
-16.524169 28.063058 -2.146145
-15.182677 28.562232 -6.465897
-14.836511 29.746199 -2.192569
-11.535678 27.874417 -14.900958
-13.514169 28.510614 -10.750590
-11.178656 33.390052 -2.330548
-13.419968 30.274708 -6.633552
-13.052487 31.523853 -2.256389
-14.168136 30.083066 -4.419493
-1.385835 19.507059 -27.934921
-4.135788 22.405080 -25.424546
-9.278844 26.636278 -18.806072
-6.791342 24.802011 -22.350534
-1.768345 42.738500 -2.861243
-4.851533 38.438067 -7.849945
-4.460098 40.067450 -2.695388
-9.511051 29.521981 -15.389203
-7.396426 33.965181 -11.967669
-10.595049 29.951242 -13.289677
-9.077665 35.478974 -2.443222
-7.222950 36.200930 -7.469919
-6.890085 37.653986 -2.555236
-10.350171 33.836226 -4.732602
-5.907002 38.175617 -5.194005
-12.534966 30.332159 -8.934268
-8.468213 34.099767 -9.622882
-11.611465 30.220409 -11.120410
-11.504205 32.106816 -6.903317
-9.571922 32.038738 -11.527916
-9.438511 34.081529 -7.184665
26.131992 44.380059 -3.394001
22.635930 42.583574 -9.640037
22.171345 44.452042 -3.276525
15.604451 37.706063 -20.156707
19.058191 40.206745 -15.160888
14.907612 44.528244 -3.107968
19.044228 42.962729 -9.413650
18.424161 44.497307 -3.184992
20.641756 43.828440 -6.438821
1.424947 20.057595 -28.723311
4.582840 24.826920 -28.172770
0.000000 21.698108 -27.626299
12.255113 35.180089 -24.838279
8.342798 30.467937 -27.456429
-2.832990 24.634236 -24.927738
3.054484 26.560236 -26.876684
-1.429104 23.238748 -26.350804
1.479142 24.052412 -27.273432
1.844805 44.586432 -2.984958
5.512532 43.675081 -8.919464
4.962103 44.577233 -2.998766
0.000000 43.900624 -5.914725
12.392554 38.466071 -20.051574
9.073151 41.664882 -14.680667
14.024185 39.645099 -17.590942
11.398341 44.549061 -3.067824
8.692820 43.567821 -8.990047
8.154736 44.565244 -3.024241
13.484049 44.081332 -6.165563
6.841088 44.212404 -6.015344
-3.288059 38.756422 -10.712011
3.645701 42.971956 -11.877157
-1.741260 41.318740 -8.457811
1.843900 43.754318 -8.956366
17.318414 41.907165 -12.343660
10.572906 42.574933 -12.014556
15.678278 40.804840 -15.015235
15.483513 43.212575 -9.291176
12.333206 41.281195 -14.853461
12.021589 43.408769 -9.150923
-8.128015 28.799310 -17.798952
-2.955241 31.941849 -19.741148
-6.895069 28.013882 -19.730659
-7.114025 31.170170 -16.302655
10.453239 37.038079 -22.890791
3.281684 35.470221 -21.921802
8.805529 35.775864 -25.197557
8.880116 38.908314 -20.349867
-4.257357 25.956234 -23.284884
-1.538233 30.916667 -21.724550
-5.595411 27.057742 -21.575499
-1.481306 27.075327 -24.307935
-4.316965 29.443730 -20.705654
-4.740692 36.100627 -12.830030
-1.625927 34.832542 -18.275840
-5.982273 33.619746 -14.644329
-1.692449 38.585088 -13.692201
-4.486458 32.943308 -17.266230
4.824580 29.414475 -26.387211
1.617175 32.503295 -22.839443
6.703221 32.414779 -25.847132
1.544641 28.232965 -25.347249
5.000049 34.102688 -23.981963
0.000000 29.701630 -23.611924
5.497804 41.866075 -14.879049
1.726808 36.993720 -19.409761
7.212220 40.531918 -17.655183
1.815318 41.386293 -14.686229
5.347114 39.262961 -20.578484
0.000000 37.999628 -16.632213
0.000000 -15.584236 -29.617261
0.000000 -11.038644 -30.621733
0.000000 -2.187552 -31.563011
0.000000 -6.583314 -31.256141
0.000000 15.584236 -29.617261
0.000000 11.038644 -30.621733
0.000000 2.187552 -31.563011
0.000000 6.583314 -31.256141
31.082371 44.511249 -2.208177
36.804145 41.764130 -6.793734
29.139714 43.673728 -5.623184
39.206929 27.681358 -13.657877
38.847433 35.007679 -10.637290
25.002781 41.175892 -11.763716
33.894854 40.048384 -10.011318
27.057189 42.483378 -8.822367
31.826099 42.273036 -7.886424
35.938871 2.748454 -21.161628
38.775457 8.777959 -20.611669
39.161892 20.934957 -16.206939
38.994004 14.703596 -18.483346
17.406154 35.746195 -22.092363
24.407764 33.881295 -20.939792
19.184880 37.068954 -19.717468
36.966070 26.856753 -16.598386
31.181000 31.055782 -19.193529
36.669260 30.228995 -15.231361
22.947629 39.762263 -14.639100
26.474640 35.293928 -18.502116
21.037377 38.416721 -17.227406
27.049130 39.206553 -13.909870
22.834113 36.280557 -19.173327
35.316092 36.979316 -12.023829
30.184804 33.979996 -17.627311
36.162299 33.669396 -13.710465
31.258132 38.344978 -13.056309
33.592348 32.334782 -16.560406
28.784949 36.756630 -15.886499
18.360016 -26.292308 -1.304346
20.779768 -23.580196 -3.835770
17.779241 -26.646993 -3.430917
25.167227 -17.768875 -8.767095
23.033970 -20.757249 -6.307213
16.374880 -26.967012 -7.704321
20.120143 -23.772907 -5.942765
17.115080 -26.872946 -5.580606
18.981041 -25.211580 -4.703453
32.837303 -2.511259 -19.335354
31.068524 -7.033269 -16.514934
27.210548 -14.546071 -11.260939
29.179568 -11.002834 -13.831256
12.616825 -25.910578 -16.013618
16.683855 -23.159459 -14.313333
13.655648 -26.385392 -14.034740
24.293581 -17.649880 -10.908226
20.523172 -20.440754 -12.633081
23.317442 -19.222173 -9.685398
15.529314 -26.908257 -9.906696
17.637521 -23.512969 -12.326191
14.632459 -26.720588 -11.982449
17.490403 -25.351588 -8.994346
15.690607 -24.930417 -13.175075
21.251220 -22.252053 -7.235258
19.596533 -22.060442 -11.443976
22.299272 -20.762037 -8.454478
19.399069 -23.797228 -8.102859
21.457724 -20.654431 -10.578260
18.566856 -23.708746 -10.247103
2.186806 -16.837237 -28.594742
6.305307 -14.805595 -27.852850
3.545719 -18.374152 -27.538627
2.159084 -14.609929 -29.291918
14.030115 -10.861509 -26.245378
10.209627 -12.834145 -27.075979
6.243302 -21.137656 -24.975146
7.633906 -16.225219 -26.720543
4.910711 -19.817442 -26.322530
5.634218 -17.279501 -27.131110
2.120595 -10.171598 -30.382024
6.270418 -12.685332 -28.617409
2.139288 -12.375093 -29.887836
4.254168 -13.638132 -28.957713
31.010072 -1.538392 -21.654448
26.220695 -4.265297 -23.106677
30.376803 -3.911147 -20.267822
17.887019 -8.825387 -25.334562
21.903817 -6.655604 -24.306297
28.905166 -8.258040 -17.551764
25.823290 -6.455321 -21.855480
29.663944 -6.160202 -18.892635
28.032710 -5.229760 -21.104985
11.296785 -25.158936 -18.278582
12.834670 -20.850665 -20.766932
10.123329 -24.371755 -20.091315
13.441645 -23.848442 -17.416688
15.389834 -12.125358 -24.901274
14.184957 -16.534218 -22.951743
13.498290 -13.133688 -25.376864
7.617573 -22.374145 -23.427863
11.621026 -19.899711 -22.401739
8.886113 -23.437739 -21.822022
8.331819 -19.947223 -24.469660
10.904498 -22.119487 -21.291420
17.517155 -21.233369 -15.742134
14.963928 -19.677110 -19.965359
15.520693 -22.534408 -16.568676
14.227282 -21.758831 -18.738095
9.672548 -15.162273 -26.272270
12.306763 -17.609722 -23.475909
11.585785 -14.148069 -25.836036
9.017821 -17.536052 -25.417755
12.921846 -15.389029 -24.451248
10.358641 -18.768952 -23.966811
2.109427 -1.303698 -31.508596
6.284366 -3.883952 -30.772049
2.109082 -3.489929 -31.351904
14.147764 -8.743799 -27.140459
10.327031 -6.382456 -29.308922
12.213687 -9.737228 -27.526260
2.120968 -7.880348 -30.799402
6.267705 -6.060484 -30.374730
2.111508 -5.693593 -31.115214
4.215503 -9.219278 -30.139172
4.211373 -4.789481 -30.953331
8.323659 -11.678268 -28.259119
8.349511 -7.347636 -29.587432
10.266505 -10.719853 -27.899870
6.296778 -10.493423 -29.285849
10.307530 -8.558604 -28.647004
6.297696 -8.273298 -29.874059
25.414236 -15.706861 -12.375138
23.372958 -14.445282 -16.837658
26.322812 -14.001452 -13.623260
23.458594 -17.131979 -13.221916
17.655676 -10.911808 -24.301559
20.759993 -12.830381 -20.843698
19.589398 -9.870430 -23.762904
17.026857 -13.140786 -23.314652
28.052225 -10.327866 -16.189523
24.065280 -12.615728 -18.051819
27.209221 -12.201569 -14.900039
26.767915 -9.496836 -18.467546
25.266726 -13.352805 -15.902272
19.568989 -19.855654 -14.881705
21.320782 -15.806942 -17.589270
21.504090 -18.518719 -14.060716
18.393197 -19.199974 -17.087805
22.458062 -16.512541 -15.468109
23.619087 -7.679749 -22.556768
22.674064 -11.762297 -20.141621
21.583369 -8.788932 -23.181416
25.276781 -8.606641 -20.605174
21.196710 -10.855991 -22.021093
24.684502 -10.668832 -19.330992
15.700293 -17.470596 -21.176932
19.979370 -14.974429 -19.690919
16.372718 -15.337130 -22.267894
17.092312 -18.398049 -19.205038
18.569747 -14.099460 -21.563344
19.218315 -17.104129 -18.410768
2.272187 17.494629 -29.711193
6.992814 16.419941 -30.889820
3.802458 19.704591 -29.532650
2.230696 15.094510 -30.263468
16.831814 13.030463 -31.486366
11.887960 14.943914 -31.526924
7.278886 24.643784 -29.117804
8.803537 18.711170 -30.814538
5.472941 22.086356 -29.336216
6.279586 19.258772 -30.238828
2.167938 10.398687 -31.060324
6.838759 13.835110 -31.211246
2.198361 12.716814 -30.713148
4.525195 14.506998 -30.802567
32.606855 1.617607 -22.769488
29.765281 4.841892 -26.230301
34.797581 4.480341 -23.217426
29.901759 0.000000 -23.485288
21.630165 10.672241 -30.636225
26.031192 7.909731 -28.886376
37.200432 10.627950 -22.588806
31.639375 7.909230 -26.777910
37.129546 7.710556 -23.647394
33.353724 6.222445 -25.111017
25.008530 -2.842171 -24.714077
27.004375 3.068995 -26.686423
27.365975 -1.484161 -24.134026
28.551857 1.548476 -25.179854
15.348066 34.181497 -24.833692
17.888662 29.061169 -28.944463
13.651461 32.865677 -27.093440
18.763691 33.290924 -24.312600
19.447048 15.321960 -31.465985
19.479471 22.705590 -31.518446
16.808066 16.354064 -31.599261
9.386157 27.568788 -28.867150
15.860556 27.159432 -30.574238
11.639156 30.699080 -28.582792
10.200685 24.421479 -29.958319
14.958907 30.343750 -29.207799
25.532690 30.949376 -22.945452
21.140379 27.798954 -28.206180
22.191091 32.219121 -23.689470
20.014803 30.610114 -26.360571
11.509410 18.041660 -31.261497
16.358752 23.407704 -31.205328
14.136232 17.262566 -31.523473
10.909372 21.214362 -30.749308
16.657901 19.838413 -31.520763
13.256150 24.018986 -30.670785
2.115260 1.307303 -31.595727
6.443840 3.982512 -31.552928
2.124801 3.515940 -31.585578
4.238393 0.000000 -31.458455
16.312017 10.081381 -31.292267
11.084527 6.850615 -31.458756
13.993356 11.156050 -31.537140
2.157384 8.015649 -31.328210
6.520643 6.305059 -31.600524
2.137397 5.763400 -31.496705
4.389804 9.600475 -31.385360
4.299102 4.889253 -31.598136
8.462566 -2.597590 -30.617851
8.655236 2.656730 -31.314938
6.372263 -1.311896 -31.130262
6.426286 1.323018 -31.394182
9.275351 13.013512 -31.490148
8.915150 7.845403 -31.591837
11.627628 12.141081 -31.598806
6.759923 11.265242 -31.439901
11.359794 9.432325 -31.571487
6.654455 8.741973 -31.566398
37.156748 22.964133 -18.093005
33.029747 20.413507 -23.794317
37.230952 19.803637 -19.268722
34.754375 25.381369 -19.588532
22.529171 13.923793 -31.009516
28.940554 17.886246 -29.057244
25.025254 12.609373 -30.356866
22.919718 17.688708 -31.383668
37.236976 13.709376 -21.490233
33.265878 17.438953 -24.953362
37.254237 16.706107 -20.400789
35.405177 12.561201 -24.426509
35.248553 18.627940 -22.184594
28.923761 29.347464 -21.995765
30.438844 22.566950 -25.111509
31.964687 27.527092 -20.900508
26.613795 27.781150 -24.724975
32.565537 23.944176 -22.429687
29.599805 9.624380 -28.268491
31.207956 16.189300 -27.722370
27.409031 11.161191 -29.438414
33.492919 11.404202 -27.302821
28.868072 14.784914 -29.990810
33.391221 14.431943 -26.149421
22.214081 24.718853 -29.962886
28.234827 21.161849 -27.827187
23.148424 21.684267 -31.483266
24.372720 26.234630 -27.385354
26.142253 19.849041 -30.356601
27.508233 24.482081 -26.352346
16.475435 -7.523621 -26.657813
17.451498 -2.612481 -28.237116
18.472807 -6.455501 -26.227964
14.596282 -6.369411 -27.907637
19.002080 8.677432 -30.746011
18.307320 2.740597 -29.621866
21.173511 7.399288 -30.062464
16.180152 7.060568 -30.935949
22.675476 -4.145935 -25.276913
19.603369 -1.388040 -27.897970
20.545519 -5.328295 -25.766048
23.531362 -1.433982 -26.210344
19.047916 -3.971340 -27.086404
10.619518 -3.923909 -29.880775
15.373046 -1.367678 -29.300008
12.627817 -5.158519 -28.990334
10.793046 -1.334094 -30.415170
15.007404 -3.899524 -28.633554
25.168306 4.601718 -28.055732
20.160394 1.427481 -28.690684
23.252021 6.030202 -29.160261
24.369209 1.485040 -27.143577
20.678633 4.311331 -29.405307
21.899000 0.000000 -27.546928
11.092464 4.098662 -31.211532
15.707312 1.397416 -29.937097
13.542039 5.531983 -31.089160
10.952119 1.353756 -30.863442
15.972607 4.150322 -30.475124
13.213162 0.000000 -30.188119
31.082371 44.511249 2.208177
36.804145 41.764130 6.793734
29.139714 43.673728 5.623184
35.100515 44.690410 0.000000
39.206929 27.681358 13.657877
38.847433 35.007679 10.637290
25.002781 41.175892 11.763716
33.894854 40.048384 10.011318
27.057189 42.483378 8.822367
31.826099 42.273036 7.886424
41.094860 41.584480 -4.725996
41.094860 41.584480 4.725996
38.969738 44.188437 -2.396507
38.969738 44.188437 2.396507
35.938871 2.748454 21.161628
38.775457 8.777959 20.611669
39.161892 20.934957 16.206939
38.994004 14.703596 18.483346
17.406154 35.746195 22.092363
24.407764 33.881295 20.939792
19.184880 37.068954 19.717468
36.966070 26.856753 16.598386
31.181000 31.055782 19.193529
36.669260 30.228995 15.231361
22.947629 39.762263 14.639100
26.474640 35.293928 18.502116
21.037377 38.416721 17.227406
27.049130 39.206553 13.909870
22.834113 36.280557 19.173327
35.316092 36.979316 12.023829
30.184804 33.979996 17.627311
36.162299 33.669396 13.710465
31.258132 38.344978 13.056309
33.592348 32.334782 16.560406
28.784949 36.756630 15.886499
41.180064 25.450679 -11.622229
44.208788 27.322533 -4.090171
41.360241 29.130730 -10.180015
41.180064 25.450679 11.622229
44.208788 27.322533 4.090171
41.360241 29.130730 10.180015
41.556061 37.279215 -6.816050
44.507649 31.274672 -2.214441
41.511294 33.100578 -8.584336
44.117270 39.608006 -2.413680
43.278247 30.434472 -6.345346
41.556061 37.279215 6.816050
44.507649 31.274672 2.214441
41.511294 33.100578 8.584336
44.117270 39.608006 2.413680
43.278247 30.434472 6.345346
44.690410 35.527564 0.000000
18.360016 -26.292308 1.304346
20.779768 -23.580196 3.835770
17.779241 -26.646993 3.430917
19.659584 -25.030826 0.000000
25.167227 -17.768875 8.767095
23.033970 -20.757249 6.307213
16.374880 -26.967012 7.704321
20.120143 -23.772907 5.942765
17.115080 -26.872946 5.580606
18.981041 -25.211580 4.703453
22.140655 -22.404448 -2.546222
22.140655 -22.404448 2.546222
20.925531 -23.727809 -1.286849
20.925531 -23.727809 1.286849
32.837303 -2.511259 19.335354
31.068524 -7.033269 16.514934
27.210548 -14.546071 11.260939
29.179568 -11.002834 13.831256
12.616825 -25.910578 16.013618
16.683855 -23.159459 14.313333
13.655648 -26.385392 14.034740
24.293581 -17.649880 10.908226
20.523172 -20.440754 12.633081
23.317442 -19.222173 9.685398
15.529314 -26.908257 9.906696
17.637521 -23.512969 12.326191
14.632459 -26.720588 11.982449
17.490403 -25.351588 8.994346
15.690607 -24.930417 13.175075
21.251220 -22.252053 7.235258
19.596533 -22.060442 11.443976
22.299272 -20.762037 8.454478
19.399069 -23.797228 8.102859
21.457724 -20.654431 10.578260
18.566856 -23.708746 10.247103
26.816354 -16.573418 -7.568366
27.530327 -17.014678 -2.547089
25.691537 -18.094992 -6.323470
26.816354 -16.573418 7.568366
27.530327 -17.014678 2.547089
25.691537 -18.094992 6.323470
23.383294 -20.976744 -3.835342
26.224702 -18.427596 -1.304788
24.541358 -19.568967 -5.075035
23.529123 -21.124191 -1.287291
26.046358 -18.316526 -3.818851
23.383294 -20.976744 3.835342
26.224702 -18.427596 1.304788
24.541358 -19.568967 5.075035
23.529123 -21.124191 1.287291
26.046358 -18.316526 3.818851
24.897571 -19.792839 0.000000
2.186806 -16.837237 28.594742
6.305307 -14.805595 27.852850
3.545719 -18.374152 27.538627
2.159084 -14.609929 29.291918
14.030115 -10.861509 26.245378
10.209627 -12.834145 27.075979
6.243302 -21.137656 24.975146
7.633906 -16.225219 26.720543
4.910711 -19.817442 26.322530
5.634218 -17.279501 27.131110
2.120595 -10.171598 30.382024
6.270418 -12.685332 28.617409
2.139288 -12.375093 29.887836
4.254168 -13.638132 28.957713
31.010072 -1.538392 21.654448
26.220695 -4.265297 23.106677
30.376803 -3.911147 20.267822
17.887019 -8.825387 25.334562
21.903817 -6.655604 24.306297
28.905166 -8.258040 17.551764
25.823290 -6.455321 21.855480
29.663944 -6.160202 18.892635
28.032710 -5.229760 21.104985
11.296785 -25.158936 18.278582
12.834670 -20.850665 20.766932
10.123329 -24.371755 20.091315
13.441645 -23.848442 17.416688
15.389834 -12.125358 24.901274
14.184957 -16.534218 22.951743
13.498290 -13.133688 25.376864
7.617573 -22.374145 23.427863
11.621026 -19.899711 22.401739
8.886113 -23.437739 21.822022
8.331819 -19.947223 24.469660
10.904498 -22.119487 21.291420
17.517155 -21.233369 15.742134
14.963928 -19.677110 19.965359
15.520693 -22.534408 16.568676
14.227282 -21.758831 18.738095
9.672548 -15.162273 26.272270
12.306763 -17.609722 23.475909
11.585785 -14.148069 25.836036
9.017821 -17.536052 25.417755
12.921846 -15.389029 24.451248
10.358641 -18.768952 23.966811
2.109427 -1.303698 31.508596
6.284366 -3.883952 30.772049
2.109082 -3.489929 31.351904
14.147764 -8.743799 27.140459
10.327031 -6.382456 29.308922
12.213687 -9.737228 27.526260
2.120968 -7.880348 30.799402
6.267705 -6.060484 30.374730
2.111508 -5.693593 31.115214
4.215503 -9.219278 30.139172
4.211373 -4.789481 30.953331
8.323659 -11.678268 28.259119
8.349511 -7.347636 29.587432
10.266505 -10.719853 27.899870
6.296778 -10.493423 29.285849
10.307530 -8.558604 28.647004
6.297696 -8.273298 29.874059
25.414236 -15.706861 12.375138
23.372958 -14.445282 16.837658
26.322812 -14.001452 13.623260
23.458594 -17.131979 13.221916
17.655676 -10.911808 24.301559
20.759993 -12.830381 20.843698
19.589398 -9.870430 23.762904
17.026857 -13.140786 23.314652
28.052225 -10.327866 16.189523
24.065280 -12.615728 18.051819
27.209221 -12.201569 14.900039
26.767915 -9.496836 18.467546
25.266726 -13.352805 15.902272
19.568989 -19.855654 14.881705
21.320782 -15.806942 17.589270
21.504090 -18.518719 14.060716
18.393197 -19.199974 17.087805
22.458062 -16.512541 15.468109
23.619087 -7.679749 22.556768
22.674064 -11.762297 20.141621
21.583369 -8.788932 23.181416
25.276781 -8.606641 20.605174
21.196710 -10.855991 22.021093
24.684502 -10.668832 19.330992
15.700293 -17.470596 21.176932
19.979370 -14.974429 19.690919
16.372718 -15.337130 22.267894
17.092312 -18.398049 19.205038
18.569747 -14.099460 21.563344
19.218315 -17.104129 18.410768
2.272187 17.494629 29.711193
6.992814 16.419941 30.889820
3.802458 19.704591 29.532650
2.230696 15.094510 30.263468
16.831814 13.030463 31.486366
11.887960 14.943914 31.526924
7.278886 24.643784 29.117804
8.803537 18.711170 30.814538
5.472941 22.086356 29.336216
6.279586 19.258772 30.238828
2.167938 10.398687 31.060324
6.838759 13.835110 31.211246
2.198361 12.716814 30.713148
4.525195 14.506998 30.802567
32.606855 1.617607 22.769488
29.765281 4.841892 26.230301
34.797581 4.480341 23.217426
29.901759 0.000000 23.485288
21.630165 10.672241 30.636225
26.031192 7.909731 28.886376
37.200432 10.627950 22.588806
31.639375 7.909230 26.777910
37.129546 7.710556 23.647394
33.353724 6.222445 25.111017
25.008530 -2.842171 24.714077
27.004375 3.068995 26.686423
27.365975 -1.484161 24.134026
28.551857 1.548476 25.179854
15.348066 34.181497 24.833692
17.888662 29.061169 28.944463
13.651461 32.865677 27.093440
18.763691 33.290924 24.312600
19.447048 15.321960 31.465985
19.479471 22.705590 31.518446
16.808066 16.354064 31.599261
9.386157 27.568788 28.867150
15.860556 27.159432 30.574238
11.639156 30.699080 28.582792
10.200685 24.421479 29.958319
14.958907 30.343750 29.207799
25.532690 30.949376 22.945452
21.140379 27.798954 28.206180
22.191091 32.219121 23.689470
20.014803 30.610114 26.360571
11.509410 18.041660 31.261497
16.358752 23.407704 31.205328
14.136232 17.262566 31.523473
10.909372 21.214362 30.749308
16.657901 19.838413 31.520763
13.256150 24.018986 30.670785
2.115260 1.307303 31.595727
6.443840 3.982512 31.552928
2.124801 3.515940 31.585578
4.238393 0.000000 31.458455
16.312017 10.081381 31.292267
11.084527 6.850615 31.458756
13.993356 11.156050 31.537140
2.157384 8.015649 31.328210
6.520643 6.305059 31.600524
2.137397 5.763400 31.496705
4.389804 9.600475 31.385360
4.299102 4.889253 31.598136
8.462566 -2.597590 30.617851
8.655236 2.656730 31.314938
6.372263 -1.311896 31.130262
6.426286 1.323018 31.394182
9.275351 13.013512 31.490148
8.915150 7.845403 31.591837
11.627628 12.141081 31.598806
6.759923 11.265242 31.439901
11.359794 9.432325 31.571487
6.654455 8.741973 31.566398
37.156748 22.964133 18.093005
33.029747 20.413507 23.794317
37.230952 19.803637 19.268722
34.754375 25.381369 19.588532
22.529171 13.923793 31.009516
28.940554 17.886246 29.057244
25.025254 12.609373 30.356866
22.919718 17.688708 31.383668
37.236976 13.709376 21.490233
33.265878 17.438953 24.953362
37.254237 16.706107 20.400789
35.405177 12.561201 24.426509
35.248553 18.627940 22.184594
28.923761 29.347464 21.995765
30.438844 22.566950 25.111509
31.964687 27.527092 20.900508
26.613795 27.781150 24.724975
32.565537 23.944176 22.429687
29.599805 9.624380 28.268491
31.207956 16.189300 27.722370
27.409031 11.161191 29.438414
33.492919 11.404202 27.302821
28.868072 14.784914 29.990810
33.391221 14.431943 26.149421
22.214081 24.718853 29.962886
28.234827 21.161849 27.827187
23.148424 21.684267 31.483266
24.372720 26.234630 27.385354
26.142253 19.849041 30.356601
27.508233 24.482081 26.352346
16.475435 -7.523621 26.657813
17.451498 -2.612481 28.237116
18.472807 -6.455501 26.227964
14.596282 -6.369411 27.907637
19.002080 8.677432 30.746011
18.307320 2.740597 29.621866
21.173511 7.399288 30.062464
16.180152 7.060568 30.935949
22.675476 -4.145935 25.276913
19.603369 -1.388040 27.897970
20.545519 -5.328295 25.766048
23.531362 -1.433982 26.210344
19.047916 -3.971340 27.086404
10.619518 -3.923909 29.880775
15.373046 -1.367678 29.300008
12.627817 -5.158519 28.990334
10.793046 -1.334094 30.415170
15.007404 -3.899524 28.633554
25.168306 4.601718 28.055732
20.160394 1.427481 28.690684
23.252021 6.030202 29.160261
24.369209 1.485040 27.143577
20.678633 4.311331 29.405307
21.899000 0.000000 27.546928
11.092464 4.098662 31.211532
15.707312 1.397416 29.937097
13.542039 5.531983 31.089160
10.952119 1.353756 30.863442
15.972607 4.150322 30.475124
13.213162 0.000000 30.188119
35.852893 0.000000 -18.865349
39.815002 0.000000 -14.352671
38.384452 2.829287 -19.145013
34.787279 -2.564143 -17.350851
44.477273 0.000000 -3.082606
42.830697 0.000000 -9.021201
40.252650 8.819840 -17.842923
42.289177 2.951686 -14.157994
40.095212 5.890374 -18.883528
40.714456 2.914227 -16.857867
32.600625 -7.143189 -14.450985
38.200618 -2.666314 -12.789186
33.696028 -4.950272 -15.869723
36.597636 -2.619556 -15.153293
35.852893 0.000000 18.865349
39.815002 0.000000 14.352671
38.384452 2.829287 19.145013
34.787279 -2.564143 17.350851
44.477273 0.000000 3.082606
42.830697 0.000000 9.021201
40.252650 8.819840 17.842923
42.289177 2.951686 14.157994
40.095212 5.890374 18.883528
40.714456 2.914227 16.857867
32.600625 -7.143189 14.450985
38.200618 -2.666314 12.789186
33.696028 -4.950272 15.869723
36.597636 -2.619556 15.153293
40.959859 21.351534 -13.195974
43.189722 15.217946 -9.405208
40.778540 18.093861 -14.425133
42.583687 22.272164 -9.718953
44.649488 2.989179 -1.847414
44.252895 9.037467 -5.585462
44.397577 2.986681 -4.942105
40.432101 11.909183 -16.708834
42.944480 12.118841 -10.664677
40.600499 14.940043 -15.599765
41.585140 8.941260 -14.900386
42.024854 15.121038 -12.555382
44.588701 23.394674 -2.081329
44.112120 15.677285 -5.792752
43.867957 22.992052 -5.974255
43.524880 18.958879 -7.744786
43.224345 2.976599 -11.059399
43.628749 9.002620 -8.704977
43.916293 2.980202 -8.035988
42.508490 5.945573 -13.002932
44.088996 5.998553 -6.821993
42.728356 9.007487 -11.833156
28.141837 -14.669762 -9.066412
32.221521 -11.353289 -7.016718
29.249002 -12.978086 -10.346636
28.705717 -15.013694 -6.551558
41.823375 -2.799977 -1.730481
36.710310 -7.497097 -4.633460
41.425318 -2.786733 -4.611248
31.464195 -9.267707 -13.002787
33.616321 -9.486455 -8.348156
30.361484 -11.172322 -11.665669
33.947830 -7.299155 -12.163859
31.385044 -11.292709 -9.376623
29.283956 -15.364624 -1.366928
32.666993 -11.609729 -4.289791
29.090768 -15.247039 -3.961791
30.662886 -13.356359 -5.456132
39.603361 -2.727244 -10.132932
36.072452 -7.443408 -7.197315
40.673159 -2.760120 -7.442546
36.655669 -5.126951 -11.212611
38.628167 -5.255577 -5.977026
35.118096 -7.403182 -9.725577
40.959859 21.351534 13.195974
43.189722 15.217946 9.405208
40.778540 18.093861 14.425133
42.583687 22.272164 9.718953
44.649488 2.989179 1.847414
44.252895 9.037467 5.585462
44.397577 2.986681 4.942105
44.690410 6.021132 0.000000
40.432101 11.909183 16.708834
42.944480 12.118841 10.664677
40.600499 14.940043 15.599765
41.585140 8.941260 14.900386
42.024854 15.121038 12.555382
44.588701 23.394674 2.081329
44.112120 15.677285 5.792752
43.867957 22.992052 5.974255
44.690410 19.560729 0.000000
43.524880 18.958879 7.744786
43.224345 2.976599 11.059399
43.628749 9.002620 8.704977
43.916293 2.980202 8.035988
42.508490 5.945573 13.002932
44.088996 5.998553 6.821993
42.728356 9.007487 11.833156
44.470736 12.291409 -3.772856
44.470736 12.291409 3.772856
44.640637 9.137792 -1.881252
44.624024 15.835162 -1.957334
44.640637 9.137792 1.881252
44.624024 15.835162 1.957334
28.141837 -14.669762 9.066412
32.221521 -11.353289 7.016718
29.249002 -12.978086 10.346636
28.705717 -15.013694 6.551558
41.823375 -2.799977 1.730481
36.710310 -7.497097 4.633460
41.425318 -2.786733 4.611248
39.384184 -5.306225 0.000000
31.464195 -9.267707 13.002787
33.616321 -9.486455 8.348156
30.361484 -11.172322 11.665669
33.947830 -7.299155 12.163859
31.385044 -11.292709 9.376623
29.283956 -15.364624 1.366928
32.666993 -11.609729 4.289791
29.090768 -15.247039 3.961791
31.084783 -13.605626 0.000000
30.662886 -13.356359 5.456132
39.603361 -2.727244 10.132932
36.072452 -7.443408 7.197315
40.673159 -2.760120 7.442546
36.655669 -5.126951 11.212611
38.628167 -5.255577 5.977026
35.118096 -7.403182 9.725577
34.859374 -9.634894 -2.957437
34.859374 -9.634894 2.957437
37.051501 -7.584321 -1.561429
32.950807 -11.692835 -1.445314
37.051501 -7.584321 1.561429
32.950807 -11.692835 1.445314
-18.360016 26.292308 -1.304346
-20.779768 23.580196 -3.835770
-17.779241 26.646993 -3.430917
-25.167227 17.768875 -8.767095
-23.033970 20.757249 -6.307213
-16.374880 26.967012 -7.704321
-20.120143 23.772907 -5.942765
-17.115080 26.872946 -5.580606
-18.981041 25.211580 -4.703453
-32.837303 2.511259 -19.335354
-31.068524 7.033269 -16.514934
-27.210548 14.546071 -11.260939
-29.179568 11.002834 -13.831256
-12.616825 25.910578 -16.013618
-16.683855 23.159459 -14.313333
-13.655648 26.385392 -14.034740
-24.293581 17.649880 -10.908226
-20.523172 20.440754 -12.633081
-23.317442 19.222173 -9.685398
-15.529314 26.908257 -9.906696
-17.637521 23.512969 -12.326191
-14.632459 26.720588 -11.982449
-17.490403 25.351588 -8.994346
-15.690607 24.930417 -13.175075
-21.251220 22.252053 -7.235258
-19.596533 22.060442 -11.443976
-22.299272 20.762037 -8.454478
-19.399069 23.797228 -8.102859
-21.457724 20.654431 -10.578260
-18.566856 23.708746 -10.247103
-31.082371 -44.511249 -2.208177
-36.804145 -41.764130 -6.793734
-29.139714 -43.673728 -5.623184
-39.206929 -27.681358 -13.657877
-38.847433 -35.007679 -10.637290
-25.002781 -41.175892 -11.763716
-33.894854 -40.048384 -10.011318
-27.057189 -42.483378 -8.822367
-31.826099 -42.273036 -7.886424
-35.938871 -2.748454 -21.161628
-38.775457 -8.777959 -20.611669
-39.161892 -20.934957 -16.206939
-38.994004 -14.703596 -18.483346
-17.406154 -35.746195 -22.092363
-24.407764 -33.881295 -20.939792
-19.184880 -37.068954 -19.717468
-36.966070 -26.856753 -16.598386
-31.181000 -31.055782 -19.193529
-36.669260 -30.228995 -15.231361
-22.947629 -39.762263 -14.639100
-26.474640 -35.293928 -18.502116
-21.037377 -38.416721 -17.227406
-27.049130 -39.206553 -13.909870
-22.834113 -36.280557 -19.173327
-35.316092 -36.979316 -12.023829
-30.184804 -33.979996 -17.627311
-36.162299 -33.669396 -13.710465
-31.258132 -38.344978 -13.056309
-33.592348 -32.334782 -16.560406
-28.784949 -36.756630 -15.886499
-2.272187 -17.494629 -29.711193
-6.992814 -16.419941 -30.889820
-3.802458 -19.704591 -29.532650
-2.230696 -15.094510 -30.263468
-16.831814 -13.030463 -31.486366
-11.887960 -14.943914 -31.526924
-7.278886 -24.643784 -29.117804
-8.803537 -18.711170 -30.814538
-5.472941 -22.086356 -29.336216
-6.279586 -19.258772 -30.238828
-2.167938 -10.398687 -31.060324
-6.838759 -13.835110 -31.211246
-2.198361 -12.716814 -30.713148
-4.525195 -14.506998 -30.802567
-32.606855 -1.617607 -22.769488
-29.765281 -4.841892 -26.230301
-34.797581 -4.480341 -23.217426
-21.630165 -10.672241 -30.636225
-26.031192 -7.909731 -28.886376
-37.200432 -10.627950 -22.588806
-31.639375 -7.909230 -26.777910
-37.129546 -7.710556 -23.647394
-33.353724 -6.222445 -25.111017
-15.348066 -34.181497 -24.833692
-17.888662 -29.061169 -28.944463
-13.651461 -32.865677 -27.093440
-18.763691 -33.290924 -24.312600
-19.447048 -15.321960 -31.465985
-19.479471 -22.705590 -31.518446
-16.808066 -16.354064 -31.599261
-9.386157 -27.568788 -28.867150
-15.860556 -27.159432 -30.574238
-11.639156 -30.699080 -28.582792
-10.200685 -24.421479 -29.958319
-14.958907 -30.343750 -29.207799
-25.532690 -30.949376 -22.945452
-21.140379 -27.798954 -28.206180
-22.191091 -32.219121 -23.689470
-20.014803 -30.610114 -26.360571
-11.509410 -18.041660 -31.261497
-16.358752 -23.407704 -31.205328
-14.136232 -17.262566 -31.523473
-10.909372 -21.214362 -30.749308
-16.657901 -19.838413 -31.520763
-13.256150 -24.018986 -30.670785
-2.115260 -1.307303 -31.595727
-6.443840 -3.982512 -31.552928
-2.124801 -3.515940 -31.585578
-16.312017 -10.081381 -31.292267
-11.084527 -6.850615 -31.458756
-13.993356 -11.156050 -31.537140
-2.157384 -8.015649 -31.328210
-6.520643 -6.305059 -31.600524
-2.137397 -5.763400 -31.496705
-4.389804 -9.600475 -31.385360
-4.299102 -4.889253 -31.598136
-9.275351 -13.013512 -31.490148
-8.915150 -7.845403 -31.591837
-11.627628 -12.141081 -31.598806
-6.759923 -11.265242 -31.439901
-11.359794 -9.432325 -31.571487
-6.654455 -8.741973 -31.566398
-37.156748 -22.964133 -18.093005
-33.029747 -20.413507 -23.794317
-37.230952 -19.803637 -19.268722
-34.754375 -25.381369 -19.588532
-22.529171 -13.923793 -31.009516
-28.940554 -17.886246 -29.057244
-25.025254 -12.609373 -30.356866
-22.919718 -17.688708 -31.383668
-37.236976 -13.709376 -21.490233
-33.265878 -17.438953 -24.953362
-37.254237 -16.706107 -20.400789
-35.405177 -12.561201 -24.426509
-35.248553 -18.627940 -22.184594
-28.923761 -29.347464 -21.995765
-30.438844 -22.566950 -25.111509
-31.964687 -27.527092 -20.900508
-26.613795 -27.781150 -24.724975
-32.565537 -23.944176 -22.429687
-29.599805 -9.624380 -28.268491
-31.207956 -16.189300 -27.722370
-27.409031 -11.161191 -29.438414
-33.492919 -11.404202 -27.302821
-28.868072 -14.784914 -29.990810
-33.391221 -14.431943 -26.149421
-22.214081 -24.718853 -29.962886
-28.234827 -21.161849 -27.827187
-23.148424 -21.684267 -31.483266
-24.372720 -26.234630 -27.385354
-26.142253 -19.849041 -30.356601
-27.508233 -24.482081 -26.352346
-2.186806 16.837237 -28.594742
-6.305307 14.805595 -27.852850
-3.545719 18.374152 -27.538627
-2.159084 14.609929 -29.291918
-14.030115 10.861509 -26.245378
-10.209627 12.834145 -27.075979
-6.243302 21.137656 -24.975146
-7.633906 16.225219 -26.720543
-4.910711 19.817442 -26.322530
-5.634218 17.279501 -27.131110
-2.120595 10.171598 -30.382024
-6.270418 12.685332 -28.617409
-2.139288 12.375093 -29.887836
-4.254168 13.638132 -28.957713
-31.010072 1.538392 -21.654448
-26.220695 4.265297 -23.106677
-30.376803 3.911147 -20.267822
-29.901759 0.000000 -23.485288
-17.887019 8.825387 -25.334562
-21.903817 6.655604 -24.306297
-28.905166 8.258040 -17.551764
-25.823290 6.455321 -21.855480
-29.663944 6.160202 -18.892635
-28.032710 5.229760 -21.104985
-27.004375 -3.068995 -26.686423
-25.008530 2.842171 -24.714077
-28.551857 -1.548476 -25.179854
-27.365975 1.484161 -24.134026
-11.296785 25.158936 -18.278582
-12.834670 20.850665 -20.766932
-10.123329 24.371755 -20.091315
-13.441645 23.848442 -17.416688
-15.389834 12.125358 -24.901274
-14.184957 16.534218 -22.951743
-13.498290 13.133688 -25.376864
-7.617573 22.374145 -23.427863
-11.621026 19.899711 -22.401739
-8.886113 23.437739 -21.822022
-8.331819 19.947223 -24.469660
-10.904498 22.119487 -21.291420
-17.517155 21.233369 -15.742134
-14.963928 19.677110 -19.965359
-15.520693 22.534408 -16.568676
-14.227282 21.758831 -18.738095
-9.672548 15.162273 -26.272270
-12.306763 17.609722 -23.475909
-11.585785 14.148069 -25.836036
-9.017821 17.536052 -25.417755
-12.921846 15.389029 -24.451248
-10.358641 18.768952 -23.966811
-2.109427 1.303698 -31.508596
-6.284366 3.883952 -30.772049
-2.109082 3.489929 -31.351904
-4.238393 0.000000 -31.458455
-14.147764 8.743799 -27.140459
-10.327031 6.382456 -29.308922
-12.213687 9.737228 -27.526260
-2.120968 7.880348 -30.799402
-6.267705 6.060484 -30.374730
-2.111508 5.693593 -31.115214
-4.215503 9.219278 -30.139172
-4.211373 4.789481 -30.953331
-8.655236 -2.656730 -31.314938
