-21.47082581 29.79218223 8.006588283
-26.09387237 26.40476479 0
-37.55849462 5.697215388 21.03628361
-33.13186353 15.06062925 14.72396929
-17.2563582 28.80942467 17.80520364
-26.32281307 22.39152222 13.83872179
-19.51130692 29.61737302 13.08586475
-24.05144478 26.09091161 10.9966131
-32.02464916 19.79232166 -5.962735924
-32.02464916 19.79232166 5.962735924
-29.1499355 23.17334343 -3.0316156
-29.1499355 23.17334343 3.0316156
-40.32341443 -51.34027044 5.311002342
-45.95010378 -36.75422665 14.35986058
-34.51552281 -47.89255684 12.87102709
-51.8805128 -52.49863717 0
-45.23322085 -6.861387936 25.33485093
-45.91598444 -20.87186003 20.40529788
-24.56107448 -41.00462084 25.34224937
-40.24427943 -34.23382883 21.15766978
-29.17678992 -44.28918442 19.56832149
-38.36318283 -41.61622811 17.54011381
-50.43178843 -31.16855936 -9.389999405
-50.43178843 -31.16855936 9.389999405
-51.28576676 -40.77067979 -5.33375899
-51.28576676 -40.77067979 5.33375899
-5.409954762 -19.97560824 35.664749
-16.87404005 -16.49684374 37.12118416
-9.503048211 -25.48379978 35.36044742
-5.209890695 -14.17589604 36.57675254
-36.77839693 -3.804618686 28.8863017
-28.07276093 -10.96801565 35.09654252
-41.61367753 -11.18359106 29.99041878
-19.58260418 -37.24832662 31.68531915
-22.9406643 -22.23351827 37.11877455
-14.74999154 -32.26071554 34.99629587
-27.37625043 -34.47939681 30.08941092
-16.21204997 -24.1725166 36.69290037
-4.998152618 -3.089028199 37.09758852
-15.98065617 -9.876588674 36.87036252
-5.090590827 -8.438171707 37.04659638
-10.69505864 -12.20065062 37.10687333
-41.2197054 -25.47517894 24.6899065
-30.77614481 -19.02070354 36.17952808
-41.53547856 -18.3516497 27.36270599
-34.96711985 -30.51503609 27.763497
-36.80837148 -15.51373237 33.93114535
-29.72001221 -27.04016038 34.05610355
-5.029872017 18.57219835 33.15908004
-14.24082539 13.92249103 31.32837781
-8.174465499 21.92101287 30.41684637
-4.951286728 13.4722454 34.7611879
-33.53092098 3.4686767 26.33568564
-23.33839582 9.118301228 29.17764316
-32.25878957 8.669483981 23.2484766
-30.54942272 0 30.18973067
-14.20526239 27.02001472 22.98459736
-17.39002606 16.85397847 28.13765323
-11.34411709 24.81149454 26.91541056
-19.14269694 24.10953413 21.03985993
-12.9437657 19.29943418 29.29575879
-4.943078174 3.054990321 36.68881168
-14.41473129 8.908793873 33.25748095
-4.938965835 8.186837872 35.94315082
-10.06979404 0 36.4328571
-9.806706421 11.18724103 34.02470481
-28.74493571 17.76534727 17.21773041
-22.62963526 13.98588374 26.60273174
-30.58219121 13.51215105 20.146909
-24.04312349 20.98190483 19.08996765
-27.21878207 11.47197997 25.09115219
-20.95989401 19.06994155 24.01790134
-21.94253987 -6.610521645 35.5037753
-19.94350576 6.008282418 32.26927017
-26.515365 -3.468830227 33.35389137
-15.7787148 -3.250594015 36.04964004
-24.90514115 3.258175267 31.32837781
-15.22231911 3.135970199 34.77844245
-44.55092542 0 -19.63825283
-51.50887338 0 -7.17435947
-41.43166965 5.901411558 -16.05749557
-48.60548974 -6.923230499 -18.83782244
-44.55092542 0 19.63825283
-51.50887338 0 7.17435947
-41.43166965 5.901411558 16.05749557
-48.60548974 -6.923230499 18.83782244
-35.40883047 15.34718691 -9.485083142
-46.01818385 6.200023109 -3.831825012
-38.33207642 11.04819049 -12.60349445
-36.37306353 15.92027535 -3.279757092
-44.40970884 6.102359691 -10.11528144
-49.64451821 -21.51733593 -13.29844495
-52.29009544 -7.045036829 -4.354072213
-49.10029994 -14.15184142 -16.14406042
-52.12650225 -22.81546255 -4.700243775
-51.01456527 -7.009936226 -11.61968179
-35.40883047 15.34718691 9.485083142
-46.01818385 6.200023109 3.831825012
-38.33207642 11.04819049 12.60349445
-36.37306353 15.92027535 3.279757092
-44.40970884 6.102359691 10.11528144
-41.13045813 11.36817903 0
-49.64451821 -21.51733593 13.29844495
-52.29009544 -7.045036829 4.354072213
-49.10029994 -14.15184142 16.14406042
-52.12650225 -22.81546255 4.700243775
-51.01456527 -7.009936226 11.61968179
-52.49863717 -14.51026644 0
-18.10008999 34.39854718 0
-13.9104306 38.58820657 0
-3.402713263 49.0959239 0
-9.133720381 43.36491678 0
27.62413343 52.49863717 0
18.9249181 52.49863717 0
3.63854664 52.49863717 0
11.05750703 52.49863717 0
-27.62413343 -52.49863717 0
-18.9249181 -52.49863717 0
-3.63854664 -52.49863717 0
-11.05750703 -52.49863717 0
18.10008999 -34.39854718 0
13.9104306 -38.58820657 0
3.402713263 -49.0959239 0
9.133720381 -43.36491678 0
-30.6977261 -52.13406236 3.986994577
-26.59083822 -50.02369922 11.32432733
-26.04508189 -52.21862284 3.848993233
-18.33083294 -44.29399792 23.67845044
-22.38800396 -47.23159513 17.80977096
-17.51224296 -52.3081388 3.650986427
-22.37160153 -50.46909945 11.05838641
-21.64319651 -52.2717957 3.741468495
-24.24824644 -51.48606574 7.563800438
-1.673910937 -23.56202127 33.74179553
-5.383545025 -29.1646341 33.09506539
-14.39630365 -41.32669108 29.17797853
-9.800436498 -35.79123952 32.25356618
-2.167126402 -52.3764927 3.506484177
-6.475671792 -51.3059121 10.47785706
-5.829072565 -52.36568698 3.52270557
-14.5577586 -45.18679298 23.55494821
-10.65839584 -48.94449501 17.24564674
-16.47446581 -46.57181929 20.66439947
-13.38983889 -52.33259292 3.6038288
-10.21161435 -51.17991214 10.56077224
-9.57951685 -52.35160267 3.552630391
-15.83995806 -51.78314296 7.242799505
-8.036350804 -51.93711556 7.066333467
-20.34425544 -49.22910877 14.50032166
-12.42018445 -50.01354841 14.11371761
-18.41755819 -47.93418823 17.63867028
-18.18876393 -50.76259737 10.91451377
-14.48804158 -48.49377058 17.44863113
-14.12197965 -50.99307016 10.7497562
19.41124219 -32.96618478 2.521115639
17.83536728 -33.55257329 7.595606257
17.42871947 -34.94340055 2.575650313
13.55117056 -32.74458518 17.50442665
15.87533967 -33.4919369 12.62891341
13.13177102 -39.22390198 2.737737128
15.76468047 -35.56424985 7.792554681
15.33299426 -37.03164379 2.650621175
16.64356735 -35.3391246 5.191658798
1.627965905 -22.91529759 32.8156603
4.858385827 -26.31965448 29.8666763
0 -25.48916186 32.45311643
10.90002747 -31.29011995 22.09183519
7.977912671 -29.13537405 26.25557896
-3.58815747 -31.20079194 31.57253016
3.327964386 -28.93828526 29.28306711
-1.737574734 -28.25480634 32.03859651
1.678794665 -27.29898012 30.9547692
2.07730755 -50.20569341 3.361154221
5.699183646 -45.15389671 9.221472848
5.239357743 -47.06796227 3.166320972
0 -51.57086151 6.948134549
11.17280416 -34.68000827 18.07797688
8.6887163 -39.89951564 14.05863829
12.44619682 -35.18426855 15.61162504
10.66369809 -41.67779583 2.870097439
8.484930544 -42.52589111 8.775049258
8.09390819 -44.2328222 3.001682096
12.15853442 -39.74802984 5.559473496
6.939062867 -44.84559209 6.101492252
-4.282671161 -50.47993856 13.95231187
3.86254255 -45.52787344 12.58359473
-2.166063292 -51.39899377 10.5212055
2.045489664 -48.53787555 9.93554398
14.72505238 -35.63173926 10.4952475
9.947764322 -40.05761706 11.30417483
13.64019899 -35.50046423 13.06334803
13.51419837 -37.71646128 8.109451785
11.24431045 -37.63648856 13.54205288
11.08759069 -40.03619209 8.439956702
-12.27960965 -43.50930467 26.89022911
-3.855053562 -41.66751346 25.75193955
-10.34401559 -42.02655809 29.60002876
-10.43163371 -45.70630425 23.90535891
9.548127088 -33.83107301 20.90875299
3.471575171 -37.52267066 23.19028582
8.099763321 -32.90841655 23.17796462
8.356974731 -36.61616581 19.15102523
-5.667521835 -34.55371853 30.99753655
-1.899724391 -38.18221177 26.82990882
-7.874395365 -38.07823038 30.36309647
-1.814518169 -33.16577734 29.7758749
-5.873648802 -40.0610483 28.17204838
-6.458370462 -49.18083944 17.47868944
-2.028512333 -43.4571954 22.80099914
-8.472326477 -47.61358135 20.73986427
-2.132486783 -48.61723097 17.25218048
-6.281351763 -46.12291506 24.17391919
5.001194987 -30.49126037 27.35317639
1.806990562 -36.31837157 25.52022401
6.573031305 -31.78522144 25.3451312
1.740117396 -31.80587943 28.55497331
5.07121695 -34.58808554 24.32330807
0 -34.89104458 27.73735669
5.568977414 -42.40806341 15.07166975
1.910006421 -40.9184213 21.46896229
7.027485462 -39.49372722 17.20296014
1.988150767 -45.3266045 16.08447758
5.270323366 -38.6991027 20.28295437
0 -44.63885388 19.53816303
-19.41124219 32.96618478 2.521115639
-17.83536728 33.55257329 7.595606257
-17.42871947 34.94340055 2.575650313
-13.55117056 32.74458518 17.50442665
-15.87533967 33.4919369 12.62891341
-13.13177102 39.22390198 2.737737128
-15.76468047 35.56424985 7.792554681
-15.33299426 37.03164379 2.650621175
-16.64356735 35.3391246 5.191658798
-1.627965905 22.91529759 32.8156603
-4.858385827 26.31965448 29.8666763
-10.90002747 31.29011995 22.09183519
-7.977912671 29.13537405 26.25557896
-2.07730755 50.20569341 3.361154221
-5.699183646 45.15389671 9.221472848
-5.239357743 47.06796227 3.166320972
-11.17280416 34.68000827 18.07797688
-8.6887163 39.89951564 14.05863829
-12.44619682 35.18426855 15.61162504
-10.66369809 41.67779583 2.870097439
-8.484930544 42.52589111 8.775049258
-8.09390819 44.2328222 3.001682096
-12.15853442 39.74802984 5.559473496
-6.939062867 44.84559209 6.101492252
-14.72505238 35.63173926 10.4952475
-9.947764322 40.05761706 11.30417483
-13.64019899 35.50046423 13.06334803
-13.51419837 37.71646128 8.109451785
-11.24431045 37.63648856 13.54205288
-11.08759069 40.03619209 8.439956702
30.6977261 52.13406236 3.986994577
26.59083822 50.02369922 11.32432733
26.04508189 52.21862284 3.848993233
18.33083294 44.29399792 23.67845044
22.38800396 47.23159513 17.80977096
17.51224296 52.3081388 3.650986427
22.37160153 50.46909945 11.05838641
21.64319651 52.2717957 3.741468495
24.24824644 51.48606574 7.563800438
1.673910937 23.56202127 33.74179553
5.383545025 29.1646341 33.09506539
0 25.48916186 32.45311643
14.39630365 41.32669108 29.17797853
9.800436498 35.79123952 32.25356618
-3.327964386 28.93828526 29.28306711
3.58815747 31.20079194 31.57253016
-1.678794665 27.29898012 30.9547692
1.737574734 28.25480634 32.03859651
2.167126402 52.3764927 3.506484177
6.475671792 51.3059121 10.47785706
5.829072565 52.36568698 3.52270557
0 51.57086151 6.948134549
14.5577586 45.18679298 23.55494821
10.65839584 48.94449501 17.24564674
16.47446581 46.57181929 20.66439947
13.38983889 52.33259292 3.6038288
10.21161435 51.17991214 10.56077224
9.57951685 52.35160267 3.552630391
15.83995806 51.78314296 7.242799505
8.036350804 51.93711556 7.066333467
-3.86254255 45.52787344 12.58359473
4.282671161 50.47993856 13.95231187
-2.045489664 48.53787555 9.93554398
2.166063292 51.39899377 10.5212055
20.34425544 49.22910877 14.50032166
12.42018445 50.01354841 14.11371761
18.41755819 47.93418823 17.63867028
18.18876393 50.76259737 10.91451377
14.48804158 48.49377058 17.44863113
14.12197965 50.99307016 10.7497562
-9.548127088 33.83107301 20.90875299
-3.471575171 37.52267066 23.19028582
-8.099763321 32.90841655 23.17796462
-8.356974731 36.61616581 19.15102523
12.27960965 43.50930467 26.89022911
3.855053562 41.66751346 25.75193955
10.34401559 42.02655809 29.60002876
10.43163371 45.70630425 23.90535891
-5.001194987 30.49126037 27.35317639
-1.806990562 36.31837157 25.52022401
-6.573031305 31.78522144 25.3451312
-1.740117396 31.80587943 28.55497331
-5.07121695 34.58808554 24.32330807
-5.568977414 42.40806341 15.07166975
-1.910006421 40.9184213 21.46896229
-7.027485462 39.49372722 17.20296014
-1.988150767 45.3266045 16.08447758
-5.270323366 38.6991027 20.28295437
5.667521835 34.55371853 30.99753655
1.899724391 38.18221177 26.82990882
7.874395365 38.07823038 30.36309647
1.814518169 33.16577734 29.7758749
5.873648802 40.0610483 28.17204838
0 34.89104458 27.73735669
6.458370462 49.18083944 17.47868944
2.028512333 43.4571954 22.80099914
8.472326477 47.61358135 20.73986427
2.132486783 48.61723097 17.25218048
6.281351763 46.12291506 24.17391919
0 44.63885388 19.53816303
0 -18.3070859 34.7919352
0 -12.96729636 35.9719066
0 -2.569756882 37.07764322
0 -7.733538384 36.71715735
0 18.3070859 34.7919352
0 12.96729636 35.9719066
0 2.569756882 37.07764322
0 7.733538384 36.71715735
-30.6977261 -52.13406236 -3.986994577
-26.59083822 -50.02369922 -11.32432733
-26.04508189 -52.21862284 -3.848993233
-18.33083294 -44.29399792 -23.67845044
-22.38800396 -47.23159513 -17.80977096
-17.51224296 -52.3081388 -3.650986427
-22.37160153 -50.46909945 -11.05838641
-21.64319651 -52.2717957 -3.741468495
-24.24824644 -51.48606574 -7.563800438
-1.673910937 -23.56202127 -33.74179553
-5.383545025 -29.1646341 -33.09506539
-14.39630365 -41.32669108 -29.17797853
-9.800436498 -35.79123952 -32.25356618
-2.167126402 -52.3764927 -3.506484177
-6.475671792 -51.3059121 -10.47785706
-5.829072565 -52.36568698 -3.52270557
-14.5577586 -45.18679298 -23.55494821
-10.65839584 -48.94449501 -17.24564674
-16.47446581 -46.57181929 -20.66439947
-13.38983889 -52.33259292 -3.6038288
-10.21161435 -51.17991214 -10.56077224
-9.57951685 -52.35160267 -3.552630391
-15.83995806 -51.78314296 -7.242799505
-8.036350804 -51.93711556 -7.066333467
-20.34425544 -49.22910877 -14.50032166
-12.42018445 -50.01354841 -14.11371761
-18.41755819 -47.93418823 -17.63867028
-18.18876393 -50.76259737 -10.91451377
-14.48804158 -48.49377058 -17.44863113
-14.12197965 -50.99307016 -10.7497562
19.41124219 -32.96618478 -2.521115639
17.83536728 -33.55257329 -7.595606257
17.42871947 -34.94340055 -2.575650313
13.55117056 -32.74458518 -17.50442665
15.87533967 -33.4919369 -12.62891341
13.13177102 -39.22390198 -2.737737128
15.76468047 -35.56424985 -7.792554681
15.33299426 -37.03164379 -2.650621175
16.64356735 -35.3391246 -5.191658798
1.627965905 -22.91529759 -32.8156603
4.858385827 -26.31965448 -29.8666763
0 -25.48916186 -32.45311643
10.90002747 -31.29011995 -22.09183519
7.977912671 -29.13537405 -26.25557896
-3.58815747 -31.20079194 -31.57253016
3.327964386 -28.93828526 -29.28306711
-1.737574734 -28.25480634 -32.03859651
1.678794665 -27.29898012 -30.9547692
2.07730755 -50.20569341 -3.361154221
5.699183646 -45.15389671 -9.221472848
5.239357743 -47.06796227 -3.166320972
0 -51.57086151 -6.948134549
11.17280416 -34.68000827 -18.07797688
8.6887163 -39.89951564 -14.05863829
12.44619682 -35.18426855 -15.61162504
10.66369809 -41.67779583 -2.870097439
8.484930544 -42.52589111 -8.775049258
8.09390819 -44.2328222 -3.001682096
12.15853442 -39.74802984 -5.559473496
6.939062867 -44.84559209 -6.101492252
-4.282671161 -50.47993856 -13.95231187
3.86254255 -45.52787344 -12.58359473
-2.166063292 -51.39899377 -10.5212055
2.045489664 -48.53787555 -9.93554398
14.72505238 -35.63173926 -10.4952475
9.947764322 -40.05761706 -11.30417483
13.64019899 -35.50046423 -13.06334803
13.51419837 -37.71646128 -8.109451785
11.24431045 -37.63648856 -13.54205288
11.08759069 -40.03619209 -8.439956702
-12.27960965 -43.50930467 -26.89022911
-3.855053562 -41.66751346 -25.75193955
-10.34401559 -42.02655809 -29.60002876
-10.43163371 -45.70630425 -23.90535891
9.548127088 -33.83107301 -20.90875299
3.471575171 -37.52267066 -23.19028582
8.099763321 -32.90841655 -23.17796462
8.356974731 -36.61616581 -19.15102523
-5.667521835 -34.55371853 -30.99753655
-1.899724391 -38.18221177 -26.82990882
-7.874395365 -38.07823038 -30.36309647
-1.814518169 -33.16577734 -29.7758749
-5.873648802 -40.0610483 -28.17204838
-6.458370462 -49.18083944 -17.47868944
-2.028512333 -43.4571954 -22.80099914
-8.472326477 -47.61358135 -20.73986427
-2.132486783 -48.61723097 -17.25218048
-6.281351763 -46.12291506 -24.17391919
5.001194987 -30.49126037 -27.35317639
1.806990562 -36.31837157 -25.52022401
6.573031305 -31.78522144 -25.3451312
1.740117396 -31.80587943 -28.55497331
5.07121695 -34.58808554 -24.32330807
0 -34.89104458 -27.73735669
5.568977414 -42.40806341 -15.07166975
1.910006421 -40.9184213 -21.46896229
7.027485462 -39.49372722 -17.20296014
1.988150767 -45.3266045 -16.08447758
5.270323366 -38.6991027 -20.28295437
0 -44.63885388 -19.53816303
-19.41124219 32.96618478 -2.521115639
-17.83536728 33.55257329 -7.595606257
-17.42871947 34.94340055 -2.575650313
-13.55117056 32.74458518 -17.50442665
-15.87533967 33.4919369 -12.62891341
-13.13177102 39.22390198 -2.737737128
-15.76468047 35.56424985 -7.792554681
-15.33299426 37.03164379 -2.650621175
-16.64356735 35.3391246 -5.191658798
-1.627965905 22.91529759 -32.8156603
-4.858385827 26.31965448 -29.8666763
-10.90002747 31.29011995 -22.09183519
-7.977912671 29.13537405 -26.25557896
-2.07730755 50.20569341 -3.361154221
-5.699183646 45.15389671 -9.221472848
-5.239357743 47.06796227 -3.166320972
-11.17280416 34.68000827 -18.07797688
-8.6887163 39.89951564 -14.05863829
-12.44619682 35.18426855 -15.61162504
-10.66369809 41.67779583 -2.870097439
-8.484930544 42.52589111 -8.775049258
-8.09390819 44.2328222 -3.001682096
-12.15853442 39.74802984 -5.559473496
-6.939062867 44.84559209 -6.101492252
-14.72505238 35.63173926 -10.4952475
-9.947764322 40.05761706 -11.30417483
-13.64019899 35.50046423 -13.06334803
-13.51419837 37.71646128 -8.109451785
-11.24431045 37.63648856 -13.54205288
-11.08759069 40.03619209 -8.439956702
30.6977261 52.13406236 -3.986994577
26.59083822 50.02369922 -11.32432733
26.04508189 52.21862284 -3.848993233
18.33083294 44.29399792 -23.67845044
22.38800396 47.23159513 -17.80977096
17.51224296 52.3081388 -3.650986427
22.37160153 50.46909945 -11.05838641
21.64319651 52.2717957 -3.741468495
24.24824644 51.48606574 -7.563800438
1.673910937 23.56202127 -33.74179553
5.383545025 29.1646341 -33.09506539
0 25.48916186 -32.45311643
14.39630365 41.32669108 -29.17797853
9.800436498 35.79123952 -32.25356618
-3.327964386 28.93828526 -29.28306711
3.58815747 31.20079194 -31.57253016
-1.678794665 27.29898012 -30.9547692
1.737574734 28.25480634 -32.03859651
2.167126402 52.3764927 -3.506484177
6.475671792 51.3059121 -10.47785706
5.829072565 52.36568698 -3.52270557
0 51.57086151 -6.948134549
14.5577586 45.18679298 -23.55494821
10.65839584 48.94449501 -17.24564674
16.47446581 46.57181929 -20.66439947
13.38983889 52.33259292 -3.6038288
10.21161435 51.17991214 -10.56077224
9.57951685 52.35160267 -3.552630391
15.83995806 51.78314296 -7.242799505
8.036350804 51.93711556 -7.066333467
-3.86254255 45.52787344 -12.58359473
4.282671161 50.47993856 -13.95231187
-2.045489664 48.53787555 -9.93554398
2.166063292 51.39899377 -10.5212055
20.34425544 49.22910877 -14.50032166
12.42018445 50.01354841 -14.11371761
18.41755819 47.93418823 -17.63867028
18.18876393 50.76259737 -10.91451377
14.48804158 48.49377058 -17.44863113
14.12197965 50.99307016 -10.7497562
-9.548127088 33.83107301 -20.90875299
-3.471575171 37.52267066 -23.19028582
-8.099763321 32.90841655 -23.17796462
-8.356974731 36.61616581 -19.15102523
12.27960965 43.50930467 -26.89022911
3.855053562 41.66751346 -25.75193955
10.34401559 42.02655809 -29.60002876
10.43163371 45.70630425 -23.90535891
-5.001194987 30.49126037 -27.35317639
-1.806990562 36.31837157 -25.52022401
-6.573031305 31.78522144 -25.3451312
-1.740117396 31.80587943 -28.55497331
-5.07121695 34.58808554 -24.32330807
-5.568977414 42.40806341 -15.07166975
-1.910006421 40.9184213 -21.46896229
-7.027485462 39.49372722 -17.20296014
-1.988150767 45.3266045 -16.08447758
-5.270323366 38.6991027 -20.28295437
5.667521835 34.55371853 -30.99753655
1.899724391 38.18221177 -26.82990882
7.874395365 38.07823038 -30.36309647
1.814518169 33.16577734 -29.7758749
5.873648802 40.0610483 -28.17204838
0 34.89104458 -27.73735669
6.458370462 49.18083944 -17.47868944
2.028512333 43.4571954 -22.80099914
8.472326477 47.61358135 -20.73986427
2.132486783 48.61723097 -17.25218048
6.281351763 46.12291506 -24.17391919
0 44.63885388 -19.53816303
0 -18.3070859 -34.7919352
0 -12.96729636 -35.9719066
0 -2.569756882 -37.07764322
0 -7.733538384 -36.71715735
0 18.3070859 -34.7919352
0 12.96729636 -35.9719066
0 2.569756882 -37.07764322
0 7.733538384 -36.71715735
36.51302633 52.28817403 -2.593986035
43.23449858 49.0610838 -7.980723123
34.23095188 51.30432333 -6.605656557
46.05709297 32.51779504 -16.04415642
45.63478579 41.12415785 -12.49581815
29.37122132 48.37006983 -13.81905161
39.81690208 47.04556475 -11.76047787
31.78457271 49.90599672 -10.3637948
37.38669759 49.65890442 -9.264326176
42.21804525 3.22865915 -24.85894885
45.55023489 10.31162785 -24.212902
46.00418742 24.59267447 -19.03858568
45.80696629 17.27258154 -21.71272302
20.4473252 41.99170497 -25.95230092
28.67224448 39.80097352 -24.59835442
22.53682741 43.54557449 -23.16246794
43.42471538 31.54911639 -19.49842625
36.62888843 36.48179157 -22.54698716
43.07604651 35.51055022 -17.89255651
26.95699673 46.70945322 -17.19681684
31.10024099 41.46041888 -21.73477251
24.71298943 45.12882135 -20.23734697
31.77510483 46.05665152 -16.34017734
26.82364798 42.61942988 -22.52325643
41.48645627 43.44027532 -14.12461109
35.4586378 39.91691903 -20.70712288
42.48051104 39.55205166 -16.10593223
36.71949589 45.04454369 -15.33748311
39.46154227 37.9842567 -19.45380968
33.8142033 43.17868144 -18.66215938
21.56784528 -30.88605248 -1.532239178
24.41037193 -27.7000854 -4.505948399
20.88559823 -31.30270781 -4.030360868
29.56439888 -20.87342038 -10.29886624
27.05842341 -24.38391802 -7.409197443
19.23586922 -31.67863968 -9.050405724
23.63549802 -27.92646575 -6.981074289
20.10539531 -31.56813847 -6.555639216
22.29737455 -29.61650166 -5.525231272
38.57457771 -2.950022023 -22.71359198
36.49676017 -8.262109064 -19.40039342
31.96472602 -17.08753367 -13.22843004
34.27776899 -12.92522967 -16.24782788
14.82121435 -30.43762715 -18.81148811
19.5988282 -27.20583813 -16.81413266
16.04153789 -30.99540013 -16.48686394
28.53811165 -20.73363517 -12.81409125
24.10894389 -24.01212551 -14.8403097
27.39142364 -22.58063596 -11.3776132
18.24256824 -31.6096187 -11.63757624
20.71911628 -27.621112 -14.47980031
17.18901558 -31.38916138 -14.07600134
20.54629417 -29.7809721 -10.56582165
18.43204125 -29.2862138 -15.4769997
24.96419461 -26.13989201 -8.499389239
23.02040354 -25.91480218 -13.4434472
26.19536005 -24.38954261 -9.931629434
22.78843928 -27.95503652 -9.518575734
25.20677828 -24.26313524 -12.42647497
21.81082316 -27.8510949 -12.03745818
2.568880786 -19.77900828 -33.5907633
7.406959095 -17.39240179 -32.71924972
4.165220599 -21.58445033 -32.35012636
2.53631526 -17.16254995 -34.40974872
16.48143149 -12.75921193 -30.83092341
11.99343497 -15.07650324 -31.80664513
7.334120128 -24.83078887 -29.33875878
8.967688228 -19.0600602 -31.38910816
5.768700972 -23.2799099 -30.92155487
6.618618058 -20.29854421 -31.87140787
2.491101026 -11.9487616 -35.69031571
7.365974591 -14.90169021 -33.6173914
2.513059892 -14.53724632 -35.10978469
4.997448332 -16.02096192 -34.01715255
36.42809511 -1.807176704 -25.43787426
30.8019272 -5.010522264 -27.14383325
35.68418333 -4.59449505 -23.80897911
21.0122066 -10.36734283 -29.76097093
25.73081246 -7.818459271 -28.5530495
33.95542442 -9.700870069 -20.61837598
30.33508809 -7.583183112 -25.67402981
34.84677415 -7.23650143 -22.19352181
32.93053409 -6.143494557 -24.79241002
13.27053863 -29.55466023 -21.47218255
15.07711998 -24.49365592 -24.39529257
11.89205901 -28.62994378 -23.60163336
15.79014547 -28.01519915 -20.45970047
18.07871786 -14.24387858 -29.25197997
16.66332714 -19.42304682 -26.96182968
15.8566869 -15.42838255 -29.81066364
8.948501314 -26.28331542 -27.52113728
13.65143097 -23.37655255 -26.31573048
10.43867889 -27.53273808 -25.63472643
9.787539494 -23.4323659 -28.74495425
12.80971169 -25.98416391 -25.01141859
20.57772081 -24.9432248 -18.49257168
17.5783988 -23.11505946 -23.45367091
18.23244051 -26.47157864 -19.46352455
16.71304696 -25.56049462 -22.01198068
11.36251786 -17.81139845 -30.86251376
14.45697844 -20.68646051 -27.57757788
13.61003231 -16.61999397 -30.35006108
10.59339807 -20.59991927 -29.85869939
15.1795279 -18.07777283 -28.72332547
12.16848357 -22.04822973 -28.15424866
2.477982422 -1.53147736 -37.01372135
7.382359138 -4.562548864 -36.14848598
2.477576984 -4.099682967 -36.82965216
16.61963629 -10.27150011 -31.88239081
12.13135093 -7.497587205 -34.42972329
14.3476407 -11.43849917 -32.33559876
2.491540114 -9.257187994 -36.18061838
7.362787442 -7.119360612 -35.68174808
2.480427477 -6.688367265 -36.55160809
4.952027714 -10.83005422 -35.4050335
4.947176235 -5.626290339 -36.36144049
9.777953687 -13.71867412 -33.19650122
9.80832222 -8.631402052 -34.75689481
12.06025065 -12.59280686 -32.77448444
7.396939511 -12.3268145 -34.40261932
12.10844329 -10.05394799 -33.65215682
7.398018084 -9.71879351 -35.09360102
29.85456501 -18.4511359 -14.53729968
27.45663875 -16.96913596 -19.77950259
30.92188611 -16.44776086 -16.00349102
27.55723683 -20.1252473 -15.53202517
20.74044411 -12.8182994 -28.54748359
24.38714098 -15.07208202 -24.48547146
23.01202192 -11.59497389 -27.91471606
20.00175892 -15.43672077 -27.38814581
32.95345948 -12.13233227 -19.0181267
28.26992177 -14.81992549 -21.2058007
31.96316686 -14.33340554 -17.50334667
31.44475716 -11.15610648 -21.69416191
29.68128274 -15.68578332 -18.68068818
22.98804702 -23.32479787 -17.48180916
25.04591101 -18.56870185 -20.66243512
25.26124566 -21.75427588 -16.51737931
21.60682354 -22.55455883 -20.07335562
26.38189362 -19.39758263 -18.17066948
27.74577107 -9.021541019 -26.49784582
26.63563594 -13.8173837 -23.66072808
25.35437628 -10.32451792 -27.23163063
29.69309494 -10.11037753 -24.20527302
24.90016041 -12.75273031 -25.86857867
28.99733298 -12.53287112 -22.70846815
18.44341945 -20.52302637 -24.8769271
23.47012988 -17.59073471 -23.1312808
19.23333009 -18.01680605 -26.15850017
20.07865015 -21.61252253 -22.5605078
21.81421936 -16.56289263 -25.33085253
22.57610473 -20.09253128 -21.62746408
2.669180014 20.5512587 -34.90227905
8.214586075 19.28880391 -36.28683373
4.466816827 23.14734205 -34.69254157
2.620439424 17.7317951 -35.55104664
19.77263847 15.30712213 -36.98760649
13.96500235 17.55488763 -37.03525096
8.550639449 28.94950167 -34.20521396
10.34167488 21.98035221 -36.19839841
6.429163875 25.94524426 -34.46178689
7.376744149 22.62363018 -35.52210136
2.546716672 12.21552641 -36.48712802
8.033614908 16.2523559 -36.66441872
2.582454587 14.93867239 -36.07929313
5.315828558 17.04163429 -36.18433628
38.30386629 1.900232626 -26.74773224
34.96581707 5.687858547 -30.81321185
40.87735096 5.263138151 -27.27393215
35.12614067 0 -27.58859498
25.4093478 12.53687558 -35.98893138
30.57931466 9.291705291 -33.93335079
43.70002378 12.48484623 -26.53548102
37.16734924 9.291115763 -31.45649783
43.6167534 9.057730768 -27.77902379
39.18122671 7.309618859 -29.49836875
29.37797468 -3.33875045 -29.03207538
31.72253058 3.605204729 -31.34902623
32.14730826 -1.743470586 -28.35067912
33.54038571 1.819022465 -29.57923273
18.02965219 40.15362598 -29.17259005
21.01413656 34.13868371 -34.00158719
16.03662016 38.60790913 -31.82715702
22.04204882 39.10745398 -28.56045356
22.84480095 17.99898496 -36.9636644
22.88288877 26.67266964 -37.0252918
19.74474036 19.21141594 -37.12022676
11.02608985 32.38555678 -33.91076582
18.63168311 31.90467874 -35.91611401
13.67272867 36.06276822 -33.57672582
11.98293047 28.68835538 -35.19258219
17.57250001 35.64535498 -34.31093252
29.99371509 36.35679506 -26.95443929
24.83398724 32.65593744 -33.13431278
26.06827842 37.84838798 -27.82845097
23.51175322 35.95825723 -30.96624206
13.52031315 21.19386633 -36.7234495
19.21692339 27.49745588 -36.6574664
16.60608835 20.27865049 -37.0311976
12.8154378 24.92089718 -36.12177153
19.56833916 23.30454492 -37.0280142
15.57224041 28.21553991 -36.02952874
2.484834771 1.535712345 -37.11607516
7.56969572 4.678329239 -37.06579895
2.496042986 4.130238932 -37.10415279
4.978917295 0 -36.95481895
19.16202264 11.84278129 -36.75959474
13.02119602 8.047541717 -36.9551733
16.43825018 13.10521465 -37.04725211
2.534318361 9.416128351 -36.80181786
7.659917969 7.406667476 -37.12171042
2.510838956 6.770370526 -36.99975199
5.156783078 11.27785294 -36.86895312
5.050233565 5.743494665 -37.11890552
9.941130246 -3.051436365 -35.96734712
10.16746306 3.12090937 -36.78622694
7.485612753 -1.541107719 -36.56928508
7.549075282 1.554173128 -36.87931705
10.89592389 15.28720977 -36.99204991
10.47278848 9.216137678 -37.11150585
13.6591864 14.26234837 -37.11969221
7.941004244 13.23348476 -36.93302421
13.34455632 11.08032403 -37.08760006
7.817109188 10.26935447 -37.08162212
43.64870808 26.97638516 -21.25418173
38.80064511 23.98011746 -27.95161736
43.73587715 23.26369244 -22.63531774
40.82659644 29.8159556 -23.01100533
26.46542694 16.35653338 -36.42744278
33.99699505 21.01129846 -34.13407306
29.39762123 14.81245985 -35.66076255
26.92420908 20.77924743 -36.86696591
43.74295354 16.10465351 -25.24496808
39.07803211 20.48585521 -29.31316781
43.76323012 19.62496794 -23.96517815
41.59110557 14.7558717 -28.69426447
41.40711584 21.8825801 -26.06064657
33.97726834 34.4749998 -25.83882487
35.75706325 26.50980619 -29.49894692
37.54949973 32.33657544 -24.5522069
31.26370866 32.63502175 -29.04487746
38.25532927 28.12765912 -26.3485614
34.77142939 11.30593472 -33.20751018
36.66055328 19.01786511 -32.56597232
32.1978877 13.11125404 -34.58184003
39.34474096 13.39672357 -32.07311998
33.91184895 17.36810755 -35.23075024
39.22527469 16.95346648 -30.71820095
26.09528516 29.03768614 -35.19794733
33.1679645 24.85920902 -32.68910332
27.1928743 25.47290249 -36.98396499
28.6310775 30.81829719 -32.1700733
30.70977992 23.3170291 -35.66045127
32.31442169 28.75954627 -30.9565801
19.3539928 -8.838135062 -31.31541817
20.50059168 -3.06892919 -33.17065413
21.70034228 -7.583393943 -30.81046654
17.14651747 -7.482263298 -32.78360918
22.32208864 10.19353662 -36.11789813
21.50594168 3.219429624 -34.79734459
24.87290878 8.692077908 -35.31492331
19.00711936 8.294178212 -36.34102225
26.63729452 -4.870304711 -29.69324919
23.02843419 -1.630556347 -32.77225267
24.13519479 -6.259245206 -30.26784533
27.64271943 -1.684525369 -30.78976792
22.37593359 -4.665204807 -31.8188917
12.47494056 -4.609486762 -35.10149033
18.05899642 -1.606635601 -34.41925204
14.83412645 -6.059806401 -34.05547294
12.67878748 -1.56718432 -35.72925406
17.62947027 -4.580841992 -33.63635632
29.56566718 5.405721968 -32.95757843
23.68278162 1.676888214 -33.70346837
27.31457234 7.083788112 -34.25508921
28.62695286 1.744503772 -31.88605365
24.29156665 5.064599117 -34.5429488
25.7251534 0 -32.35987783
13.03051883 4.814772767 -36.66475433
18.45166519 1.641569748 -35.16765272
15.90807906 6.498520803 -36.52100161
12.86565293 1.590282159 -36.25584724
18.76331146 4.875459315 -35.79968203
15.52174137 0 -35.46253269
36.51302633 52.28817403 2.593986035
43.23449858 49.0610838 7.980723123
34.23095188 51.30432333 6.605656557
41.23321294 52.49863717 0
46.05709297 32.51779504 16.04415642
45.63478579 41.12415785 12.49581815
29.37122132 48.37006983 13.81905161
39.81690208 47.04556475 11.76047787
31.78457271 49.90599672 10.3637948
37.38669759 49.65890442 9.264326176
48.27488018 48.85004565 -5.551713952
48.27488018 48.85004565 5.551713952
45.77846048 51.90896043 -2.815220015
45.77846048 51.90896043 2.815220015
42.21804525 3.22865915 24.85894885
45.55023489 10.31162785 24.212902
46.00418742 24.59267447 19.03858568
45.80696629 17.27258154 21.71272302
20.4473252 41.99170497 25.95230092
28.67224448 39.80097352 24.59835442
22.53682741 43.54557449 23.16246794
43.42471538 31.54911639 19.49842625
36.62888843 36.48179157 22.54698716
43.07604651 35.51055022 17.89255651
26.95699673 46.70945322 17.19681684
31.10024099 41.46041888 21.73477251
24.71298943 45.12882135 20.23734697
31.77510483 46.05665152 16.34017734
26.82364798 42.61942988 22.52325643
41.48645627 43.44027532 14.12461109
35.4586378 39.91691903 20.70712288
42.48051104 39.55205166 16.10593223
36.71949589 45.04454369 15.33748311
39.46154227 37.9842567 19.45380968
33.8142033 43.17868144 18.66215938
48.37497019 29.89737578 -13.65284403
51.93286724 32.09627708 -4.804797987
48.58662791 34.22039893 -11.95864851
48.37497019 29.89737578 13.65284403
51.93286724 32.09627708 4.804797987
48.58662791 34.22039893 11.95864851
48.81666034 43.79257218 -8.006938185
52.28394437 36.73892619 -2.601344442
48.76407217 38.88385077 -10.08417618
51.82535966 46.52824537 -2.835394321
50.83974347 35.75192795 -7.453993616
48.81666034 43.79257218 8.006938185
52.28394437 36.73892619 2.601344442
48.76407217 38.88385077 10.08417618
51.82535966 46.52824537 2.835394321
50.83974347 35.75192795 7.453993616
52.49863717 41.73487618 0
21.56784528 -30.88605248 1.532239178
24.41037193 -27.7000854 4.505948399
20.88559823 -31.30270781 4.030360868
23.09447091 -29.40416626 0
29.56439888 -20.87342038 10.29886624
27.05842341 -24.38391802 7.409197443
19.23586922 -31.67863968 9.050405724
23.63549802 -27.92646575 6.981074289
20.10539531 -31.56813847 6.555639216
22.29737455 -29.61650166 5.525231272
26.00903071 -26.3189123 -2.99109388
26.00903071 -26.3189123 2.99109388
24.58160186 -27.87348865 -1.511685121
24.58160186 -27.87348865 1.511685121
38.57457771 -2.950022023 22.71359198
36.49676017 -8.262109064 19.40039342
31.96472602 -17.08753367 13.22843004
34.27776899 -12.92522967 16.24782788
14.82121435 -30.43762715 18.81148811
19.5988282 -27.20583813 16.81413266
16.04153789 -30.99540013 16.48686394
28.53811165 -20.73363517 12.81409125
24.10894389 -24.01212551 14.8403097
27.39142364 -22.58063596 11.3776132
18.24256824 -31.6096187 11.63757624
20.71911628 -27.621112 14.47980031
17.18901558 -31.38916138 14.07600134
20.54629417 -29.7809721 10.56582165
18.43204125 -29.2862138 15.4769997
24.96419461 -26.13989201 8.499389239
23.02040354 -25.91480218 13.4434472
26.19536005 -24.38954261 9.931629434
22.78843928 -27.95503652 9.518575734
25.20677828 -24.26313524 12.42647497
21.81082316 -27.8510949 12.03745818
31.50165918 -19.46909607 -8.890697769
32.34037537 -19.98745119 -2.992112293
30.18031628 -21.25651661 -7.428294778
31.50165918 -19.46909607 8.890697769
32.34037537 -19.98745119 2.992112293
30.18031628 -21.25651661 7.428294778
27.46878109 -24.64176309 -4.505446106
30.80663506 -21.64723235 -1.532758667
28.82917975 -22.98802116 -5.961736066
27.64008883 -24.81497173 -1.51220467
30.5971301 -21.5167567 -4.486073236
27.46878109 -24.64176309 4.505446106
30.80663506 -21.64723235 1.532758667
28.82917975 -22.98802116 5.961736066
27.64008883 -24.81497173 1.51220467
30.5971301 -21.5167567 4.486073236
29.24762971 -23.25100746 0
2.568880786 -19.77900828 33.5907633
7.406959095 -17.39240179 32.71924972
4.165220599 -21.58445033 32.35012636
2.53631526 -17.16254995 34.40974872
16.48143149 -12.75921193 30.83092341
11.99343497 -15.07650324 31.80664513
7.334120128 -24.83078887 29.33875878
8.967688228 -19.0600602 31.38910816
5.768700972 -23.2799099 30.92155487
6.618618058 -20.29854421 31.87140787
2.491101026 -11.9487616 35.69031571
7.365974591 -14.90169021 33.6173914
2.513059892 -14.53724632 35.10978469
4.997448332 -16.02096192 34.01715255
36.42809511 -1.807176704 25.43787426
30.8019272 -5.010522264 27.14383325
35.68418333 -4.59449505 23.80897911
21.0122066 -10.36734283 29.76097093
25.73081246 -7.818459271 28.5530495
33.95542442 -9.700870069 20.61837598
30.33508809 -7.583183112 25.67402981
34.84677415 -7.23650143 22.19352181
32.93053409 -6.143494557 24.79241002
13.27053863 -29.55466023 21.47218255
15.07711998 -24.49365592 24.39529257
11.89205901 -28.62994378 23.60163336
15.79014547 -28.01519915 20.45970047
18.07871786 -14.24387858 29.25197997
16.66332714 -19.42304682 26.96182968
15.8566869 -15.42838255 29.81066364
8.948501314 -26.28331542 27.52113728
13.65143097 -23.37655255 26.31573048
10.43867889 -27.53273808 25.63472643
9.787539494 -23.4323659 28.74495425
12.80971169 -25.98416391 25.01141859
20.57772081 -24.9432248 18.49257168
17.5783988 -23.11505946 23.45367091
18.23244051 -26.47157864 19.46352455
16.71304696 -25.56049462 22.01198068
11.36251786 -17.81139845 30.86251376
14.45697844 -20.68646051 27.57757788
13.61003231 -16.61999397 30.35006108
10.59339807 -20.59991927 29.85869939
15.1795279 -18.07777283 28.72332547
12.16848357 -22.04822973 28.15424866
2.477982422 -1.53147736 37.01372135
7.382359138 -4.562548864 36.14848598
2.477576984 -4.099682967 36.82965216
16.61963629 -10.27150011 31.88239081
12.13135093 -7.497587205 34.42972329
14.3476407 -11.43849917 32.33559876
2.491540114 -9.257187994 36.18061838
7.362787442 -7.119360612 35.68174808
2.480427477 -6.688367265 36.55160809
4.952027714 -10.83005422 35.4050335
4.947176235 -5.626290339 36.36144049
9.777953687 -13.71867412 33.19650122
9.80832222 -8.631402052 34.75689481
12.06025065 -12.59280686 32.77448444
7.396939511 -12.3268145 34.40261932
12.10844329 -10.05394799 33.65215682
7.398018084 -9.71879351 35.09360102
29.85456501 -18.4511359 14.53729968
27.45663875 -16.96913596 19.77950259
30.92188611 -16.44776086 16.00349102
27.55723683 -20.1252473 15.53202517
20.74044411 -12.8182994 28.54748359
24.38714098 -15.07208202 24.48547146
23.01202192 -11.59497389 27.91471606
20.00175892 -15.43672077 27.38814581
32.95345948 -12.13233227 19.0181267
28.26992177 -14.81992549 21.2058007
31.96316686 -14.33340554 17.50334667
31.44475716 -11.15610648 21.69416191
29.68128274 -15.68578332 18.68068818
22.98804702 -23.32479787 17.48180916
25.04591101 -18.56870185 20.66243512
25.26124566 -21.75427588 16.51737931
21.60682354 -22.55455883 20.07335562
26.38189362 -19.39758263 18.17066948
27.74577107 -9.021541019 26.49784582
26.63563594 -13.8173837 23.66072808
25.35437628 -10.32451792 27.23163063
29.69309494 -10.11037753 24.20527302
24.90016041 -12.75273031 25.86857867
28.99733298 -12.53287112 22.70846815
18.44341945 -20.52302637 24.8769271
23.47012988 -17.59073471 23.1312808
19.23333009 -18.01680605 26.15850017
20.07865015 -21.61252253 22.5605078
21.81421936 -16.56289263 25.33085253
22.57610473 -20.09253128 21.62746408
2.669180014 20.5512587 34.90227905
8.214586075 19.28880391 36.28683373
4.466816827 23.14734205 34.69254157
2.620439424 17.7317951 35.55104664
19.77263847 15.30712213 36.98760649
13.96500235 17.55488763 37.03525096
8.550639449 28.94950167 34.20521396
10.34167488 21.98035221 36.19839841
6.429163875 25.94524426 34.46178689
7.376744149 22.62363018 35.52210136
2.546716672 12.21552641 36.48712802
8.033614908 16.2523559 36.66441872
2.582454587 14.93867239 36.07929313
5.315828558 17.04163429 36.18433628
38.30386629 1.900232626 26.74773224
34.96581707 5.687858547 30.81321185
40.87735096 5.263138151 27.27393215
35.12614067 0 27.58859498
25.4093478 12.53687558 35.98893138
30.57931466 9.291705291 33.93335079
43.70002378 12.48484623 26.53548102
37.16734924 9.291115763 31.45649783
43.6167534 9.057730768 27.77902379
39.18122671 7.309618859 29.49836875
29.37797468 -3.33875045 29.03207538
31.72253058 3.605204729 31.34902623
32.14730826 -1.743470586 28.35067912
33.54038571 1.819022465 29.57923273
18.02965219 40.15362598 29.17259005
21.01413656 34.13868371 34.00158719
16.03662016 38.60790913 31.82715702
22.04204882 39.10745398 28.56045356
22.84480095 17.99898496 36.9636644
22.88288877 26.67266964 37.0252918
19.74474036 19.21141594 37.12022676
11.02608985 32.38555678 33.91076582
18.63168311 31.90467874 35.91611401
13.67272867 36.06276822 33.57672582
11.98293047 28.68835538 35.19258219
17.57250001 35.64535498 34.31093252
29.99371509 36.35679506 26.95443929
24.83398724 32.65593744 33.13431278
26.06827842 37.84838798 27.82845097
23.51175322 35.95825723 30.96624206
13.52031315 21.19386633 36.7234495
19.21692339 27.49745588 36.6574664
16.60608835 20.27865049 37.0311976
12.8154378 24.92089718 36.12177153
19.56833916 23.30454492 37.0280142
15.57224041 28.21553991 36.02952874
2.484834771 1.535712345 37.11607516
7.56969572 4.678329239 37.06579895
2.496042986 4.130238932 37.10415279
4.978917295 0 36.95481895
19.16202264 11.84278129 36.75959474
13.02119602 8.047541717 36.9551733
16.43825018 13.10521465 37.04725211
2.534318361 9.416128351 36.80181786
7.659917969 7.406667476 37.12171042
2.510838956 6.770370526 36.99975199
5.156783078 11.27785294 36.86895312
5.050233565 5.743494665 37.11890552
9.941130246 -3.051436365 35.96734712
10.16746306 3.12090937 36.78622694
7.485612753 -1.541107719 36.56928508
7.549075282 1.554173128 36.87931705
10.89592389 15.28720977 36.99204991
10.47278848 9.216137678 37.11150585
13.6591864 14.26234837 37.11969221
7.941004244 13.23348476 36.93302421
13.34455632 11.08032403 37.08760006
7.817109188 10.26935447 37.08162212
43.64870808 26.97638516 21.25418173
38.80064511 23.98011746 27.95161736
43.73587715 23.26369244 22.63531774
40.82659644 29.8159556 23.01100533
26.46542694 16.35653338 36.42744278
33.99699505 21.01129846 34.13407306
29.39762123 14.81245985 35.66076255
26.92420908 20.77924743 36.86696591
43.74295354 16.10465351 25.24496808
39.07803211 20.48585521 29.31316781
43.76323012 19.62496794 23.96517815
41.59110557 14.7558717 28.69426447
41.40711584 21.8825801 26.06064657
33.97726834 34.4749998 25.83882487
35.75706325 26.50980619 29.49894692
37.54949973 32.33657544 24.5522069
31.26370866 32.63502175 29.04487746
38.25532927 28.12765912 26.3485614
34.77142939 11.30593472 33.20751018
36.66055328 19.01786511 32.56597232
32.1978877 13.11125404 34.58184003
39.34474096 13.39672357 32.07311998
33.91184895 17.36810755 35.23075024
39.22527469 16.95346648 30.71820095
26.09528516 29.03768614 35.19794733
33.1679645 24.85920902 32.68910332
27.1928743 25.47290249 36.98396499
28.6310775 30.81829719 32.1700733
30.70977992 23.3170291 35.66045127
32.31442169 28.75954627 30.9565801
19.3539928 -8.838135062 31.31541817
20.50059168 -3.06892919 33.17065413
21.70034228 -7.583393943 30.81046654
17.14651747 -7.482263298 32.78360918
22.32208864 10.19353662 36.11789813
21.50594168 3.219429624 34.79734459
24.87290878 8.692077908 35.31492331
19.00711936 8.294178212 36.34102225
26.63729452 -4.870304711 29.69324919
23.02843419 -1.630556347 32.77225267
24.13519479 -6.259245206 30.26784533
27.64271943 -1.684525369 30.78976792
22.37593359 -4.665204807 31.8188917
12.47494056 -4.609486762 35.10149033
18.05899642 -1.606635601 34.41925204
14.83412645 -6.059806401 34.05547294
12.67878748 -1.56718432 35.72925406
17.62947027 -4.580841992 33.63635632
29.56566718 5.405721968 32.95757843
23.68278162 1.676888214 33.70346837
27.31457234 7.083788112 34.25508921
28.62695286 1.744503772 31.88605365
24.29156665 5.064599117 34.5429488
25.7251534 0 32.35987783
13.03051883 4.814772767 36.66475433
18.45166519 1.641569748 35.16765272
15.90807906 6.498520803 36.52100161
12.86565293 1.590282159 36.25584724
18.76331146 4.875459315 35.79968203
15.52174137 0 35.46253269
42.1170457 0 -22.16146843
46.77140731 0 -16.86034344
45.09091368 3.32361545 -22.48999447
40.86524912 -3.01214507 -20.38235981
52.24826137 0 -3.621193732
50.31399878 0 -10.59736834
47.28552074 10.36082604 -20.96040626
49.67786502 3.467399434 -16.63165354
47.10057517 6.919529508 -22.18282438
47.8280123 3.423394945 -19.80324294
38.29654768 -8.391233983 -16.975835
44.87496103 -3.132167907 -15.02368921
39.5833371 -5.815174614 -18.64245207
42.99190863 -3.077240212 -17.8008487
42.1170457 0 22.16146843
46.77140731 0 16.86034344
45.09091368 3.32361545 22.48999447
40.86524912 -3.01214507 20.38235981
52.24826137 0 3.621193732
50.31399878 0 10.59736834
47.28552074 10.36082604 20.96040626
49.67786502 3.467399434 16.63165354
47.10057517 6.919529508 22.18282438
47.8280123 3.423394945 19.80324294
38.29654768 -8.391233983 16.975835
44.87496103 -3.132167907 15.02368921
39.5833371 -5.815174614 18.64245207
42.99190863 -3.077240212 17.8008487
48.1162912 25.08203554 -15.50155047
50.73575186 17.87679806 -11.04846881
47.90329296 21.25518815 -16.94546561
50.02383179 26.16351667 -11.41703095
52.45056613 3.51144322 -2.17019126
51.98468047 10.6164773 -6.561343814
52.15464174 3.508508292 -5.80558012
47.49632508 13.98993418 -19.62817109
50.44766165 14.23622344 -12.52799057
47.6941452 17.55034001 -18.32532743
48.85082036 10.5034608 -17.50375445
49.36736015 17.76295896 -14.74903596
52.37915788 27.48214935 -2.444975264
51.81930983 18.41639212 -6.804851316
51.53248753 27.00918162 -7.018066421
51.12946863 22.2713396 -9.097940935
50.77642415 3.49666488 -12.9916769
51.2514854 10.57554109 -10.22589492
51.58926858 3.500897662 -9.440021746
49.93549637 6.984373053 -15.274781
51.7921461 7.046609564 -8.013919341
50.19377747 10.58125876 -13.90062417
33.05872814 -17.2328368 -10.65047887
37.85120715 -13.33691454 -8.242666491
34.35933478 -15.24559337 -12.15438209
33.72112773 -17.63685939 -7.696234877
49.13067932 -3.289184532 -2.032827836
43.12426895 -8.806975792 -5.443010377
48.66307488 -3.273626201 -5.41691728
36.96156169 -10.88694366 -15.27461031
39.489704 -11.14391097 -9.806730839
35.6661871 -13.1243302 -13.70387401
39.87913379 -8.574450035 -14.28910631
36.86858168 -13.26575092 -11.01488991
34.4003963 -18.04910325 -1.605755446
38.37451061 -13.63815993 -5.039295967
34.1734546 -17.91097395 -4.653987915
36.02025013 -15.68995815 -6.409417444
46.52278843 -3.203742743 -11.9033399
42.3749653 -8.743906315 -8.454817242
47.77949994 -3.242363078 -8.742894227
43.06008151 -6.02272321 -13.1716587
45.37721095 -6.173821955 -7.021321491
41.25386563 -8.696652241 -11.42481221
48.1162912 25.08203554 15.50155047
50.73575186 17.87679806 11.04846881
47.90329296 21.25518815 16.94546561
50.02383179 26.16351667 11.41703095
52.45056613 3.51144322 2.17019126
51.98468047 10.6164773 6.561343814
52.15464174 3.508508292 5.80558012
52.49863717 7.073133626 0
47.49632508 13.98993418 19.62817109
50.44766165 14.23622344 12.52799057
47.6941452 17.55034001 18.32532743
48.85082036 10.5034608 17.50375445
49.36736015 17.76295896 14.74903596
52.37915788 27.48214935 2.444975264
51.81930983 18.41639212 6.804851316
51.53248753 27.00918162 7.018066421
52.49863717 22.97834381 0
51.12946863 22.2713396 9.097940935
50.77642415 3.49666488 12.9916769
51.2514854 10.57554109 10.22589492
51.58926858 3.500897662 9.440021746
49.93549637 6.984373053 15.274781
51.7921461 7.046609564 8.013919341
50.19377747 10.58125876 13.90062417
52.24058202 14.43894175 -4.432042519
52.24058202 14.43894175 4.432042519
52.44016813 10.73433048 -2.209940602
52.42065261 18.6018525 -2.29931542
52.44016813 10.73433048 2.209940602
52.42065261 18.6018525 2.29931542
33.05872814 -17.2328368 10.65047887
37.85120715 -13.33691454 8.242666491
34.35933478 -15.24559337 12.15438209
33.72112773 -17.63685939 7.696234877
49.13067932 -3.289184532 2.032827836
43.12426895 -8.806975792 5.443010377
48.66307488 -3.273626201 5.41691728
46.26531774 -6.233319421 0
36.96156169 -10.88694366 15.27461031
39.489704 -11.14391097 9.806730839
35.6661871 -13.1243302 13.70387401
39.87913379 -8.574450035 14.28910631
36.86858168 -13.26575092 11.01488991
34.4003963 -18.04910325 1.605755446
38.37451061 -13.63815993 5.039295967
34.1734546 -17.91097395 4.653987915
36.51586045 -15.98277672 0
36.02025013 -15.68995815 6.409417444
46.52278843 -3.203742743 11.9033399
42.3749653 -8.743906315 8.454817242
47.77949994 -3.242363078 8.742894227
43.06008151 -6.02272321 13.1716587
45.37721095 -6.173821955 7.021321491
41.25386563 -8.696652241 11.42481221
40.94994037 -11.31828515 -3.474154955
40.94994037 -11.31828515 3.474154955
43.52507229 -8.909439589 -1.834239437
38.70791298 -13.73578642 -1.697836573
43.52507229 -8.909439589 1.834239437
38.70791298 -13.73578642 1.697836573
-21.56784528 30.88605248 -1.532239178
-24.41037193 27.7000854 -4.505948399
-20.88559823 31.30270781 -4.030360868
-29.56439888 20.87342038 -10.29886624
-27.05842341 24.38391802 -7.409197443
-19.23586922 31.67863968 -9.050405724
-23.63549802 27.92646575 -6.981074289
-20.10539531 31.56813847 -6.555639216
-22.29737455 29.61650166 -5.525231272
-38.57457771 2.950022023 -22.71359198
-36.49676017 8.262109064 -19.40039342
-31.96472602 17.08753367 -13.22843004
-34.27776899 12.92522967 -16.24782788
-14.82121435 30.43762715 -18.81148811
-19.5988282 27.20583813 -16.81413266
-16.04153789 30.99540013 -16.48686394
-28.53811165 20.73363517 -12.81409125
-24.10894389 24.01212551 -14.8403097
-27.39142364 22.58063596 -11.3776132
-18.24256824 31.6096187 -11.63757624
-20.71911628 27.621112 -14.47980031
-17.18901558 31.38916138 -14.07600134
-20.54629417 29.7809721 -10.56582165
-18.43204125 29.2862138 -15.4769997
-24.96419461 26.13989201 -8.499389239
-23.02040354 25.91480218 -13.4434472
-26.19536005 24.38954261 -9.931629434
-22.78843928 27.95503652 -9.518575734
-25.20677828 24.26313524 -12.42647497
-21.81082316 27.8510949 -12.03745818
-36.51302633 -52.28817403 -2.593986035
-43.23449858 -49.0610838 -7.980723123
-34.23095188 -51.30432333 -6.605656557
-46.05709297 -32.51779504 -16.04415642
-45.63478579 -41.12415785 -12.49581815
-29.37122132 -48.37006983 -13.81905161
-39.81690208 -47.04556475 -11.76047787
-31.78457271 -49.90599672 -10.3637948
-37.38669759 -49.65890442 -9.264326176
-42.21804525 -3.22865915 -24.85894885
