13.110962 -5.7385908 1.1822147
14.426079 -1.9822946 3.2858548
14.200508 -3.9249238 0
-8.783449 11.183196 -1.1568693
-10.666012 8.5314502 -3.3332339
-8.2290367 11.418329 -3.0686528
-12.725943 1.9303872 -7.127723
-12.010329 5.4594911 -5.3374516
-6.7949444 11.344134 -7.0110604
-9.994701 8.5020005 -5.2545253
-7.5517025 11.463178 -5.0647841
-9.1946305 9.9742986 -4.2038969
-13.63435 -17.359423 -1.7957821
-14.365961 -11.490938 -4.4895044
-12.999316 -18.037405 -4.8475159
-13.454308 -2.0408723 -7.5356758
-14.23603 -6.4712196 -6.3265643
-10.887657 -18.176902 -11.233943
-13.542822 -11.520213 -7.1198831
-12.057115 -18.302212 -8.0864794
-13.415266 -14.552827 -6.1336229
-2.843465 -10.499153 -18.745345
-7.9917117 -7.8130678 -17.580959
-4.8881302 -13.108229 -18.188529
-2.8251888 -7.6872212 -19.834625
-12.229327 -1.2650884 -9.6050956
-10.604733 -4.1432646 -13.258028
-12.774968 -3.4332467 -9.2067483
-9.1021972 -17.313408 -14.727664
-9.6116163 -9.3153382 -15.551922
-7.1428865 -15.622696 -16.947438
-11.169095 -14.067071 -12.276023
-7.8274147 -11.670844 -17.715869
-2.729917 -1.6871815 -20.262154
-7.5906233 -4.6912632 -17.512988
-2.7968064 -4.635991 -20.353661
-5.6053757 -6.3944699 -19.448044
-13.445079 -8.3095156 -8.0533747
-11.038778 -6.8223402 -12.976862
-13.188258 -5.8269773 -8.688149
-12.497533 -10.906322 -9.9229
-11.969913 -5.0449945 -11.034253
-11.179835 -10.17175 -12.810951
-2.3951935 8.8439643 -15.790146
-6.2559931 6.1161488 -13.762553
-3.6553419 9.8023287 -13.601375
-2.4569196 6.6851761 -17.249141
-11.785672 1.2191937 -9.2566427
-9.3105256 3.6376184 -11.640011
-11.599842 3.117434 -8.3598506
-11.1224 0 -10.991443
-5.7808347 10.995801 -9.3535871
-7.2476868 7.0242768 -11.727004
-4.8059071 10.511328 -11.402647
-7.5932402 9.5634112 -8.3457785
-5.5903002 8.3352584 -12.652584
-2.6323334 1.6268715 -19.537863
-6.4959879 4.0147413 -14.987459
-2.5476527 4.2229933 -18.540453
-5.0874098 0 -18.406422
-4.6434491 5.2971285 -16.110606
-10.758301 6.6489958 -6.4440405
-8.9963424 5.5600454 -10.575835
-11.246349 4.9689825 -7.4088601
-9.2777848 8.0965187 -7.366456
-10.334208 4.355589 -9.5264066
-8.3442355 7.5918362 -9.561643
-9.2339093 -2.7818547 -14.940779
-8.4082143 2.5331016 -13.604776
-10.268691 -1.3433851 -12.917069
-7.3596223 -1.5161656 -16.814534
-9.8263348 1.2855145 -12.360626
-6.9766186 1.4372625 -15.939485
-8.783449 11.183196 1.1568693
-10.666012 8.5314502 3.3332339
-8.2290367 11.418329 3.0686528
-9.9046709 10.022679 0
-12.725943 1.9303872 7.127723
-12.010329 5.4594911 5.3374516
-6.7949444 11.344134 7.0110604
-9.994701 8.5020005 5.2545253
-7.5517025 11.463178 5.0647841
-9.1946305 9.9742986 4.2038969
-11.86207 7.3311623 -2.2086234
-11.86207 7.3311623 2.2086234
-10.962902 8.7151854 -1.1401502
-10.962902 8.7151854 1.1401502
-13.63435 -17.359423 1.7957821
-14.365961 -11.490938 4.4895044
-12.999316 -18.037405 4.8475159
-14.37092 -14.54214 0
-13.454308 -2.0408723 7.5356758
-14.23603 -6.4712196 6.3265643
-10.887657 -18.176902 11.233943
-13.542822 -11.520213 7.1198831
-12.057115 -18.302212 8.0864794
-13.415266 -14.552827 6.1336229
-15.088674 -9.3253133 -2.8093915
-15.088674 -9.3253133 2.8093915
-14.856143 -11.810198 -1.5450503
-14.856143 -11.810198 1.5450503
-2.843465 -10.499153 18.745345
-7.9917117 -7.8130678 17.580959
-4.8881302 -13.108229 18.188529
-2.8251888 -7.6872212 19.834625
-12.229327 -1.2650884 9.6050956
-10.604733 -4.1432646 13.258028
-12.774968 -3.4332467 9.2067483
-9.1021972 -17.313408 14.727664
-9.6116163 -9.3153382 15.551922
-7.1428865 -15.622696 16.947438
-11.169095 -14.067071 12.276023
-7.8274147 -11.670844 17.715869
-2.729917 -1.6871815 20.262154
-7.5906233 -4.6912632 17.512988
-2.7968064 -4.635991 20.353661
-5.6053757 -6.3944699 19.448044
-13.445079 -8.3095156 8.0533747
-11.038778 -6.8223402 12.976862
-13.188258 -5.8269773 8.688149
-12.497533 -10.906322 9.9229
-11.969913 -5.0449945 11.034253
-11.179835 -10.17175 12.810951
-2.3951935 8.8439643 15.790146
-6.2559931 6.1161488 13.762553
-3.6553419 9.8023287 13.601375
-2.4569196 6.6851761 17.249141
-11.785672 1.2191937 9.2566427
-9.3105256 3.6376184 11.640011
-11.599842 3.117434 8.3598506
-11.1224 0 10.991443
-5.7808347 10.995801 9.3535871
-7.2476868 7.0242768 11.727004
-4.8059071 10.511328 11.402647
-7.5932402 9.5634112 8.3457785
-5.5903002 8.3352584 12.652584
-2.6323334 1.6268715 19.537863
-6.4959879 4.0147413 14.987459
-2.5476527 4.2229933 18.540453
-5.0874098 0 18.406422
-4.6434491 5.2971285 16.110606
-10.758301 6.6489958 6.4440405
-8.9963424 5.5600454 10.575835
-11.246349 4.9689825 7.4088601
-9.2777848 8.0965187 7.366456
-10.334208 4.355589 9.5264066
-8.3442355 7.5918362 9.561643
-9.2339093 -2.7818547 14.940779
-8.4082143 2.5331016 13.604776
-10.268691 -1.3433851 12.917069
-7.3596223 -1.5161656 16.814534
-9.8263348 1.2855145 12.360626
-6.9766186 1.4372625 15.939485
-13.801063 0 -6.0835721
-15.312774 0 -2.1328236
-13.633085 1.9418586 -5.2837167
-14.390989 -2.0498123 -5.5774541
-13.801063 0 6.0835721
-15.312774 0 2.1328236
-13.633085 1.9418586 5.2837167
-14.390989 -2.0498123 5.5774541
-12.732003 5.5184094 -3.4105646
-14.920072 2.0101791 -1.242359
-13.275679 3.8263576 -4.3650114
-13.110962 5.7385908 -1.1822147
-14.426079 1.9822946 -3.2858548
-15.076267 -6.5344798 -4.0385306
-15.781671 -2.1262622 -1.3141023
-14.837081 -4.2763897 -4.8783966
-15.649083 -6.8495113 -1.4110769
-15.23912 -2.0940148 -3.4710424
-12.732003 5.5184094 3.4105646
-14.920072 2.0101791 1.242359
-13.275679 3.8263576 4.3650114
-13.110962 5.7385908 1.1822147
-14.426079 1.9822946 3.2858548
-14.200508 3.9249238 0
-15.076267 -6.5344798 4.0385306
-15.781671 -2.1262622 1.3141023
-14.837081 -4.2763897 4.8783966
-15.649083 -6.8495113 1.4110769
-15.23912 -2.0940148 3.4710424
-15.927482 -4.4022477 0
-6.918488 13.148329 0
-5.3059585 14.718985 0
-1.2809302 18.481855 0
-3.4669835 16.460483 0
11.871815 22.561942 0
8.9962004 24.955895 0
1.4489276 20.905799 0
4.9745531 23.618096 0
-11.871815 -22.561942 0
-8.9962004 -24.955895 0
-1.4489276 -20.905799 0
-4.9745531 -23.618096 0
6.918488 -13.148329 0
5.3059585 -14.718985 0
1.2809302 -18.481855 0
3.4669835 -16.460483 0
-12.465 -21.169356 1.6189436
-11.644217 -21.905545 4.9589608
-11.50178 -23.060289 1.6997556
-8.8675171 -21.427165 11.45442
-10.464714 -22.077232 8.3247335
-8.3397002 -24.910241 1.7386769
-10.442659 -23.558062 5.1618546
-10.132282 -24.471089 1.7515719
-11.021595 -23.402045 3.4379866
-0.82569384 -11.622492 16.643892
-2.6211848 -14.199918 16.113598
-6.8274322 -19.599141 13.837626
-4.6420993 -16.952968 15.277305
-0.84115737 -20.329628 1.3610212
-2.7086685 -21.460431 4.3827177
-2.4107676 -21.657219 1.4569083
-6.9516911 -21.577815 11.248073
-4.8005163 -22.044485 7.7673986
-7.9690406 -22.527754 9.9957983
-6.2086337 -24.265707 1.6710323
-4.5504659 -22.806623 4.7060564
-4.2168251 -23.044748 1.5638389
-7.5183927 -24.578727 3.4377749
-3.4519721 -22.309314 3.0353063
-9.7124628 -23.502255 6.9225357
-5.7347682 -23.092741 6.5167227
-8.9033959 -23.172293 8.5268668
-8.7253576 -24.351397 5.2358168
-6.8847747 -23.044432 8.2916585
-6.6342844 -23.955744 5.0500668
7.4232001 -12.606848 0.96411892
6.8495278 -12.885593 2.9170308
6.6645898 -13.362051 0.98490614
5.3573219 -12.945249 6.9202028
6.1597949 -12.995216 4.9001482
5.0098605 -14.964187 1.0444654
6.0561867 -13.662423 2.9936012
5.8584199 -14.149025 1.0127475
6.374515 -13.534946 1.9884143
0.77807334 -10.952184 15.683983
2.1755497 -11.785749 13.374079
0 -12.130246 15.44438
4.4372522 -12.73778 8.9932841
3.3848244 -12.361394 11.139571
-1.6833668 -14.637701 14.8121
1.4815953 -12.883199 13.036694
-0.82185487 -13.364231 15.153925
0.7716401 -12.547686 14.22803
0.7815484 -18.88896 1.2645719
2.1800454 -17.272218 3.5273875
1.9810052 -17.796433 1.1971884
0 -19.443253 2.6195866
4.4371432 -13.772743 7.1794484
3.3872606 -15.554663 5.4807028
4.8841177 -13.806957 6.1262902
4.059063 -15.864365 1.0924828
3.2515735 -16.296664 3.362752
3.0719445 -16.78803 1.139252
4.6472272 -15.192466 2.1249384
2.6400128 -17.061805 2.3213535
-1.7217228 -20.293984 5.6091192
1.4912572 -17.577482 4.8582964
-0.8394887 -19.920413 4.0776432
0.78030318 -18.515986 3.7901617
5.6851706 -13.756998 4.0520924
3.8428735 -15.474467 4.366862
5.3027879 -13.801223 5.0785303
5.1906278 -14.486402 3.114735
4.3781612 -14.654399 5.2728259
4.2551132 -15.364792 3.2390239
-5.6836566 -20.138421 12.446229
-1.6393187 -17.718647 10.950726
-4.6242744 -18.787901 13.232642
-4.685695 -20.530418 10.737841
3.8609925 -13.680329 8.4549082
1.4351596 -15.511985 9.5869341
3.3369121 -13.557494 9.5487768
3.3432936 -14.648673 7.6615644
-2.6277374 -16.020776 14.371958
-0.82009625 -16.482964 11.582263
-3.5960792 -17.389568 13.86622
-0.82041836 -14.995613 13.462899
-2.5840305 -17.624304 12.393903
-2.6991721 -20.554341 7.3049373
-0.83467415 -17.881379 9.3819516
-3.6734273 -20.644274 8.9923804
-0.83766968 -19.097506 6.77689
-2.6111546 -19.173271 10.049085
2.1606638 -13.173124 11.817379
0.76613582 -15.398423 10.820177
2.7686141 -13.388193 10.675575
0.7681028 -14.039389 12.604411
2.117565 -14.44279 10.156573
0 -15.244503 12.118933
2.1772503 -16.579878 5.8924278
0.77752887 -16.657145 8.739624
2.7797216 -15.621743 6.8046303
0.77921322 -17.764794 6.3039674
2.1258412 -15.609696 8.1813463
0 -17.870477 7.8218022
-7.4232001 12.606848 0.96411892
-6.8495278 12.885593 2.9170308
-6.6645898 13.362051 0.98490614
-5.3573219 12.945249 6.9202028
-6.1597949 12.995216 4.9001482
-5.0098605 14.964187 1.0444654
-6.0561867 13.662423 2.9936012
-5.8584199 14.149025 1.0127475
-6.374515 13.534946 1.9884143
-0.77807334 10.952184 15.683983
-2.1755497 11.785749 13.374079
-4.4372522 12.73778 8.9932841
-3.3848244 12.361394 11.139571
-0.7815484 18.88896 1.2645719
-2.1800454 17.272218 3.5273875
-1.9810052 17.796433 1.1971884
-4.4371432 13.772743 7.1794484
-3.3872606 15.554663 5.4807028
-4.8841177 13.806957 6.1262902
-4.059063 15.864365 1.0924828
-3.2515735 16.296664 3.362752
-3.0719445 16.78803 1.139252
-4.6472272 15.192466 2.1249384
-2.6400128 17.061805 2.3213535
-5.6851706 13.756998 4.0520924
-3.8428735 15.474467 4.366862
-5.3027879 13.801223 5.0785303
-5.1906278 14.486402 3.114735
-4.3781612 14.654399 5.2728259
-4.2551132 15.364792 3.2390239
12.465 21.169356 1.6189436
11.644217 21.905545 4.9589608
11.50178 23.060289 1.6997556
8.8675171 21.427165 11.45442
10.464714 22.077232 8.3247335
8.3397002 24.910241 1.7386769
10.442659 23.558062 5.1618546
10.132282 24.471089 1.7515719
11.021595 23.402045 3.4379866
0.82569384 11.622492 16.643892
2.6211848 14.199918 16.113598
0 12.130246 15.44438
6.8274322 19.599141 13.837626
4.6420993 16.952968 15.277305
-1.4815953 12.883199 13.036694
1.6833668 14.637701 14.8121
-0.7716401 12.547686 14.22803
0.82185487 13.364231 15.153925
0.84115737 20.329628 1.3610212
2.7086685 21.460431 4.3827177
2.4107676 21.657219 1.4569083
0 19.443253 2.6195866
6.9516911 21.577815 11.248073
4.8005163 22.044485 7.7673986
7.9690406 22.527754 9.9957983
6.2086337 24.265707 1.6710323
4.5504659 22.806623 4.7060564
4.2168251 23.044748 1.5638389
7.5183927 24.578727 3.4377749
3.4519721 22.309314 3.0353063
-1.4912572 17.577482 4.8582964
1.7217228 20.293984 5.6091192
-0.78030318 18.515986 3.7901617
0.8394887 19.920413 4.0776432
9.7124628 23.502255 6.9225357
5.7347682 23.092741 6.5167227
8.9033959 23.172293 8.5268668
8.7253576 24.351397 5.2358168
6.8847747 23.044432 8.2916585
6.6342844 23.955744 5.0500668
-3.8609925 13.680329 8.4549082
-1.4351596 15.511985 9.5869341
-3.3369121 13.557494 9.5487768
-3.3432936 14.648673 7.6615644
5.6836566 20.138421 12.446229
1.6393187 17.718647 10.950726
4.6242744 18.787901 13.232642
4.685695 20.530418 10.737841
-2.1606638 13.173124 11.817379
-0.76613582 15.398423 10.820177
-2.7686141 13.388193 10.675575
-0.7681028 14.039389 12.604411
-2.117565 14.44279 10.156573
-2.1772503 16.579878 5.8924278
-0.77752887 16.657145 8.739624
-2.7797216 15.621743 6.8046303
-0.77921322 17.764794 6.3039674
-2.1258412 15.609696 8.1813463
2.6277374 16.020776 14.371958
0.82009625 16.482964 11.582263
3.5960792 17.389568 13.86622
0.82041836 14.995613 13.462899
2.5840305 17.624304 12.393903
0 15.244503 12.118933
2.6991721 20.554341 7.3049373
0.83467415 17.881379 9.3819516
3.6734273 20.644274 8.9923804
0.83766968 19.097506 6.77689
2.6111546 19.173271 10.049085
0 17.870477 7.8218022
0 -9.2731857 17.623344
0 -6.8437115 18.984786
0 -1.4239381 20.545239
0 -4.2116182 19.995847
0 9.2731857 17.623344
0 6.8437115 18.984786
0 1.4239381 20.545239
0 4.2116182 19.995847
-12.465 -21.169356 -1.6189436
-11.644217 -21.905545 -4.9589608
-11.50178 -23.060289 -1.6997556
-8.8675171 -21.427165 -11.45442
-10.464714 -22.077232 -8.3247335
-8.3397002 -24.910241 -1.7386769
-10.442659 -23.558062 -5.1618546
-10.132282 -24.471089 -1.7515719
-11.021595 -23.402045 -3.4379866
-0.82569384 -11.622492 -16.643892
-2.6211848 -14.199918 -16.113598
-6.8274322 -19.599141 -13.837626
-4.6420993 -16.952968 -15.277305
-0.84115737 -20.329628 -1.3610212
-2.7086685 -21.460431 -4.3827177
-2.4107676 -21.657219 -1.4569083
-6.9516911 -21.577815 -11.248073
-4.8005163 -22.044485 -7.7673986
-7.9690406 -22.527754 -9.9957983
-6.2086337 -24.265707 -1.6710323
-4.5504659 -22.806623 -4.7060564
-4.2168251 -23.044748 -1.5638389
-7.5183927 -24.578727 -3.4377749
-3.4519721 -22.309314 -3.0353063
-9.7124628 -23.502255 -6.9225357
-5.7347682 -23.092741 -6.5167227
-8.9033959 -23.172293 -8.5268668
-8.7253576 -24.351397 -5.2358168
-6.8847747 -23.044432 -8.2916585
-6.6342844 -23.955744 -5.0500668
7.4232001 -12.606848 -0.96411892
6.8495278 -12.885593 -2.9170308
6.6645898 -13.362051 -0.98490614
5.3573219 -12.945249 -6.9202028
6.1597949 -12.995216 -4.9001482
5.0098605 -14.964187 -1.0444654
6.0561867 -13.662423 -2.9936012
5.8584199 -14.149025 -1.0127475
6.374515 -13.534946 -1.9884143
0.77807334 -10.952184 -15.683983
2.1755497 -11.785749 -13.374079
0 -12.130246 -15.44438
4.4372522 -12.73778 -8.9932841
3.3848244 -12.361394 -11.139571
-1.6833668 -14.637701 -14.8121
1.4815953 -12.883199 -13.036694
-0.82185487 -13.364231 -15.153925
0.7716401 -12.547686 -14.22803
0.7815484 -18.88896 -1.2645719
2.1800454 -17.272218 -3.5273875
1.9810052 -17.796433 -1.1971884
0 -19.443253 -2.6195866
4.4371432 -13.772743 -7.1794484
3.3872606 -15.554663 -5.4807028
4.8841177 -13.806957 -6.1262902
4.059063 -15.864365 -1.0924828
3.2515735 -16.296664 -3.362752
3.0719445 -16.78803 -1.139252
4.6472272 -15.192466 -2.1249384
2.6400128 -17.061805 -2.3213535
-1.7217228 -20.293984 -5.6091192
1.4912572 -17.577482 -4.8582964
-0.8394887 -19.920413 -4.0776432
0.78030318 -18.515986 -3.7901617
5.6851706 -13.756998 -4.0520924
3.8428735 -15.474467 -4.366862
5.3027879 -13.801223 -5.0785303
5.1906278 -14.486402 -3.114735
4.3781612 -14.654399 -5.2728259
4.2551132 -15.364792 -3.2390239
-5.6836566 -20.138421 -12.446229
-1.6393187 -17.718647 -10.950726
-4.6242744 -18.787901 -13.232642
-4.685695 -20.530418 -10.737841
3.8609925 -13.680329 -8.4549082
1.4351596 -15.511985 -9.5869341
3.3369121 -13.557494 -9.5487768
3.3432936 -14.648673 -7.6615644
-2.6277374 -16.020776 -14.371958
-0.82009625 -16.482964 -11.582263
-3.5960792 -17.389568 -13.86622
-0.82041836 -14.995613 -13.462899
-2.5840305 -17.624304 -12.393903
-2.6991721 -20.554341 -7.3049373
-0.83467415 -17.881379 -9.3819516
-3.6734273 -20.644274 -8.9923804
-0.83766968 -19.097506 -6.77689
-2.6111546 -19.173271 -10.049085
2.1606638 -13.173124 -11.817379
0.76613582 -15.398423 -10.820177
2.7686141 -13.388193 -10.675575
0.7681028 -14.039389 -12.604411
2.117565 -14.44279 -10.156573
0 -15.244503 -12.118933
2.1772503 -16.579878 -5.8924278
0.77752887 -16.657145 -8.739624
2.7797216 -15.621743 -6.8046303
0.77921322 -17.764794 -6.3039674
2.1258412 -15.609696 -8.1813463
0 -17.870477 -7.8218022
-7.4232001 12.606848 -0.96411892
-6.8495278 12.885593 -2.9170308
-6.6645898 13.362051 -0.98490614
-5.3573219 12.945249 -6.9202028
-6.1597949 12.995216 -4.9001482
-5.0098605 14.964187 -1.0444654
-6.0561867 13.662423 -2.9936012
-5.8584199 14.149025 -1.0127475
-6.374515 13.534946 -1.9884143
-0.77807334 10.952184 -15.683983
-2.1755497 11.785749 -13.374079
-4.4372522 12.73778 -8.9932841
-3.3848244 12.361394 -11.139571
-0.7815484 18.88896 -1.2645719
-2.1800454 17.272218 -3.5273875
-1.9810052 17.796433 -1.1971884
-4.4371432 13.772743 -7.1794484
-3.3872606 15.554663 -5.4807028
-4.8841177 13.806957 -6.1262902
-4.059063 15.864365 -1.0924828
-3.2515735 16.296664 -3.362752
-3.0719445 16.78803 -1.139252
-4.6472272 15.192466 -2.1249384
-2.6400128 17.061805 -2.3213535
-5.6851706 13.756998 -4.0520924
-3.8428735 15.474467 -4.366862
-5.3027879 13.801223 -5.0785303
-5.1906278 14.486402 -3.114735
-4.3781612 14.654399 -5.2728259
-4.2551132 15.364792 -3.2390239
12.465 21.169356 -1.6189436
11.644217 21.905545 -4.9589608
11.50178 23.060289 -1.6997556
8.8675171 21.427165 -11.45442
10.464714 22.077232 -8.3247335
8.3397002 24.910241 -1.7386769
10.442659 23.558062 -5.1618546
10.132282 24.471089 -1.7515719
11.021595 23.402045 -3.4379866
0.82569384 11.622492 -16.643892
2.6211848 14.199918 -16.113598
0 12.130246 -15.44438
6.8274322 19.599141 -13.837626
4.6420993 16.952968 -15.277305
-1.4815953 12.883199 -13.036694
1.6833668 14.637701 -14.8121
-0.7716401 12.547686 -14.22803
0.82185487 13.364231 -15.153925
0.84115737 20.329628 -1.3610212
2.7086685 21.460431 -4.3827177
2.4107676 21.657219 -1.4569083
0 19.443253 -2.6195866
6.9516911 21.577815 -11.248073
4.8005163 22.044485 -7.7673986
7.9690406 22.527754 -9.9957983
6.2086337 24.265707 -1.6710323
4.5504659 22.806623 -4.7060564
4.2168251 23.044748 -1.5638389
7.5183927 24.578727 -3.4377749
3.4519721 22.309314 -3.0353063
-1.4912572 17.577482 -4.8582964
1.7217228 20.293984 -5.6091192
-0.78030318 18.515986 -3.7901617
0.8394887 19.920413 -4.0776432
9.7124628 23.502255 -6.9225357
5.7347682 23.092741 -6.5167227
8.9033959 23.172293 -8.5268668
8.7253576 24.351397 -5.2358168
6.8847747 23.044432 -8.2916585
6.6342844 23.955744 -5.0500668
-3.8609925 13.680329 -8.4549082
-1.4351596 15.511985 -9.5869341
-3.3369121 13.557494 -9.5487768
-3.3432936 14.648673 -7.6615644
5.6836566 20.138421 -12.446229
1.6393187 17.718647 -10.950726
4.6242744 18.787901 -13.232642
4.685695 20.530418 -10.737841
-2.1606638 13.173124 -11.817379
-0.76613582 15.398423 -10.820177
-2.7686141 13.388193 -10.675575
-0.7681028 14.039389 -12.604411
-2.117565 14.44279 -10.156573
-2.1772503 16.579878 -5.8924278
-0.77752887 16.657145 -8.739624
-2.7797216 15.621743 -6.8046303
-0.77921322 17.764794 -6.3039674
-2.1258412 15.609696 -8.1813463
2.6277374 16.020776 -14.371958
0.82009625 16.482964 -11.582263
3.5960792 17.389568 -13.86622
0.82041836 14.995613 -13.462899
2.5840305 17.624304 -12.393903
0 15.244503 -12.118933
2.6991721 20.554341 -7.3049373
0.83467415 17.881379 -9.3819516
3.6734273 20.644274 -8.9923804
0.83766968 19.097506 -6.77689
2.6111546 19.173271 -10.049085
0 17.870477 -7.8218022
0 -9.2731857 -17.623344
0 -6.8437115 -18.984786
0 -1.4239381 -20.545239
0 -4.2116182 -19.995847
0 9.2731857 -17.623344
0 6.8437115 -18.984786
0 1.4239381 -20.545239
0 4.2116182 -19.995847
13.251083 18.976103 -0.94139348
13.92078 15.796842 -2.5696583
12.983338 19.459038 -2.5054364
14.403201 10.169125 -5.0174077
14.276772 12.865629 -3.9092973
12.200783 20.09289 -5.7404235
13.620396 16.093146 -4.0229742
12.630156 19.831021 -4.1182351
13.356524 17.740811 -3.3097118
13.170705 1.0072403 -7.7552118
13.703873 3.1022725 -7.2844969
14.335414 7.6633497 -5.9326342
14.096297 5.3153366 -6.6817129
9.6715634 19.862032 -12.275411
11.765259 16.331779 -10.093594
10.430819 20.154389 -10.720387
13.98992 10.164019 -6.281709
13.039306 12.986942 -8.0263714
13.980933 11.525446 -5.8072794
11.678271 20.235402 -7.4499802
12.303074 16.401499 -8.598149
11.097944 20.26615 -9.0880526
12.564251 18.211343 -6.4610988
11.507306 18.283673 -9.6624442
13.80698 14.457225 -4.7007685
12.96424 14.594259 -7.5708525
13.921916 12.962187 -5.2783131
13.250556 16.254723 -5.5346667
13.5046 12.999041 -6.6575177
12.807346 16.354202 -7.0684123
8.2387777 -11.798273 -0.58530548
9.2989773 -10.552173 -1.7165126
7.9875861 -11.971554 -1.5413901
11.057193 -7.8067352 -3.8518135
10.241407 -9.2291275 -2.8043249
7.3968603 -12.181538 -3.4801956
9.0232665 -10.661419 -2.6651477
7.7055577 -12.098748 -2.5125025
8.5232185 -11.32097 -2.1120313
12.80785 -0.97949069 -7.5415545
12.606482 -2.853846 -6.7011625
11.73115 -6.2711757 -4.8548732
12.249384 -4.6189151 -5.8062673
5.8855754 -12.086928 -7.4701322
7.6525051 -10.622717 -6.5652004
6.2984824 -12.169904 -6.4733333
10.716177 -7.7855644 -4.8117434
9.246303 -9.2091711 -5.6915807
10.348733 -8.5311734 -4.2985676
7.0507555 -12.217123 -4.497925
8.023464 -10.696257 -5.607293
6.6886445 -12.21425 -5.4772985
7.9065961 -11.460272 -4.0659247
7.1877134 -11.42038 -6.0353727
9.5085233 -9.9563305 -3.2373021
8.8468137 -9.9591402 -5.1663591
9.9436982 -9.258214 -3.7700236
8.7274299 -10.706114 -3.645388
9.6094748 -9.2497337 -4.7372932
8.3920048 -10.71608 -4.6315724
1.2473978 -9.604296 -16.311012
3.4586572 -8.1213295 -15.278155
1.9550781 -10.131345 -15.184556
1.2591353 -8.5202233 -17.08247
7.0830617 -5.4834002 -13.249901
5.3803287 -6.763412 -14.268657
3.2368775 -10.958945 -12.948515
4.0592364 -8.6275625 -14.208323
2.6218387 -10.580574 -14.053654
3.0505439 -9.3556691 -14.689642
1.2888173 -6.1819131 -18.465046
3.5064772 -7.0937575 -16.003126
1.2744914 -7.3725243 -17.80583
2.4296735 -7.7891163 -16.538555
12.332069 -0.6117868 -8.6115296
11.212725 -1.823964 -9.8810806
12.271967 -1.5800696 -8.1880256
8.6073811 -4.2468491 -12.1912
9.977574 -3.0317448 -11.071946
12.041256 -3.4401179 -7.3116787
11.124122 -2.7808144 -9.4148739
12.174263 -2.5281845 -7.7536525
11.708213 -2.184275 -8.8147617
5.359645 -11.936402 -8.6720877
6.1785728 -10.03745 -9.9971408
4.8867668 -11.764814 -9.6985457
6.3089942 -11.193547 -8.1747271
7.5659815 -5.9610932 -12.242015
6.9107879 -8.0553274 -11.18189
6.7740219 -6.5910491 -12.735201
3.8418248 -11.284112 -11.815541
5.7068864 -9.7724063 -11.001109
4.3782511 -11.54794 -10.751865
4.2532939 -10.182819 -12.491468
5.3109013 -10.773024 -10.369724
8.0498537 -9.7576069 -7.2341586
7.0959708 -9.3309857 -9.4676748
7.208105 -10.465407 -7.694808
6.7147639 -10.269383 -8.8437048
5.0450113 -7.9083445 -13.703101
6.0919612 -8.7169746 -11.620792
5.9303028 -7.2418341 -13.22444
4.6556863 -9.0534464 -13.122582
6.4421611 -7.6721704 -12.190122
5.2070026 -9.434634 -12.047454
1.3602512 -0.84068148 -20.318126
3.7763404 -2.3339067 -18.491242
1.3459345 -2.2271376 -20.007572
7.2159494 -4.459702 -13.842765
5.6929493 -3.5184361 -16.157035
6.3829178 -5.0887112 -14.385325
1.3136632 -4.8808474 -19.076211
3.7054079 -3.5829005 -17.957252
1.3291618 -3.5840282 -19.586543
2.5064752 -5.4816458 -17.920303
2.594893 -2.951102 -19.072304
4.5521431 -6.3867522 -15.454688
4.7236823 -4.1568782 -16.7389
5.4916267 -5.7341258 -14.923839
3.5873756 -5.9782716 -16.684619
5.5973813 -4.6476478 -15.556414
3.6555037 -4.8022437 -17.340427
11.106948 -6.8644715 -5.4083868
10.372062 -6.410287 -7.4719355
11.394883 -6.0610892 -5.8973734
10.398208 -7.5938859 -5.8607194
8.4563029 -5.2262826 -11.639392
9.4927392 -5.8668354 -9.5310145
9.164299 -4.6175781 -11.116746
8.1478545 -6.2882547 -11.15675
11.85821 -4.3657857 -6.8436195
10.611081 -5.562641 -7.9595714
11.647291 -5.2230541 -6.3781721
11.440313 -4.0588436 -7.8928262
11.018493 -5.8229862 -6.9347758
8.8898654 -9.0200926 -6.7605104
9.6313028 -7.1405185 -7.9456551
9.6553307 -8.3148999 -6.3132579
8.4565299 -8.8274568 -7.8563576
10.03297 -7.3768536 -6.9102615
10.485929 -3.4095011 -10.014302
10.155701 -5.2683262 -9.0214209
9.8439886 -4.008556 -10.572844
10.981252 -3.7390714 -8.9517175
9.6808612 -4.9580971 -10.05737
10.808756 -4.6716279 -8.4645819
7.4756817 -8.31861 -10.083379
9.1673702 -6.8708941 -9.0350167
7.8190904 -7.3245265 -10.634439
7.9826767 -8.5924989 -8.9693898
8.6829256 -6.592689 -10.082685
8.8313822 -7.8598511 -8.4602903
1.365405 10.512888 -17.854077
4.3664235 10.252871 -19.288091
2.2746866 11.787577 -17.666867
1.3699655 9.2701806 -18.586084
8.8038191 6.8155363 -16.468829
7.0054589 8.8063032 -18.57851
4.2744919 14.471948 -17.099296
5.4022395 11.482002 -18.909163
3.2505599 13.117813 -17.423744
3.8462584 11.796034 -18.521339
1.3789216 6.6141055 -19.755981
4.3153813 8.730206 -19.694863
1.3763691 7.9618541 -19.229156
2.8441225 9.1177687 -19.35967
12.554605 0.6228267 -8.7669276
11.876339 1.9319135 -10.465883
12.857015 1.6553971 -8.5783777
12.02819 0 -9.4471196
10.082872 4.9748509 -14.281036
11.070794 3.363926 -12.285073
13.362143 3.8174876 -8.1137459
12.153841 3.0382242 -10.286374
13.127444 2.7261281 -8.3607229
12.51724 2.3352065 -9.4238542
10.884039 -1.2369501 -10.755889
11.325224 1.28709 -11.19188
11.468806 -0.62199687 -10.114328
11.691046 0.63404979 -10.310321
8.6184964 19.194152 -13.94502
9.3886583 15.25242 -15.191168
7.6093286 18.319338 -15.101891
10.06589 17.859108 -13.042635
9.5698233 7.5398821 -15.484299
9.6070768 11.198166 -15.544577
8.838901 8.6001538 -16.617185
5.4087942 15.886576 -16.63476
8.5278085 14.602921 -16.438973
6.5133676 17.179458 -15.995165
6.0231624 14.420064 -17.689382
8.1750787 16.582932 -15.962132
11.848935 14.362652 -10.648277
10.406958 13.684833 -13.885301
11.080681 16.087979 -11.828867
10.292689 15.741368 -13.556025
6.8410396 10.723722 -18.581417
8.7301392 12.491938 -16.653279
7.9460195 9.7033418 -17.719442
6.5048403 12.649311 -18.334634
8.8201655 10.50421 -16.689879
7.5661984 13.709291 -17.505931
1.3742855 0.84935517 -20.527757
4.0479276 2.5017569 -19.821097
1.3827659 2.2880831 -20.555078
2.6903091 0 -19.968174
8.5886582 5.3080827 -16.47611
6.4948575 4.0140427 -18.432914
7.8020986 6.2201375 -17.583764
1.3894347 5.1623726 -20.17652
4.1252518 3.9888637 -19.991912
1.3868856 3.7396779 -20.437162
2.8219481 6.1715832 -20.175809
2.7721072 3.1526428 -20.374817
4.9470933 -1.5185135 -17.898752
5.2096309 1.5990996 -18.848622
3.8929635 -0.8014676 -19.018202
3.9858951 0.82059998 -19.472198
5.7168108 8.0208054 -19.408776
5.4674125 4.8113668 -19.374392
6.8539089 7.1565636 -18.625926
4.2880644 7.1459519 -19.943471
6.6820291 5.5482585 -18.5709
4.2234871 5.5484048 -20.03474
13.941892 8.6165632 -6.7888266
12.908229 7.9777245 -9.2989662
13.855891 7.370132 -7.1710576
13.520935 9.8744355 -7.6207749
10.302556 6.3673296 -14.180605
11.711443 7.2380699 -11.758664
10.835243 5.4595096 -13.143683
10.387041 8.0163879 -14.222839
13.567119 4.9949474 -7.8298666
12.778506 6.6988692 -9.5853981
13.729876 6.1569583 -7.5186162
12.998189 4.6115536 -8.967626
13.333251 7.0462752 -8.3916287
12.508542 12.691779 -9.512419
12.436592 9.220322 -10.259969
13.044835 11.233846 -8.5295272
11.890715 12.412275 -11.046814
12.998628 9.5573867 -8.9528741
11.745336 3.8189974 -11.217064
12.165568 6.3109557 -10.806808
11.314644 4.6074192 -12.152387
12.389922 4.2187177 -10.10004
11.529024 5.904642 -11.977411
12.599059 5.4454107 -9.8666088
10.44993 11.628223 -14.095116
11.795845 8.8409219 -11.625543
10.438789 9.7785265 -14.197388
11.203767 12.059659 -12.588629
11.128769 8.449746 -12.922819
11.86915 10.563437 -11.370412
8.1467528 -3.7202712 -13.181723
8.6491155 -1.2947686 -13.994563
8.8815675 -3.1037494 -12.610181
7.4850616 -3.2662727 -14.311206
9.3768262 4.2819927 -15.172023
9.0636526 1.3568246 -14.665298
9.9454644 3.4755385 -14.120717
8.480931 3.7008424 -16.215277
10.237014 -1.8717132 -11.411452
9.3727443 -0.66364858 -13.338551
9.5817467 -2.4849396 -12.016428
10.494063 -0.63949987 -11.688784
9.1383836 -1.9052806 -12.99491
5.9216237 -2.1880382 -16.662029
7.9583214 -0.70801955 -15.168034
6.7435672 -2.7547771 -15.481557
6.0977308 -0.75372097 -17.183613
7.7343026 -2.0096814 -14.756754
10.90065 1.9930511 -12.151224
9.5921997 0.67918739 -13.650863
10.452357 2.7107245 -13.108256
10.716639 0.65306346 -11.936699
9.7807534 2.0392096 -13.908369
10.062809 0 -12.658088
6.4184545 2.371617 -18.059991
8.1668204 0.72656886 -15.565419
7.4883083 3.0590071 -17.191297
6.2652776 0.7744309 -17.655765
8.3379254 2.1665268 -15.908443
7.1781366 0 -16.399893
13.251083 18.976103 0.94139348
13.92078 15.796842 2.5696583
12.983338 19.459038 2.5054364
13.693121 17.434251 0
14.403201 10.169125 5.0174077
14.276772 12.865629 3.9092973
12.200783 20.09289 5.7404235
13.620396 16.093146 4.0229742
12.630156 19.831021 4.1182351
13.356524 17.740811 3.3097118
14.309484 14.479973 -1.6456212
14.309484 14.479973 1.6456212
14.041669 15.922082 -0.86351498
14.041669 15.922082 0.86351498
13.170705 1.0072403 7.7552118
13.703873 3.1022725 7.2844969
14.335414 7.6633497 5.9326342
14.096297 5.3153366 6.6817129
9.6715634 19.862032 12.275411
11.765259 16.331779 10.093594
10.430819 20.154389 10.720387
13.98992 10.164019 6.281709
13.039306 12.986942 8.0263714
13.980933 11.525446 5.8072794
11.678271 20.235402 7.4499802
12.303074 16.401499 8.598149
11.097944 20.26615 9.0880526
12.564251 18.211343 6.4610988
11.507306 18.283673 9.6624442
13.80698 14.457225 4.7007685
12.96424 14.594259 7.5708525
13.921916 12.962187 5.2783131
13.250556 16.254723 5.5346667
13.5046 12.999041 6.6575177
12.807346 16.354202 7.0684123
14.781449 9.1354377 -4.171761
15.288031 9.448523 -1.4144396
14.748963 10.387949 -3.6301689
14.781449 9.1354377 4.171761
15.288031 9.448523 1.4144396
14.748963 10.387949 3.6301689
14.521499 13.026983 -2.3818251
15.135831 10.635658 -0.75307075
14.662399 11.691611 -3.0321139
14.646366 13.149349 -0.80131085
15.001839 10.549712 -2.1995314
14.521499 13.026983 2.3818251
15.135831 10.635658 0.75307075
14.662399 11.691611 3.0321139
14.646366 13.149349 0.80131085
15.001839 10.549712 2.1995314
14.923538 11.863775 0
8.2387777 -11.798273 0.58530548
9.2989773 -10.552173 1.7165126
7.9875861 -11.971554 1.5413901
8.809232 -11.216023 0
11.057193 -7.8067352 3.8518135
10.241407 -9.2291275 2.8043249
7.3968603 -12.181538 3.4801956
9.0232665 -10.661419 2.6651477
7.7055577 -12.098748 2.5125025
8.5232185 -11.32097 2.1120313
9.8744731 -9.9921214 -1.1355854
9.8744731 -9.9921214 1.1355854
9.3580266 -10.611223 -0.57548689
9.3580266 -10.611223 0.57548689
12.80785 -0.97949069 7.5415545
12.606482 -2.853846 6.7011625
11.73115 -6.2711757 4.8548732
12.249384 -4.6189151 5.8062673
5.8855754 -12.086928 7.4701322
7.6525051 -10.622717 6.5652004
6.2984824 -12.169904 6.4733333
10.716177 -7.7855644 4.8117434
9.246303 -9.2091711 5.6915807
10.348733 -8.5311734 4.2985676
7.0507555 -12.217123 4.497925
8.023464 -10.696257 5.607293
6.6886445 -12.21425 5.4772985
7.9065961 -11.460272 4.0659247
7.1877134 -11.42038 6.0353727
9.5085233 -9.9563305 3.2373021
8.8468137 -9.9591402 5.1663591
9.9436982 -9.258214 3.7700236
8.7274299 -10.706114 3.645388
9.6094748 -9.2497337 4.7372932
8.3920048 -10.71608 4.6315724
11.668056 -7.2112552 -3.2930697
11.984147 -7.4066104 -1.1087662
11.276121 -7.9419659 -2.7753966
11.668056 -7.2112552 3.2930697
11.984147 -7.4066104 1.1087662
11.276121 -7.9419659 2.7753966
10.38714 -9.3181212 -1.7037049
11.510453 -8.0881749 -0.57269308
10.845396 -8.6479805 -2.2427758
10.44983 -9.3817437 -0.57171601
11.43059 -8.03831 -1.6759239
10.38714 -9.3181212 1.7037049
11.510453 -8.0881749 0.57269308
10.845396 -8.6479805 2.2427758
10.44983 -9.3817437 0.57171601
11.43059 -8.03831 1.6759239
10.999788 -8.7445091 0
1.2473978 -9.604296 16.311012
3.4586572 -8.1213295 15.278155
1.9550781 -10.131345 15.184556
1.2591353 -8.5202233 17.08247
7.0830617 -5.4834002 13.249901
5.3803287 -6.763412 14.268657
3.2368775 -10.958945 12.948515
4.0592364 -8.6275625 14.208323
2.6218387 -10.580574 14.053654
3.0505439 -9.3556691 14.689642
1.2888173 -6.1819131 18.465046
3.5064772 -7.0937575 16.003126
1.2744914 -7.3725243 17.80583
2.4296735 -7.7891163 16.538555
12.332069 -0.6117868 8.6115296
11.212725 -1.823964 9.8810806
12.271967 -1.5800696 8.1880256
8.6073811 -4.2468491 12.1912
9.977574 -3.0317448 11.071946
12.041256 -3.4401179 7.3116787
11.124122 -2.7808144 9.4148739
12.174263 -2.5281845 7.7536525
11.708213 -2.184275 8.8147617
5.359645 -11.936402 8.6720877
6.1785728 -10.03745 9.9971408
4.8867668 -11.764814 9.6985457
6.3089942 -11.193547 8.1747271
7.5659815 -5.9610932 12.242015
6.9107879 -8.0553274 11.18189
6.7740219 -6.5910491 12.735201
3.8418248 -11.284112 11.815541
5.7068864 -9.7724063 11.001109
4.3782511 -11.54794 10.751865
4.2532939 -10.182819 12.491468
5.3109013 -10.773024 10.369724
8.0498537 -9.7576069 7.2341586
7.0959708 -9.3309857 9.4676748
7.208105 -10.465407 7.694808
6.7147639 -10.269383 8.8437048
5.0450113 -7.9083445 13.703101
6.0919612 -8.7169746 11.620792
5.9303028 -7.2418341 13.22444
4.6556863 -9.0534464 13.122582
6.4421611 -7.6721704 12.190122
5.2070026 -9.434634 12.047454
1.3602512 -0.84068148 20.318126
3.7763404 -2.3339067 18.491242
1.3459345 -2.2271376 20.007572
7.2159494 -4.459702 13.842765
5.6929493 -3.5184361 16.157035
6.3829178 -5.0887112 14.385325
1.3136632 -4.8808474 19.076211
3.7054079 -3.5829005 17.957252
1.3291618 -3.5840282 19.586543
2.5064752 -5.4816458 17.920303
2.594893 -2.951102 19.072304
4.5521431 -6.3867522 15.454688
4.7236823 -4.1568782 16.7389
5.4916267 -5.7341258 14.923839
3.5873756 -5.9782716 16.684619
5.5973813 -4.6476478 15.556414
3.6555037 -4.8022437 17.340427
11.106948 -6.8644715 5.4083868
10.372062 -6.410287 7.4719355
11.394883 -6.0610892 5.8973734
10.398208 -7.5938859 5.8607194
8.4563029 -5.2262826 11.639392
9.4927392 -5.8668354 9.5310145
9.164299 -4.6175781 11.116746
8.1478545 -6.2882547 11.15675
11.85821 -4.3657857 6.8436195
10.611081 -5.562641 7.9595714
11.647291 -5.2230541 6.3781721
11.440313 -4.0588436 7.8928262
11.018493 -5.8229862 6.9347758
8.8898654 -9.0200926 6.7605104
9.6313028 -7.1405185 7.9456551
9.6553307 -8.3148999 6.3132579
8.4565299 -8.8274568 7.8563576
10.03297 -7.3768536 6.9102615
10.485929 -3.4095011 10.014302
10.155701 -5.2683262 9.0214209
9.8439886 -4.008556 10.572844
10.981252 -3.7390714 8.9517175
9.6808612 -4.9580971 10.05737
10.808756 -4.6716279 8.4645819
7.4756817 -8.31861 10.083379
9.1673702 -6.8708941 9.0350167
7.8190904 -7.3245265 10.634439
7.9826767 -8.5924989 8.9693898
8.6829256 -6.592689 10.082685
8.8313822 -7.8598511 8.4602903
1.365405 10.512888 17.854077
4.3664235 10.252871 19.288091
2.2746866 11.787577 17.666867
1.3699655 9.2701806 18.586084
8.8038191 6.8155363 16.468829
7.0054589 8.8063032 18.57851
4.2744919 14.471948 17.099296
5.4022395 11.482002 18.909163
3.2505599 13.117813 17.423744
3.8462584 11.796034 18.521339
1.3789216 6.6141055 19.755981
4.3153813 8.730206 19.694863
1.3763691 7.9618541 19.229156
2.8441225 9.1177687 19.35967
12.554605 0.6228267 8.7669276
11.876339 1.9319135 10.465883
12.857015 1.6553971 8.5783777
12.02819 0 9.4471196
10.082872 4.9748509 14.281036
11.070794 3.363926 12.285073
13.362143 3.8174876 8.1137459
12.153841 3.0382242 10.286374
13.127444 2.7261281 8.3607229
12.51724 2.3352065 9.4238542
10.884039 -1.2369501 10.755889
11.325224 1.28709 11.19188
11.468806 -0.62199687 10.114328
11.691046 0.63404979 10.310321
8.6184964 19.194152 13.94502
9.3886583 15.25242 15.191168
7.6093286 18.319338 15.101891
10.06589 17.859108 13.042635
9.5698233 7.5398821 15.484299
9.6070768 11.198166 15.544577
8.838901 8.6001538 16.617185
5.4087942 15.886576 16.63476
8.5278085 14.602921 16.438973
6.5133676 17.179458 15.995165
6.0231624 14.420064 17.689382
8.1750787 16.582932 15.962132
11.848935 14.362652 10.648277
10.406958 13.684833 13.885301
11.080681 16.087979 11.828867
10.292689 15.741368 13.556025
6.8410396 10.723722 18.581417
8.7301392 12.491938 16.653279
7.9460195 9.7033418 17.719442
6.5048403 12.649311 18.334634
8.8201655 10.50421 16.689879
7.5661984 13.709291 17.505931
1.3742855 0.84935517 20.527757
4.0479276 2.5017569 19.821097
1.3827659 2.2880831 20.555078
2.6903091 0 19.968174
8.5886582 5.3080827 16.47611
6.4948575 4.0140427 18.432914
7.8020986 6.2201375 17.583764
1.3894347 5.1623726 20.17652
4.1252518 3.9888637 19.991912
1.3868856 3.7396779 20.437162
2.8219481 6.1715832 20.175809
2.7721072 3.1526428 20.374817
4.9470933 -1.5185135 17.898752
5.2096309 1.5990996 18.848622
3.8929635 -0.8014676 19.018202
3.9858951 0.82059998 19.472198
5.7168108 8.0208054 19.408776
5.4674125 4.8113668 19.374392
6.8539089 7.1565636 18.625926
4.2880644 7.1459519 19.943471
6.6820291 5.5482585 18.5709
4.2234871 5.5484048 20.03474
13.941892 8.6165632 6.7888266
12.908229 7.9777245 9.2989662
13.855891 7.370132 7.1710576
13.520935 9.8744355 7.6207749
10.302556 6.3673296 14.180605
11.711443 7.2380699 11.758664
10.835243 5.4595096 13.143683
10.387041 8.0163879 14.222839
13.567119 4.9949474 7.8298666
12.778506 6.6988692 9.5853981
13.729876 6.1569583 7.5186162
12.998189 4.6115536 8.967626
13.333251 7.0462752 8.3916287
12.508542 12.691779 9.512419
12.436592 9.220322 10.259969
13.044835 11.233846 8.5295272
11.890715 12.412275 11.046814
12.998628 9.5573867 8.9528741
11.745336 3.8189974 11.217064
12.165568 6.3109557 10.806808
11.314644 4.6074192 12.152387
12.389922 4.2187177 10.10004
11.529024 5.904642 11.977411
12.599059 5.4454107 9.8666088
10.44993 11.628223 14.095116
11.795845 8.8409219 11.625543
10.438789 9.7785265 14.197388
11.203767 12.059659 12.588629
11.128769 8.449746 12.922819
11.86915 10.563437 11.370412
8.1467528 -3.7202712 13.181723
8.6491155 -1.2947686 13.994563
8.8815675 -3.1037494 12.610181
7.4850616 -3.2662727 14.311206
9.3768262 4.2819927 15.172023
9.0636526 1.3568246 14.665298
9.9454644 3.4755385 14.120717
8.480931 3.7008424 16.215277
10.237014 -1.8717132 11.411452
9.3727443 -0.66364858 13.338551
9.5817467 -2.4849396 12.016428
10.494063 -0.63949987 11.688784
9.1383836 -1.9052806 12.99491
5.9216237 -2.1880382 16.662029
7.9583214 -0.70801955 15.168034
6.7435672 -2.7547771 15.481557
6.0977308 -0.75372097 17.183613
7.7343026 -2.0096814 14.756754
10.90065 1.9930511 12.151224
9.5921997 0.67918739 13.650863
10.452357 2.7107245 13.108256
10.716639 0.65306346 11.936699
9.7807534 2.0392096 13.908369
10.062809 0 12.658088
6.4184545 2.371617 18.059991
8.1668204 0.72656886 15.565419
7.4883083 3.0590071 17.191297
6.2652776 0.7744309 17.655765
8.3379254 2.1665268 15.908443
7.1781366 0 16.399893
13.336918 0 -7.0177214
14.243177 0 -5.1344371
13.650754 1.0061863 -6.8085866
13.282957 -0.9790762 -6.6251402
15.506319 0 -1.0747034
15.019132 0 -3.1633994
14.176338 3.106206 -6.2839912
14.554292 1.0158558 -4.8726319
13.933135 2.0469121 -6.5620491
14.116406 1.0104127 -5.8449139
13.058015 -2.8611681 -5.7882687
14.168042 -0.98889637 -4.7433191
13.190789 -1.9378543 -6.2124285
13.740383 -0.98349808 -5.6892213
13.336918 0 7.0177214
14.243177 0 5.1344371
13.650754 1.0061863 6.8085866
13.282957 -0.9790762 6.6251402
15.506319 0 1.0747034
15.019132 0 3.1633994
14.176338 3.106206 6.2839912
14.554292 1.0158558 4.8726319
13.933135 2.0469121 6.5620491
14.116406 1.0104127 5.8449139
13.058015 -2.8611681 5.7882687
14.168042 -0.98889637 4.7433191
13.190789 -1.9378543 6.2124285
13.740383 -0.98349808 5.6892213
14.754231 7.691078 -4.7533476
15.352731 5.4095516 -3.3432868
14.678725 6.5131025 -5.1924995
15.122531 7.9094017 -3.4514429
15.73566 1.0534658 -0.65107765
15.721986 3.2107941 -1.9843799
15.586897 1.0485502 -1.7350513
14.392732 4.2393464 -5.9478919
15.237954 4.3001185 -3.7841387
14.556353 5.3564006 -5.5929284
14.638875 3.1475182 -5.2452603
14.983045 5.3910766 -4.4763478
15.545789 8.1565206 -0.72565253
15.659447 5.56531 -2.0563803
15.397977 8.07038 -2.0970077
15.420442 6.7169465 -2.7439024
14.975381 1.0312638 -3.8316073
15.439891 3.1859603 -3.0806268
15.321594 1.0397382 -2.8036099
14.838108 2.075375 -4.5388325
15.559491 2.1169553 -2.4075563
15.06915 3.1767 -4.1732382
12.085355 -6.2998477 -3.89352
13.348617 -4.7033999 -2.906861
12.391766 -5.4983554 -4.3835035
12.328318 -6.4479698 -2.8137147
15.29857 -1.0242037 -0.63299267
14.456722 -2.9523979 -1.8246822
15.157792 -1.0196837 -1.6872856
12.877777 -3.7931198 -5.3218267
13.630962 -3.8466286 -3.3850639
12.657469 -4.6576552 -4.8633278
13.482019 -2.8987816 -4.8307469
13.029528 -4.6881782 -3.8927134
12.596043 -6.6088562 -0.58796311
13.558684 -4.8187066 -1.7805106
12.504147 -6.5536672 -1.702905
12.965054 -5.6474109 -2.3069924
14.573105 -1.0035615 -3.7286808
14.21073 -2.9323279 -2.8353799
14.905533 -1.0115039 -2.7274772
14.052717 -1.9655241 -4.2985891
14.717622 -2.0024143 -2.2772919
13.87348 -2.924643 -3.8421103
14.754231 7.691078 4.7533476
15.352731 5.4095516 3.3432868
14.678725 6.5131025 5.1924995
15.122531 7.9094017 3.4514429
15.73566 1.0534658 0.65107765
15.721986 3.2107941 1.9843799
15.586897 1.0485502 1.7350513
15.880468 2.1395731 0
14.392732 4.2393464 5.9478919
15.237954 4.3001185 3.7841387
14.556353 5.3564006 5.5929284
14.638875 3.1475182 5.2452603
14.983045 5.3910766 4.4763478
15.545789 8.1565206 0.72565253
15.659447 5.56531 2.0563803
15.397977 8.07038 2.0970077
15.735185 6.8871977 0
15.420442 6.7169465 2.7439024
14.975381 1.0312638 3.8316073
15.439891 3.1859603 3.0806268
15.321594 1.0397382 2.8036099
14.838108 2.075375 4.5388325
15.559491 2.1169553 2.4075563
15.06915 3.1767 4.1732382
15.834329 4.3765008 -1.3433698
15.834329 4.3765008 1.3433698
15.910341 3.2567945 -0.6704957
15.835713 5.6194188 -0.69459836
15.910341 3.2567945 0.6704957
15.835713 5.6194188 0.69459836
12.085355 -6.2998477 3.89352
13.348617 -4.7033999 2.906861
12.391766 -5.4983554 4.3835035
12.328318 -6.4479698 2.8137147
15.29857 -1.0242037 0.63299267
14.456722 -2.9523979 1.8246822
15.157792 -1.0196837 1.6872856
15.005912 -2.0217443 0
12.877777 -3.7931198 5.3218267
13.630962 -3.8466286 3.3850639
12.657469 -4.6576552 4.8633278
13.482019 -2.8987816 4.8307469
13.029528 -4.6881782 3.8927134
12.596043 -6.6088562 0.58796311
13.558684 -4.8187066 1.7805106
12.504147 -6.5536672 1.702905
13.16889 -5.7639454 0
12.965054 -5.6474109 2.3069924
14.573105 -1.0035615 3.7286808
14.21073 -2.9323279 2.8353799
14.905533 -1.0115039 2.7274772
14.052717 -1.9655241 4.2985891
14.717622 -2.0024143 2.2772919
13.87348 -2.924643 3.8421103
14.129601 -3.9053256 -1.1987422
14.129601 -3.9053256 1.1987422
14.607663 -2.9901407 -0.61559808
13.688437 -4.8574422 -0.60041287
14.607663 -2.9901407 0.61559808
13.688437 -4.8574422 0.60041287
-8.2387777 11.798273 -0.58530548
-9.2989773 10.552173 -1.7165126
-7.9875861 11.971554 -1.5413901
-11.057193 7.8067352 -3.8518135
-10.241407 9.2291275 -2.8043249
-7.3968603 12.181538 -3.4801956
-9.0232665 10.661419 -2.6651477
-7.7055577 12.098748 -2.5125025
-8.5232185 11.32097 -2.1120313
-12.80785 0.97949069 -7.5415545
-12.606482 2.853846 -6.7011625
-11.73115 6.2711757 -4.8548732
-12.249384 4.6189151 -5.8062673
-5.8855754 12.086928 -7.4701322
-7.6525051 10.622717 -6.5652004
-6.2984824 12.169904 -6.4733333
-10.716177 7.7855644 -4.8117434
-9.246303 9.2091711 -5.6915807
-10.348733 8.5311734 -4.2985676
-7.0507555 12.217123 -4.497925
-8.023464 10.696257 -5.607293
-6.6886445 12.21425 -5.4772985
-7.9065961 11.460272 -4.0659247
-7.1877134 11.42038 -6.0353727
-9.5085233 9.9563305 -3.2373021
-8.8468137 9.9591402 -5.1663591
-9.9436982 9.258214 -3.7700236
-8.7274299 10.706114 -3.645388
-9.6094748 9.2497337 -4.7372932
-8.3920048 10.71608 -4.6315724
-13.251083 -18.976103 -0.94139348
-13.92078 -15.796842 -2.5696583
-12.983338 -19.459038 -2.5054364
-14.403201 -10.169125 -5.0174077
-14.276772 -12.865629 -3.9092973
-12.200783 -20.09289 -5.7404235
-13.620396 -16.093146 -4.0229742
-12.630156 -19.831021 -4.1182351
-13.356524 -17.740811 -3.3097118
-13.170705 -1.0072403 -7.7552118
-13.703873 -3.1022725 -7.2844969
-14.335414 -7.6633497 -5.9326342
-14.096297 -5.3153366 -6.6817129
-9.6715634 -19.862032 -12.275411
-11.765259 -16.331779 -10.093594
-10.430819 -20.154389 -10.720387
-13.98992 -10.164019 -6.281709
-13.039306 -12.986942 -8.0263714
-13.980933 -11.525446 -5.8072794
-11.678271 -20.235402 -7.4499802
-12.303074 -16.401499 -8.598149
-11.097944 -20.26615 -9.0880526
-12.564251 -18.211343 -6.4610988
-11.507306 -18.283673 -9.6624442
-13.80698 -14.457225 -4.7007685
-12.96424 -14.594259 -7.5708525
-13.921916 -12.962187 -5.2783131
-13.250556 -16.254723 -5.5346667
-13.5046 -12.999041 -6.6575177
-12.807346 -16.354202 -7.0684123
-1.365405 -10.512888 -17.854077
-4.3664235 -10.252871 -19.288091
-2.2746866 -11.787577 -17.666867
-1.3699655 -9.2701806 -18.586084
-8.8038191 -6.8155363 -16.468829
-7.0054589 -8.8063032 -18.57851
-4.2744919 -14.471948 -17.099296
-5.4022395 -11.482002 -18.909163
-3.2505599 -13.117813 -17.423744
-3.8462584 -11.796034 -18.521339
-1.3789216 -6.6141055 -19.755981
-4.3153813 -8.730206 -19.694863
-1.3763691 -7.9618541 -19.229156
-2.8441225 -9.1177687 -19.35967
-12.554605 -0.6228267 -8.7669276
-11.876339 -1.9319135 -10.465883
-12.857015 -1.6553971 -8.5783777
-10.082872 -4.9748509 -14.281036
-11.070794 -3.363926 -12.285073
-13.362143 -3.8174876 -8.1137459
-12.153841 -3.0382242 -10.286374
-13.127444 -2.7261281 -8.3607229
-12.51724 -2.3352065 -9.4238542
-8.6184964 -19.194152 -13.94502
-9.3886583 -15.25242 -15.191168
-7.6093286 -18.319338 -15.101891
-10.06589 -17.859108 -13.042635
-9.5698233 -7.5398821 -15.484299
-9.6070768 -11.198166 -15.544577
-8.838901 -8.6001538 -16.617185
-5.4087942 -15.886576 -16.63476
-8.5278085 -14.602921 -16.438973
-6.5133676 -17.179458 -15.995165
-6.0231624 -14.420064 -17.689382
-8.1750787 -16.582932 -15.962132
-11.848935 -14.362652 -10.648277
-10.406958 -13.684833 -13.885301
-11.080681 -16.087979 -11.828867
-10.292689 -15.741368 -13.556025
-6.8410396 -10.723722 -18.581417
-8.7301392 -12.491938 -16.653279
-7.9460195 -9.7033418 -17.719442
-6.5048403 -12.649311 -18.334634
-8.8201655 -10.50421 -16.689879
-7.5661984 -13.709291 -17.505931
-1.3742855 -0.84935517 -20.527757
-4.0479276 -2.5017569 -19.821097
-1.3827659 -2.2880831 -20.555078
-8.5886582 -5.3080827 -16.47611
-6.4948575 -4.0140427 -18.432914
-7.8020986 -6.2201375 -17.583764
-1.3894347 -5.1623726 -20.17652
-4.1252518 -3.9888637 -19.991912
-1.3868856 -3.7396779 -20.437162
-2.8219481 -6.1715832 -20.175809
-2.7721072 -3.1526428 -20.374817
-5.7168108 -8.0208054 -19.408776
-5.4674125 -4.8113668 -19.374392
-6.8539089 -7.1565636 -18.625926
-4.2880644 -7.1459519 -19.943471
-6.6820291 -5.5482585 -18.5709
-4.2234871 -5.5484048 -20.03474
-13.941892 -8.6165632 -6.7888266
-12.908229 -7.9777245 -9.2989662
-13.855891 -7.370132 -7.1710576
-13.520935 -9.8744355 -7.6207749
-10.302556 -6.3673296 -14.180605
-11.711443 -7.2380699 -11.758664
-10.835243 -5.4595096 -13.143683
-10.387041 -8.0163879 -14.222839
-13.567119 -4.9949474 -7.8298666
-12.778506 -6.6988692 -9.5853981
-13.729876 -6.1569583 -7.5186162
-12.998189 -4.6115536 -8.967626
-13.333251 -7.0462752 -8.3916287
-12.508542 -12.691779 -9.512419
-12.436592 -9.220322 -10.259969
-13.044835 -11.233846 -8.5295272
-11.890715 -12.412275 -11.046814
-12.998628 -9.5573867 -8.9528741
-11.745336 -3.8189974 -11.217064
-12.165568 -6.3109557 -10.806808
-11.314644 -4.6074192 -12.152387
-12.389922 -4.2187177 -10.10004
-11.529024 -5.904642 -11.977411
-12.599059 -5.4454107 -9.8666088
-10.44993 -11.628223 -14.095116
-11.795845 -8.8409219 -11.625543
-10.438789 -9.7785265 -14.197388
-11.203767 -12.059659 -12.588629
-11.128769 -8.449746 -12.922819
-11.86915 -10.563437 -11.370412
-1.2473978 9.604296 -16.311012
-3.4586572 8.1213295 -15.278155
-1.9550781 10.131345 -15.184556
-1.2591353 8.5202233 -17.08247
-7.0830617 5.4834002 -13.249901
-5.3803287 6.763412 -14.268657
-3.2368775 10.958945 -12.948515
-4.0592364 8.6275625 -14.208323
-2.6218387 10.580574 -14.053654
-3.0505439 9.3556691 -14.689642
-1.2888173 6.1819131 -18.465046
-3.5064772 7.0937575 -16.003126
-1.2744914 7.3725243 -17.80583
-2.4296735 7.7891163 -16.538555
-12.332069 0.6117868 -8.6115296
-11.212725 1.823964 -9.8810806
-12.271967 1.5800696 -8.1880256
-12.02819 0 -9.4471196
-8.6073811 4.2468491 -12.1912
-9.977574 3.0317448 -11.071946
-12.041256 3.4401179 -7.3116787
-11.124122 2.7808144 -9.4148739
-12.174263 2.5281845 -7.7536525
-11.708213 2.184275 -8.8147617
-11.325224 -1.28709 -11.19188
-10.884039 1.2369501 -10.755889
-11.691046 -0.63404979 -10.310321
-11.468806 0.62199687 -10.114328
-5.359645 11.936402 -8.6720877
-6.1785728 10.03745 -9.9971408
-4.8867668 11.764814 -9.6985457
-6.3089942 11.193547 -8.1747271
-7.5659815 5.9610932 -12.242015
-6.9107879 8.0553274 -11.18189
-6.7740219 6.5910491 -12.735201
-3.8418248 11.284112 -11.815541
-5.7068864 9.7724063 -11.001109
-4.3782511 11.54794 -10.751865
-4.2532939 10.182819 -12.491468
-5.3109013 10.773024 -10.369724
-8.0498537 9.7576069 -7.2341586
-7.0959708 9.3309857 -9.4676748
-7.208105 10.465407 -7.694808
-6.7147639 10.269383 -8.8437048
-5.0450113 7.9083445 -13.703101
-6.0919612 8.7169746 -11.620792
-5.9303028 7.2418341 -13.22444
-4.6556863 9.0534464 -13.122582
