-14.332461 3.2791407 14.163709
-8.3894671 11.593958 13.574443
-4.3605193 2.6949492 15.776507
-15.076127 9.3175591 12.87655
-9.4925202 0 15.35922
-24.285106 0 -6.8988897
-24.285106 0 6.8988897
-25.629944 7.0839423 -4.3781171
-24.513386 -6.7753331 -4.1873862
-25.629944 7.0839423 4.3781171
-24.513386 -6.7753331 4.1873862
-10.543429 23.9186 0
-3.6423872 26.150803 0
12.968372 29.419776 0
3.9318517 28.229036 0
-12.968372 -29.419776 0
-3.9318517 -28.229036 0
10.543429 -23.9186 0
3.6423872 -26.150803 0
-15.326033 -27.363329 4.1507195
-9.5531058 -21.496391 9.7715352
-10.910216 -28.150622 4.0096961
-1.4837018 -11.264902 14.342613
-4.9587495 -15.867498 12.691976
-2.2444363 -26.954489 3.6315743
-5.8888638 -21.983759 9.5283818
-6.3212766 -27.752668 3.8135077
-8.2704515 -25.153625 7.2498563
12.60938 -22.512974 3.4149735
8.7656403 -19.724436 8.9660645
9.2032739 -23.746356 3.3823647
1.4780693 -11.222138 14.288165
4.8356909 -15.473723 12.377006
0 -13.433214 13.593262
2.1531242 -25.857878 3.4838281
5.5344601 -20.660732 8.9549445
5.6626407 -24.861021 3.416165
0 -24.323485 6.7228458
7.4075173 -22.52911 6.4934104
-3.4503882 -18.531337 11.452996
3.3618442 -18.055786 11.159089
-1.6546493 -15.909973 12.647962
-1.9497672 -21.623249 9.4643687
1.6397323 -15.766541 12.533937
1.9078204 -21.158052 9.2607547
-12.60938 22.512974 3.4149735
-8.7656403 19.724436 8.9660645
-9.2032739 23.746356 3.3823647
-1.4780693 11.222138 14.288165
-4.8356909 15.473723 12.377006
-2.1531242 25.857878 3.4838281
-5.5344601 20.660732 8.9549445
-5.6626407 24.861021 3.416165
-7.4075173 22.52911 6.4934104
15.326033 27.363329 4.1507195
9.5531058 21.496391 9.7715352
10.910216 28.150622 4.0096961
1.4837018 11.264902 14.342613
4.9587495 15.867498 12.691976
0 13.433214 13.593262
2.2444363 26.954489 3.6315743
5.8888638 21.983759 9.5283818
6.3212766 27.752668 3.8135077
0 24.323485 6.7228458
8.2704515 25.153625 7.2498563
-3.3618442 18.055786 11.159089
3.4503882 18.531337 11.452996
-1.6397323 15.766541 12.533937
-1.9078204 21.158052 9.2607547
1.6546493 15.909973 12.647962
1.9497672 21.623249 9.4643687
0 -6.7872208 15.397346
0 -2.2196754 15.936332
0 6.7872208 15.397346
0 2.2196754 15.936332
-15.326033 -27.363329 -4.1507195
-9.5531058 -21.496391 -9.7715352
-10.910216 -28.150622 -4.0096961
-1.4837018 -11.264902 -14.342613
-4.9587495 -15.867498 -12.691976
-2.2444363 -26.954489 -3.6315743
-5.8888638 -21.983759 -9.5283818
-6.3212766 -27.752668 -3.8135077
-8.2704515 -25.153625 -7.2498563
12.60938 -22.512974 -3.4149735
8.7656403 -19.724436 -8.9660645
9.2032739 -23.746356 -3.3823647
1.4780693 -11.222138 -14.288165
4.8356909 -15.473723 -12.377006
0 -13.433214 -13.593262
2.1531242 -25.857878 -3.4838281
5.5344601 -20.660732 -8.9549445
5.6626407 -24.861021 -3.416165
0 -24.323485 -6.7228458
7.4075173 -22.52911 -6.4934104
-3.4503882 -18.531337 -11.452996
3.3618442 -18.055786 -11.159089
-1.6546493 -15.909973 -12.647962
-1.9497672 -21.623249 -9.4643687
1.6397323 -15.766541 -12.533937
1.9078204 -21.158052 -9.2607547
-12.60938 22.512974 -3.4149735
-8.7656403 19.724436 -8.9660645
-9.2032739 23.746356 -3.3823647
-1.4780693 11.222138 -14.288165
-4.8356909 15.473723 -12.377006
-2.1531242 25.857878 -3.4838281
-5.5344601 20.660732 -8.9549445
-5.6626407 24.861021 -3.416165
-7.4075173 22.52911 -6.4934104
15.326033 27.363329 -4.1507195
9.5531058 21.496391 -9.7715352
10.910216 28.150622 -4.0096961
1.4837018 11.264902 -14.342613
4.9587495 15.867498 -12.691976
0 13.433214 -13.593262
2.2444363 26.954489 -3.6315743
5.8888638 21.983759 -9.5283818
6.3212766 27.752668 -3.8135077
0 24.323485 -6.7228458
8.2704515 25.153625 -7.2498563
-3.3618442 18.055786 -11.159089
3.4503882 18.531337 -11.452996
-1.6397323 15.766541 -12.533937
-1.9078204 21.158052 -9.2607547
1.6546493 15.909973 -12.647962
1.9497672 21.623249 -9.4643687
0 -6.7872208 -15.397346
0 -2.2196754 -15.936332
0 6.7872208 -15.397346
0 2.2196754 -15.936332
19.644248 25.0113 -2.5873466
21.003346 16.8 -6.5637528
17.124014 23.760695 -6.3856385
20.069648 3.0443475 -11.240887
20.863802 9.4839816 -9.27198
10.898104 18.194343 -11.244723
18.24865 15.523228 -9.5938828
13.861017 21.040462 -9.2963221
17.96131 19.484358 -8.2121294
16.611325 -21.149744 -2.1878798
20.421441 -16.33455 -6.3819016
14.798598 -20.534028 -5.5184782
20.320183 -3.0823509 -11.38121
21.405409 -9.7301779 -9.5126729
10.241597 -17.098307 -10.567335
17.700273 -15.056752 -9.3055842
12.533348 -19.025115 -8.4058798
16.562266 -17.966681 -7.5724696
2.2772777 -8.4085746 -15.012795
6.8473391 -6.6942761 -15.063454
3.8735114 -10.387382 -14.413175
2.2056175 -6.0013937 -15.484841
16.934928 -1.7518692 -13.300945
11.739107 -4.586464 -14.676222
17.704485 -4.7580444 -12.759385
7.6812437 -14.610594 -12.428513
8.8993547 -8.625032 -14.399458
5.7149162 -12.499484 -13.559391
11.061626 -13.931718 -12.157904
6.3870658 -9.523253 -14.455912
2.1484964 -1.3278438 -15.946699
6.701707 -4.1418827 -15.462091
2.1704727 -3.5977791 -15.795539
4.4713221 -5.1007704 -15.513406
18.271066 -11.29214 -10.94406
12.026773 -7.4329545 -14.13832
18.186899 -8.0355303 -11.981149
14.735619 -12.85945 -11.699914
14.810247 -6.2421181 -13.652564
11.658208 -10.606988 -13.359117
2.2847152 8.4360363 -15.061825
6.8805673 6.7267615 -15.136553
3.9050606 10.471985 -14.530568
2.2095317 6.012044 -15.512321
16.868708 1.745019 -13.248935
11.739375 4.5865689 -14.676557
17.520823 4.7086854 -12.627022
14.41658 0 -14.246838
7.9321729 15.087889 -12.834525
8.9756038 8.6989308 -14.522832
5.8138661 12.715904 -13.794162
11.439642 14.407815 -12.573383
6.4502778 9.6175035 -14.59898
2.1490943 1.3282133 -15.951137
6.7159297 4.1506728 -15.494906
2.1723288 3.6008558 -15.809047
4.3885599 0 -15.877959
4.4824779 5.1134967 -15.552111
18.213758 11.256721 -10.909733
12.064817 7.456467 -14.183043
17.963181 7.936685 -11.833769
15.049266 13.133163 -11.948947
14.754869 6.2187781 -13.601515
11.817257 10.751695 -13.541371
9.4302236 -2.8409973 -15.258422
9.4368937 2.8430068 -15.269215
11.843688 -1.5494315 -14.898271
6.853187 -1.4118342 -15.657481
11.83849 1.5487516 -14.891732
6.8569919 1.412618 -15.666174
19.644248 25.0113 2.5873466
21.003346 16.8 6.5637528
17.124014 23.760695 6.3856385
21.666398 21.92454 0
20.069648 3.0443475 11.240887
20.863802 9.4839816 9.27198
10.898104 18.194343 11.244723
18.24865 15.523228 9.5938828
13.861017 21.040462 9.2963221
17.96131 19.484358 8.2121294
22.984185 14.205008 -4.2794732
22.984185 14.205008 4.2794732
22.617016 17.979864 -2.352187
22.617016 17.979864 2.352187
16.611325 -21.149744 2.1878798
20.421441 -16.33455 6.3819016
14.798598 -20.534028 5.5184782
19.527241 -19.759896 0
20.320183 -3.0823509 11.38121
21.405409 -9.7301779 9.5126729
10.241597 -17.098307 10.567335
17.700273 -15.056752 9.3055842
12.533348 -19.025115 8.4058798
16.562266 -17.966681 7.5724696
23.45632 -14.496803 -4.3673808
23.45632 -14.496803 4.3673808
21.973676 -17.468427 -2.2852791
21.973676 -17.468427 2.2852791
2.2772777 -8.4085746 15.012795
6.8473391 -6.6942761 15.063454
3.8735114 -10.387382 14.413175
2.2056175 -6.0013937 15.484841
16.934928 -1.7518692 13.300945
11.739107 -4.586464 14.676222
17.704485 -4.7580444 12.759385
7.6812437 -14.610594 12.428513
8.8993547 -8.625032 14.399458
5.7149162 -12.499484 13.559391
11.061626 -13.931718 12.157904
6.3870658 -9.523253 14.455912
2.1484964 -1.3278438 15.946699
6.701707 -4.1418827 15.462091
2.1704727 -3.5977791 15.795539
4.4713221 -5.1007704 15.513406
18.271066 -11.29214 10.94406
12.026773 -7.4329545 14.13832
18.186899 -8.0355303 11.981149
14.735619 -12.85945 11.699914
14.810247 -6.2421181 13.652564
11.658208 -10.606988 13.359117
2.2847152 8.4360363 15.061825
6.8805673 6.7267615 15.136553
3.9050606 10.471985 14.530568
2.2095317 6.012044 15.512321
16.868708 1.745019 13.248935
11.739375 4.5865689 14.676557
17.520823 4.7086854 12.627022
14.41658 0 14.246838
7.9321729 15.087889 12.834525
8.9756038 8.6989308 14.522832
5.8138661 12.715904 13.794162
11.439642 14.407815 12.573383
6.4502778 9.6175035 14.59898
2.1490943 1.3282133 15.951137
6.7159297 4.1506728 15.494906
2.1723288 3.6008558 15.809047
4.3885599 0 15.877959
4.4824779 5.1134967 15.552111
18.213758 11.256721 10.909733
12.064817 7.456467 14.183043
17.963181 7.936685 11.833769
15.049266 13.133163 11.948947
14.754869 6.2187781 13.601515
11.817257 10.751695 13.541371
9.4302236 -2.8409973 15.258422
9.4368937 2.8430068 15.269215
11.843688 -1.5494315 14.898271
6.853187 -1.4118342 15.657481
11.83849 1.5487516 14.891732
6.8569919 1.412618 15.666174
22.132275 0 -9.7560084
25.652099 0 -3.5729258
22.611332 3.2206951 -8.7633775
23.041837 -3.282015 -8.9302264
22.132275 0 9.7560084
25.652099 0 3.5729258
22.611332 3.2206951 8.7633775
23.041837 -3.282015 8.9302264
23.058151 9.9940538 -6.1766649
25.527241 3.4392814 -2.1255928
22.924058 6.6072434 -7.5373751
24.29762 10.634925 -2.190915
24.524864 3.3699736 -5.5860737
24.025684 -10.41341 -6.4358413
26.223317 -3.5330636 -2.1835534
23.75657 -6.8471925 -7.8111029
25.582414 -11.197272 -2.3067648
25.125975 -3.4525724 -5.7229897
23.058151 9.9940538 6.1766649
25.527241 3.4392814 2.1255928
22.924058 6.6072434 7.5373751
24.29762 10.634925 2.190915
24.524864 3.3699736 5.5860737
25.144713 6.9498278 0
24.025684 -10.41341 6.4358413
26.223317 -3.5330636 2.1835534
23.75657 -6.8471925 7.8111029
25.582414 -11.197272 2.3067648
25.125975 -3.4525724 5.7229897
26.399484 -7.296638 0
-16.611325 21.149744 -2.1878798
-20.421441 16.33455 -6.3819016
-14.798598 20.534028 -5.5184782
-20.320183 3.0823509 -11.38121
-21.405409 9.7301779 -9.5126729
-10.241597 17.098307 -10.567335
-17.700273 15.056752 -9.3055842
-12.533348 19.025115 -8.4058798
-16.562266 17.966681 -7.5724696
-19.644248 -25.0113 -2.5873466
-21.003346 -16.8 -6.5637528
-17.124014 -23.760695 -6.3856385
-20.069648 -3.0443475 -11.240887
-20.863802 -9.4839816 -9.27198
-10.898104 -18.194343 -11.244723
-18.24865 -15.523228 -9.5938828
-13.861017 -21.040462 -9.2963221
-17.96131 -19.484358 -8.2121294
-2.2847152 -8.4360363 -15.061825
-6.8805673 -6.7267615 -15.136553
-3.9050606 -10.471985 -14.530568
-2.2095317 -6.012044 -15.512321
-16.868708 -1.745019 -13.248935
-11.739375 -4.5865689 -14.676557
-17.520823 -4.7086854 -12.627022
-7.9321729 -15.087889 -12.834525
-8.9756038 -8.6989308 -14.522832
-5.8138661 -12.715904 -13.794162
-11.439642 -14.407815 -12.573383
-6.4502778 -9.6175035 -14.59898
-2.1490943 -1.3282133 -15.951137
-6.7159297 -4.1506728 -15.494906
-2.1723288 -3.6008558 -15.809047
-4.4824779 -5.1134967 -15.552111
-18.213758 -11.256721 -10.909733
-12.064817 -7.456467 -14.183043
-17.963181 -7.936685 -11.833769
-15.049266 -13.133163 -11.948947
-14.754869 -6.2187781 -13.601515
-11.817257 -10.751695 -13.541371
-2.2772777 8.4085746 -15.012795
-6.8473391 6.6942761 -15.063454
-3.8735114 10.387382 -14.413175
-2.2056175 6.0013937 -15.484841
-16.934928 1.7518692 -13.300945
-11.739107 4.586464 -14.676222
-17.704485 4.7580444 -12.759385
-14.41658 0 -14.246838
-7.6812437 14.610594 -12.428513
-8.8993547 8.625032 -14.399458
-5.7149162 12.499484 -13.559391
-11.061626 13.931718 -12.157904
-6.3870658 9.523253 -14.455912
-2.1484964 1.3278438 -15.946699
-6.701707 4.1418827 -15.462091
-2.1704727 3.5977791 -15.795539
-4.3885599 0 -15.877959
-4.4713221 5.1007704 -15.513406
-18.271066 11.29214 -10.94406
-12.026773 7.4329545 -14.13832
-18.186899 8.0355303 -11.981149
-14.735619 12.85945 -11.699914
-14.810247 6.2421181 -13.652564
-11.658208 10.606988 -13.359117
-9.4368937 -2.8430068 -15.269215
-9.4302236 2.8409973 -15.258422
-11.83849 -1.5487516 -14.891732
-6.8569919 -1.412618 -15.666174
-11.843688 1.5494315 -14.898271
-6.853187 1.4118342 -15.657481
-16.611325 21.149744 2.1878798
-20.421441 16.33455 6.3819016
-14.798598 20.534028 5.5184782
-19.527241 19.759896 0
-20.320183 3.0823509 11.38121
-21.405409 9.7301779 9.5126729
-10.241597 17.098307 10.567335
-17.700273 15.056752 9.3055842
-12.533348 19.025115 8.4058798
-16.562266 17.966681 7.5724696
-23.45632 14.496803 -4.3673808
-23.45632 14.496803 4.3673808
-21.973676 17.468427 -2.2852791
-21.973676 17.468427 2.2852791
-19.644248 -25.0113 2.5873466
-21.003346 -16.8 6.5637528
-17.124014 -23.760695 6.3856385
-21.666398 -21.92454 0
-20.069648 -3.0443475 11.240887
-20.863802 -9.4839816 9.27198
-10.898104 -18.194343 11.244723
-18.24865 -15.523228 9.5938828
-13.861017 -21.040462 9.2963221
-17.96131 -19.484358 8.2121294
-22.984185 -14.205008 -4.2794732
-22.984185 -14.205008 4.2794732
-22.617016 -17.979864 -2.352187
-22.617016 -17.979864 2.352187
-2.2847152 -8.4360363 15.061825
-6.8805673 -6.7267615 15.136553
-3.9050606 -10.471985 14.530568
-2.2095317 -6.012044 15.512321
-16.868708 -1.745019 13.248935
-11.739375 -4.5865689 14.676557
-17.520823 -4.7086854 12.627022
-7.9321729 -15.087889 12.834525
-8.9756038 -8.6989308 14.522832
-5.8138661 -12.715904 13.794162
-11.439642 -14.407815 12.573383
-6.4502778 -9.6175035 14.59898
-2.1490943 -1.3282133 15.951137
-6.7159297 -4.1506728 15.494906
-2.1723288 -3.6008558 15.809047
-4.4824779 -5.1134967 15.552111
-18.213758 -11.256721 10.909733
-12.064817 -7.456467 14.183043
-17.963181 -7.936685 11.833769
-15.049266 -13.133163 11.948947
-14.754869 -6.2187781 13.601515
-11.817257 -10.751695 13.541371
-2.2772777 8.4085746 15.012795
-6.8473391 6.6942761 15.063454
-3.8735114 10.387382 14.413175
-2.2056175 6.0013937 15.484841
-16.934928 1.7518692 13.300945
-11.739107 4.586464 14.676222
-17.704485 4.7580444 12.759385
-14.41658 0 14.246838
-7.6812437 14.610594 12.428513
-8.8993547 8.625032 14.399458
-5.7149162 12.499484 13.559391
-11.061626 13.931718 12.157904
-6.3870658 9.523253 14.455912
-2.1484964 1.3278438 15.946699
-6.701707 4.1418827 15.462091
-2.1704727 3.5977791 15.795539
-4.3885599 0 15.877959
-4.4713221 5.1007704 15.513406
-18.271066 11.29214 10.94406
-12.026773 7.4329545 14.13832
-18.186899 8.0355303 11.981149
-14.735619 12.85945 11.699914
-14.810247 6.2421181 13.652564
-11.658208 10.606988 13.359117
-9.4368937 -2.8430068 15.269215
-9.4302236 2.8409973 15.258422
-11.83849 -1.5487516 14.891732
-6.8569919 -1.412618 15.666174
-11.843688 1.5494315 14.898271
-6.853187 1.4118342 15.657481
-22.132275 0 -9.7560084
-25.652099 0 -3.5729258
-23.041837 3.282015 -8.9302264
-22.611332 -3.2206951 -8.7633775
-22.132275 0 9.7560084
-25.652099 0 3.5729258
-23.041837 3.282015 8.9302264
-22.611332 -3.2206951 8.7633775
-24.025684 10.41341 -6.4358413
-26.223317 3.5330636 -2.1835534
-23.75657 6.8471925 -7.8111029
-25.582414 11.197272 -2.3067648
-25.125975 3.4525724 -5.7229897
-23.058151 -9.9940538 -6.1766649
-25.527241 -3.4392814 -2.1255928
-22.924058 -6.6072434 -7.5373751
-24.29762 -10.634925 -2.190915
-24.524864 -3.3699736 -5.5860737
-24.025684 10.41341 6.4358413
-26.223317 3.5330636 2.1835534
-23.75657 6.8471925 7.8111029
-25.582414 11.197272 2.3067648
-25.125975 3.4525724 5.7229897
-26.399484 7.296638 0
-23.058151 -9.9940538 6.1766649
-25.527241 -3.4392814 2.1255928
-22.924058 -6.6072434 7.5373751
-24.29762 -10.634925 2.190915
-24.524864 -3.3699736 5.5860737
-25.144713 -6.9498278 0
-12.254722 23.289643 0
-8.8352005 24.509273 0
-1.8489352 26.677294 0
-5.3957043 25.61763 0
15.269351 29.018832 0
10.599652 29.403947 0
1.9211637 27.719441 0
6.0473182 28.711351 0
-15.269351 -29.018832 0
-10.599652 -29.403947 0
-1.9211637 -27.719441 0
-6.0473182 -28.711351 0
12.254722 -23.289643 0
8.8352005 -24.509273 0
1.8489352 -26.677294 0
5.3957043 -25.61763 0
-16.528629 -28.070631 2.1467242
-13.899446 -26.148168 5.9194025
-14.380568 -28.832063 2.1251885
-8.2667485 -19.975488 10.678391
-10.93726 -23.074154 8.700646
-9.7132097 -29.012841 2.0250288
-11.803161 -26.627281 5.8343573
-12.049168 -29.100676 2.0829447
-13.165095 -27.953318 4.1066124
-0.72597763 -10.218883 14.633866
-2.2788494 -12.345361 14.009109
-5.9784617 -17.162047 12.116959
-4.0084031 -14.638707 13.191789
-1.1295211 -27.298986 1.8276035
-3.3040238 -26.177355 5.3460229
-3.0939528 -27.794639 1.8697803
-6.5315453 -20.273697 10.568262
-5.1385587 -23.596812 8.3143626
-7.7108695 -21.797928 9.6719668
-7.3407296 -28.690369 1.975732
-5.2838319 -26.482204 5.464498
-5.1732353 -28.271484 1.9185302
-8.5765486 -28.037994 3.9216153
-4.2358322 -27.375225 3.7245516
-10.337086 -25.01372 7.3677342
-6.2436166 -25.14177 7.0949544
-8.9907833 -23.39973 8.6105585
-9.5866955 -26.755285 5.752679
-7.0385556 -23.559161 8.4768642
-7.3886348 -26.679629 5.6242839
13.362204 -22.69308 1.7354717
11.741569 -22.088688 5.0004205
11.648991 -23.355436 1.7215107
7.7444125 -18.713334 10.003675
9.7889227 -20.651526 7.7871378
8.2193565 -24.550781 1.7135874
10.062239 -22.699857 4.9738115
9.9262638 -23.973521 1.7159574
10.90345 -23.151188 3.4011332
0.7248616 -10.203174 14.61137
2.2629477 -12.259216 13.911354
0 -11.251895 14.326052
5.7707842 -16.565878 11.696045
3.9396389 -14.38758 12.965484
-1.5481561 -13.461977 13.622369
1.5391743 -13.383877 13.543337
-0.75904784 -12.342922 13.995845
0.75724151 -12.313549 13.962539
1.1045825 -26.696255 1.7872521
3.1259842 -24.766769 5.0579486
2.9145292 -26.18278 1.7613485
0 -26.413345 3.558666
6.1747597 -19.166246 9.9909711
4.8159063 -22.115157 7.7923001
7.1478156 -20.206226 8.9657121
6.428261 -25.124094 1.7301442
4.8494925 -24.305325 5.0153075
4.6948583 -25.657177 1.7411208
7.4378484 -24.315416 3.4009462
3.9247141 -25.364539 3.4509866
-2.0951845 -24.695985 6.8258024
2.0296104 -23.923062 6.6121718
-1.0841298 -25.725555 5.2659367
1.0641096 -25.250491 5.1686926
9.09562 -22.009617 6.4828824
5.7174327 -23.022935 6.4970235
8.1350937 -21.172682 7.7910564
8.3329282 -23.256175 5.0003321
6.4709792 -21.659393 7.7933051
6.5885415 -23.790571 5.0152469
-5.2382709 -18.560323 11.470911
-1.7077556 -18.45835 11.407888
-4.2345061 -17.204316 12.117296
-4.6130437 -20.212096 10.571351
5.0430931 -17.868766 11.043505
1.6853768 -18.216468 11.258396
4.1242726 -16.75645 11.801857
4.4259757 -19.392456 10.142662
-2.4086832 -14.685248 13.173879
-0.85255847 -17.135416 12.040729
-3.289512 -15.9071 12.684119
-0.80141817 -14.648328 13.151109
-2.5205539 -17.191363 12.089447
-3.063077 -23.325497 8.2897958
-0.93170751 -19.960142 10.472631
-3.8845001 -21.830481 9.5090769
-1.0118434 -23.068384 8.1859851
-2.7376704 -20.102256 10.535984
2.3827025 -14.526849 13.031782
0.84779168 -17.039609 11.973407
3.23256 -15.631697 12.464517
0.79847952 -14.594615 13.102887
2.4799123 -16.914169 11.894516
0 -15.851047 12.601118
2.9438097 -22.41727 7.9670152
0.92356719 -19.785751 10.381132
3.7233279 -20.92471 9.114535
0.99833614 -22.760441 8.0767091
2.6692465 -19.599831 10.272653
0 -21.407553 9.3699595
-13.362204 22.69308 1.7354717
-11.741569 22.088688 5.0004205
-11.648991 23.355436 1.7215107
-7.7444125 18.713334 10.003675
-9.7889227 20.651526 7.7871378
-8.2193565 24.550781 1.7135874
-10.062239 22.699857 4.9738115
-9.9262638 23.973521 1.7159574
-10.90345 23.151188 3.4011332
-0.7248616 10.203174 14.61137
-2.2629477 12.259216 13.911354
-5.7707842 16.565878 11.696045
-3.9396389 14.38758 12.965484
-1.1045825 26.696255 1.7872521
-3.1259842 24.766769 5.0579486
-2.9145292 26.18278 1.7613485
-6.1747597 19.166246 9.9909711
-4.8159063 22.115157 7.7923001
-7.1478156 20.206226 8.9657121
-6.428261 25.124094 1.7301442
-4.8494925 24.305325 5.0153075
-4.6948583 25.657177 1.7411208
-7.4378484 24.315416 3.4009462
-3.9247141 25.364539 3.4509866
-9.09562 22.009617 6.4828824
-5.7174327 23.022935 6.4970235
-8.1350937 21.172682 7.7910564
-8.3329282 23.256175 5.0003321
-6.4709792 21.659393 7.7933051
-6.5885415 23.790571 5.0152469
16.528629 28.070631 2.1467242
13.899446 26.148168 5.9194025
14.380568 28.832063 2.1251885
8.2667485 19.975488 10.678391
10.93726 23.074154 8.700646
9.7132097 29.012841 2.0250288
11.803161 26.627281 5.8343573
12.049168 29.100676 2.0829447
13.165095 27.953318 4.1066124
0.72597763 10.218883 14.633866
2.2788494 12.345361 14.009109
0 11.251895 14.326052
5.9784617 17.162047 12.116959
4.0084031 14.638707 13.191789
-1.5391743 13.383877 13.543337
1.5481561 13.461977 13.622369
-0.75724151 12.313549 13.962539
0.75904784 12.342922 13.995845
1.1295211 27.298986 1.8276035
3.3040238 26.177355 5.3460229
3.0939528 27.794639 1.8697803
0 26.413345 3.558666
6.5315453 20.273697 10.568262
5.1385587 23.596812 8.3143626
7.7108695 21.797928 9.6719668
7.3407296 28.690369 1.975732
5.2838319 26.482204 5.464498
5.1732353 28.271484 1.9185302
8.5765486 28.037994 3.9216153
4.2358322 27.375225 3.7245516
-2.0296104 23.923062 6.6121718
2.0951845 24.695985 6.8258024
-1.0641096 25.250491 5.1686926
1.0841298 25.725555 5.2659367
10.337086 25.01372 7.3677342
6.2436166 25.14177 7.0949544
8.9907833 23.39973 8.6105585
9.5866955 26.755285 5.752679
7.0385556 23.559161 8.4768642
7.3886348 26.679629 5.6242839
-5.0430931 17.868766 11.043505
-1.6853768 18.216468 11.258396
-4.1242726 16.75645 11.801857
-4.4259757 19.392456 10.142662
5.2382709 18.560323 11.470911
1.7077556 18.45835 11.407888
4.2345061 17.204316 12.117296
4.6130437 20.212096 10.571351
-2.3827025 14.526849 13.031782
-0.84779168 17.039609 11.973407
-3.23256 15.631697 12.464517
-0.79847952 14.594615 13.102887
-2.4799123 16.914169 11.894516
-2.9438097 22.41727 7.9670152
-0.92356719 19.785751 10.381132
-3.7233279 20.92471 9.114535
-0.99833614 22.760441 8.0767091
-2.6692465 19.599831 10.272653
2.4086832 14.685248 13.173879
0.85255847 17.135416 12.040729
3.289512 15.9071 12.684119
0.80141817 14.648328 13.151109
2.5205539 17.191363 12.089447
0 15.851047 12.601118
3.063077 23.325497 8.2897958
0.93170751 19.960142 10.472631
3.8845001 21.830481 9.5090769
1.0118434 23.068384 8.1859851
2.7376704 20.102256 10.535984
0 21.407553 9.3699595
0 -7.9797135 15.165148
0 -5.619126 15.587727
0 -1.1078515 15.984595
0 -3.339465 15.855053
0 7.9797135 15.165148
0 5.619126 15.587727
0 1.1078515 15.984595
0 3.339465 15.855053
-16.528629 -28.070631 -2.1467242
-13.899446 -26.148168 -5.9194025
-14.380568 -28.832063 -2.1251885
-8.2667485 -19.975488 -10.678391
-10.93726 -23.074154 -8.700646
-9.7132097 -29.012841 -2.0250288
-11.803161 -26.627281 -5.8343573
-12.049168 -29.100676 -2.0829447
-13.165095 -27.953318 -4.1066124
-0.72597763 -10.218883 -14.633866
-2.2788494 -12.345361 -14.009109
-5.9784617 -17.162047 -12.116959
-4.0084031 -14.638707 -13.191789
-1.1295211 -27.298986 -1.8276035
-3.3040238 -26.177355 -5.3460229
-3.0939528 -27.794639 -1.8697803
-6.5315453 -20.273697 -10.568262
-5.1385587 -23.596812 -8.3143626
-7.7108695 -21.797928 -9.6719668
-7.3407296 -28.690369 -1.975732
-5.2838319 -26.482204 -5.464498
-5.1732353 -28.271484 -1.9185302
-8.5765486 -28.037994 -3.9216153
-4.2358322 -27.375225 -3.7245516
-10.337086 -25.01372 -7.3677342
-6.2436166 -25.14177 -7.0949544
-8.9907833 -23.39973 -8.6105585
-9.5866955 -26.755285 -5.752679
-7.0385556 -23.559161 -8.4768642
-7.3886348 -26.679629 -5.6242839
13.362204 -22.69308 -1.7354717
11.741569 -22.088688 -5.0004205
11.648991 -23.355436 -1.7215107
7.7444125 -18.713334 -10.003675
9.7889227 -20.651526 -7.7871378
8.2193565 -24.550781 -1.7135874
10.062239 -22.699857 -4.9738115
9.9262638 -23.973521 -1.7159574
10.90345 -23.151188 -3.4011332
0.7248616 -10.203174 -14.61137
2.2629477 -12.259216 -13.911354
0 -11.251895 -14.326052
5.7707842 -16.565878 -11.696045
3.9396389 -14.38758 -12.965484
-1.5481561 -13.461977 -13.622369
1.5391743 -13.383877 -13.543337
-0.75904784 -12.342922 -13.995845
0.75724151 -12.313549 -13.962539
1.1045825 -26.696255 -1.7872521
3.1259842 -24.766769 -5.0579486
2.9145292 -26.18278 -1.7613485
0 -26.413345 -3.558666
6.1747597 -19.166246 -9.9909711
4.8159063 -22.115157 -7.7923001
7.1478156 -20.206226 -8.9657121
6.428261 -25.124094 -1.7301442
4.8494925 -24.305325 -5.0153075
4.6948583 -25.657177 -1.7411208
7.4378484 -24.315416 -3.4009462
3.9247141 -25.364539 -3.4509866
-2.0951845 -24.695985 -6.8258024
2.0296104 -23.923062 -6.6121718
-1.0841298 -25.725555 -5.2659367
1.0641096 -25.250491 -5.1686926
9.09562 -22.009617 -6.4828824
5.7174327 -23.022935 -6.4970235
8.1350937 -21.172682 -7.7910564
8.3329282 -23.256175 -5.0003321
6.4709792 -21.659393 -7.7933051
6.5885415 -23.790571 -5.0152469
-5.2382709 -18.560323 -11.470911
-1.7077556 -18.45835 -11.407888
-4.2345061 -17.204316 -12.117296
-4.6130437 -20.212096 -10.571351
5.0430931 -17.868766 -11.043505
1.6853768 -18.216468 -11.258396
4.1242726 -16.75645 -11.801857
4.4259757 -19.392456 -10.142662
-2.4086832 -14.685248 -13.173879
-0.85255847 -17.135416 -12.040729
-3.289512 -15.9071 -12.684119
-0.80141817 -14.648328 -13.151109
-2.5205539 -17.191363 -12.089447
-3.063077 -23.325497 -8.2897958
-0.93170751 -19.960142 -10.472631
-3.8845001 -21.830481 -9.5090769
-1.0118434 -23.068384 -8.1859851
-2.7376704 -20.102256 -10.535984
2.3827025 -14.526849 -13.031782
0.84779168 -17.039609 -11.973407
3.23256 -15.631697 -12.464517
0.79847952 -14.594615 -13.102887
2.4799123 -16.914169 -11.894516
0 -15.851047 -12.601118
2.9438097 -22.41727 -7.9670152
0.92356719 -19.785751 -10.381132
3.7233279 -20.92471 -9.114535
0.99833614 -22.760441 -8.0767091
2.6692465 -19.599831 -10.272653
0 -21.407553 -9.3699595
-13.362204 22.69308 -1.7354717
-11.741569 22.088688 -5.0004205
-11.648991 23.355436 -1.7215107
-7.7444125 18.713334 -10.003675
-9.7889227 20.651526 -7.7871378
-8.2193565 24.550781 -1.7135874
-10.062239 22.699857 -4.9738115
-9.9262638 23.973521 -1.7159574
-10.90345 23.151188 -3.4011332
-0.7248616 10.203174 -14.61137
-2.2629477 12.259216 -13.911354
-5.7707842 16.565878 -11.696045
-3.9396389 14.38758 -12.965484
-1.1045825 26.696255 -1.7872521
-3.1259842 24.766769 -5.0579486
-2.9145292 26.18278 -1.7613485
-6.1747597 19.166246 -9.9909711
-4.8159063 22.115157 -7.7923001
-7.1478156 20.206226 -8.9657121
-6.428261 25.124094 -1.7301442
-4.8494925 24.305325 -5.0153075
-4.6948583 25.657177 -1.7411208
-7.4378484 24.315416 -3.4009462
-3.9247141 25.364539 -3.4509866
-9.09562 22.009617 -6.4828824
-5.7174327 23.022935 -6.4970235
-8.1350937 21.172682 -7.7910564
-8.3329282 23.256175 -5.0003321
-6.4709792 21.659393 -7.7933051
-6.5885415 23.790571 -5.0152469
16.528629 28.070631 -2.1467242
13.899446 26.148168 -5.9194025
14.380568 28.832063 -2.1251885
8.2667485 19.975488 -10.678391
10.93726 23.074154 -8.700646
9.7132097 29.012841 -2.0250288
11.803161 26.627281 -5.8343573
12.049168 29.100676 -2.0829447
13.165095 27.953318 -4.1066124
0.72597763 10.218883 -14.633866
2.2788494 12.345361 -14.009109
0 11.251895 -14.326052
5.9784617 17.162047 -12.116959
4.0084031 14.638707 -13.191789
-1.5391743 13.383877 -13.543337
1.5481561 13.461977 -13.622369
-0.75724151 12.313549 -13.962539
0.75904784 12.342922 -13.995845
1.1295211 27.298986 -1.8276035
3.3040238 26.177355 -5.3460229
3.0939528 27.794639 -1.8697803
0 26.413345 -3.558666
6.5315453 20.273697 -10.568262
5.1385587 23.596812 -8.3143626
7.7108695 21.797928 -9.6719668
7.3407296 28.690369 -1.975732
5.2838319 26.482204 -5.464498
5.1732353 28.271484 -1.9185302
8.5765486 28.037994 -3.9216153
4.2358322 27.375225 -3.7245516
-2.0296104 23.923062 -6.6121718
2.0951845 24.695985 -6.8258024
-1.0641096 25.250491 -5.1686926
1.0841298 25.725555 -5.2659367
10.337086 25.01372 -7.3677342
6.2436166 25.14177 -7.0949544
8.9907833 23.39973 -8.6105585
9.5866955 26.755285 -5.752679
7.0385556 23.559161 -8.4768642
7.3886348 26.679629 -5.6242839
-5.0430931 17.868766 -11.043505
-1.6853768 18.216468 -11.258396
-4.1242726 16.75645 -11.801857
-4.4259757 19.392456 -10.142662
5.2382709 18.560323 -11.470911
1.7077556 18.45835 -11.407888
4.2345061 17.204316 -12.117296
4.6130437 20.212096 -10.571351
-2.3827025 14.526849 -13.031782
-0.84779168 17.039609 -11.973407
-3.23256 15.631697 -12.464517
-0.79847952 14.594615 -13.102887
-2.4799123 16.914169 -11.894516
-2.9438097 22.41727 -7.9670152
-0.92356719 19.785751 -10.381132
-3.7233279 20.92471 -9.114535
-0.99833614 22.760441 -8.0767091
-2.6692465 19.599831 -10.272653
2.4086832 14.685248 -13.173879
0.85255847 17.135416 -12.040729
3.289512 15.9071 -12.684119
0.80141817 14.648328 -13.151109
2.5205539 17.191363 -12.089447
0 15.851047 -12.601118
3.063077 23.325497 -8.2897958
0.93170751 19.960142 -10.472631
3.8845001 21.830481 -9.5090769
1.0118434 23.068384 -8.1859851
2.7376704 20.102256 -10.535984
0 21.407553 -9.3699595
0 -7.9797135 -15.165148
0 -5.619126 -15.587727
0 -1.1078515 -15.984595
0 -3.339465 -15.855053
0 7.9797135 -15.165148
0 5.619126 -15.587727
0 1.1078515 -15.984595
0 3.339465 -15.855053
18.69643 26.774066 -1.3282459
20.266461 22.997712 -3.7410175
17.711938 26.546121 -3.4179294
21.044951 14.858415 -7.3310856
20.883988 18.819775 -5.7184998
14.842318 24.443108 -6.9832559
19.089061 22.554633 -5.6382205
16.366398 25.697417 -5.3364881
18.544393 24.631602 -4.5952522
19.757706 1.5109865 -11.633788
20.331005 4.6025177 -10.807247
20.966039 11.207914 -8.6766825
20.724478 7.8146461 -9.8235025
8.9682703 18.417713 -11.382772
12.840275 17.824047 -11.015867
10.279108 19.861254 -10.564464
19.738877 14.340776 -8.8630872
16.572364 16.505812 -10.201153
19.717732 16.254684 -8.1901813
13.218367 22.903987 -8.4324614
14.361942 19.146222 -10.037014
11.707135 21.378604 -9.586916
15.509105 22.479782 -7.975474
12.336127 19.600567 -10.358388
19.430914 20.346019 -6.6155108
16.367504 18.425421 -9.5582894
19.624388 18.271551 -7.4403311
17.628892 21.625716 -7.3634679
18.144918 17.465643 -8.9451085
16.004003 20.436139 -8.8326568
15.331995 -21.956056 -1.0892272
17.786274 -20.183277 -3.2831959
14.612527 -21.900818 -2.8198263
20.936486 -14.781835 -7.2933011
19.71539 -17.766684 -5.3985118
12.78042 -21.047467 -6.0131406
16.827681 -19.882706 -4.9702905
13.747494 -21.585389 -4.4825584
15.779654 -20.959335 -3.9101571
19.877104 -1.5201176 -11.704093
20.709146 -4.688121 -11.008254
21.410855 -11.445701 -8.8607673
21.270799 -8.0206492 -10.082461
8.4719671 -17.398478 -10.752851
12.056992 -16.736744 -10.343877
9.538478 -18.430212 -9.8032738
19.542335 -14.197983 -8.7748363
15.807833 -15.744351 -9.7305441
19.123402 -15.764737 -7.9433138
11.7048 -20.28137 -7.466904
13.271993 -17.693187 -9.2752895
10.628999 -19.4098 -8.7040353
13.702657 -19.861413 -7.0465178
11.388574 -18.095022 -9.5627471
17.770803 -18.607725 -6.0503043
15.260765 -17.17953 -8.9119761
18.528634 -17.251334 -7.02489
15.743503 -19.312872 -6.575954
17.199917 -16.55602 -8.4792407
14.535486 -18.560932 -8.0221781
1.1439068 -8.8074703 -14.95776
3.4075206 -8.0012549 -15.052266
1.8905059 -9.7967276 -14.683041
1.1222507 -7.5939628 -15.22538
8.0300854 -6.2165451 -15.021447
5.6862617 -7.1479891 -15.079992
3.4951287 -11.833295 -13.981601
4.2213328 -8.9720847 -14.7757
2.6786425 -10.809809 -14.358135
3.0605634 -9.3863976 -14.73789
1.0908986 -5.2325806 -15.62944
3.3528359 -6.7829343 -15.301926
1.1058129 -6.3967733 -15.449235
2.2435415 -7.1924091 -15.271572
18.192173 -0.90250314 -12.703662
15.64093 -2.5442963 -13.783384
18.649668 -2.4012265 -12.443315
10.474915 -5.1682834 -14.836312
13.027564 -3.9585021 -14.456468
19.397815 -5.5418446 -11.77872
16.003522 -4.0005698 -13.544543
19.055384 -3.9571614 -12.136161
17.342547 -3.235412 -13.056683
7.2428976 -16.130572 -11.719254
8.0620394 -13.097251 -13.044654
6.2532981 -15.054716 -12.410639
8.9387529 -15.859318 -11.582174
9.0887131 -7.1608245 -14.705847
8.6673799 -10.10284 -14.024115
7.8527687 -7.6406579 -14.763251
4.3973135 -12.91568 -13.523948
7.0433897 -12.061019 -13.577474
5.2983119 -13.974664 -13.011299
4.7742287 -11.42999 -14.021398
6.6776482 -13.545434 -13.038346
12.477064 -15.124037 -11.212758
9.6951904 -12.74888 -12.935638
10.693903 -15.526419 -11.415973
9.3481584 -14.296828 -12.312027
5.4463948 -8.5375363 -14.793326
7.3672676 -10.541808 -14.053517
6.6328051 -8.0997001 -14.791004
5.124529 -9.9651579 -14.444069
7.6315499 -9.0886506 -14.440732
6.0708369 -10.999826 -14.046109
1.0703093 -0.66148752 -15.987252
3.2425264 -2.0039915 -15.877366
1.073031 -1.7755601 -15.95081
7.9416681 -4.9082208 -15.234952
5.5107731 -3.4058451 -15.640005
6.7830094 -5.4076799 -15.28702
1.0864285 -4.0365686 -15.776448
3.2594618 -3.1516982 -15.796096
1.0776685 -2.9058872 -15.880535
2.1904482 -4.7904967 -15.660835
2.1617038 -2.4584475 -15.88839
4.511873 -6.3302525 -15.31797
4.4207062 -3.8902569 -15.665271
5.6349121 -5.8837384 -15.313226
3.3345608 -5.5569621 -15.508796
5.5769356 -4.6306712 -15.49959
3.3040917 -4.3405929 -15.673451
19.824868 -12.252442 -9.6534665
16.670649 -10.303028 -12.009378
19.896571 -10.58325 -10.297386
18.076142 -13.201136 -10.188216
10.598858 -6.5504545 -14.58844
13.521817 -8.3569427 -13.576338
11.901819 -5.9969213 -14.437493
10.442888 -8.0594884 -14.299309
19.664672 -7.2398568 -11.348891
16.643694 -8.7251145 -12.484748
19.836989 -8.8956019 -10.862932
17.982208 -6.3798053 -12.406168
18.278545 -9.6597338 -11.504078
14.390052 -14.600851 -10.943259
14.96081 -11.091744 -12.342405
16.233096 -13.979486 -10.614211
12.878869 -13.443772 -11.964836
16.518385 -12.145328 -11.377126
14.593977 -4.7452335 -13.937582
14.973898 -7.7677927 -13.301478
13.243696 -5.3929456 -14.224267
16.270037 -5.5398812 -13.26304
13.410249 -6.8681199 -13.931801
16.486739 -7.1256957 -12.911138
10.002159 -11.129963 -13.491153
13.354264 -10.008948 -13.161462
10.244442 -9.5964722 -13.933064
11.400173 -12.271069 -12.809312
11.874616 -9.016045 -13.788902
13.170811 -11.721904 -12.617378
1.1459881 8.8234959 -14.984976
3.4222122 8.0357525 -15.117164
1.8974446 9.832684 -14.736932
1.1237805 7.6043144 -15.246135
8.0634506 6.2423749 -15.083861
5.7153523 7.1845579 -15.157141
3.5296196 11.950069 -14.119575
4.2486208 9.030083 -14.871215
2.6955127 10.87789 -14.448564
3.0768869 9.4364599 -14.816494
1.0916966 5.2364085 -15.640874
3.3634422 6.8043914 -15.350332
1.1069269 6.4032176 -15.464799
2.2489947 7.2098911 -15.308692
18.143189 0.9000731 -12.669456
15.579762 2.5343462 -13.729481
18.510817 2.3833488 -12.350672
16.933485 0 -13.299812
10.492115 5.1767695 -14.860673
13.006502 3.9521023 -14.433096
19.085169 5.4525234 -11.588876
15.907143 3.9764769 -13.462973
18.823335 3.9089728 -11.988372
17.215343 3.2116809 -12.960915
14.403214 -1.6368977 -14.233629
14.377323 1.6339552 -14.208043
15.671714 -0.84993656 -13.820869
15.649401 0.84872641 -13.801191
7.5405059 16.793372 -12.200795
8.2635536 13.424622 -13.370711
6.4407542 15.506014 -12.782675
9.3513659 16.591385 -12.116807
9.1372092 7.1990337 -14.784315
8.7790537 10.233009 -14.204807
7.9037695 7.6902811 -14.859133
4.4629466 13.108456 -13.725803
7.1736784 12.284124 -13.82863
5.4116369 14.273567 -13.289597
4.8318618 11.567969 -14.19066
6.8377859 13.870269 -13.351021
13.047087 15.814989 -11.725021
9.9396325 13.070314 -13.261781
11.207258 16.271755 -11.96399
9.6737747 14.794817 -12.740881
5.4849739 8.5980112 -14.898114
7.467236 10.684853 -14.244213
6.6797761 8.1570592 -14.895748
5.1727484 10.058925 -14.579981
7.7050364 9.176168 -14.579786
6.1518579 11.146629 -14.233568
1.0703847 0.66153413 -15.988379
3.2445127 2.0052191 -15.887093
1.0732404 1.7759066 -15.953922
2.1518807 0 -15.971818
7.9626718 4.9212018 -15.275245
5.5194345 3.4111981 -15.664587
6.8051773 5.425353 -15.33698
1.0869831 4.0386292 -15.784502
3.2628309 3.154956 -15.812423
1.0780331 2.9068705 -15.885909
2.1932102 4.7965372 -15.680583
2.162877 2.4597817 -15.897012
4.38108 -1.3447754 -15.850897
4.3832345 1.3454367 -15.858691
3.2600871 -0.67117356 -15.926426
3.2607309 0.6713061 -15.929571
4.5279125 6.3527563 -15.372424
4.4281454 3.8968034 -15.691632
5.655106 5.904824 -15.368104
3.3421536 5.5696153 -15.54411
5.5904781 4.6419159 -15.537228
3.3093054 4.3474421 -15.698183
19.692271 12.170493 -9.5889
16.663477 10.298595 -12.004211
19.603116 10.427157 -10.14551
18.261563 13.33655 -10.292725
10.633529 6.5718826 -14.636162
13.557025 8.3787025 -13.611688
11.914563 6.0033422 -14.452951
10.509383 8.110807 -14.39036
19.300175 7.1056617 -11.138532
16.55517 8.6787079 -12.418345
19.47231 8.7320671 -10.66323
17.760705 6.3012195 -12.25335
18.105111 9.5680785 -11.394923
14.938458 15.157291 -11.360307
15.09923 11.194366 -12.456598
16.655954 14.34364 -10.890703
13.260598 13.842244 -12.319474
16.682255 12.265815 -11.489992
14.537772 4.7269585 -13.883905
14.941456 7.7509632 -13.27266
13.225128 5.3853847 -14.204325
16.149979 5.4990017 -13.16517
13.408387 6.8671661 -13.929866
16.365284 7.073202 -12.816024
10.172069 11.319031 -13.72033
13.465825 10.092563 -13.271413
10.356151 9.7011157 -14.084996
11.65741 12.547957 -13.098345
11.962408 9.0827033 -13.890848
13.396919 11.923138 -12.833985
9.3515364 -4.270444 -15.131104
9.4766603 -1.4186517 -15.333558
10.564524 -3.6918748 -14.999667
8.0466892 -3.5113514 -15.38502
9.3662975 4.2771847 -15.154988
9.4790242 1.4190056 -15.337383
10.570033 3.6937999 -15.007489
8.0587091 3.5165965 -15.408002
13.071591 -2.3899812 -14.571225
10.650817 -0.75414406 -15.157403
11.813815 -3.0638065 -14.815655
13.121763 -0.79962981 -14.61564
10.622905 -2.2147914 -15.10592
5.5921753 -2.0663071 -15.73504
8.1512936 -0.7251875 -15.535826
6.7883636 -2.7730766 -15.584398
5.6025921 -0.69251847 -15.788295
8.1160717 -2.1088803 -15.485155
13.053464 2.3866669 -14.551019
10.650504 0.75412193 -15.156958
11.807443 3.0621539 -14.807664
13.114631 0.79919519 -14.607696
10.623407 2.2148961 -15.106634
11.861996 0 -14.9213
5.5970018 2.0680905 -15.74862
8.1531132 0.72534939 -15.539294
6.7966276 2.7764525 -15.60337
5.6041207 0.69270741 -15.792603
8.1220168 2.1104251 -15.496498
6.8659425 0 -15.686623
18.69643 26.774066 1.3282459
20.266461 22.997712 3.7410175
17.711938 26.546121 3.4179294
19.959494 25.412675 0
21.044951 14.858415 7.3310856
20.883988 18.819775 5.7184998
14.842318 24.443108 6.9832559
19.089061 22.554633 5.6382205
16.366398 25.697417 5.3364881
18.544393 24.631602 4.5952522
21.405667 21.660702 -2.4616972
21.405667 21.660702 2.4616972
20.83856 23.629191 -1.2815007
20.83856 23.629191 1.2815007
19.757706 1.5109865 11.633788
20.331005 4.6025177 10.807247
20.966039 11.207914 8.6766825
20.724478 7.8146461 9.8235025
8.9682703 18.417713 11.382772
12.840275 17.824047 11.015867
10.279108 19.861254 10.564464
19.738877 14.340776 8.8630872
16.572364 16.505812 10.201153
19.717732 16.254684 8.1901813
13.218367 22.903987 8.4324614
14.361942 19.146222 10.037014
11.707135 21.378604 9.586916
15.509105 22.479782 7.975474
12.336127 19.600567 10.358388
19.430914 20.346019 6.6155108
16.367504 18.425421 9.5582894
19.624388 18.271551 7.4403311
17.628892 21.625716 7.3634679
18.144918 17.465643 8.9451085
16.004003 20.436139 8.8326568
22.147645 13.687997 -6.2507189
23.496372 14.521557 -2.1738704
22.106072 15.569687 -5.4409774
22.147645 13.687997 6.2507189
23.496372 14.521557 2.1738704
22.106072 15.569687 5.4409774
21.781338 19.539658 -3.5725883
23.227185 16.321298 -1.1556494
21.991546 17.535779 -4.5477461
22.244294 19.970686 -1.2169977
22.849586 16.068467 -3.350148
21.781338 19.539658 3.5725883
23.227185 16.321298 1.1556494
21.991546 17.535779 4.5477461
22.244294 19.970686 1.2169977
22.849586 16.068467 3.350148
22.831662 18.150501 0
15.331995 -21.956056 1.0892272
17.786274 -20.183277 3.2831959
14.612527 -21.900818 2.8198263
16.762369 -21.342056 0
20.936486 -14.781835 7.2933011
19.71539 -17.766684 5.3985118
12.78042 -21.047467 6.0131406
16.827681 -19.882706 4.9702905
13.747494 -21.585389 4.4825584
15.779654 -20.959335 3.9101571
19.348784 -19.579313 -2.2251513
19.348784 -19.579313 2.2251513
18.121013 -20.547719 -1.1143808
18.121013 -20.547719 1.1143808
19.877104 -1.5201176 11.704093
20.709146 -4.688121 11.008254
21.410855 -11.445701 8.8607673
21.270799 -8.0206492 10.082461
8.4719671 -17.398478 10.752851
12.056992 -16.736744 10.343877
9.538478 -18.430212 9.8032738
19.542335 -14.197983 8.7748363
15.807833 -15.744351 9.7305441
19.123402 -15.764737 7.9433138
11.7048 -20.28137 7.466904
13.271993 -17.693187 9.2752895
10.628999 -19.4098 8.7040353
13.702657 -19.861413 7.0465178
11.388574 -18.095022 9.5627471
17.770803 -18.607725 6.0503043
15.260765 -17.17953 8.9119761
18.528634 -17.251334 7.02489
15.743503 -19.312872 6.575954
17.199917 -16.55602 8.4792407
14.535486 -18.560932 8.0221781
22.499864 -13.905681 -6.3501255
24.061176 -14.870624 -2.2261257
22.041738 -15.524376 -5.4251429
22.499864 -13.905681 6.3501255
24.061176 -14.870624 2.2261257
22.041738 -15.524376 5.4251429
20.476848 -18.369422 -3.358625
23.255285 -16.341043 -1.1570475
21.360102 -17.032274 -4.4171667
20.852373 -18.721034 -1.140845
22.839133 -16.061116 -3.3486155
20.476848 -18.369422 3.358625
23.255285 -16.341043 1.1570475
21.360102 -17.032274 4.4171667
20.852373 -18.721034 1.140845
22.839133 -16.061116 3.3486155
22.181859 -17.633927 0
1.1439068 -8.8074703 14.95776
3.4075206 -8.0012549 15.052266
1.8905059 -9.7967276 14.683041
1.1222507 -7.5939628 15.22538
8.0300854 -6.2165451 15.021447
5.6862617 -7.1479891 15.079992
3.4951287 -11.833295 13.981601
4.2213328 -8.9720847 14.7757
2.6786425 -10.809809 14.358135
3.0605634 -9.3863976 14.73789
1.0908986 -5.2325806 15.62944
3.3528359 -6.7829343 15.301926
1.1058129 -6.3967733 15.449235
2.2435415 -7.1924091 15.271572
18.192173 -0.90250314 12.703662
15.64093 -2.5442963 13.783384
18.649668 -2.4012265 12.443315
10.474915 -5.1682834 14.836312
13.027564 -3.9585021 14.456468
19.397815 -5.5418446 11.77872
16.003522 -4.0005698 13.544543
19.055384 -3.9571614 12.136161
17.342547 -3.235412 13.056683
7.2428976 -16.130572 11.719254
8.0620394 -13.097251 13.044654
6.2532981 -15.054716 12.410639
8.9387529 -15.859318 11.582174
9.0887131 -7.1608245 14.705847
8.6673799 -10.10284 14.024115
7.8527687 -7.6406579 14.763251
4.3973135 -12.91568 13.523948
7.0433897 -12.061019 13.577474
5.2983119 -13.974664 13.011299
4.7742287 -11.42999 14.021398
6.6776482 -13.545434 13.038346
12.477064 -15.124037 11.212758
9.6951904 -12.74888 12.935638
10.693903 -15.526419 11.415973
9.3481584 -14.296828 12.312027
5.4463948 -8.5375363 14.793326
7.3672676 -10.541808 14.053517
6.6328051 -8.0997001 14.791004
5.124529 -9.9651579 14.444069
7.6315499 -9.0886506 14.440732
6.0708369 -10.999826 14.046109
1.0703093 -0.66148752 15.987252
3.2425264 -2.0039915 15.877366
1.073031 -1.7755601 15.95081
7.9416681 -4.9082208 15.234952
5.5107731 -3.4058451 15.640005
6.7830094 -5.4076799 15.28702
1.0864285 -4.0365686 15.776448
3.2594618 -3.1516982 15.796096
1.0776685 -2.9058872 15.880535
2.1904482 -4.7904967 15.660835
2.1617038 -2.4584475 15.88839
4.511873 -6.3302525 15.31797
4.4207062 -3.8902569 15.665271
5.6349121 -5.8837384 15.313226
3.3345608 -5.5569621 15.508796
5.5769356 -4.6306712 15.49959
3.3040917 -4.3405929 15.673451
19.824868 -12.252442 9.6534665
16.670649 -10.303028 12.009378
19.896571 -10.58325 10.297386
18.076142 -13.201136 10.188216
10.598858 -6.5504545 14.58844
13.521817 -8.3569427 13.576338
11.901819 -5.9969213 14.437493
10.442888 -8.0594884 14.299309
19.664672 -7.2398568 11.348891
16.643694 -8.7251145 12.484748
19.836989 -8.8956019 10.862932
17.982208 -6.3798053 12.406168
18.278545 -9.6597338 11.504078
14.390052 -14.600851 10.943259
14.96081 -11.091744 12.342405
16.233096 -13.979486 10.614211
12.878869 -13.443772 11.964836
16.518385 -12.145328 11.377126
14.593977 -4.7452335 13.937582
14.973898 -7.7677927 13.301478
13.243696 -5.3929456 14.224267
16.270037 -5.5398812 13.26304
13.410249 -6.8681199 13.931801
16.486739 -7.1256957 12.911138
10.002159 -11.129963 13.491153
13.354264 -10.008948 13.161462
10.244442 -9.5964722 13.933064
11.400173 -12.271069 12.809312
11.874616 -9.016045 13.788902
13.170811 -11.721904 12.617378
1.1459881 8.8234959 14.984976
3.4222122 8.0357525 15.117164
1.8974446 9.832684 14.736932
1.1237805 7.6043144 15.246135
8.0634506 6.2423749 15.083861
5.7153523 7.1845579 15.157141
3.5296196 11.950069 14.119575
4.2486208 9.030083 14.871215
2.6955127 10.87789 14.448564
3.0768869 9.4364599 14.816494
1.0916966 5.2364085 15.640874
3.3634422 6.8043914 15.350332
1.1069269 6.4032176 15.464799
2.2489947 7.2098911 15.308692
18.143189 0.9000731 12.669456
15.579762 2.5343462 13.729481
18.510817 2.3833488 12.350672
16.933485 0 13.299812
10.492115 5.1767695 14.860673
13.006502 3.9521023 14.433096
19.085169 5.4525234 11.588876
15.907143 3.9764769 13.462973
18.823335 3.9089728 11.988372
17.215343 3.2116809 12.960915
14.403214 -1.6368977 14.233629
14.377323 1.6339552 14.208043
15.671714 -0.84993656 13.820869
15.649401 0.84872641 13.801191
7.5405059 16.793372 12.200795
8.2635536 13.424622 13.370711
6.4407542 15.506014 12.782675
9.3513659 16.591385 12.116807
9.1372092 7.1990337 14.784315
8.7790537 10.233009 14.204807
7.9037695 7.6902811 14.859133
4.4629466 13.108456 13.725803
7.1736784 12.284124 13.82863
5.4116369 14.273567 13.289597
4.8318618 11.567969 14.19066
6.8377859 13.870269 13.351021
13.047087 15.814989 11.725021
9.9396325 13.070314 13.261781
11.207258 16.271755 11.96399
9.6737747 14.794817 12.740881
5.4849739 8.5980112 14.898114
7.467236 10.684853 14.244213
6.6797761 8.1570592 14.895748
5.1727484 10.058925 14.579981
7.7050364 9.176168 14.579786
6.1518579 11.146629 14.233568
1.0703847 0.66153413 15.988379
3.2445127 2.0052191 15.887093
1.0732404 1.7759066 15.953922
2.1518807 0 15.971818
7.9626718 4.9212018 15.275245
5.5194345 3.4111981 15.664587
6.8051773 5.425353 15.33698
1.0869831 4.0386292 15.784502
3.2628309 3.154956 15.812423
1.0780331 2.9068705 15.885909
2.1932102 4.7965372 15.680583
2.162877 2.4597817 15.897012
4.38108 -1.3447754 15.850897
4.3832345 1.3454367 15.858691
3.2600871 -0.67117356 15.926426
3.2607309 0.6713061 15.929571
4.5279125 6.3527563 15.372424
4.4281454 3.8968034 15.691632
5.655106 5.904824 15.368104
3.3421536 5.5696153 15.54411
5.5904781 4.6419159 15.537228
3.3093054 4.3474421 15.698183
19.692271 12.170493 9.5889
16.663477 10.298595 12.004211
19.603116 10.427157 10.14551
18.261563 13.33655 10.292725
10.633529 6.5718826 14.636162
13.557025 8.3787025 13.611688
11.914563 6.0033422 14.452951
10.509383 8.110807 14.39036
19.300175 7.1056617 11.138532
16.55517 8.6787079 12.418345
19.47231 8.7320671 10.66323
17.760705 6.3012195 12.25335
18.105111 9.5680785 11.394923
14.938458 15.157291 11.360307
15.09923 11.194366 12.456598
16.655954 14.34364 10.890703
13.260598 13.842244 12.319474
16.682255 12.265815 11.489992
14.537772 4.7269585 13.883905
14.941456 7.7509632 13.27266
13.225128 5.3853847 14.204325
16.149979 5.4990017 13.16517
13.408387 6.8671661 13.929866
16.365284 7.073202 12.816024
10.172069 11.319031 13.72033
13.465825 10.092563 13.271413
10.356151 9.7011157 14.084996
11.65741 12.547957 13.098345
11.962408 9.0827033 13.890848
13.396919 11.923138 12.833985
9.3515364 -4.270444 15.131104
9.4766603 -1.4186517 15.333558
10.564524 -3.6918748 14.999667
8.0466892 -3.5113514 15.38502
9.3662975 4.2771847 15.154988
9.4790242 1.4190056 15.337383
10.570033 3.6937999 15.007489
8.0587091 3.5165965 15.408002
13.071591 -2.3899812 14.571225
10.650817 -0.75414406 15.157403
11.813815 -3.0638065 14.815655
13.121763 -0.79962981 14.61564
10.622905 -2.2147914 15.10592
5.5921753 -2.0663071 15.73504
8.1512936 -0.7251875 15.535826
6.7883636 -2.7730766 15.584398
5.6025921 -0.69251847 15.788295
8.1160717 -2.1088803 15.485155
13.053464 2.3866669 14.551019
10.650504 0.75412193 15.156958
11.807443 3.0621539 14.807664
13.114631 0.79919519 14.607696
10.623407 2.2148961 15.106634
11.861996 0 14.9213
5.5970018 2.0680905 15.74862
8.1531132 0.72534939 15.539294
6.7966276 2.7764525 15.60337
5.6041207 0.69270741 15.792603
8.1220168 2.1104251 15.496498
6.8659425 0 15.686623
20.817331 0 -10.953822
23.297427 0 -8.3983493
21.139718 1.5581918 -10.543857
21.302528 -1.5701924 -10.625062
26.004024 0 -1.8022726
25.075092 0 -5.2814325
21.629058 4.7391866 -9.5875826
23.496936 1.6400315 -7.8665397
21.410546 3.145416 -10.083664
22.403984 1.6036143 -9.276395
22.137588 -4.8506117 -9.8130006
23.751409 -1.6577931 -7.9517349
21.749919 -3.1952732 -10.243498
22.613648 -1.6186215 -9.3632069
20.817331 0 10.953822
23.297427 0 8.3983493
21.139718 1.5581918 10.543857
21.302528 -1.5701924 10.625062
26.004024 0 1.8022726
25.075092 0 5.2814325
21.629058 4.7391866 9.5875826
23.496936 1.6400315 7.8665397
21.410546 3.145416 10.083664
22.403984 1.6036143 9.276395
22.137588 -4.8506117 9.8130006
23.751409 -1.6577931 7.9517349
21.749919 -3.1952732 10.243498
22.613648 -1.6186215 9.3632069
22.127296 11.534506 -7.1287165
23.84661 8.4023795 -5.1929561
22.06293 9.789551 -7.8046122
23.063144 12.06251 -5.2637437
25.879524 1.7325738 -1.0707895
25.071676 5.1202177 -3.1644686
25.624787 1.7238116 -2.8524163
21.821203 6.4273856 -9.0177568
23.828034 6.7242208 -5.9173681
21.959028 8.0804134 -8.4372281
22.794522 4.9010716 -8.1675131
23.014707 8.2809634 -6.8758942
24.042133 12.614359 -1.1222483
24.451505 8.6899751 -3.2109432
23.713549 12.428733 -3.2294824
23.826777 10.378638 -4.2397196
