-5.4212854 6.1844644 -18.809336
-15.890605 9.8209341 -9.5182038
-12.509981 7.7315935 -14.706365
-16.906266 7.4697074 -11.137495
-13.291377 11.599092 -10.553203
-15.046926 6.3418721 -13.870742
-11.586925 10.542132 -13.277434
-12.130145 -3.6543894 -19.626987
-11.025051 3.3214631 -17.838907
-14.658067 -1.9176182 -18.438501
-8.7226957 -1.7969741 -19.928749
-13.767913 1.8011652 -17.318768
-8.4151123 1.7336085 -19.226013
-12.724304 16.200741 1.6759198
-15.659296 12.525441 4.8936843
-11.869375 16.469538 4.4261547
-14.42506 14.596926 0
-20.762865 3.1495009 11.629154
-18.315761 8.3257279 8.1396175
-9.5395578 15.926256 9.8429673
-14.551622 12.378349 7.6502403
-10.786125 16.372901 7.2340503
-13.295977 14.423423 6.0790826
-17.703677 10.941474 -3.2962844
-17.703677 10.941474 3.2962844
-16.114495 12.810551 -1.6759198
-16.114495 12.810551 1.6759198
-22.291351 -28.381624 2.9359969
-25.401864 -20.318254 7.9383331
-19.080667 -26.47568 7.115285
-28.680278 -29.021986 0
-25.005561 -3.7930719 14.005462
-25.383003 -11.538258 11.280336
-13.577708 -22.667932 14.009552
-22.247604 -18.924943 11.696258
-16.12934 -24.483685 10.817644
-21.207708 -23.006037 9.6964219
-27.879403 -17.230418 -5.1909239
-27.879403 -17.230418 5.1909239
-28.351494 -22.538606 -2.9485771
-28.351494 -22.538606 2.9485771
-2.9906992 -11.042798 19.715975
-9.3282069 -9.1196875 20.521113
-5.2534189 -14.087803 19.547753
-2.8801009 -7.8366349 20.220144
-20.331616 -2.1032468 15.968754
-15.519018 -6.0632735 19.401863
-23.004627 -6.1824466 16.579126
-10.825539 -20.591399 17.516091
-12.681922 -12.291002 20.519781
-8.154003 -17.834178 19.346445
-15.133977 -19.060696 16.63385
-8.9622495 -13.362908 20.284352
-2.7630491 -1.7076583 20.508069
-8.8343317 -5.4599173 20.382456
-2.8141503 -4.6647401 20.47988
-5.912379 -6.7446915 20.513202
-22.786834 -14.083038 13.648928
-17.013486 -10.514913 20.000553
-22.961397 -10.14505 15.126489
-19.330316 -16.869142 15.348052
-20.348186 -8.5762097 18.757615
-16.429641 -14.948181 18.826694
-2.7805841 10.266973 18.330806
-7.8725288 7.6965491 17.318768
-4.5189596 12.118245 16.814861
-2.737141 7.447647 19.216474
-18.536365 1.9175333 14.558738
-12.901794 5.0407253 16.129812
-17.833113 4.7926128 12.852085
-16.888151 0 16.689308
-7.8528691 14.937045 12.706209
-9.6134513 9.3171166 15.554891
-6.2711877 13.716144 14.879218
-10.582352 13.32809 11.631131
-7.1554959 10.668999 16.195108
-2.7326032 1.6888417 20.282092
-7.9686664 4.9249067 18.385204
-2.7303299 4.5257993 19.86988
-5.5667239 0 20.140596
-5.4212854 6.1844644 18.809336
-15.890605 9.8209341 9.5182038
-12.509981 7.7315935 14.706365
-16.906266 7.4697074 11.137495
-13.291377 11.599092 10.553203
-15.046926 6.3418721 13.870742
-11.586925 10.542132 13.277434
-12.130145 -3.6543894 19.626987
-11.025051 3.3214631 17.838907
-14.658067 -1.9176182 18.438501
-8.7226957 -1.7969741 19.928749
-13.767913 1.8011652 17.318768
-8.4151123 1.7336085 19.226013
-24.628379 0 -10.856303
-28.47483 0 -3.9660869
-22.90401 3.2623834 -8.8768096
-26.869799 -3.8272593 -10.413813
-24.628379 0 10.856303
-28.47483 0 3.9660869
-22.90401 3.2623834 8.8768096
-26.869799 -3.8272593 10.413813
-19.5745 8.484141 -5.2434875
-25.4395 3.4274601 -2.1182868
-21.190512 6.1075953 -6.9673892
-20.107542 8.8009524 -1.8130959
-24.550312 3.3734704 -5.59187
-27.444189 -11.895086 -7.3515676
-28.906701 -3.8945956 -2.4069924
-27.143337 -7.8233372 -8.9246639
-28.816264 -12.612709 -2.5983609
-28.20157 -3.8751914 -6.4235237
-19.5745 8.484141 5.2434875
-25.4395 3.4274601 2.1182868
-21.190512 6.1075953 6.9673892
-20.107542 8.8009524 1.8130959
-24.550312 3.3734704 5.59187
-22.737496 6.2844894 0
-27.444189 -11.895086 7.3515676
-28.906701 -3.8945956 2.4069924
-27.143337 -7.8233372 8.9246639
-28.816264 -12.612709 2.5983609
-28.20157 -3.8751914 6.4235237
-29.021986 -8.0214796 0
-10.005985 19.016001 0
-7.6898819 21.332104 0
-1.8810678 27.140918 0
-5.0492492 23.972737 0
15.27101 29.021986 0
10.461961 29.021986 0
2.0114398 29.021986 0
6.1127456 29.021986 0
-15.27101 -29.021986 0
-10.461961 -29.021986 0
-2.0114398 -29.021986 0
-6.1127456 -29.021986 0
10.005985 -19.016001 0
7.6898819 -21.332104 0
1.8810678 -27.140918 0
5.0492492 -23.972737 0
-16.970135 -28.820444 2.2040667
-14.69979 -27.653805 6.2602476
-14.398088 -28.86719 2.1277777
-10.133543 -24.486346 13.089781
-12.376404 -26.110291 9.8454922
-9.6810145 -28.916676 2.0183167
-12.367336 -27.900029 6.1132317
-11.964664 -28.896585 2.0683365
-13.404772 -28.462222 4.1813754
-0.92536154 -13.025417 18.65294
-2.9760995 -16.12262 18.295418
-7.9584794 -22.845977 16.129997
-5.4178193 -19.785901 17.830226
-1.198018 -28.954463 1.9384338
-3.5798425 -28.362631 5.7923069
-3.2223934 -28.948489 1.9474012
-8.0477339 -24.979895 13.021507
-5.8921113 -27.057206 9.5336363
-9.1073167 -25.745557 11.423571
-7.4020915 -28.930194 1.9922473
-5.6451242 -28.292976 5.8381436
-5.2956918 -28.940703 1.9639441
-8.7565519 -28.626451 4.0039215
-4.4426079 -28.711569 3.9063686
-11.246591 -27.214544 8.015982
-6.8660528 -27.648194 7.8022618
-10.181486 -26.498694 9.7509053
-10.055005 -28.062279 6.0336969
-8.0091934 -26.808039 9.645849
-7.8068292 -28.189687 5.9426166
10.730808 -18.224171 1.3937082
9.8596422 -18.548335 4.1989581
9.6348415 -19.317204 1.4238558
7.4912779 -18.101668 9.6766935
8.7761113 -18.514814 6.9814412
7.2594279 -21.683525 1.5134596
8.7149373 -19.660418 4.307834
8.4762951 -20.471614 1.4653007
9.2007984 -19.535966 2.8700221
0.89996247 -12.667899 18.140959
2.6857841 -14.549876 16.510719
0 -14.090768 17.94054
6.0256887 -17.297619 12.212678
4.4103025 -16.106445 14.514454
-1.983584 -17.248237 17.453739
1.8397456 -15.997492 16.188092
-0.96055578 -15.619655 17.711387
0.92806133 -15.091261 17.112232
1.1483649 -27.754414 1.8580934
3.150589 -24.96171 5.09776
2.8963907 -26.019832 1.7503868
0 -28.509098 3.8410266
6.1764835 -19.171597 9.9937602
4.8032447 -22.057014 7.7718132
6.8804329 -19.450359 8.6303261
5.8950425 -23.040072 1.5866303
4.6905891 -23.508911 4.8509708
4.4744264 -24.452527 1.6593721
6.721409 -21.973271 3.0733552
3.8360117 -24.791275 3.3729908
-2.3675209 -27.906021 7.7130345
2.1352679 -25.168449 6.9563884
-1.1974303 -28.414087 5.8162705
1.1307755 -26.832421 5.4925086
8.1402163 -19.697727 5.8019206
5.4992642 -22.144415 6.249107
7.5404941 -19.625156 7.2216027
7.4708391 -20.850191 4.4830191
6.2160131 -20.805981 7.4862375
6.1293763 -22.132571 4.6657269
-6.7883411 -24.052556 14.865297
-2.1311279 -23.034388 14.236035
-5.7183175 -23.232873 16.363313
-5.766754 -25.267089 13.215219
5.2783391 -18.702294 11.558653
1.9191356 -20.743061 12.819917
4.4776632 -18.192236 12.813105
4.6198533 -20.241932 10.586956
-3.1330859 -19.101782 17.135875
-1.0501944 -21.107664 14.831951
-4.3530766 -21.050182 16.785147
-1.0030912 -18.334509 16.460523
-3.2470358 -22.146312 15.573905
-3.5702781 -27.187861 9.6624656
-1.1213902 -24.02375 12.604713
-4.6836214 -26.321458 11.465289
-1.1788687 -26.87629 9.5372483
-3.4724197 -25.497397 13.363683
2.764731 -16.855998 15.121221
0.99892983 -20.077307 14.107939
3.6336643 -17.571318 14.011145
0.9619614 -17.582738 15.785591
2.8034401 -19.120781 13.446267
0 -19.288261 15.333601
3.0786091 -23.443775 8.3318313
1.0558784 -22.620279 11.868345
3.8848929 -21.832688 9.5100386
1.0990777 -25.057185 8.8917257
2.913509 -21.393409 11.212703
0 -24.676987 10.800972
-10.730808 18.224171 1.3937082
-9.8596422 18.548335 4.1989581
-9.6348415 19.317204 1.4238558
-7.4912779 18.101668 9.6766935
-8.7761113 18.514814 6.9814412
-7.2594279 21.683525 1.5134596
-8.7149373 19.660418 4.307834
-8.4762951 20.471614 1.4653007
-9.2007984 19.535966 2.8700221
-0.89996247 12.667899 18.140959
-2.6857841 14.549876 16.510719
-6.0256887 17.297619 12.212678
-4.4103025 16.106445 14.514454
-1.1483649 27.754414 1.8580934
-3.150589 24.96171 5.09776
-2.8963907 26.019832 1.7503868
-6.1764835 19.171597 9.9937602
-4.8032447 22.057014 7.7718132
-6.8804329 19.450359 8.6303261
-5.8950425 23.040072 1.5866303
-4.6905891 23.508911 4.8509708
-4.4744264 24.452527 1.6593721
-6.721409 21.973271 3.0733552
-3.8360117 24.791275 3.3729908
-8.1402163 19.697727 5.8019206
-5.4992642 22.144415 6.249107
-7.5404941 19.625156 7.2216027
-7.4708391 20.850191 4.4830191
-6.2160131 20.805981 7.4862375
-6.1293763 22.132571 4.6657269
16.970135 28.820444 2.2040667
14.69979 27.653805 6.2602476
14.398088 28.86719 2.1277777
10.133543 24.486346 13.089781
12.376404 26.110291 9.8454922
9.6810145 28.916676 2.0183167
12.367336 27.900029 6.1132317
11.964664 28.896585 2.0683365
13.404772 28.462222 4.1813754
0.92536154 13.025417 18.65294
2.9760995 16.12262 18.295418
0 14.090768 17.94054
7.9584794 22.845977 16.129997
5.4178193 19.785901 17.830226
-1.8397456 15.997492 16.188092
1.983584 17.248237 17.453739
-0.92806133 15.091261 17.112232
0.96055578 15.619655 17.711387
1.198018 28.954463 1.9384338
3.5798425 28.362631 5.7923069
3.2223934 28.948489 1.9474012
0 28.509098 3.8410266
8.0477339 24.979895 13.021507
5.8921113 27.057206 9.5336363
9.1073167 25.745557 11.423571
7.4020915 28.930194 1.9922473
5.6451242 28.292976 5.8381436
5.2956918 28.940703 1.9639441
8.7565519 28.626451 4.0039215
4.4426079 28.711569 3.9063686
-2.1352679 25.168449 6.9563884
2.3675209 27.906021 7.7130345
-1.1307755 26.832421 5.4925086
1.1974303 28.414087 5.8162705
11.246591 27.214544 8.015982
6.8660528 27.648194 7.8022618
10.181486 26.498694 9.7509053
10.055005 28.062279 6.0336969
8.0091934 26.808039 9.645849
7.8068292 28.189687 5.9426166
-5.2783391 18.702294 11.558653
-1.9191356 20.743061 12.819917
-4.4776632 18.192236 12.813105
-4.6198533 20.241932 10.586956
6.7883411 24.052556 14.865297
2.1311279 23.034388 14.236035
5.7183175 23.232873 16.363313
5.766754 25.267089 13.215219
-2.764731 16.855998 15.121221
-0.99892983 20.077307 14.107939
-3.6336643 17.571318 14.011145
-0.9619614 17.582738 15.785591
-2.8034401 19.120781 13.446267
-3.0786091 23.443775 8.3318313
-1.0558784 22.620279 11.868345
-3.8848929 21.832688 9.5100386
-1.0990777 25.057185 8.8917257
-2.913509 21.393409 11.212703
3.1330859 19.101782 17.135875
1.0501944 21.107664 14.831951
4.3530766 21.050182 16.785147
1.0030912 18.334509 16.460523
3.2470358 22.146312 15.573905
0 19.288261 15.333601
3.5702781 27.187861 9.6624656
1.1213902 24.02375 12.604713
4.6836214 26.321458 11.465289
1.1788687 26.87629 9.5372483
3.4724197 25.497397 13.363683
0 24.676987 10.800972
0 -10.120415 19.233472
0 -7.168504 19.885776
0 -1.4205978 20.497043
0 -4.2752089 20.297762
0 10.120415 19.233472
0 7.168504 19.885776
0 1.4205978 20.497043
0 4.2752089 20.297762
-16.970135 -28.820444 -2.2040667
-14.69979 -27.653805 -6.2602476
-14.398088 -28.86719 -2.1277777
-10.133543 -24.486346 -13.089781
-12.376404 -26.110291 -9.8454922
-9.6810145 -28.916676 -2.0183167
-12.367336 -27.900029 -6.1132317
-11.964664 -28.896585 -2.0683365
-13.404772 -28.462222 -4.1813754
-0.92536154 -13.025417 -18.65294
-2.9760995 -16.12262 -18.295418
-7.9584794 -22.845977 -16.129997
-5.4178193 -19.785901 -17.830226
-1.198018 -28.954463 -1.9384338
-3.5798425 -28.362631 -5.7923069
-3.2223934 -28.948489 -1.9474012
-8.0477339 -24.979895 -13.021507
-5.8921113 -27.057206 -9.5336363
-9.1073167 -25.745557 -11.423571
-7.4020915 -28.930194 -1.9922473
-5.6451242 -28.292976 -5.8381436
-5.2956918 -28.940703 -1.9639441
-8.7565519 -28.626451 -4.0039215
-4.4426079 -28.711569 -3.9063686
-11.246591 -27.214544 -8.015982
-6.8660528 -27.648194 -7.8022618
-10.181486 -26.498694 -9.7509053
-10.055005 -28.062279 -6.0336969
-8.0091934 -26.808039 -9.645849
-7.8068292 -28.189687 -5.9426166
10.730808 -18.224171 -1.3937082
9.8596422 -18.548335 -4.1989581
9.6348415 -19.317204 -1.4238558
7.4912779 -18.101668 -9.6766935
8.7761113 -18.514814 -6.9814412
7.2594279 -21.683525 -1.5134596
8.7149373 -19.660418 -4.307834
8.4762951 -20.471614 -1.4653007
9.2007984 -19.535966 -2.8700221
0.89996247 -12.667899 -18.140959
2.6857841 -14.549876 -16.510719
0 -14.090768 -17.94054
6.0256887 -17.297619 -12.212678
4.4103025 -16.106445 -14.514454
-1.983584 -17.248237 -17.453739
1.8397456 -15.997492 -16.188092
-0.96055578 -15.619655 -17.711387
0.92806133 -15.091261 -17.112232
1.1483649 -27.754414 -1.8580934
3.150589 -24.96171 -5.09776
2.8963907 -26.019832 -1.7503868
0 -28.509098 -3.8410266
6.1764835 -19.171597 -9.9937602
4.8032447 -22.057014 -7.7718132
6.8804329 -19.450359 -8.6303261
5.8950425 -23.040072 -1.5866303
4.6905891 -23.508911 -4.8509708
4.4744264 -24.452527 -1.6593721
6.721409 -21.973271 -3.0733552
3.8360117 -24.791275 -3.3729908
-2.3675209 -27.906021 -7.7130345
2.1352679 -25.168449 -6.9563884
-1.1974303 -28.414087 -5.8162705
1.1307755 -26.832421 -5.4925086
8.1402163 -19.697727 -5.8019206
5.4992642 -22.144415 -6.249107
7.5404941 -19.625156 -7.2216027
7.4708391 -20.850191 -4.4830191
6.2160131 -20.805981 -7.4862375
6.1293763 -22.132571 -4.6657269
-6.7883411 -24.052556 -14.865297
-2.1311279 -23.034388 -14.236035
-5.7183175 -23.232873 -16.363313
-5.766754 -25.267089 -13.215219
5.2783391 -18.702294 -11.558653
1.9191356 -20.743061 -12.819917
4.4776632 -18.192236 -12.813105
4.6198533 -20.241932 -10.586956
-3.1330859 -19.101782 -17.135875
-1.0501944 -21.107664 -14.831951
-4.3530766 -21.050182 -16.785147
-1.0030912 -18.334509 -16.460523
-3.2470358 -22.146312 -15.573905
-3.5702781 -27.187861 -9.6624656
-1.1213902 -24.02375 -12.604713
-4.6836214 -26.321458 -11.465289
-1.1788687 -26.87629 -9.5372483
-3.4724197 -25.497397 -13.363683
2.764731 -16.855998 -15.121221
0.99892983 -20.077307 -14.107939
3.6336643 -17.571318 -14.011145
0.9619614 -17.582738 -15.785591
2.8034401 -19.120781 -13.446267
0 -19.288261 -15.333601
3.0786091 -23.443775 -8.3318313
1.0558784 -22.620279 -11.868345
3.8848929 -21.832688 -9.5100386
1.0990777 -25.057185 -8.8917257
2.913509 -21.393409 -11.212703
0 -24.676987 -10.800972
-10.730808 18.224171 -1.3937082
-9.8596422 18.548335 -4.1989581
-9.6348415 19.317204 -1.4238558
-7.4912779 18.101668 -9.6766935
-8.7761113 18.514814 -6.9814412
-7.2594279 21.683525 -1.5134596
-8.7149373 19.660418 -4.307834
-8.4762951 20.471614 -1.4653007
-9.2007984 19.535966 -2.8700221
-0.89996247 12.667899 -18.140959
-2.6857841 14.549876 -16.510719
-6.0256887 17.297619 -12.212678
-4.4103025 16.106445 -14.514454
-1.1483649 27.754414 -1.8580934
-3.150589 24.96171 -5.09776
-2.8963907 26.019832 -1.7503868
-6.1764835 19.171597 -9.9937602
-4.8032447 22.057014 -7.7718132
-6.8804329 19.450359 -8.6303261
-5.8950425 23.040072 -1.5866303
-4.6905891 23.508911 -4.8509708
-4.4744264 24.452527 -1.6593721
-6.721409 21.973271 -3.0733552
-3.8360117 24.791275 -3.3729908
-8.1402163 19.697727 -5.8019206
-5.4992642 22.144415 -6.249107
-7.5404941 19.625156 -7.2216027
-7.4708391 20.850191 -4.4830191
-6.2160131 20.805981 -7.4862375
-6.1293763 22.132571 -4.6657269
16.970135 28.820444 -2.2040667
14.69979 27.653805 -6.2602476
14.398088 28.86719 -2.1277777
10.133543 24.486346 -13.089781
12.376404 26.110291 -9.8454922
9.6810145 28.916676 -2.0183167
12.367336 27.900029 -6.1132317
11.964664 28.896585 -2.0683365
13.404772 28.462222 -4.1813754
0.92536154 13.025417 -18.65294
2.9760995 16.12262 -18.295418
0 14.090768 -17.94054
7.9584794 22.845977 -16.129997
5.4178193 19.785901 -17.830226
-1.8397456 15.997492 -16.188092
1.983584 17.248237 -17.453739
-0.92806133 15.091261 -17.112232
0.96055578 15.619655 -17.711387
1.198018 28.954463 -1.9384338
3.5798425 28.362631 -5.7923069
3.2223934 28.948489 -1.9474012
0 28.509098 -3.8410266
8.0477339 24.979895 -13.021507
5.8921113 27.057206 -9.5336363
9.1073167 25.745557 -11.423571
7.4020915 28.930194 -1.9922473
5.6451242 28.292976 -5.8381436
5.2956918 28.940703 -1.9639441
8.7565519 28.626451 -4.0039215
4.4426079 28.711569 -3.9063686
-2.1352679 25.168449 -6.9563884
2.3675209 27.906021 -7.7130345
-1.1307755 26.832421 -5.4925086
1.1974303 28.414087 -5.8162705
11.246591 27.214544 -8.015982
6.8660528 27.648194 -7.8022618
10.181486 26.498694 -9.7509053
10.055005 28.062279 -6.0336969
8.0091934 26.808039 -9.645849
7.8068292 28.189687 -5.9426166
-5.2783391 18.702294 -11.558653
-1.9191356 20.743061 -12.819917
-4.4776632 18.192236 -12.813105
-4.6198533 20.241932 -10.586956
6.7883411 24.052556 -14.865297
2.1311279 23.034388 -14.236035
5.7183175 23.232873 -16.363313
5.766754 25.267089 -13.215219
-2.764731 16.855998 -15.121221
-0.99892983 20.077307 -14.107939
-3.6336643 17.571318 -14.011145
-0.9619614 17.582738 -15.785591
-2.8034401 19.120781 -13.446267
-3.0786091 23.443775 -8.3318313
-1.0558784 22.620279 -11.868345
-3.8848929 21.832688 -9.5100386
-1.0990777 25.057185 -8.8917257
-2.913509 21.393409 -11.212703
3.1330859 19.101782 -17.135875
1.0501944 21.107664 -14.831951
4.3530766 21.050182 -16.785147
1.0030912 18.334509 -16.460523
3.2470358 22.146312 -15.573905
0 19.288261 -15.333601
3.5702781 27.187861 -9.6624656
1.1213902 24.02375 -12.604713
4.6836214 26.321458 -11.465289
1.1788687 26.87629 -9.5372483
3.4724197 25.497397 -13.363683
0 24.676987 -10.800972
0 -10.120415 -19.233472
0 -7.168504 -19.885776
0 -1.4205978 -20.497043
0 -4.2752089 -20.297762
0 10.120415 -19.233472
0 7.168504 -19.885776
0 1.4205978 -20.497043
0 4.2752089 -20.297762
20.184915 28.905639 -1.433992
23.90064 27.121658 -4.4118561
18.923352 28.361752 -3.6517
25.461009 17.976295 -8.8694356
25.227552 22.734014 -6.9078642
16.236825 26.739656 -7.6393663
22.011344 26.007451 -6.5013578
17.570959 27.588738 -5.7292517
20.667893 27.452142 -5.12145
23.33873 1.7848482 -13.742377
25.180811 5.7004131 -13.385233
25.431763 13.595177 -10.524798
25.322736 9.5485263 -12.003099
11.303569 23.213606 -14.346797
15.85042 22.002539 -13.598317
12.458676 24.072607 -12.804538
24.005794 17.440796 -10.779005
20.248965 20.167648 -12.464292
23.813045 19.630732 -9.8912572
14.902207 25.821643 -9.5066425
17.192651 22.919903 -12.015288
13.661689 24.947848 -11.18749
17.565725 25.460765 -9.0330801
14.82849 23.560621 -12.451173
22.934297 24.014396 -7.8082839
19.602034 22.066635 -11.447189
23.483825 21.864931 -8.9035861
20.299054 24.901258 -8.4787766
21.814896 20.998232 -10.75434
18.692968 23.869783 -10.316704
11.923009 -17.074245 -0.84704339
13.494397 -15.312997 -2.4909517
11.545853 -17.304578 -2.2280402
16.343616 -11.539121 -5.6933583
14.958277 -13.479773 -4.0959087
10.633859 -17.512398 -5.0031917
13.066036 -15.438143 -3.8592362
11.114546 -17.451311 -3.6240497
12.326303 -16.372419 -3.0544256
21.32457 -1.6308137 -12.556393
20.175923 -4.5674102 -10.724811
17.670551 -9.4462292 -7.3128624
18.949233 -7.145249 -8.982028
8.193376 -16.826349 -10.399256
10.834508 -15.03977 -9.2950893
8.867988 -17.134694 -9.1141705
15.77627 -11.461845 -7.0838101
13.327764 -13.274241 -8.2039322
15.142365 -12.482893 -6.2897048
10.084749 -17.474242 -6.433416
11.453819 -15.26934 -8.0046375
9.5023298 -17.35237 -7.7814117
11.358281 -16.463341 -5.840935
10.189492 -16.189831 -8.5559034
13.800558 -14.4505 -4.698582
12.726003 -14.326068 -7.4317269
14.481164 -13.482883 -5.4903446
12.59777 -15.453938 -5.2620027
13.934662 -13.413003 -6.8695303
12.05733 -15.396477 -6.6544764
1.4201135 -10.934114 -18.569447
4.0946713 -9.6147646 -18.087662
2.3025926 -11.932188 -17.883605
1.4021108 -9.4876993 -19.022194
9.1111674 -7.053472 -17.043769
6.6301397 -8.3345033 -17.583161
4.0544049 -13.72681 -16.218879
4.9574643 -10.53667 -17.352341
3.1890191 -12.869462 -17.093871
3.6588653 -11.221321 -17.618963
1.3771157 -6.6054437 -19.730109
4.0720145 -8.2378642 -18.584167
1.3892549 -8.0363945 -19.409183
2.7626598 -8.8566133 -18.805161
20.137964 -0.99903273 -14.062415
17.027739 -2.7698873 -15.005493
19.726719 -2.5399016 -13.161939
11.615844 -5.7312131 -16.452284
14.224355 -4.3221544 -15.784528
18.771037 -5.3627776 -11.398129
16.769664 -4.1920904 -14.192965
19.263787 -4.0004399 -12.268891
18.204463 -3.3962103 -13.705593
7.3361406 -16.338232 -11.870125
8.3348442 -13.540438 -13.486061
6.5740977 -15.827036 -13.047315
8.7290148 -15.487197 -11.31041
9.9941698 -7.8742166 -16.170906
9.2117219 -10.737334 -14.904879
8.7657998 -8.5290271 -16.479755
4.9468575 -14.529787 -15.214072
7.5467033 -12.922887 -14.547706
5.7706487 -15.220485 -14.171238
5.4106896 -12.953742 -15.890615
7.081389 -14.364412 -13.826664
11.375654 -13.788966 -10.222954
9.7175864 -12.77833 -12.96552
10.07915 -14.633861 -10.75971
9.2392077 -14.130201 -12.168533
6.2813599 -9.8463919 -17.061232
7.9920212 -11.435767 -15.245273
7.5238175 -9.1877667 -16.777941
5.8561796 -11.387925 -16.506309
8.3914568 -9.9936474 -15.878659
6.7269091 -12.188572 -15.564065
1.3698636 -0.84662225 -20.461706
4.0810721 -2.5222413 -19.983392
1.3696394 -2.2663625 -20.35995
9.187569 -5.6782299 -17.625035
6.7063816 -4.1447718 -19.033236
7.9315778 -6.3233634 -17.875574
1.3773585 -5.1175039 -20.001155
4.0702526 -3.9356828 -19.725373
1.3712152 -3.6974236 -20.206244
2.7375506 -5.9870065 -19.572401
2.7348687 -3.1102925 -20.101116
5.4053905 -7.5838762 -18.351493
5.4221786 -4.7715606 -19.214101
6.6670764 -6.9614809 -18.118196
4.0891323 -6.8144366 -19.018252
6.6937179 -5.557964 -18.603386
4.0897286 -5.3726859 -19.400237
16.504024 -10.200048 -8.036424
15.178417 -9.3807773 -10.934388
17.094054 -9.0925538 -8.8469552
15.234029 -11.12552 -8.5863222
11.46561 -7.0861364 -15.781451
13.481555 -8.3320592 -13.535913
12.72137 -6.4098648 -15.431648
11.057254 -8.5336366 -15.140553
18.217136 -6.7069241 -10.513488
15.628011 -8.1926635 -11.722865
17.669689 -7.9237084 -9.6760965
17.383105 -6.1672527 -11.992838
16.408231 -8.6713219 -10.326947
12.708116 -12.894277 -9.6641903
13.845732 -10.26504 -11.422485
13.964772 -12.02607 -9.1310399
11.944556 -12.468478 -11.096834
14.584282 -10.723257 -10.045002
15.338253 -4.9872349 -14.648382
14.724555 -7.6384443 -13.079984
14.016256 -5.7075389 -15.054029
16.414761 -5.5891591 -13.381016
13.765159 -7.0498889 -14.300515
16.030134 -6.9283476 -12.553561
10.195782 -11.345418 -13.752316
12.974618 -9.7244058 -12.787298
10.632456 -9.9599441 -14.460787
11.099761 -11.947707 -12.471766
12.059208 -9.1562003 -14.003252
12.480389 -11.107434 -11.955967
1.4755603 11.361025 -19.294471
4.5411388 10.663122 -20.059873
2.4693192 12.796177 -19.178525
1.4486158 9.802386 -19.653119
10.930593 8.4619926 -20.44727
7.7200499 9.7045891 -20.473608
4.7269139 16.003692 -18.909124
5.7170235 12.151048 -20.010984
3.5541323 14.342896 -19.050961
4.077968 12.506661 -19.637118
1.4078608 6.752915 -20.170598
4.4410954 8.9845312 -20.268607
1.4276173 8.2583084 -19.945141
2.9386649 9.4208554 -20.003211
21.174917 1.0504754 -14.786523
19.329596 3.1443283 -17.033977
22.597575 2.9095369 -15.077414
19.418225 0 -15.251364
14.046645 6.9305613 -19.895188
16.904676 5.1365855 -18.758834
24.157988 6.9017988 -14.669188
20.546634 5.1362596 -17.389595
24.111955 5.0072411 -15.356635
21.659934 4.0408602 -16.307114
16.240558 -1.8457083 -16.04934
17.536662 1.9930079 -17.330183
17.771485 -0.96381509 -15.672655
18.541597 1.0055812 -16.351816
9.9670456 22.19749 -16.127019
11.616911 18.872345 -18.796556
8.8652694 21.342996 -17.594501
12.185155 21.619151 -15.788621
12.628928 9.9500923 -20.434034
12.649983 14.745027 -20.468103
10.91517 10.620341 -20.520584
6.0953777 17.903192 -18.746349
10.299857 17.637356 -19.854934
7.5584769 19.936006 -18.561687
6.6243327 15.859327 -19.454955
9.7143254 19.705254 -18.967567
16.580948 20.098548 -14.900794
13.728578 18.052662 -18.317115
14.410911 20.923122 -15.38396
12.997628 19.878231 -17.118575
7.4742195 11.716268 -20.30124
10.623386 15.200981 -20.264764
9.1800795 11.210324 -20.471367
7.0845545 13.776623 -19.968624
10.817653 12.883081 -20.469608
8.6085538 15.597948 -19.917631
1.3736516 0.84896341 -20.518289
4.1846344 2.5862463 -20.490496
1.3798477 2.2832542 -20.511698
2.7524156 0 -20.429144
10.593036 6.5468562 -20.321222
7.1983005 4.4487944 -20.42934
9.0872962 7.2447472 -20.480243
1.4010069 5.2053683 -20.344563
4.2345105 4.0945101 -20.521404
1.3880271 3.7427562 -20.453984
2.8507423 6.2345559 -20.381676
2.7918402 3.1750847 -20.519854
5.4955968 -1.686877 -19.883256
5.6207167 1.7252826 -20.335944
4.1381521 -0.85194605 -20.216016
4.1732351 0.85916879 -20.387406
6.0234201 8.4509848 -20.449726
5.7895049 5.0948107 -20.515763
7.5509906 7.884427 -20.520289
4.389899 7.3156567 -20.417096
7.3770586 6.1253591 -20.502548
4.321408 5.6770437 -20.499243
24.12962 14.912926 -11.749611
21.449543 13.256547 -15.452048
24.177809 12.860497 -12.513122
22.569517 16.48268 -12.720808
14.630461 9.042122 -20.137603
18.794018 11.615342 -18.869796
16.251419 8.1885364 -19.713772
14.884082 11.487061 -20.380578
24.181721 8.9028792 -13.955774
21.602886 11.324869 -16.204732
24.19293 10.848959 -13.248288
22.992149 8.1572536 -15.862593
22.890437 12.096998 -14.406692
18.783112 19.058265 -14.284066
19.767008 14.654994 -16.307433
20.757892 17.876114 -13.572806
17.283018 18.0411 -16.056417
21.148085 15.549366 -14.565856
19.222136 6.2500799 -18.357579
20.26647 10.513344 -18.002928
17.799446 7.2480858 -19.117328
21.750327 7.4058974 -17.730472
18.746948 9.6013344 -19.476055
21.684284 9.372115 -16.981454
14.425841 16.052442 -19.457921
18.335718 13.742521 -18.070997
15.032604 14.081779 -20.445257
15.827663 17.036789 -17.784069
16.976799 12.889982 -19.7136
17.863867 15.898682 -17.113233
10.69916 -4.8858455 -17.311604
11.333016 -1.6965473 -18.337205
11.996255 -4.192207 -17.03246
9.4788363 -4.1363005 -18.123241
12.339965 5.6351306 -19.966483
11.888787 1.779746 -19.236462
13.750094 4.8051031 -19.522587
10.507403 4.5851385 -20.089829
14.725471 -2.692373 -16.414846
12.730443 -0.90139451 -18.116963
13.342276 -3.4601989 -16.732491
15.281285 -0.93122934 -17.021017
12.369731 -2.5789909 -17.589931
6.8963228 -2.5481892 -19.404598
9.9832675 -0.88817078 -19.027447
8.200514 -3.3499463 -18.826345
7.0090122 -0.86636156 -19.751635
9.7458194 -2.532354 -18.594651
16.344317 2.9883592 -18.219413
13.092175 0.92700742 -18.631752
15.09988 3.9160178 -18.936696
15.825383 0.96438625 -17.627059
13.42872 2.7997817 -19.095828
14.221227 0 -17.888996
7.2034543 2.6616742 -20.268792
10.20034 0.90748287 -19.441174
8.7942101 3.5924738 -20.189324
7.1123141 0.87913037 -20.042743
10.372623 2.6952226 -19.790568
8.5806372 0 -19.604187
20.184915 28.905639 1.433992
23.90064 27.121658 4.4118561
18.923352 28.361752 3.6517
22.794301 29.021986 0
25.461009 17.976295 8.8694356
25.227552 22.734014 6.9078642
16.236825 26.739656 7.6393663
22.011344 26.007451 6.5013578
17.570959 27.588738 5.7292517
20.667893 27.452142 5.12145
26.687033 27.004993 -3.0690656
26.687033 27.004993 3.0690656
25.306978 28.696004 -1.5562933
25.306978 28.696004 1.5562933
23.33873 1.7848482 13.742377
25.180811 5.7004131 13.385233
25.431763 13.595177 10.524798
25.322736 9.5485263 12.003099
11.303569 23.213606 14.346797
15.85042 22.002539 13.598317
12.458676 24.072607 12.804538
24.005794 17.440796 10.779005
20.248965 20.167648 12.464292
23.813045 19.630732 9.8912572
14.902207 25.821643 9.5066425
17.192651 22.919903 12.015288
13.661689 24.947848 11.18749
17.565725 25.460765 9.0330801
14.82849 23.560621 12.451173
22.934297 24.014396 7.8082839
19.602034 22.066635 11.447189
23.483825 21.864931 8.9035861
20.299054 24.901258 8.4787766
21.814896 20.998232 10.75434
18.692968 23.869783 10.316704
26.742365 16.52769 -7.5474844
28.70922 17.743274 -2.65616
26.859372 18.917518 -6.6109093
26.742365 16.52769 7.5474844
28.70922 17.743274 2.65616
26.859372 18.917518 6.6109093
26.986537 24.209151 -4.4263482
28.903301 20.309796 -1.4380598
26.957466 21.49554 -5.5746746
28.649789 25.721469 -1.5674459
28.104926 19.764169 -4.1206726
26.986537 24.209151 4.4263482
28.903301 20.309796 1.4380598
26.957466 21.49554 5.5746746
28.649789 25.721469 1.5674459
28.104926 19.764169 4.1206726
29.021986 23.071627 0
11.923009 -17.074245 0.84704339
13.494397 -15.312997 2.4909517
11.545853 -17.304578 2.2280402
12.766949 -16.255037 0
16.343616 -11.539121 5.6933583
14.958277 -13.479773 4.0959087
10.633859 -17.512398 5.0031917
13.066036 -15.438143 3.8592362
11.114546 -17.451311 3.6240497
12.326303 -16.372419 3.0544256
14.378158 -14.549465 -1.6535188
14.378158 -14.549465 1.6535188
13.589056 -15.408857 -0.83568082
13.589056 -15.408857 0.83568082
21.32457 -1.6308137 12.556393
20.175923 -4.5674102 10.724811
17.670551 -9.4462292 7.3128624
18.949233 -7.145249 8.982028
8.193376 -16.826349 10.399256
10.834508 -15.03977 9.2950893
8.867988 -17.134694 9.1141705
15.77627 -11.461845 7.0838101
13.327764 -13.274241 8.2039322
15.142365 -12.482893 6.2897048
10.084749 -17.474242 6.433416
11.453819 -15.26934 8.0046375
9.5023298 -17.35237 7.7814117
11.358281 -16.463341 5.840935
10.189492 -16.189831 8.5559034
13.800558 -14.4505 4.698582
12.726003 -14.326068 7.4317269
14.481164 -13.482883 5.4903446
12.59777 -15.453938 5.2620027
13.934662 -13.413003 6.8695303
12.05733 -15.396477 6.6544764
17.414561 -10.76279 -4.9149029
17.878215 -11.049344 -1.6540818
16.684104 -11.750902 -4.1064659
17.414561 -10.76279 4.9149029
17.878215 -11.049344 1.6540818
16.684104 -11.750902 4.1064659
15.185129 -13.622314 -2.490674
17.030342 -11.966895 -0.84733057
15.937176 -12.708102 -3.2957316
15.27983 -13.718066 -0.83596803
16.914524 -11.894766 -2.4799645
15.185129 -13.622314 2.490674
17.030342 -11.966895 0.84733057
15.937176 -12.708102 3.2957316
15.27983 -13.718066 0.83596803
16.914524 -11.894766 2.4799645
16.168502 -12.853484 0
1.4201135 -10.934114 18.569447
4.0946713 -9.6147646 18.087662
2.3025926 -11.932188 17.883605
1.4021108 -9.4876993 19.022194
9.1111674 -7.053472 17.043769
6.6301397 -8.3345033 17.583161
4.0544049 -13.72681 16.218879
4.9574643 -10.53667 17.352341
3.1890191 -12.869462 17.093871
3.6588653 -11.221321 17.618963
1.3771157 -6.6054437 19.730109
4.0720145 -8.2378642 18.584167
1.3892549 -8.0363945 19.409183
2.7626598 -8.8566133 18.805161
20.137964 -0.99903273 14.062415
17.027739 -2.7698873 15.005493
19.726719 -2.5399016 13.161939
11.615844 -5.7312131 16.452284
14.224355 -4.3221544 15.784528
18.771037 -5.3627776 11.398129
16.769664 -4.1920904 14.192965
19.263787 -4.0004399 12.268891
18.204463 -3.3962103 13.705593
7.3361406 -16.338232 11.870125
8.3348442 -13.540438 13.486061
6.5740977 -15.827036 13.047315
8.7290148 -15.487197 11.31041
9.9941698 -7.8742166 16.170906
9.2117219 -10.737334 14.904879
8.7657998 -8.5290271 16.479755
4.9468575 -14.529787 15.214072
7.5467033 -12.922887 14.547706
5.7706487 -15.220485 14.171238
5.4106896 -12.953742 15.890615
7.081389 -14.364412 13.826664
11.375654 -13.788966 10.222954
9.7175864 -12.77833 12.96552
10.07915 -14.633861 10.75971
9.2392077 -14.130201 12.168533
6.2813599 -9.8463919 17.061232
7.9920212 -11.435767 15.245273
7.5238175 -9.1877667 16.777941
5.8561796 -11.387925 16.506309
8.3914568 -9.9936474 15.878659
6.7269091 -12.188572 15.564065
1.3698636 -0.84662225 20.461706
4.0810721 -2.5222413 19.983392
1.3696394 -2.2663625 20.35995
9.187569 -5.6782299 17.625035
6.7063816 -4.1447718 19.033236
7.9315778 -6.3233634 17.875574
1.3773585 -5.1175039 20.001155
4.0702526 -3.9356828 19.725373
1.3712152 -3.6974236 20.206244
2.7375506 -5.9870065 19.572401
2.7348687 -3.1102925 20.101116
5.4053905 -7.5838762 18.351493
5.4221786 -4.7715606 19.214101
6.6670764 -6.9614809 18.118196
4.0891323 -6.8144366 19.018252
6.6937179 -5.557964 18.603386
4.0897286 -5.3726859 19.400237
16.504024 -10.200048 8.036424
15.178417 -9.3807773 10.934388
17.094054 -9.0925538 8.8469552
15.234029 -11.12552 8.5863222
11.46561 -7.0861364 15.781451
13.481555 -8.3320592 13.535913
12.72137 -6.4098648 15.431648
11.057254 -8.5336366 15.140553
18.217136 -6.7069241 10.513488
15.628011 -8.1926635 11.722865
17.669689 -7.9237084 9.6760965
17.383105 -6.1672527 11.992838
16.408231 -8.6713219 10.326947
12.708116 -12.894277 9.6641903
13.845732 -10.26504 11.422485
13.964772 -12.02607 9.1310399
11.944556 -12.468478 11.096834
14.584282 -10.723257 10.045002
15.338253 -4.9872349 14.648382
14.724555 -7.6384443 13.079984
14.016256 -5.7075389 15.054029
16.414761 -5.5891591 13.381016
13.765159 -7.0498889 14.300515
16.030134 -6.9283476 12.553561
10.195782 -11.345418 13.752316
12.974618 -9.7244058 12.787298
10.632456 -9.9599441 14.460787
11.099761 -11.947707 12.471766
12.059208 -9.1562003 14.003252
12.480389 -11.107434 11.955967
1.4755603 11.361025 19.294471
4.5411388 10.663122 20.059873
2.4693192 12.796177 19.178525
1.4486158 9.802386 19.653119
10.930593 8.4619926 20.44727
7.7200499 9.7045891 20.473608
4.7269139 16.003692 18.909124
5.7170235 12.151048 20.010984
3.5541323 14.342896 19.050961
4.077968 12.506661 19.637118
1.4078608 6.752915 20.170598
4.4410954 8.9845312 20.268607
1.4276173 8.2583084 19.945141
2.9386649 9.4208554 20.003211
21.174917 1.0504754 14.786523
19.329596 3.1443283 17.033977
22.597575 2.9095369 15.077414
19.418225 0 15.251364
14.046645 6.9305613 19.895188
16.904676 5.1365855 18.758834
24.157988 6.9017988 14.669188
20.546634 5.1362596 17.389595
24.111955 5.0072411 15.356635
21.659934 4.0408602 16.307114
16.240558 -1.8457083 16.04934
17.536662 1.9930079 17.330183
17.771485 -0.96381509 15.672655
18.541597 1.0055812 16.351816
9.9670456 22.19749 16.127019
11.616911 18.872345 18.796556
8.8652694 21.342996 17.594501
12.185155 21.619151 15.788621
12.628928 9.9500923 20.434034
12.649983 14.745027 20.468103
10.91517 10.620341 20.520584
6.0953777 17.903192 18.746349
10.299857 17.637356 19.854934
7.5584769 19.936006 18.561687
6.6243327 15.859327 19.454955
9.7143254 19.705254 18.967567
16.580948 20.098548 14.900794
13.728578 18.052662 18.317115
14.410911 20.923122 15.38396
12.997628 19.878231 17.118575
7.4742195 11.716268 20.30124
10.623386 15.200981 20.264764
9.1800795 11.210324 20.471367
7.0845545 13.776623 19.968624
10.817653 12.883081 20.469608
8.6085538 15.597948 19.917631
1.3736516 0.84896341 20.518289
4.1846344 2.5862463 20.490496
1.3798477 2.2832542 20.511698
2.7524156 0 20.429144
10.593036 6.5468562 20.321222
7.1983005 4.4487944 20.42934
9.0872962 7.2447472 20.480243
1.4010069 5.2053683 20.344563
4.2345105 4.0945101 20.521404
1.3880271 3.7427562 20.453984
2.8507423 6.2345559 20.381676
2.7918402 3.1750847 20.519854
5.4955968 -1.686877 19.883256
5.6207167 1.7252826 20.335944
4.1381521 -0.85194605 20.216016
4.1732351 0.85916879 20.387406
6.0234201 8.4509848 20.449726
5.7895049 5.0948107 20.515763
7.5509906 7.884427 20.520289
4.389899 7.3156567 20.417096
7.3770586 6.1253591 20.502548
4.321408 5.6770437 20.499243
24.12962 14.912926 11.749611
21.449543 13.256547 15.452048
24.177809 12.860497 12.513122
22.569517 16.48268 12.720808
14.630461 9.042122 20.137603
18.794018 11.615342 18.869796
16.251419 8.1885364 19.713772
14.884082 11.487061 20.380578
24.181721 8.9028792 13.955774
21.602886 11.324869 16.204732
24.19293 10.848959 13.248288
22.992149 8.1572536 15.862593
22.890437 12.096998 14.406692
18.783112 19.058265 14.284066
19.767008 14.654994 16.307433
20.757892 17.876114 13.572806
17.283018 18.0411 16.056417
21.148085 15.549366 14.565856
19.222136 6.2500799 18.357579
20.26647 10.513344 18.002928
17.799446 7.2480858 19.117328
21.750327 7.4058974 17.730472
18.746948 9.6013344 19.476055
21.684284 9.372115 16.981454
14.425841 16.052442 19.457921
18.335718 13.742521 18.070997
15.032604 14.081779 20.445257
15.827663 17.036789 17.784069
16.976799 12.889982 19.7136
17.863867 15.898682 17.113233
10.69916 -4.8858455 17.311604
11.333016 -1.6965473 18.337205
11.996255 -4.192207 17.03246
9.4788363 -4.1363005 18.123241
12.339965 5.6351306 19.966483
11.888787 1.779746 19.236462
13.750094 4.8051031 19.522587
10.507403 4.5851385 20.089829
14.725471 -2.692373 16.414846
12.730443 -0.90139451 18.116963
13.342276 -3.4601989 16.732491
15.281285 -0.93122934 17.021017
12.369731 -2.5789909 17.589931
6.8963228 -2.5481892 19.404598
9.9832675 -0.88817078 19.027447
8.200514 -3.3499463 18.826345
7.0090122 -0.86636156 19.751635
9.7458194 -2.532354 18.594651
16.344317 2.9883592 18.219413
13.092175 0.92700742 18.631752
15.09988 3.9160178 18.936696
15.825383 0.96438625 17.627059
13.42872 2.7997817 19.095828
14.221227 0 17.888996
7.2034543 2.6616742 20.268792
10.20034 0.90748287 19.441174
8.7942101 3.5924738 20.189324
7.1123141 0.87913037 20.042743
10.372623 2.6952226 19.790568
8.5806372 0 19.604187
23.282896 0 -12.251172
25.855893 0 -9.3206353
24.926892 1.8373414 -12.432786
22.590885 -1.6651562 -11.267656
28.883575 0 -2.0018469
27.814287 0 -5.8583744
26.140102 5.7276105 -11.587208
27.462623 1.9168272 -9.1942123
26.037861 3.8252133 -12.262978
26.439999 1.8925009 -10.947512
21.170871 -4.6387923 -9.3844806
24.80751 -1.7315065 -8.3053069
21.882226 -3.2147104 -10.30581
23.766532 -1.7011417 -9.8405598
23.282896 0 12.251172
25.855893 0 9.3206353
24.926892 1.8373414 12.432786
22.590885 -1.6651562 11.267656
28.883575 0 2.0018469
27.814287 0 5.8583744
26.140102 5.7276105 11.587208
27.462623 1.9168272 9.1942123
26.037861 3.8252133 12.262978
26.439999 1.8925009 10.947512
21.170871 -4.6387923 9.3844806
24.80751 -1.7315065 8.3053069
21.882226 -3.2147104 10.30581
23.766532 -1.7011417 9.8405598
26.599363 13.865702 -8.5694754
28.047438 9.8825457 -6.1077491
26.481615 11.750167 -9.367692
27.653879 14.46356 -6.3114955
28.995411 1.9411753 -1.1997123
28.737863 5.8689381 -3.6272032
28.83182 1.9395528 -3.2094064
26.256637 7.7338326 -10.850729
27.888178 7.8699848 -6.9256496
26.365995 9.7020751 -10.130499
27.005421 5.806461 -9.6763219
27.290972 9.8196138 -8.1534748
28.955936 15.192519 -1.3516168
28.646444 10.180841 -3.7618176
28.487885 14.931056 -3.8796859
28.26509 12.31191 -5.0294699
28.069922 1.9330056 -7.1819819
28.332543 5.846308 -5.6530187
28.519274 1.9353455 -5.2185769
27.605046 3.8610598 -8.444114
28.631428 3.895465 -4.4302075
27.747827 5.8494688 -7.6844608
18.27533 -9.5265548 -5.8877347
20.92468 -7.3728341 -4.5566621
18.994324 -8.4279787 -6.7191136
18.641514 -9.7499042 -4.254587
27.160131 -1.8183075 -1.1237759
23.839703 -4.8686202 -3.0089728
26.901633 -1.8097067 -2.9945481
20.432872 -6.0184557 -8.4440197
21.830464 -6.1605109 -5.4212989
19.71677 -7.2553145 -7.5756945
22.045747 -4.7400767 -7.8992192
20.381471 -7.3334939 -6.0891862
19.017023 -9.9777984 -0.88768422
21.21397 -7.5393668 -2.7857938
18.891567 -9.9014386 -2.5727901
19.912501 -8.6736298 -3.5432162
25.718453 -1.7710741 -6.5803339
23.425477 -4.8337545 -4.673942
26.41318 -1.792424 -4.833195
23.804219 -3.3294462 -7.2814784
25.085161 -3.4129757 -3.8814854
22.805718 -4.8076318 -6.3157971
26.599363 13.865702 8.5694754
28.047438 9.8825457 6.1077491
26.481615 11.750167 9.367692
27.653879 14.46356 6.3114955
28.995411 1.9411753 1.1997123
28.737863 5.8689381 3.6272032
28.83182 1.9395528 3.2094064
29.021986 3.9101279 0
26.256637 7.7338326 10.850729
27.888178 7.8699848 6.9256496
26.365995 9.7020751 10.130499
27.005421 5.806461 9.6763219
27.290972 9.8196138 8.1534748
28.955936 15.192519 1.3516168
28.646444 10.180841 3.7618176
28.487885 14.931056 3.8796859
29.021986 12.702752 0
28.26509 12.31191 5.0294699
28.069922 1.9330056 7.1819819
28.332543 5.846308 5.6530187
28.519274 1.9353455 5.2185769
27.605046 3.8610598 8.444114
28.631428 3.895465 4.4302075
27.747827 5.8494688 7.6844608
28.879329 7.9820503 -2.4500955
28.879329 7.9820503 2.4500955
28.989663 5.934089 -1.2216863
28.978875 10.283366 -1.2710939
28.989663 5.934089 1.2216863
28.978875 10.283366 1.2710939
18.27533 -9.5265548 5.8877347
20.92468 -7.3728341 4.5566621
18.994324 -8.4279787 6.7191136
18.641514 -9.7499042 4.254587
27.160131 -1.8183075 1.1237759
23.839703 -4.8686202 3.0089728
26.901633 -1.8097067 2.9945481
25.576119 -3.4458667 0
20.432872 -6.0184557 8.4440197
21.830464 -6.1605109 5.4212989
19.71677 -7.2553145 7.5756945
22.045747 -4.7400767 7.8992192
20.381471 -7.3334939 6.0891862
19.017023 -9.9777984 0.88768422
21.21397 -7.5393668 2.7857938
18.891567 -9.9014386 2.5727901
20.186482 -8.835504 0
19.912501 -8.6736298 3.5432162
25.718453 -1.7710741 6.5803339
23.425477 -4.8337545 4.673942
26.41318 -1.792424 4.833195
23.804219 -3.3294462 7.2814784
25.085161 -3.4129757 3.8814854
22.805718 -4.8076318 6.3157971
22.637704 -6.2569074 -1.9205618
22.637704 -6.2569074 1.9205618
24.061273 -4.9252637 -1.0139934
21.398279 -7.5933361 -0.93858796
24.061273 -4.9252637 1.0139934
21.398279 -7.5933361 0.93858796
-11.923009 17.074245 -0.84704339
-13.494397 15.312997 -2.4909517
-11.545853 17.304578 -2.2280402
-16.343616 11.539121 -5.6933583
-14.958277 13.479773 -4.0959087
-10.633859 17.512398 -5.0031917
-13.066036 15.438143 -3.8592362
-11.114546 17.451311 -3.6240497
-12.326303 16.372419 -3.0544256
-21.32457 1.6308137 -12.556393
-20.175923 4.5674102 -10.724811
-17.670551 9.4462292 -7.3128624
-18.949233 7.145249 -8.982028
-8.193376 16.826349 -10.399256
-10.834508 15.03977 -9.2950893
-8.867988 17.134694 -9.1141705
-15.77627 11.461845 -7.0838101
-13.327764 13.274241 -8.2039322
-15.142365 12.482893 -6.2897048
-10.084749 17.474242 -6.433416
-11.453819 15.26934 -8.0046375
-9.5023298 17.35237 -7.7814117
-11.358281 16.463341 -5.840935
-10.189492 16.189831 -8.5559034
-13.800558 14.4505 -4.698582
-12.726003 14.326068 -7.4317269
-14.481164 13.482883 -5.4903446
-12.59777 15.453938 -5.2620027
-13.934662 13.413003 -6.8695303
-12.05733 15.396477 -6.6544764
-20.184915 -28.905639 -1.433992
-23.90064 -27.121658 -4.4118561
-18.923352 -28.361752 -3.6517
-25.461009 -17.976295 -8.8694356
-25.227552 -22.734014 -6.9078642
-16.236825 -26.739656 -7.6393663
-22.011344 -26.007451 -6.5013578
-17.570959 -27.588738 -5.7292517
-20.667893 -27.452142 -5.12145
-23.33873 -1.7848482 -13.742377
-25.180811 -5.7004131 -13.385233
-25.431763 -13.595177 -10.524798
-25.322736 -9.5485263 -12.003099
-11.303569 -23.213606 -14.346797
-15.85042 -22.002539 -13.598317
-12.458676 -24.072607 -12.804538
-24.005794 -17.440796 -10.779005
-20.248965 -20.167648 -12.464292
-23.813045 -19.630732 -9.8912572
-14.902207 -25.821643 -9.5066425
-17.192651 -22.919903 -12.015288
-13.661689 -24.947848 -11.18749
-17.565725 -25.460765 -9.0330801
-14.82849 -23.560621 -12.451173
-22.934297 -24.014396 -7.8082839
-19.602034 -22.066635 -11.447189
-23.483825 -21.864931 -8.9035861
-20.299054 -24.901258 -8.4787766
-21.814896 -20.998232 -10.75434
-18.692968 -23.869783 -10.316704
-1.4755603 -11.361025 -19.294471
-4.5411388 -10.663122 -20.059873
-2.4693192 -12.796177 -19.178525
-1.4486158 -9.802386 -19.653119
-10.930593 -8.4619926 -20.44727
-7.7200499 -9.7045891 -20.473608
-4.7269139 -16.003692 -18.909124
-5.7170235 -12.151048 -20.010984
-3.5541323 -14.342896 -19.050961
-4.077968 -12.506661 -19.637118
-1.4078608 -6.752915 -20.170598
-4.4410954 -8.9845312 -20.268607
-1.4276173 -8.2583084 -19.945141
-2.9386649 -9.4208554 -20.003211
-21.174917 -1.0504754 -14.786523
-19.329596 -3.1443283 -17.033977
-22.597575 -2.9095369 -15.077414
-14.046645 -6.9305613 -19.895188
-16.904676 -5.1365855 -18.758834
-24.157988 -6.9017988 -14.669188
-20.546634 -5.1362596 -17.389595
-24.111955 -5.0072411 -15.356635
-21.659934 -4.0408602 -16.307114
-9.9670456 -22.19749 -16.127019
-11.616911 -18.872345 -18.796556
-8.8652694 -21.342996 -17.594501
-12.185155 -21.619151 -15.788621
-12.628928 -9.9500923 -20.434034
-12.649983 -14.745027 -20.468103
-10.91517 -10.620341 -20.520584
-6.0953777 -17.903192 -18.746349
-10.299857 -17.637356 -19.854934
-7.5584769 -19.936006 -18.561687
-6.6243327 -15.859327 -19.454955
-9.7143254 -19.705254 -18.967567
-16.580948 -20.098548 -14.900794
-13.728578 -18.052662 -18.317115
-14.410911 -20.923122 -15.38396
-12.997628 -19.878231 -17.118575
-7.4742195 -11.716268 -20.30124
-10.623386 -15.200981 -20.264764
-9.1800795 -11.210324 -20.471367
-7.0845545 -13.776623 -19.968624
-10.817653 -12.883081 -20.469608
-8.6085538 -15.597948 -19.917631
-1.3736516 -0.84896341 -20.518289
-4.1846344 -2.5862463 -20.490496
-1.3798477 -2.2832542 -20.511698
-10.593036 -6.5468562 -20.321222
-7.1983005 -4.4487944 -20.42934
-9.0872962 -7.2447472 -20.480243
-1.4010069 -5.2053683 -20.344563
-4.2345105 -4.0945101 -20.521404
-1.3880271 -3.7427562 -20.453984
-2.8507423 -6.2345559 -20.381676
-2.7918402 -3.1750847 -20.519854
-6.0234201 -8.4509848 -20.449726
-5.7895049 -5.0948107 -20.515763
-7.5509906 -7.884427 -20.520289
-4.389899 -7.3156567 -20.417096
-7.3770586 -6.1253591 -20.502548
-4.321408 -5.6770437 -20.499243
-24.12962 -14.912926 -11.749611
-21.449543 -13.256547 -15.452048
-24.177809 -12.860497 -12.513122
-22.569517 -16.48268 -12.720808
-14.630461 -9.042122 -20.137603
-18.794018 -11.615342 -18.869796
-16.251419 -8.1885364 -19.713772
-14.884082 -11.487061 -20.380578
-24.181721 -8.9028792 -13.955774
-21.602886 -11.324869 -16.204732
-24.19293 -10.848959 -13.248288
-22.992149 -8.1572536 -15.862593
-22.890437 -12.096998 -14.406692
-18.783112 -19.058265 -14.284066
-19.767008 -14.654994 -16.307433
-20.757892 -17.876114 -13.572806
-17.283018 -18.0411 -16.056417
-21.148085 -15.549366 -14.565856
-19.222136 -6.2500799 -18.357579
-20.26647 -10.513344 -18.002928
-17.799446 -7.2480858 -19.117328
-21.750327 -7.4058974 -17.730472
-18.746948 -9.6013344 -19.476055
-21.684284 -9.372115 -16.981454
-14.425841 -16.052442 -19.457921
-18.335718 -13.742521 -18.070997
-15.032604 -14.081779 -20.445257
-15.827663 -17.036789 -17.784069
-16.976799 -12.889982 -19.7136
-17.863867 -15.898682 -17.113233
-1.4201135 10.934114 -18.569447
-4.0946713 9.6147646 -18.087662
-2.3025926 11.932188 -17.883605
-1.4021108 9.4876993 -19.022194
-9.1111674 7.053472 -17.043769
-6.6301397 8.3345033 -17.583161
-4.0544049 13.72681 -16.218879
-4.9574643 10.53667 -17.352341
-3.1890191 12.869462 -17.093871
-3.6588653 11.221321 -17.618963
-1.3771157 6.6054437 -19.730109
-4.0720145 8.2378642 -18.584167
-1.3892549 8.0363945 -19.409183
-2.7626598 8.8566133 -18.805161
-20.137964 0.99903273 -14.062415
-17.027739 2.7698873 -15.005493
-19.726719 2.5399016 -13.161939
-19.418225 0 -15.251364
-11.615844 5.7312131 -16.452284
-14.224355 4.3221544 -15.784528
-18.771037 5.3627776 -11.398129
-16.769664 4.1920904 -14.192965
-19.263787 4.0004399 -12.268891
-18.204463 3.3962103 -13.705593
-17.536662 -1.9930079 -17.330183
-16.240558 1.8457083 -16.04934
-18.541597 -1.0055812 -16.351816
-17.771485 0.96381509 -15.672655
-7.3361406 16.338232 -11.870125
-8.3348442 13.540438 -13.486061
-6.5740977 15.827036 -13.047315
-8.7290148 15.487197 -11.31041
-9.9941698 7.8742166 -16.170906
-9.2117219 10.737334 -14.904879
-8.7657998 8.5290271 -16.479755
-4.9468575 14.529787 -15.214072
-7.5467033 12.922887 -14.547706
-5.7706487 15.220485 -14.171238
-5.4106896 12.953742 -15.890615
-7.081389 14.364412 -13.826664
-11.375654 13.788966 -10.222954
-9.7175864 12.77833 -12.96552
-10.07915 14.633861 -10.75971
-9.2392077 14.130201 -12.168533
-6.2813599 9.8463919 -17.061232
-7.9920212 11.435767 -15.245273
-7.5238175 9.1877667 -16.777941
-5.8561796 11.387925 -16.506309
-8.3914568 9.9936474 -15.878659
-6.7269091 12.188572 -15.564065
-1.3698636 0.84662225 -20.461706
-4.0810721 2.5222413 -19.983392
-1.3696394 2.2663625 -20.35995
-2.7524156 0 -20.429144
-9.187569 5.6782299 -17.625035
-6.7063816 4.1447718 -19.033236
-7.9315778 6.3233634 -17.875574
-1.3773585 5.1175039 -20.001155
-4.0702526 3.9356828 -19.725373
-1.3712152 3.6974236 -20.206244
-2.7375506 5.9870065 -19.572401
-2.7348687 3.1102925 -20.101116
-5.6207167 -1.7252826 -20.335944
-5.4955968 1.686877 -19.883256
-4.1732351 -0.85916879 -20.387406
-4.1381521 0.85194605 -20.216016
-5.4053905 7.5838762 -18.351493
-5.4221786 4.7715606 -19.214101
-6.6670764 6.9614809 -18.118196
-4.0891323 6.8144366 -19.018252
-6.6937179 5.557964 -18.603386
-4.0897286 5.3726859 -19.400237
-16.504024 10.200048 -8.036424
-15.178417 9.3807773 -10.934388
-17.094054 9.0925538 -8.8469552
-15.234029 11.12552 -8.5863222
-11.46561 7.0861364 -15.781451
-13.481555 8.3320592 -13.535913
-12.72137 6.4098648 -15.431648
-11.057254 8.5336366 -15.140553
-18.217136 6.7069241 -10.513488
-15.628011 8.1926635 -11.722865
-17.669689 7.9237084 -9.6760965
-17.383105 6.1672527 -11.992838
-16.408231 8.6713219 -10.326947
-12.708116 12.894277 -9.6641903
-13.845732 10.26504 -11.422485
-13.964772 12.02607 -9.1310399
-11.944556 12.468478 -11.096834
-14.584282 10.723257 -10.045002
-15.338253 4.9872349 -14.648382
-14.724555 7.6384443 -13.079984
-14.016256 5.7075389 -15.054029
-16.414761 5.5891591 -13.381016
-13.765159 7.0498889 -14.300515
-16.030134 6.9283476 -12.553561
-10.195782 11.345418 -13.752316
-12.974618 9.7244058 -12.787298
-10.632456 9.9599441 -14.460787
-11.099761 11.947707 -12.471766
-12.059208 9.1562003 -14.003252
-12.480389 11.107434 -11.955967
-12.339965 -5.6351306 -19.966483
-11.888787 -1.779746 -19.236462
-13.750094 -4.8051031 -19.522587
-10.507403 -4.5851385 -20.089829
-10.69916 4.8858455 -17.311604
-11.333016 1.6965473 -18.337205
-11.996255 4.192207 -17.03246
