-6.9849761 27.299948 1.8799822
-5.3714526 26.921353 5.5551145
-5.1147008 27.951596 1.8968223
-8.102066 26.48684 3.7046588
-4.3074574 27.838122 3.7875313
-9.9773513 24.143234 7.1113343
-6.3935529 25.745533 7.265335
-9.0649408 23.592736 8.6815799
-9.1091661 25.422559 5.4661284
-7.2925167 24.409209 8.7827215
-7.2617653 26.221516 5.5277099
18.255247 31.002954 2.370976
15.463449 29.09043 6.5854697
15.4861 31.048581 2.2885663
10.040493 24.261503 12.969586
12.663359 26.715675 10.073766
10.302759 30.773795 2.1479393
12.979093 29.280119 6.415626
12.816336 30.95351 2.2155654
14.262766 30.283993 4.4490111
0.90550933 12.745977 18.25277
2.8871892 15.640961 17.748847
0 13.994706 17.818234
7.5254542 21.602915 15.252356
5.1118638 18.66855 16.823316
-1.8929706 16.460309 16.656423
1.9514928 16.969189 17.171366
-0.93744804 15.243898 17.285311
0.95124189 15.468201 17.539651
1.2218685 29.530898 1.9770248
3.6436666 28.8683 5.8955763
3.32875 29.903948 2.0116761
0 28.902417 3.8940183
7.8959497 24.508762 12.775915
5.9023855 27.104386 9.5502604
9.1088958 25.750021 11.425552
7.809202 30.521337 2.1018197
5.8050936 29.094732 6.0035827
5.5326216 30.235513 2.0518112
9.2152941 30.126146 4.2136808
4.5893572 29.659976 4.0354048
-2.289445 26.985738 7.4586746
2.3607998 27.826799 7.6911381
-1.1816806 28.04036 5.7397698
1.2009001 28.496424 5.8331246
11.620759 28.119957 8.2826692
7.0030653 28.199915 7.9579564
10.357508 26.956817 9.9194838
10.499617 29.303135 6.3004946
8.0907311 27.080959 9.7440487
8.0961894 29.234538 6.1628797
-5.9190807 20.972579 12.961767
-2.0311075 21.953314 13.567894
-4.9105465 19.950991 14.051827
-5.1731063 22.666015 11.854803
6.4766348 22.948114 14.182714
2.0930863 22.623214 13.981915
5.3048094 21.552837 15.180034
5.5733735 24.41979 12.772064
-2.9042533 17.706637 15.884314
-1.0364618 20.831655 14.638005
-3.8981768 18.850422 15.031086
-0.98680917 18.036906 16.193338
-2.9952942 20.429316 14.366466
-3.3721732 25.679281 9.126322
-1.1022735 23.61421 12.389837
-4.3162282 24.256747 10.565928
-1.1485734 26.185606 9.2921539
-3.1572118 23.182878 12.150599
3.0448249 18.563673 16.653147
1.0530846 21.165754 14.87277
4.1511757 20.073849 16.006632
1.0026015 18.325558 16.452488
3.1381586 21.403718 15.051693
0 19.626415 15.602424
3.5281944 26.86739 9.5485717
1.1193048 23.979074 12.581273
4.5802593 25.740574 11.212263
1.165993 26.582745 9.4330817
3.3013866 24.241529 12.705458
0 25.167736 11.015769
0 -9.8277602 18.677292
0 -6.86507 19.044036
0 -1.3410464 19.349238
0 -4.0552956 19.253661
0 9.8277602 18.677292
0 6.86507 19.044036
0 1.3410464 19.349238
0 4.0552956 19.253661
-18.255247 -31.002954 -2.370976
-15.463449 -29.09043 -6.5854697
-15.4861 -31.048581 -2.2885663
-10.040493 -24.261503 -12.969586
-12.663359 -26.715675 -10.073766
-10.302759 -30.773795 -2.1479393
-12.979093 -29.280119 -6.415626
-12.816336 -30.95351 -2.2155654
-14.262766 -30.283993 -4.4490111
-0.90550933 -12.745977 -18.25277
-2.8871892 -15.640961 -17.748847
-7.5254542 -21.602915 -15.252356
-5.1118638 -18.66855 -16.823316
-1.2218685 -29.530898 -1.9770248
-3.6436666 -28.8683 -5.8955763
-3.32875 -29.903948 -2.0116761
-7.8959497 -24.508762 -12.775915
-5.9023855 -27.104386 -9.5502604
-9.1088958 -25.750021 -11.425552
-7.809202 -30.521337 -2.1018197
-5.8050936 -29.094732 -6.0035827
-5.5326216 -30.235513 -2.0518112
-9.2152941 -30.126146 -4.2136808
-4.5893572 -29.659976 -4.0354048
-11.620759 -28.119957 -8.2826692
-7.0030653 -28.199915 -7.9579564
-10.357508 -26.956817 -9.9194838
-10.499617 -29.303135 -6.3004946
-8.0907311 -27.080959 -9.7440487
-8.0961894 -29.234538 -6.1628797
13.95432 -23.698674 -1.8123752
12.524086 -23.560789 -5.3336736
12.33491 -24.730657 -1.8228771
8.7981546 -21.25956 -11.364823
10.758459 -22.69694 -8.5584087
8.8797089 -26.523218 -1.851259
10.876353 -24.536453 -5.3762319
10.632497 -25.679187 -1.8380442
11.648856 -24.733903 -3.6336493
0.89423346 -12.587257 -18.025477
2.7642658 -14.97504 -16.993182
0 -13.994706 -17.818234
6.7604911 -19.406976 -13.701952
4.7304771 -17.275724 -15.568159
-1.9514928 -16.969189 -17.171366
1.8929706 -16.460309 -16.656423
-0.95124189 -15.468201 -17.539651
0.93744804 -15.243898 -17.285311
1.2007456 -29.020385 -1.9428472
3.4705273 -27.49654 -5.6154311
3.1752217 -28.52472 -1.9188938
0 -28.902417 -3.8940183
7.1127905 -22.077863 -11.508737
5.4725347 -25.130465 -8.8547472
8.0986738 -22.894216 -10.158401
6.9849761 -27.299948 -1.8799822
5.3714526 -26.921353 -5.5551145
5.1147008 -27.951596 -1.8968223
8.102066 -26.48684 -3.7046588
4.3074574 -27.838122 -3.7875313
-2.3607998 -27.826799 -7.6911381
2.289445 -26.985738 -7.4586746
-1.2009001 -28.496424 -5.8331246
1.1816806 -28.04036 -5.7397698
9.9773513 -24.143234 -7.1113343
6.3935529 -25.745533 -7.265335
9.0649408 -23.592736 -8.6815799
9.1091661 -25.422559 -5.4661284
7.2925167 -24.409209 -8.7827215
7.2617653 -26.221516 -5.5277099
-6.4766348 -22.948114 -14.182714
-2.0930863 -22.623214 -13.981915
-5.3048094 -21.552837 -15.180034
-5.5733735 -24.41979 -12.772064
5.9190807 -20.972579 -12.961767
2.0311075 -21.953314 -13.567894
4.9105465 -19.950991 -14.051827
5.1731063 -22.666015 -11.854803
-3.0448249 -18.563673 -16.653147
-1.0530846 -21.165754 -14.87277
-4.1511757 -20.073849 -16.006632
-1.0026015 -18.325558 -16.452488
-3.1381586 -21.403718 -15.051693
-3.5281944 -26.86739 -9.5485717
-1.1193048 -23.979074 -12.581273
-4.5802593 -25.740574 -11.212263
-1.165993 -26.582745 -9.4330817
-3.3013866 -24.241529 -12.705458
2.9042533 -17.706637 -15.884314
1.0364618 -20.831655 -14.638005
3.8981768 -18.850422 -15.031086
0.98680917 -18.036906 -16.193338
2.9952942 -20.429316 -14.366466
0 -19.626415 -15.602424
3.3721732 -25.679281 -9.126322
1.1022735 -23.61421 -12.389837
4.3162282 -24.256747 -10.565928
1.1485734 -26.185606 -9.2921539
3.1572118 -23.182878 -12.150599
0 -25.167736 -11.015769
-13.95432 23.698674 -1.8123752
-12.524086 23.560789 -5.3336736
-12.33491 24.730657 -1.8228771
-8.7981546 21.25956 -11.364823
-10.758459 22.69694 -8.5584087
-8.8797089 26.523218 -1.851259
-10.876353 24.536453 -5.3762319
-10.632497 25.679187 -1.8380442
-11.648856 24.733903 -3.6336493
-0.89423346 12.587257 -18.025477
-2.7642658 14.97504 -16.993182
-6.7604911 19.406976 -13.701952
-4.7304771 17.275724 -15.568159
-1.2007456 29.020385 -1.9428472
-3.4705273 27.49654 -5.6154311
-3.1752217 28.52472 -1.9188938
-7.1127905 22.077863 -11.508737
-5.4725347 25.130465 -8.8547472
-8.0986738 22.894216 -10.158401
-6.9849761 27.299948 -1.8799822
-5.3714526 26.921353 -5.5551145
-5.1147008 27.951596 -1.8968223
-8.102066 26.48684 -3.7046588
-4.3074574 27.838122 -3.7875313
-9.9773513 24.143234 -7.1113343
-6.3935529 25.745533 -7.265335
-9.0649408 23.592736 -8.6815799
-9.1091661 25.422559 -5.4661284
-7.2925167 24.409209 -8.7827215
-7.2617653 26.221516 -5.5277099
18.255247 31.002954 -2.370976
15.463449 29.09043 -6.5854697
15.4861 31.048581 -2.2885663
10.040493 24.261503 -12.969586
12.663359 26.715675 -10.073766
10.302759 30.773795 -2.1479393
12.979093 29.280119 -6.415626
12.816336 30.95351 -2.2155654
14.262766 30.283993 -4.4490111
0.90550933 12.745977 -18.25277
2.8871892 15.640961 -17.748847
0 13.994706 -17.818234
7.5254542 21.602915 -15.252356
5.1118638 18.66855 -16.823316
-1.8929706 16.460309 -16.656423
1.9514928 16.969189 -17.171366
-0.93744804 15.243898 -17.285311
0.95124189 15.468201 -17.539651
1.2218685 29.530898 -1.9770248
3.6436666 28.8683 -5.8955763
3.32875 29.903948 -2.0116761
0 28.902417 -3.8940183
7.8959497 24.508762 -12.775915
5.9023855 27.104386 -9.5502604
9.1088958 25.750021 -11.425552
7.809202 30.521337 -2.1018197
5.8050936 29.094732 -6.0035827
5.5326216 30.235513 -2.0518112
9.2152941 30.126146 -4.2136808
4.5893572 29.659976 -4.0354048
-2.289445 26.985738 -7.4586746
2.3607998 27.826799 -7.6911381
-1.1816806 28.04036 -5.7397698
1.2009001 28.496424 -5.8331246
11.620759 28.119957 -8.2826692
7.0030653 28.199915 -7.9579564
10.357508 26.956817 -9.9194838
10.499617 29.303135 -6.3004946
8.0907311 27.080959 -9.7440487
8.0961894 29.234538 -6.1628797
-5.9190807 20.972579 -12.961767
-2.0311075 21.953314 -13.567894
-4.9105465 19.950991 -14.051827
-5.1731063 22.666015 -11.854803
6.4766348 22.948114 -14.182714
2.0930863 22.623214 -13.981915
5.3048094 21.552837 -15.180034
5.5733735 24.41979 -12.772064
-2.9042533 17.706637 -15.884314
-1.0364618 20.831655 -14.638005
-3.8981768 18.850422 -15.031086
-0.98680917 18.036906 -16.193338
-2.9952942 20.429316 -14.366466
-3.3721732 25.679281 -9.126322
-1.1022735 23.61421 -12.389837
-4.3162282 24.256747 -10.565928
-1.1485734 26.185606 -9.2921539
-3.1572118 23.182878 -12.150599
3.0448249 18.563673 -16.653147
1.0530846 21.165754 -14.87277
4.1511757 20.073849 -16.006632
1.0026015 18.325558 -16.452488
3.1381586 21.403718 -15.051693
0 19.626415 -15.602424
3.5281944 26.86739 -9.5485717
1.1193048 23.979074 -12.581273
4.5802593 25.740574 -11.212263
1.165993 26.582745 -9.4330817
3.3013866 24.241529 -12.705458
0 25.167736 -11.015769
0 -9.8277602 -18.677292
0 -6.86507 -19.044036
0 -1.3410464 -19.349238
0 -4.0552956 -19.253661
0 9.8277602 -18.677292
0 6.86507 -19.044036
0 1.3410464 -19.349238
0 4.0552956 -19.253661
21.594933 30.924843 -1.5341636
25.027928 28.400868 -4.619944
20.170447 30.23086 -3.8923558
28.325187 19.998496 -9.8671821
27.028164 24.35665 -7.4009118
16.957086 27.92582 -7.9782465
23.119826 27.317174 -6.8287633
18.557477 29.137701 -6.0509192
21.803866 28.960998 -5.4029411
24.824763 1.8984938 -14.617387
27.222457 6.1625994 -14.4705
29.120913 15.567303 -12.051533
28.887789 10.892812 -13.692951
11.142261 22.882335 -14.142061
16.095408 22.342615 -13.808495
12.502417 24.157124 -12.849494
26.392894 19.175082 -11.850853
21.263116 21.177726 -13.088554
25.799082 21.267959 -10.7162
15.370491 26.633056 -9.8053768
17.680104 23.569738 -12.355951
13.912512 25.405882 -11.392889
18.250443 26.453235 -9.3851926
15.062904 23.933076 -12.648006
24.205986 25.345975 -8.2412471
20.444561 23.015094 -11.939207
25.071099 23.342784 -9.5053804
21.235532 26.050054 -8.8699369
23.134464 22.2684 -11.404862
19.412508 24.788593 -10.713821
15.720684 -22.512674 -1.1168407
17.867645 -20.275614 -3.2982163
15.109515 -22.645688 -2.9157316
21.017269 -14.83887 -7.3214422
19.623015 -17.683439 -5.3732174
13.550647 -22.315916 -6.3755294
17.106244 -20.211842 -5.052568
14.377371 -22.57438 -4.6879385
16.165345 -21.47163 -4.0057304
23.616809 -1.8061146 -13.906116
23.397678 -5.2967488 -12.437382
22.093033 -11.810377 -9.1430831
22.883038 -8.6285815 -10.84667
9.5993853 -19.713804 -12.183801
13.114206 -18.204301 -11.250877
10.630973 -20.541127 -10.926098
19.894644 -14.453945 -8.9330293
16.521994 -16.455643 -10.170147
19.34345 -15.946137 -8.0347152
12.612705 -21.854532 -8.0460882
14.181053 -18.905076 -9.9105973
11.645856 -21.266701 -9.5367349
14.447926 -20.941649 -7.4297685
12.431493 -19.752092 -10.438465
17.968703 -18.814945 -6.1176819
15.957788 -17.96419 -9.3190232
18.700758 -17.411592 -7.0901486
16.239874 -19.921779 -6.7832845
17.652135 -16.991308 -8.7021758
15.250964 -19.474553 -8.4170523
1.4014445 -10.790373 -18.325331
4.0976632 -9.62179 -18.100878
2.3083181 -11.961858 -17.928074
1.3704975 -9.2737807 -18.593301
9.341577 -7.2318452 -17.474783
6.7183708 -8.4454153 -17.81715
4.2187684 -14.283288 -16.876384
5.0483238 -10.729784 -17.670371
3.2544783 -13.133626 -17.444747
3.6980814 -11.341592 -17.807805
1.3245628 -6.3533694 -18.977177
4.0279023 -8.1486233 -18.382845
1.346248 -7.7876135 -18.808337
2.7170051 -8.7102521 -18.494394
21.639119 -1.0735041 -15.110677
18.084204 -2.9417415 -15.93649
21.69612 -2.7934706 -14.475951
12.047854 -5.9443655 -17.064169
14.926967 -4.5356471 -16.564204
21.572454 -6.1631264 -13.099202
18.180621 -4.5448022 -15.387125
21.669881 -4.5001045 -13.801305
19.878085 -3.7084398 -14.965613
8.3582169 -18.614486 -13.523879
9.2688659 -15.05781 -14.99734
7.3163164 -17.613916 -14.520363
10.119626 -17.954447 -13.112261
10.461301 -8.2422605 -16.926741
9.9429931 -11.589715 -16.088101
9.1158087 -8.8695819 -17.137773
5.2612968 -15.45335 -16.181131
8.1977726 -14.037771 -15.802766
6.2748745 -16.550416 -15.409488
5.6896601 -13.621625 -16.709922
7.7931343 -15.808168 -15.216372
13.569657 -16.448421 -12.194638
10.950476 -14.399543 -14.610481
11.86521 -17.227032 -12.666368
10.568756 -16.163577 -13.919619
6.4446983 -10.102434 -17.504887
8.5561023 -12.242909 -16.321293
7.7720538 -9.4909024 -17.331502
6.0830517 -11.829101 -17.145774
8.8545514 -10.545161 -16.754945
7.1412089 -12.939247 -16.522632
1.2942106 -0.79986611 -19.331674
3.8996539 -2.4101187 -19.095059
1.2973245 -2.1467018 -19.284975
9.2829918 -5.7372044 -17.80809
6.5542229 -4.0507325 -18.601397
7.9734403 -6.3567378 -17.969921
1.3162243 -4.8903632 -19.113403
3.9148442 -3.7854125 -18.972229
1.3037912 -3.5156175 -19.212682
2.6437606 -5.7818882 -18.901839
2.6067678 -2.9646069 -19.159583
5.3771473 -7.5442505 -18.255607
5.2794772 -4.6459822 -18.708422
6.6675322 -6.9619569 -18.119435
4.0027019 -6.6704026 -18.616271
6.6133991 -5.4912732 -18.380162
3.9657319 -5.2097912 -18.81204
20.446437 -12.636593 -9.9561319
17.811501 -11.008113 -12.831237
20.828415 -11.07891 -10.779658
18.736149 -13.683144 -10.560215
12.094927 -7.4750759 -16.647653
14.966121 -9.2495715 -15.026465
13.508176 -6.8063094 -16.386082
11.85488 -9.149219 -16.232731
21.383112 -7.8725274 -12.340638
18.005355 -9.4389376 -13.506156
21.142957 -9.4812436 -11.578092
19.806955 -7.0271967 -13.665085
19.445682 -10.276536 -12.238647
15.342525 -15.567277 -11.667589
16.116733 -11.948729 -13.29602
17.027503 -14.663607 -11.133644
14.017054 -14.631881 -13.022243
17.455528 -12.834372 -12.022587
16.509846 -5.3681786 -15.767281
16.480324 -8.5492595 -14.639653
14.983751 -6.1015111 -16.093158
18.163612 -6.1846358 -14.806648
14.99605 -7.6802952 -15.579277
18.104037 -7.8247047 -14.177682
11.298174 -12.572112 -15.239249
14.66829 -10.993804 -14.456518
11.590318 -10.857221 -15.763539
12.652877 -13.619471 -14.216859
13.269496 -10.075137 -15.408649
14.381541 -12.799443 -13.777233
1.4263378 10.982038 -18.650836
4.2991978 10.095017 -18.991131
2.382647 12.347035 -18.505366
1.391419 9.415351 -18.87714
10.189192 7.8880322 -19.060371
7.2157677 9.0706746 -19.136249
4.5057958 15.255063 -18.024583
5.3897836 11.455528 -18.865564
3.4147242 13.780307 -18.303702
3.8856576 11.916867 -18.711063
1.3382985 6.4192538 -19.17397
4.1946351 8.4859311 -19.143793
1.363465 7.887208 -19.048874
2.796296 8.9644451 -19.034119
22.238202 1.1032243 -15.529019
19.323942 3.1434086 -17.028995
23.352137 3.00669 -15.580868
20.324639 0 -15.963275
13.219063 6.5222355 -18.723029
16.282797 4.9476239 -18.068746
25.481928 7.2800407 -15.473109
20.197505 5.0489841 -17.09411
24.459814 5.0794796 -15.578183
21.793862 4.0658458 -16.407944
16.844949 -1.9143962 -16.646615
17.527939 1.9920166 -17.321563
18.519984 -1.0044091 -16.332756
18.938664 1.0271157 -16.701989
9.5551461 21.280153 -15.460551
10.769246 17.495264 -17.425006
8.2453228 19.850484 -16.36412
11.900029 21.113276 -15.419176
11.690607 9.2108072 -18.915799
11.453152 13.349981 -18.531588
10.105353 9.8323976 -18.998122
5.7289899 16.827047 -17.619522
9.3325489 15.980949 -17.990264
6.9560327 18.347018 -17.082238
6.2106231 14.868864 -18.239934
8.8526781 17.957425 -17.285169
16.801694 20.366125 -15.099171
13.036581 17.142708 -17.393831
14.334181 20.811718 -15.302048
12.543831 19.184205 -16.520899
6.9841094 10.947992 -18.970018
9.7015992 13.881998 -18.506399
8.5267686 10.412528 -19.014499
6.6281853 12.889167 -18.682295
9.9480195 11.847406 -18.824051
7.9539456 14.411855 -18.403062
1.2958771 0.80089606 -19.356567
3.9457555 2.438611 -19.3208
1.301824 2.1541473 -19.351861
2.6016386 0 -19.310039
9.9398681 6.1431764 -19.068213
6.7780412 4.1890598 -19.236611
8.5068438 6.7819879 -19.172064
1.3267332 4.9294083 -19.266006
3.9882116 3.8563543 -19.327784
1.3112275 3.5356691 -19.322263
2.6943772 5.8925864 -19.263728
2.6320152 2.99332 -19.34515
5.2603951 -1.6146817 -19.032288
5.3165043 1.6319044 -19.235293
3.9306033 -0.80921673 -19.202082
3.946189 0.81242546 -19.278223
5.6576923 7.937861 -19.208067
5.4452396 4.7918544 -19.29582
7.0715642 7.3838301 -19.217417
4.1382135 6.8962292 -19.246525
6.9252394 5.7502021 -19.246838
4.0696717 5.3463371 -19.305094
26.88786 16.617612 -13.092701
22.552447 13.938179 -16.24657
27.042275 14.384144 -13.995615
24.473544 17.873205 -13.79397
13.602343 8.4067104 -18.722486
17.88395 11.052889 -17.956059
15.226556 7.672143 -18.470563
13.630639 10.519693 -18.664255
26.33761 9.6966038 -15.199983
22.296226 11.688338 -16.724819
26.869156 12.049072 -14.713816
23.650449 8.3908083 -16.316764
24.731317 13.069855 -15.565298
19.433942 19.718629 -14.779005
20.255121 15.016874 -16.710118
21.955105 18.90712 -14.355618
17.438851 18.203767 -16.20119
22.415155 16.480994 -15.438557
18.510704 6.0187578 -17.678146
19.766365 10.253912 -17.55868
16.874467 6.8714265 -18.123863
20.994598 7.148575 -17.114416
17.423528 8.9235388 -18.101164
21.722974 9.3888368 -17.011753
13.386783 14.896223 -18.056414
17.922093 13.432511 -17.663344
13.56976 12.711461 -18.455699
15.394628 16.570673 -17.297509
15.732316 11.945083 -18.268496
17.823706 15.862939 -17.074759
10.87495 -4.9661212 -17.596038
11.211218 -1.6783143 -18.140133
12.254338 -4.2823966 -17.39889
9.4539273 -4.1254309 -18.075615
11.656681 5.3231043 -18.860906
11.477441 1.7181677 -18.57089
13.106706 4.5802648 -18.609094
9.9358411 4.3357247 -18.99702
15.193379 -2.7779241 -16.936434
12.632814 -0.89448182 -17.978026
13.698177 -3.5524988 -17.178826
15.505274 -0.9448791 -17.270508
12.450087 -2.5957446 -17.704199
6.6752512 -2.4665033 -18.782556
9.7225069 -0.86497197 -18.530455
8.045637 -3.2866784 -18.470786
6.7233585 -0.83105282 -18.946653
9.6006294 -2.4946278 -18.317635
16.020596 2.9291707 -17.858553
12.809755 0.90701033 -18.229834
14.572735 3.7793074 -18.275605
15.784769 0.96191131 -17.581822
12.967102 2.703538 -18.439401
14.149123 0 -17.798296
6.8147583 2.5180511 -19.175095
9.8243157 0.87402949 -18.724496
8.3192765 3.3984613 -19.098994
6.7702148 0.83684457 -19.078695
9.8945501 2.5710001 -18.878424
8.2481468 0 -18.844546
21.594933 30.924843 1.5341636
25.027928 28.400868 4.619944
20.170447 30.23086 3.8923558
24.038696 30.606366 0
28.325187 19.998496 9.8671821
27.028164 24.35665 7.4009118
16.957086 27.92582 7.9782465
23.119826 27.317174 6.8287633
18.557477 29.137701 6.0509192
21.803866 28.960998 5.4029411
27.602776 27.931646 -3.174378
27.602776 27.931646 3.174378
26.101979 29.597469 -1.6051831
26.101979 29.597469 1.6051831
24.824763 1.8984938 14.617387
27.222457 6.1625994 14.4705
29.120913 15.567303 12.051533
28.887789 10.892812 13.692951
11.142261 22.882335 14.142061
16.095408 22.342615 13.808495
12.502417 24.157124 12.849494
26.392894 19.175082 11.850853
21.263116 21.177726 13.088554
25.799082 21.267959 10.7162
15.370491 26.633056 9.8053768
17.680104 23.569738 12.355951
13.912512 25.405882 11.392889
18.250443 26.453235 9.3851926
15.062904 23.933076 12.648006
24.205986 25.345975 8.2412471
20.444561 23.015094 11.939207
25.071099 23.342784 9.5053804
21.235532 26.050054 8.8699369
23.134464 22.2684 11.404862
19.412508 24.788593 10.713821
30.559523 18.886824 -8.6247992
33.209591 20.524656 -3.0725316
30.053295 21.167053 -7.3970309
30.559523 18.886824 8.6247992
33.209591 20.524656 3.0725316
30.053295 21.167053 7.3970309
28.69808 25.744545 -4.7070764
32.46714 22.814038 -1.6153757
29.446704 23.480427 -6.0894372
29.807679 26.761011 -1.6307948
31.545395 22.183603 -4.6251055
28.69808 25.744545 4.7070764
32.46714 22.814038 1.6153757
29.446704 23.480427 6.0894372
29.807679 26.761011 1.6307948
31.545395 22.183603 4.6251055
31.411257 24.971028 0
15.720684 -22.512674 1.1168407
17.867645 -20.275614 3.2982163
15.109515 -22.645688 2.9157316
16.954979 -21.587289 0
21.017269 -14.83887 7.3214422
19.623015 -17.683439 5.3732174
13.550647 -22.315916 6.3755294
17.106244 -20.211842 5.052568
14.377371 -22.57438 4.6879385
16.165345 -21.47163 4.0057304
19.165661 -19.394008 -2.2040918
19.165661 -19.394008 2.2040918
18.111621 -20.537069 -1.1138032
18.111621 -20.537069 1.1138032
23.616809 -1.8061146 13.906116
23.397678 -5.2967488 12.437382
22.093033 -11.810377 9.1430831
22.883038 -8.6285815 10.84667
9.5993853 -19.713804 12.183801
13.114206 -18.204301 11.250877
10.630973 -20.541127 10.926098
19.894644 -14.453945 8.9330293
16.521994 -16.455643 10.170147
19.34345 -15.946137 8.0347152
12.612705 -21.854532 8.0460882
14.181053 -18.905076 9.9105973
11.645856 -21.266701 9.5367349
14.447926 -20.941649 7.4297685
12.431493 -19.752092 10.438465
17.968703 -18.814945 6.1176819
15.957788 -17.96419 9.3190232
18.700758 -17.411592 7.0901486
16.239874 -19.921779 6.7832845
17.652135 -16.991308 8.7021758
15.250964 -19.474553 8.4170523
22.560611 -13.943224 -6.3672701
23.764863 -14.687493 -2.1987109
21.848887 -15.388548 -5.3776764
22.560611 -13.943224 6.3672701
23.764863 -14.687493 2.1987109
21.848887 -15.388548 5.3776764
20.177281 -18.100686 -3.3094898
22.74704 -15.983909 -1.1317602
21.050557 -16.785446 -4.3531542
20.441874 -18.352493 -1.1183863
22.440428 -15.780736 -3.2901583
20.177281 -18.100686 3.3094898
22.74704 -15.983909 1.1317602
21.050557 -16.785446 4.3531542
20.441874 -18.352493 1.1183863
22.440428 -15.780736 3.2901583
21.644811 -17.20699 0
1.4014445 -10.790373 18.325331
4.0976632 -9.62179 18.100878
2.3083181 -11.961858 17.928074
1.3704975 -9.2737807 18.593301
9.341577 -7.2318452 17.474783
6.7183708 -8.4454153 17.81715
4.2187684 -14.283288 16.876384
5.0483238 -10.729784 17.670371
3.2544783 -13.133626 17.444747
3.6980814 -11.341592 17.807805
1.3245628 -6.3533694 18.977177
4.0279023 -8.1486233 18.382845
1.346248 -7.7876135 18.808337
2.7170051 -8.7102521 18.494394
21.639119 -1.0735041 15.110677
18.084204 -2.9417415 15.93649
21.69612 -2.7934706 14.475951
12.047854 -5.9443655 17.064169
14.926967 -4.5356471 16.564204
21.572454 -6.1631264 13.099202
18.180621 -4.5448022 15.387125
21.669881 -4.5001045 13.801305
19.878085 -3.7084398 14.965613
8.3582169 -18.614486 13.523879
9.2688659 -15.05781 14.99734
7.3163164 -17.613916 14.520363
10.119626 -17.954447 13.112261
10.461301 -8.2422605 16.926741
9.9429931 -11.589715 16.088101
9.1158087 -8.8695819 17.137773
5.2612968 -15.45335 16.181131
8.1977726 -14.037771 15.802766
6.2748745 -16.550416 15.409488
5.6896601 -13.621625 16.709922
7.7931343 -15.808168 15.216372
13.569657 -16.448421 12.194638
10.950476 -14.399543 14.610481
11.86521 -17.227032 12.666368
10.568756 -16.163577 13.919619
6.4446983 -10.102434 17.504887
8.5561023 -12.242909 16.321293
7.7720538 -9.4909024 17.331502
6.0830517 -11.829101 17.145774
8.8545514 -10.545161 16.754945
7.1412089 -12.939247 16.522632
1.2942106 -0.79986611 19.331674
3.8996539 -2.4101187 19.095059
1.2973245 -2.1467018 19.284975
9.2829918 -5.7372044 17.80809
6.5542229 -4.0507325 18.601397
7.9734403 -6.3567378 17.969921
1.3162243 -4.8903632 19.113403
3.9148442 -3.7854125 18.972229
1.3037912 -3.5156175 19.212682
2.6437606 -5.7818882 18.901839
2.6067678 -2.9646069 19.159583
5.3771473 -7.5442505 18.255607
5.2794772 -4.6459822 18.708422
6.6675322 -6.9619569 18.119435
4.0027019 -6.6704026 18.616271
6.6133991 -5.4912732 18.380162
3.9657319 -5.2097912 18.81204
20.446437 -12.636593 9.9561319
17.811501 -11.008113 12.831237
20.828415 -11.07891 10.779658
18.736149 -13.683144 10.560215
12.094927 -7.4750759 16.647653
14.966121 -9.2495715 15.026465
13.508176 -6.8063094 16.386082
11.85488 -9.149219 16.232731
21.383112 -7.8725274 12.340638
18.005355 -9.4389376 13.506156
21.142957 -9.4812436 11.578092
19.806955 -7.0271967 13.665085
19.445682 -10.276536 12.238647
15.342525 -15.567277 11.667589
16.116733 -11.948729 13.29602
17.027503 -14.663607 11.133644
14.017054 -14.631881 13.022243
17.455528 -12.834372 12.022587
16.509846 -5.3681786 15.767281
16.480324 -8.5492595 14.639653
14.983751 -6.1015111 16.093158
18.163612 -6.1846358 14.806648
14.99605 -7.6802952 15.579277
18.104037 -7.8247047 14.177682
11.298174 -12.572112 15.239249
14.66829 -10.993804 14.456518
11.590318 -10.857221 15.763539
12.652877 -13.619471 14.216859
13.269496 -10.075137 15.408649
14.381541 -12.799443 13.777233
1.4263378 10.982038 18.650836
4.2991978 10.095017 18.991131
2.382647 12.347035 18.505366
1.391419 9.415351 18.87714
10.189192 7.8880322 19.060371
7.2157677 9.0706746 19.136249
4.5057958 15.255063 18.024583
5.3897836 11.455528 18.865564
3.4147242 13.780307 18.303702
3.8856576 11.916867 18.711063
1.3382985 6.4192538 19.17397
4.1946351 8.4859311 19.143793
1.363465 7.887208 19.048874
2.796296 8.9644451 19.034119
22.238202 1.1032243 15.529019
19.323942 3.1434086 17.028995
23.352137 3.00669 15.580868
20.324639 0 15.963275
13.219063 6.5222355 18.723029
16.282797 4.9476239 18.068746
25.481928 7.2800407 15.473109
20.197505 5.0489841 17.09411
24.459814 5.0794796 15.578183
21.793862 4.0658458 16.407944
16.844949 -1.9143962 16.646615
17.527939 1.9920166 17.321563
18.519984 -1.0044091 16.332756
18.938664 1.0271157 16.701989
9.5551461 21.280153 15.460551
10.769246 17.495264 17.425006
8.2453228 19.850484 16.36412
11.900029 21.113276 15.419176
11.690607 9.2108072 18.915799
11.453152 13.349981 18.531588
10.105353 9.8323976 18.998122
5.7289899 16.827047 17.619522
9.3325489 15.980949 17.990264
6.9560327 18.347018 17.082238
6.2106231 14.868864 18.239934
8.8526781 17.957425 17.285169
16.801694 20.366125 15.099171
13.036581 17.142708 17.393831
14.334181 20.811718 15.302048
12.543831 19.184205 16.520899
6.9841094 10.947992 18.970018
9.7015992 13.881998 18.506399
8.5267686 10.412528 19.014499
6.6281853 12.889167 18.682295
9.9480195 11.847406 18.824051
7.9539456 14.411855 18.403062
1.2958771 0.80089606 19.356567
3.9457555 2.438611 19.3208
1.301824 2.1541473 19.351861
2.6016386 0 19.310039
9.9398681 6.1431764 19.068213
6.7780412 4.1890598 19.236611
8.5068438 6.7819879 19.172064
1.3267332 4.9294083 19.266006
3.9882116 3.8563543 19.327784
1.3112275 3.5356691 19.322263
2.6943772 5.8925864 19.263728
2.6320152 2.99332 19.34515
5.2603951 -1.6146817 19.032288
5.3165043 1.6319044 19.235293
3.9306033 -0.80921673 19.202082
3.946189 0.81242546 19.278223
5.6576923 7.937861 19.208067
5.4452396 4.7918544 19.29582
7.0715642 7.3838301 19.217417
4.1382135 6.8962292 19.246525
6.9252394 5.7502021 19.246838
4.0696717 5.3463371 19.305094
26.88786 16.617612 13.092701
22.552447 13.938179 16.24657
27.042275 14.384144 13.995615
24.473544 17.873205 13.79397
13.602343 8.4067104 18.722486
17.88395 11.052889 17.956059
15.226556 7.672143 18.470563
13.630639 10.519693 18.664255
26.33761 9.6966038 15.199983
22.296226 11.688338 16.724819
26.869156 12.049072 14.713816
23.650449 8.3908083 16.316764
24.731317 13.069855 15.565298
19.433942 19.718629 14.779005
20.255121 15.016874 16.710118
21.955105 18.90712 14.355618
17.438851 18.203767 16.20119
22.415155 16.480994 15.438557
18.510704 6.0187578 17.678146
19.766365 10.253912 17.55868
16.874467 6.8714265 18.123863
20.994598 7.148575 17.114416
17.423528 8.9235388 18.101164
21.722974 9.3888368 17.011753
13.386783 14.896223 18.056414
17.922093 13.432511 17.663344
13.56976 12.711461 18.455699
15.394628 16.570673 17.297509
15.732316 11.945083 18.268496
17.823706 15.862939 17.074759
10.87495 -4.9661212 17.596038
11.211218 -1.6783143 18.140133
12.254338 -4.2823966 17.39889
9.4539273 -4.1254309 18.075615
11.656681 5.3231043 18.860906
11.477441 1.7181677 18.57089
13.106706 4.5802648 18.609094
9.9358411 4.3357247 18.99702
15.193379 -2.7779241 16.936434
12.632814 -0.89448182 17.978026
13.698177 -3.5524988 17.178826
15.505274 -0.9448791 17.270508
12.450087 -2.5957446 17.704199
6.6752512 -2.4665033 18.782556
9.7225069 -0.86497197 18.530455
8.045637 -3.2866784 18.470786
6.7233585 -0.83105282 18.946653
9.6006294 -2.4946278 18.317635
16.020596 2.9291707 17.858553
12.809755 0.90701033 18.229834
14.572735 3.7793074 18.275605
15.784769 0.96191131 17.581822
12.967102 2.703538 18.439401
14.149123 0 17.798296
6.8147583 2.5180511 19.175095
9.8243157 0.87402949 18.724496
8.3192765 3.3984613 19.098994
6.7702148 0.83684457 19.078695
9.8945501 2.5710001 18.878424
8.2481468 0 18.844546
25.677317 0 -13.511086
29.76284 0 -10.729027
27.031456 1.9924671 -13.482479
25.582732 -1.8856829 -12.759899
35.256651 0 -2.4435486
33.224699 0 -6.9979407
29.596049 6.4848501 -13.119137
31.326949 2.1865482 -10.48795
28.38344 4.1698016 -13.367668
29.239785 2.0929018 -12.106766
25.123501 -5.5048611 -11.136576
29.377401 -2.0504742 -9.8352606
25.395244 -3.7308066 -11.960326
27.534624 -1.9708512 -11.400743
25.677317 0 13.511086
29.76284 0 10.729027
27.031456 1.9924671 13.482479
25.582732 -1.8856829 12.759899
35.256651 0 2.4435486
33.224699 0 6.9979407
29.596049 6.4848501 13.119137
31.326949 2.1865482 10.48795
28.38344 4.1698016 13.367668
29.239785 2.0929018 12.106766
25.123501 -5.5048611 11.136576
29.377401 -2.0504742 9.8352606
25.395244 -3.7308066 11.960326
27.534624 -1.9708512 11.400743
31.026334 16.173392 -9.9957057
34.668479 12.215477 -7.5495799
31.220831 13.853007 -11.044158
32.640445 17.071639 -7.4495886
36.573469 2.4485086 -1.5132615
36.785163 7.5123833 -4.6429082
35.96784 2.4196018 -4.0037506
30.582112 9.0078912 -12.63826
34.548938 9.7496372 -8.5797588
31.104405 11.4457 -11.951119
31.904996 6.8599233 -11.43189
33.064543 11.897013 -9.8783918
34.633043 18.171168 -1.616615
35.871772 12.748696 -4.7106392
33.911608 17.773735 -4.6183277
34.431648 14.997984 -6.1267428
33.292808 2.2926741 -8.5183117
35.61907 7.3498542 -7.1068549
34.840387 2.3643024 -6.3752409
32.828047 4.5915901 -10.041779
36.099282 4.9115081 -5.585726
33.963342 7.1597502 -9.4057804
23.311231 -12.151666 -7.5101428
26.843107 -9.4581983 -5.845488
23.8652 -10.589237 -8.4421528
24.234536 -12.675173 -5.5310927
34.045998 -2.2793003 -1.408685
30.500998 -6.2290111 -3.8497406
33.496558 -2.2533555 -3.7286605
24.772986 -7.2968265 -10.237601
27.580348 -7.7831159 -6.8492043
24.354148 -8.961762 -9.3574953
26.777078 -5.7573648 -9.5945042
25.700242 -9.2472506 -7.678227
25.242828 -13.244336 -1.1782948
27.623569 -9.8173148 -3.6274948
24.898179 -13.049621 -3.3908138
25.933627 -11.296355 -4.614611
31.103821 -2.1419318 -7.9582366
29.582765 -6.1042864 -5.9024679
32.483825 -2.2043838 -5.9440272
28.90661 -4.0431068 -8.8422498
31.550691 -4.292647 -4.8819119
28.296476 -5.9651285 -7.8364032
31.026334 16.173392 9.9957057
34.668479 12.215477 7.5495799
31.220831 13.853007 11.044158
32.640445 17.071639 7.4495886
36.573469 2.4485086 1.5132615
36.785163 7.5123833 4.6429082
35.96784 2.4196018 4.0037506
37.402216 5.0391951 0
30.582112 9.0078912 12.63826
34.548938 9.7496372 8.5797588
31.104405 11.4457 11.951119
31.904996 6.8599233 11.43189
33.064543 11.897013 9.8783918
34.633043 18.171168 1.616615
35.871772 12.748696 4.7106392
33.911608 17.773735 4.6183277
35.742761 15.644396 0
34.431648 14.997984 6.1267428
33.292808 2.2926741 8.5183117
35.61907 7.3498542 7.1068549
34.840387 2.3643024 6.3752409
32.828047 4.5915901 10.041779
36.099282 4.9115081 5.585726
33.963342 7.1597502 9.4057804
36.970762 10.218467 -3.1365651
36.970762 10.218467 3.1365651
37.51126 7.678432 -1.5808046
36.550774 12.97031 -1.6032185
37.51126 7.678432 1.5808046
36.550774 12.97031 1.6032185
23.311231 -12.151666 7.5101428
26.843107 -9.4581983 5.845488
23.8652 -10.589237 8.4421528
24.234536 -12.675173 5.5310927
34.045998 -2.2793003 1.408685
30.500998 -6.2290111 3.8497406
33.496558 -2.2533555 3.7286605
32.642674 -4.3979427 0
24.772986 -7.2968265 10.237601
27.580348 -7.7831159 6.8492043
24.354148 -8.961762 9.3574953
26.777078 -5.7573648 9.5945042
25.700242 -9.2472506 7.678227
25.242828 -13.244336 1.1782948
27.623569 -9.8173148 3.6274948
24.898179 -13.049621 3.3908138
26.68812 -11.681233 0
25.933627 -11.296355 4.614611
31.103821 -2.1419318 7.9582366
29.582765 -6.1042864 5.9024679
32.483825 -2.2043838 5.9440272
28.90661 -4.0431068 8.8422498
31.550691 -4.292647 4.8819119
28.296476 -5.9651285 7.8364032
29.393926 -8.1242812 -2.4937534
29.393926 -8.1242812 2.4937534
31.051332 -6.3561058 -1.3085694
28.085726 -9.9664254 -1.2319179
31.051332 -6.3561058 1.3085694
28.085726 -9.9664254 1.2319179
-15.720684 22.512674 -1.1168407
-17.867645 20.275614 -3.2982163
-15.109515 22.645688 -2.9157316
-21.017269 14.83887 -7.3214422
-19.623015 17.683439 -5.3732174
-13.550647 22.315916 -6.3755294
-17.106244 20.211842 -5.052568
-14.377371 22.57438 -4.6879385
-16.165345 21.47163 -4.0057304
-23.616809 1.8061146 -13.906116
-23.397678 5.2967488 -12.437382
-22.093033 11.810377 -9.1430831
-22.883038 8.6285815 -10.84667
-9.5993853 19.713804 -12.183801
-13.114206 18.204301 -11.250877
-10.630973 20.541127 -10.926098
-19.894644 14.453945 -8.9330293
-16.521994 16.455643 -10.170147
-19.34345 15.946137 -8.0347152
-12.612705 21.854532 -8.0460882
-14.181053 18.905076 -9.9105973
-11.645856 21.266701 -9.5367349
-14.447926 20.941649 -7.4297685
-12.431493 19.752092 -10.438465
-17.968703 18.814945 -6.1176819
-15.957788 17.96419 -9.3190232
-18.700758 17.411592 -7.0901486
-16.239874 19.921779 -6.7832845
-17.652135 16.991308 -8.7021758
-15.250964 19.474553 -8.4170523
-21.594933 -30.924843 -1.5341636
-25.027928 -28.400868 -4.619944
-20.170447 -30.23086 -3.8923558
-28.325187 -19.998496 -9.8671821
-27.028164 -24.35665 -7.4009118
-16.957086 -27.92582 -7.9782465
-23.119826 -27.317174 -6.8287633
-18.557477 -29.137701 -6.0509192
-21.803866 -28.960998 -5.4029411
-24.824763 -1.8984938 -14.617387
-27.222457 -6.1625994 -14.4705
-29.120913 -15.567303 -12.051533
-28.887789 -10.892812 -13.692951
-11.142261 -22.882335 -14.142061
-16.095408 -22.342615 -13.808495
-12.502417 -24.157124 -12.849494
-26.392894 -19.175082 -11.850853
-21.263116 -21.177726 -13.088554
-25.799082 -21.267959 -10.7162
-15.370491 -26.633056 -9.8053768
-17.680104 -23.569738 -12.355951
-13.912512 -25.405882 -11.392889
-18.250443 -26.453235 -9.3851926
-15.062904 -23.933076 -12.648006
-24.205986 -25.345975 -8.2412471
-20.444561 -23.015094 -11.939207
-25.071099 -23.342784 -9.5053804
-21.235532 -26.050054 -8.8699369
-23.134464 -22.2684 -11.404862
-19.412508 -24.788593 -10.713821
-1.4263378 -10.982038 -18.650836
-4.2991978 -10.095017 -18.991131
-2.382647 -12.347035 -18.505366
-1.391419 -9.415351 -18.87714
-10.189192 -7.8880322 -19.060371
-7.2157677 -9.0706746 -19.136249
-4.5057958 -15.255063 -18.024583
-5.3897836 -11.455528 -18.865564
-3.4147242 -13.780307 -18.303702
-3.8856576 -11.916867 -18.711063
-1.3382985 -6.4192538 -19.17397
-4.1946351 -8.4859311 -19.143793
-1.363465 -7.887208 -19.048874
-2.796296 -8.9644451 -19.034119
-22.238202 -1.1032243 -15.529019
-19.323942 -3.1434086 -17.028995
-23.352137 -3.00669 -15.580868
-13.219063 -6.5222355 -18.723029
-16.282797 -4.9476239 -18.068746
-25.481928 -7.2800407 -15.473109
-20.197505 -5.0489841 -17.09411
-24.459814 -5.0794796 -15.578183
-21.793862 -4.0658458 -16.407944
-9.5551461 -21.280153 -15.460551
-10.769246 -17.495264 -17.425006
-8.2453228 -19.850484 -16.36412
-11.900029 -21.113276 -15.419176
-11.690607 -9.2108072 -18.915799
-11.453152 -13.349981 -18.531588
-10.105353 -9.8323976 -18.998122
-5.7289899 -16.827047 -17.619522
-9.3325489 -15.980949 -17.990264
-6.9560327 -18.347018 -17.082238
-6.2106231 -14.868864 -18.239934
-8.8526781 -17.957425 -17.285169
-16.801694 -20.366125 -15.099171
-13.036581 -17.142708 -17.393831
-14.334181 -20.811718 -15.302048
-12.543831 -19.184205 -16.520899
-6.9841094 -10.947992 -18.970018
-9.7015992 -13.881998 -18.506399
-8.5267686 -10.412528 -19.014499
-6.6281853 -12.889167 -18.682295
-9.9480195 -11.847406 -18.824051
-7.9539456 -14.411855 -18.403062
-1.2958771 -0.80089606 -19.356567
-3.9457555 -2.438611 -19.3208
-1.301824 -2.1541473 -19.351861
-9.9398681 -6.1431764 -19.068213
-6.7780412 -4.1890598 -19.236611
-8.5068438 -6.7819879 -19.172064
-1.3267332 -4.9294083 -19.266006
-3.9882116 -3.8563543 -19.327784
-1.3112275 -3.5356691 -19.322263
-2.6943772 -5.8925864 -19.263728
-2.6320152 -2.99332 -19.34515
-5.6576923 -7.937861 -19.208067
-5.4452396 -4.7918544 -19.29582
-7.0715642 -7.3838301 -19.217417
-4.1382135 -6.8962292 -19.246525
-6.9252394 -5.7502021 -19.246838
-4.0696717 -5.3463371 -19.305094
-26.88786 -16.617612 -13.092701
-22.552447 -13.938179 -16.24657
-27.042275 -14.384144 -13.995615
-24.473544 -17.873205 -13.79397
-13.602343 -8.4067104 -18.722486
-17.88395 -11.052889 -17.956059
-15.226556 -7.672143 -18.470563
-13.630639 -10.519693 -18.664255
-26.33761 -9.6966038 -15.199983
-22.296226 -11.688338 -16.724819
-26.869156 -12.049072 -14.713816
-23.650449 -8.3908083 -16.316764
-24.731317 -13.069855 -15.565298
-19.433942 -19.718629 -14.779005
-20.255121 -15.016874 -16.710118
-21.955105 -18.90712 -14.355618
-17.438851 -18.203767 -16.20119
-22.415155 -16.480994 -15.438557
-18.510704 -6.0187578 -17.678146
-19.766365 -10.253912 -17.55868
-16.874467 -6.8714265 -18.123863
-20.994598 -7.148575 -17.114416
-17.423528 -8.9235388 -18.101164
-21.722974 -9.3888368 -17.011753
-13.386783 -14.896223 -18.056414
-17.922093 -13.432511 -17.663344
-13.56976 -12.711461 -18.455699
-15.394628 -16.570673 -17.297509
-15.732316 -11.945083 -18.268496
-17.823706 -15.862939 -17.074759
-1.4014445 10.790373 -18.325331
-4.0976632 9.62179 -18.100878
-2.3083181 11.961858 -17.928074
-1.3704975 9.2737807 -18.593301
-9.341577 7.2318452 -17.474783
-6.7183708 8.4454153 -17.81715
-4.2187684 14.283288 -16.876384
-5.0483238 10.729784 -17.670371
-3.2544783 13.133626 -17.444747
-3.6980814 11.341592 -17.807805
-1.3245628 6.3533694 -18.977177
-4.0279023 8.1486233 -18.382845
-1.346248 7.7876135 -18.808337
-2.7170051 8.7102521 -18.494394
-21.639119 1.0735041 -15.110677
-18.084204 2.9417415 -15.93649
-21.69612 2.7934706 -14.475951
-20.324639 0 -15.963275
-12.047854 5.9443655 -17.064169
-14.926967 4.5356471 -16.564204
-21.572454 6.1631264 -13.099202
-18.180621 4.5448022 -15.387125
-21.669881 4.5001045 -13.801305
-19.878085 3.7084398 -14.965613
-17.527939 -1.9920166 -17.321563
-16.844949 1.9143962 -16.646615
-18.938664 -1.0271157 -16.701989
-18.519984 1.0044091 -16.332756
-8.3582169 18.614486 -13.523879
-9.2688659 15.05781 -14.99734
-7.3163164 17.613916 -14.520363
-10.119626 17.954447 -13.112261
-10.461301 8.2422605 -16.926741
-9.9429931 11.589715 -16.088101
-9.1158087 8.8695819 -17.137773
-5.2612968 15.45335 -16.181131
-8.1977726 14.037771 -15.802766
-6.2748745 16.550416 -15.409488
-5.6896601 13.621625 -16.709922
-7.7931343 15.808168 -15.216372
-13.569657 16.448421 -12.194638
-10.950476 14.399543 -14.610481
-11.86521 17.227032 -12.666368
-10.568756 16.163577 -13.919619
-6.4446983 10.102434 -17.504887
-8.5561023 12.242909 -16.321293
-7.7720538 9.4909024 -17.331502
-6.0830517 11.829101 -17.145774
-8.8545514 10.545161 -16.754945
-7.1412089 12.939247 -16.522632
-1.2942106 0.79986611 -19.331674
-3.8996539 2.4101187 -19.095059
-1.2973245 2.1467018 -19.284975
-2.6016386 0 -19.310039
-9.2829918 5.7372044 -17.80809
-6.5542229 4.0507325 -18.601397
-7.9734403 6.3567378 -17.969921
-1.3162243 4.8903632 -19.113403
-3.9148442 3.7854125 -18.972229
-1.3037912 3.5156175 -19.212682
-2.6437606 5.7818882 -18.901839
-2.6067678 2.9646069 -19.159583
-5.3165043 -1.6319044 -19.235293
-5.2603951 1.6146817 -19.032288
-3.946189 -0.81242546 -19.278223
-3.9306033 0.80921673 -19.202082
-5.3771473 7.5442505 -18.255607
-5.2794772 4.6459822 -18.708422
-6.6675322 6.9619569 -18.119435
-4.0027019 6.6704026 -18.616271
-6.6133991 5.4912732 -18.380162
-3.9657319 5.2097912 -18.81204
-20.446437 12.636593 -9.9561319
-17.811501 11.008113 -12.831237
-20.828415 11.07891 -10.779658
-18.736149 13.683144 -10.560215
-12.094927 7.4750759 -16.647653
-14.966121 9.2495715 -15.026465
-13.508176 6.8063094 -16.386082
-11.85488 9.149219 -16.232731
-21.383112 7.8725274 -12.340638
-18.005355 9.4389376 -13.506156
-21.142957 9.4812436 -11.578092
-19.806955 7.0271967 -13.665085
-19.445682 10.276536 -12.238647
-15.342525 15.567277 -11.667589
-16.116733 11.948729 -13.29602
-17.027503 14.663607 -11.133644
-14.017054 14.631881 -13.022243
-17.455528 12.834372 -12.022587
-16.509846 5.3681786 -15.767281
-16.480324 8.5492595 -14.639653
-14.983751 6.1015111 -16.093158
-18.163612 6.1846358 -14.806648
-14.99605 7.6802952 -15.579277
-18.104037 7.8247047 -14.177682
-11.298174 12.572112 -15.239249
-14.66829 10.993804 -14.456518
-11.590318 10.857221 -15.763539
-12.652877 13.619471 -14.216859
-13.269496 10.075137 -15.408649
-14.381541 12.799443 -13.777233
-11.656681 -5.3231043 -18.860906
-11.477441 -1.7181677 -18.57089
-13.106706 -4.5802648 -18.609094
-9.9358411 -4.3357247 -18.99702
-10.87495 4.9661212 -17.596038
-11.211218 1.6783143 -18.140133
-12.254338 4.2823966 -17.39889
-9.4539273 4.1254309 -18.075615
-16.020596 -2.9291707 -17.858553
-12.809755 -0.90701033 -18.229834
-14.572735 -3.7793074 -18.275605
-15.784769 -0.96191131 -17.581822
-12.967102 -2.703538 -18.439401
-6.8147583 -2.5180511 -19.175095
-9.8243157 -0.87402949 -18.724496
-8.3192765 -3.3984613 -19.098994
-6.7702148 -0.83684457 -19.078695
-9.8945501 -2.5710001 -18.878424
-15.193379 2.7779241 -16.936434
-12.632814 0.89448182 -17.978026
-13.698177 3.5524988 -17.178826
-15.505274 0.9448791 -17.270508
-12.450087 2.5957446 -17.704199
-14.149123 0 -17.798296
-6.6752512 2.4665033 -18.782556
-9.7225069 0.86497197 -18.530455
-8.045637 3.2866784 -18.470786
-6.7233585 0.83105282 -18.946653
-9.6006294 2.4946278 -18.317635
-8.2481468 0 -18.844546
-15.720684 22.512674 1.1168407
-17.867645 20.275614 3.2982163
-15.109515 22.645688 2.9157316
-16.954979 21.587289 0
-21.017269 14.83887 7.3214422
-19.623015 17.683439 5.3732174
-13.550647 22.315916 6.3755294
-17.106244 20.211842 5.052568
-14.377371 22.57438 4.6879385
-16.165345 21.47163 4.0057304
-19.165661 19.394008 -2.2040918
-19.165661 19.394008 2.2040918
-18.111621 20.537069 -1.1138032
-18.111621 20.537069 1.1138032
-23.616809 1.8061146 13.906116
-23.397678 5.2967488 12.437382
-22.093033 11.810377 9.1430831
-22.883038 8.6285815 10.84667
-9.5993853 19.713804 12.183801
-13.114206 18.204301 11.250877
-10.630973 20.541127 10.926098
-19.894644 14.453945 8.9330293
-16.521994 16.455643 10.170147
-19.34345 15.946137 8.0347152
-12.612705 21.854532 8.0460882
-14.181053 18.905076 9.9105973
-11.645856 21.266701 9.5367349
-14.447926 20.941649 7.4297685
-12.431493 19.752092 10.438465
-17.968703 18.814945 6.1176819
-15.957788 17.96419 9.3190232
-18.700758 17.411592 7.0901486
-16.239874 19.921779 6.7832845
-17.652135 16.991308 8.7021758
-15.250964 19.474553 8.4170523
-22.560611 13.943224 -6.3672701
-23.764863 14.687493 -2.1987109
-21.848887 15.388548 -5.3776764
-22.560611 13.943224 6.3672701
-23.764863 14.687493 2.1987109
-21.848887 15.388548 5.3776764
-20.177281 18.100686 -3.3094898
-22.74704 15.983909 -1.1317602
-21.050557 16.785446 -4.3531542
-20.441874 18.352493 -1.1183863
-22.440428 15.780736 -3.2901583
-20.177281 18.100686 3.3094898
-22.74704 15.983909 1.1317602
-21.050557 16.785446 4.3531542
-20.441874 18.352493 1.1183863
-22.440428 15.780736 3.2901583
-21.644811 17.20699 0
-21.594933 -30.924843 1.5341636
-25.027928 -28.400868 4.619944
-20.170447 -30.23086 3.8923558
-24.038696 -30.606366 0
-28.325187 -19.998496 9.8671821
-27.028164 -24.35665 7.4009118
-16.957086 -27.92582 7.9782465
-23.119826 -27.317174 6.8287633
-18.557477 -29.137701 6.0509192
-21.803866 -28.960998 5.4029411
-27.602776 -27.931646 -3.174378
-27.602776 -27.931646 3.174378
-26.101979 -29.597469 -1.6051831
-26.101979 -29.597469 1.6051831
-24.824763 -1.8984938 14.617387
-27.222457 -6.1625994 14.4705
-29.120913 -15.567303 12.051533
-28.887789 -10.892812 13.692951
-11.142261 -22.882335 14.142061
-16.095408 -22.342615 13.808495
-12.502417 -24.157124 12.849494
-26.392894 -19.175082 11.850853
-21.263116 -21.177726 13.088554
-25.799082 -21.267959 10.7162
-15.370491 -26.633056 9.8053768
-17.680104 -23.569738 12.355951
-13.912512 -25.405882 11.392889
-18.250443 -26.453235 9.3851926
-15.062904 -23.933076 12.648006
-24.205986 -25.345975 8.2412471
-20.444561 -23.015094 11.939207
-25.071099 -23.342784 9.5053804
-21.235532 -26.050054 8.8699369
-23.134464 -22.2684 11.404862
-19.412508 -24.788593 10.713821
-30.559523 -18.886824 -8.6247992
-33.209591 -20.524656 -3.0725316
-30.053295 -21.167053 -7.3970309
-30.559523 -18.886824 8.6247992
-33.209591 -20.524656 3.0725316
-30.053295 -21.167053 7.3970309
-28.69808 -25.744545 -4.7070764
-32.46714 -22.814038 -1.6153757
-29.446704 -23.480427 -6.0894372
-29.807679 -26.761011 -1.6307948
-31.545395 -22.183603 -4.6251055
-28.69808 -25.744545 4.7070764
-32.46714 -22.814038 1.6153757
-29.446704 -23.480427 6.0894372
-29.807679 -26.761011 1.6307948
-31.545395 -22.183603 4.6251055
-31.411257 -24.971028 0
-1.4263378 -10.982038 18.650836
-4.2991978 -10.095017 18.991131
-2.382647 -12.347035 18.505366
-1.391419 -9.415351 18.87714
-10.189192 -7.8880322 19.060371
-7.2157677 -9.0706746 19.136249
-4.5057958 -15.255063 18.024583
-5.3897836 -11.455528 18.865564
-3.4147242 -13.780307 18.303702
-3.8856576 -11.916867 18.711063
-1.3382985 -6.4192538 19.17397
-4.1946351 -8.4859311 19.143793
-1.363465 -7.887208 19.048874
-2.796296 -8.9644451 19.034119
-22.238202 -1.1032243 15.529019
-19.323942 -3.1434086 17.028995
-23.352137 -3.00669 15.580868
-13.219063 -6.5222355 18.723029
-16.282797 -4.9476239 18.068746
-25.481928 -7.2800407 15.473109
-20.197505 -5.0489841 17.09411
-24.459814 -5.0794796 15.578183
-21.793862 -4.0658458 16.407944
-9.5551461 -21.280153 15.460551
-10.769246 -17.495264 17.425006
-8.2453228 -19.850484 16.36412
-11.900029 -21.113276 15.419176
-11.690607 -9.2108072 18.915799
-11.453152 -13.349981 18.531588
-10.105353 -9.8323976 18.998122
-5.7289899 -16.827047 17.619522
-9.3325489 -15.980949 17.990264
-6.9560327 -18.347018 17.082238
-6.2106231 -14.868864 18.239934
-8.8526781 -17.957425 17.285169
-16.801694 -20.366125 15.099171
-13.036581 -17.142708 17.393831
-14.334181 -20.811718 15.302048
-12.543831 -19.184205 16.520899
-6.9841094 -10.947992 18.970018
-9.7015992 -13.881998 18.506399
-8.5267686 -10.412528 19.014499
-6.6281853 -12.889167 18.682295
-9.9480195 -11.847406 18.824051
-7.9539456 -14.411855 18.403062
-1.2958771 -0.80089606 19.356567
-3.9457555 -2.438611 19.3208
-1.301824 -2.1541473 19.351861
-9.9398681 -6.1431764 19.068213
-6.7780412 -4.1890598 19.236611
-8.5068438 -6.7819879 19.172064
-1.3267332 -4.9294083 19.266006
-3.9882116 -3.8563543 19.327784
-1.3112275 -3.5356691 19.322263
-2.6943772 -5.8925864 19.263728
-2.6320152 -2.99332 19.34515
-5.6576923 -7.937861 19.208067
-5.4452396 -4.7918544 19.29582
-7.0715642 -7.3838301 19.217417
-4.1382135 -6.8962292 19.246525
-6.9252394 -5.7502021 19.246838
-4.0696717 -5.3463371 19.305094
-26.88786 -16.617612 13.092701
-22.552447 -13.938179 16.24657
-27.042275 -14.384144 13.995615
-24.473544 -17.873205 13.79397
-13.602343 -8.4067104 18.722486
-17.88395 -11.052889 17.956059
-15.226556 -7.672143 18.470563
-13.630639 -10.519693 18.664255
-26.33761 -9.6966038 15.199983
-22.296226 -11.688338 16.724819
-26.869156 -12.049072 14.713816
-23.650449 -8.3908083 16.316764
-24.731317 -13.069855 15.565298
-19.433942 -19.718629 14.779005
-20.255121 -15.016874 16.710118
-21.955105 -18.90712 14.355618
-17.438851 -18.203767 16.20119
-22.415155 -16.480994 15.438557
-18.510704 -6.0187578 17.678146
-19.766365 -10.253912 17.55868
-16.874467 -6.8714265 18.123863
-20.994598 -7.148575 17.114416
-17.423528 -8.9235388 18.101164
-21.722974 -9.3888368 17.011753
-13.386783 -14.896223 18.056414
-17.922093 -13.432511 17.663344
-13.56976 -12.711461 18.455699
-15.394628 -16.570673 17.297509
-15.732316 -11.945083 18.268496
-17.823706 -15.862939 17.074759
-1.4014445 10.790373 18.325331
-4.0976632 9.62179 18.100878
-2.3083181 11.961858 17.928074
-1.3704975 9.2737807 18.593301
-9.341577 7.2318452 17.474783
-6.7183708 8.4454153 17.81715
-4.2187684 14.283288 16.876384
-5.0483238 10.729784 17.670371
-3.2544783 13.133626 17.444747
-3.6980814 11.341592 17.807805
-1.3245628 6.3533694 18.977177
-4.0279023 8.1486233 18.382845
-1.346248 7.7876135 18.808337
-2.7170051 8.7102521 18.494394
-21.639119 1.0735041 15.110677
-18.084204 2.9417415 15.93649
-21.69612 2.7934706 14.475951
-20.324639 0 15.963275
-12.047854 5.9443655 17.064169
-14.926967 4.5356471 16.564204
-21.572454 6.1631264 13.099202
-18.180621 4.5448022 15.387125
-21.669881 4.5001045 13.801305
-19.878085 3.7084398 14.965613
-17.527939 -1.9920166 17.321563
-16.844949 1.9143962 16.646615
-18.938664 -1.0271157 16.701989
-18.519984 1.0044091 16.332756
-8.3582169 18.614486 13.523879
-9.2688659 15.05781 14.99734
-7.3163164 17.613916 14.520363
-10.119626 17.954447 13.112261
