-26.123165 -49.143895 11.125158
-24.981743 -50.0867 3.6918509
-17.928485 -43.321778 23.158726
-22.44143 -47.344307 17.852271
-16.729983 -49.971568 3.4878992
-21.911564 -49.43128 10.830988
-20.822931 -50.290723 3.5996689
-23.509197 -49.91685 7.3332675
-1.5581694 -21.932839 31.408739
-4.9413987 -26.769366 30.376994
-13.158196 -37.772523 26.668621
-8.7795465 -32.062944 28.893783
-1.798567 -43.468913 2.9101425
-5.6574081 -44.822915 9.1538787
-5.0770067 -45.609475 3.0682067
-13.689369 -42.49134 22.149864
-9.7071428 -44.576239 15.706487
-15.90211 -44.953822 19.946477
-12.539105 -49.007602 3.3748568
-9.313271 -46.677477 9.6317125
-8.6960794 -47.523659 3.2250015
-15.078501 -49.293829 6.8946244
-7.1719302 -46.350561 6.3062516
-20.028679 -48.465475 14.275395
-11.565092 -46.570266 13.142031
-18.056223 -46.993765 17.292616
-17.597403 -49.112183 10.559657
-13.746981 -46.013323 16.556137
-13.33799 -48.16216 10.152977
15.62852 -26.541974 2.0298189
14.467747 -27.217277 6.1614267
14.129828 -28.329347 2.0881337
11.280036 -27.256692 14.570738
13.018564 -27.465046 10.356334
10.758664 -32.135557 2.2429871
12.873201 -29.041231 6.3632829
12.504945 -30.201452 2.1617352
13.536782 -28.742518 4.2225535
1.5003745 -21.119317 30.243741
4.3460994 -23.544411 26.717422
0 -23.39471 29.786434
9.2527169 -26.561274 18.753118
6.9386915 -25.340133 22.835467
-3.2482714 -28.245315 28.581841
2.9668042 -25.79782 26.105186
-1.5854119 -25.780477 29.232913
1.5183802 -24.690471 27.996937
1.6880935 -40.798921 2.7313927
4.700886 -37.244514 7.6061934
4.2919814 -38.557173 2.5937895
0 -41.739497 5.6235562
9.3657394 -29.07094 15.154085
7.2382753 -33.238935 11.711775
10.348751 -29.254979 12.980738
8.7616481 -34.24386 2.3581673
7.007562 -35.121421 7.2471662
6.651774 -36.351628 2.4668566
9.988417 -32.653598 4.5671902
5.7098535 -36.90149 5.020653
-3.6141338 -42.599874 11.774316
3.1969329 -37.682319 10.415137
-1.7849696 -42.355938 8.6701217
1.6761974 -39.774858 8.1417831
12.086256 -29.246368 8.6144511
8.2402172 -33.181673 9.363798
11.262009 -29.310904 10.785733
11.098062 -30.973321 6.6596029
9.334473 -31.24396 11.241946
9.1418234 -33.010219 6.9588241
-11.074477 -39.239261 24.251197
-3.3141878 -35.821542 22.138931
-8.9653587 -36.425232 25.654918
-9.3052562 -40.77107 21.324128
8.0942583 -28.679702 17.725031
2.9803334 -32.213062 19.908767
6.9407931 -28.199653 19.861501
7.0550359 -30.911708 16.167474
-5.0745177 -30.938294 27.754203
-1.65471 -33.257713 23.369558
-6.9533479 -33.624319 26.811604
-1.6189738 -29.591615 26.567031
-5.1140042 -34.879915 24.528531
-5.5717118 -42.428886 15.07907
-1.7206808 -36.862463 19.340893
-7.4434216 -41.831244 18.221152
-1.7596808 -40.117861 14.236117
-5.2897828 -38.84199 20.357844
4.3943236 -26.79129 24.033997
1.5692589 -31.540246 22.162727
5.7007997 -27.567369 21.98187
1.542559 -28.194906 25.31308
4.3795545 -29.870622 21.005856
0 -30.695562 24.402071
4.6478943 -35.393966 12.578885
1.6235596 -34.781819 18.249227
5.9023107 -33.170363 14.448584
1.6549867 -37.731006 13.389124
4.4711963 -32.831246 17.207496
0 -37.462652 16.397182
-15.62852 26.541974 2.0298189
-14.467747 27.217277 6.1614267
-14.129828 28.329347 2.0881337
-11.280036 27.256692 14.570738
-13.018564 27.465046 10.356334
-10.758664 32.135557 2.2429871
-12.873201 29.041231 6.3632829
-12.504945 30.201452 2.1617352
-13.536782 28.742518 4.2225535
-1.5003745 21.119317 30.243741
-4.3460994 23.544411 26.717422
-9.2527169 26.561274 18.753118
-6.9386915 25.340133 22.835467
-1.6880935 40.798921 2.7313927
-4.700886 37.244514 7.6061934
-4.2919814 38.557173 2.5937895
-9.3657394 29.07094 15.154085
-7.2382753 33.238935 11.711775
-10.348751 29.254979 12.980738
-8.7616481 34.24386 2.3581673
-7.007562 35.121421 7.2471662
-6.651774 36.351628 2.4668566
-9.988417 32.653598 4.5671902
-5.7098535 36.90149 5.020653
-12.086256 29.246368 8.6144511
-8.2402172 33.181673 9.363798
-11.262009 29.310904 10.785733
-11.098062 30.973321 6.6596029
-9.334473 31.24396 11.241946
-9.1418234 33.010219 6.9588241
29.131526 49.474179 3.7835779
26.123165 49.143895 11.125158
24.981743 50.0867 3.6918509
17.928485 43.321778 23.158726
22.44143 47.344307 17.852271
16.729983 49.971568 3.4878992
21.911564 49.43128 10.830988
20.822931 50.290723 3.5996689
23.509197 49.91685 7.3332675
1.5581694 21.932839 31.408739
4.9413987 26.769366 30.376994
0 23.39471 29.786434
13.158196 37.772523 26.668621
8.7795465 32.062944 28.893783
-2.9668042 25.79782 26.105186
3.2482714 28.245315 28.581841
-1.5183802 24.690471 27.996937
1.5854119 25.780477 29.232913
1.798567 43.468913 2.9101425
5.6574081 44.822915 9.1538787
5.0770067 45.609475 3.0682067
0 41.739497 5.6235562
13.689369 42.49134 22.149864
9.7071428 44.576239 15.706487
15.90211 44.953822 19.946477
12.539105 49.007602 3.3748568
9.313271 46.677477 9.6317125
8.6960794 47.523659 3.2250015
15.078501 49.293829 6.8946244
7.1719302 46.350561 6.3062516
-3.1969329 37.682319 10.415137
3.6141338 42.599874 11.774316
-1.6761974 39.774858 8.1417831
1.7849696 42.355938 8.6701217
20.028679 48.465475 14.275395
11.565092 46.570266 13.142031
18.056223 46.993765 17.292616
17.597403 49.112183 10.559657
13.746981 46.013323 16.556137
13.33799 48.16216 10.152977
-8.0942583 28.679702 17.725031
-2.9803334 32.213062 19.908767
-6.9407931 28.199653 19.861501
-7.0550359 30.911708 16.167474
11.074477 39.239261 24.251197
3.3141878 35.821542 22.138931
8.9653587 36.425232 25.654918
9.3052562 40.77107 21.324128
-4.3943236 26.79129 24.033997
-1.5692589 31.540246 22.162727
-5.7007997 27.567369 21.98187
-1.542559 28.194906 25.31308
-4.3795545 29.870622 21.005856
-4.6478943 35.393966 12.578885
-1.6235596 34.781819 18.249227
-5.9023107 33.170363 14.448584
-1.6549867 37.731006 13.389124
-4.4711963 32.831246 17.207496
5.0745177 30.938294 27.754203
1.65471 33.257713 23.369558
6.9533479 33.624319 26.811604
1.6189738 29.591615 26.567031
5.1140042 34.879915 24.528531
0 30.695562 24.402071
5.5717118 42.428886 15.07907
1.7206808 36.862463 19.340893
7.4434216 41.831244 18.221152
1.7596808 40.117861 14.236117
5.2897828 38.84199 20.357844
0 37.462652 16.397182
0 -17.295146 32.868782
0 -12.470259 34.593102
0 -2.519725 36.355759
0 -7.532508 35.762709
0 17.295146 32.868782
0 12.470259 34.593102
0 2.519725 36.355759
0 7.532508 35.762709
-29.131526 -49.474179 -3.7835779
-26.123165 -49.143895 -11.125158
-24.981743 -50.0867 -3.6918509
-17.928485 -43.321778 -23.158726
-22.44143 -47.344307 -17.852271
-16.729983 -49.971568 -3.4878992
-21.911564 -49.43128 -10.830988
-20.822931 -50.290723 -3.5996689
-23.509197 -49.91685 -7.3332675
-1.5581694 -21.932839 -31.408739
-4.9413987 -26.769366 -30.376994
-13.158196 -37.772523 -26.668621
-8.7795465 -32.062944 -28.893783
-1.798567 -43.468913 -2.9101425
-5.6574081 -44.822915 -9.1538787
-5.0770067 -45.609475 -3.0682067
-13.689369 -42.49134 -22.149864
-9.7071428 -44.576239 -15.706487
-15.90211 -44.953822 -19.946477
-12.539105 -49.007602 -3.3748568
-9.313271 -46.677477 -9.6317125
-8.6960794 -47.523659 -3.2250015
-15.078501 -49.293829 -6.8946244
-7.1719302 -46.350561 -6.3062516
-20.028679 -48.465475 -14.275395
-11.565092 -46.570266 -13.142031
-18.056223 -46.993765 -17.292616
-17.597403 -49.112183 -10.559657
-13.746981 -46.013323 -16.556137
-13.33799 -48.16216 -10.152977
15.62852 -26.541974 -2.0298189
14.467747 -27.217277 -6.1614267
14.129828 -28.329347 -2.0881337
11.280036 -27.256692 -14.570738
13.018564 -27.465046 -10.356334
10.758664 -32.135557 -2.2429871
12.873201 -29.041231 -6.3632829
12.504945 -30.201452 -2.1617352
13.536782 -28.742518 -4.2225535
1.5003745 -21.119317 -30.243741
4.3460994 -23.544411 -26.717422
0 -23.39471 -29.786434
9.2527169 -26.561274 -18.753118
6.9386915 -25.340133 -22.835467
-3.2482714 -28.245315 -28.581841
2.9668042 -25.79782 -26.105186
-1.5854119 -25.780477 -29.232913
1.5183802 -24.690471 -27.996937
1.6880935 -40.798921 -2.7313927
4.700886 -37.244514 -7.6061934
4.2919814 -38.557173 -2.5937895
0 -41.739497 -5.6235562
9.3657394 -29.07094 -15.154085
7.2382753 -33.238935 -11.711775
10.348751 -29.254979 -12.980738
8.7616481 -34.24386 -2.3581673
7.007562 -35.121421 -7.2471662
6.651774 -36.351628 -2.4668566
9.988417 -32.653598 -4.5671902
5.7098535 -36.90149 -5.020653
-3.6141338 -42.599874 -11.774316
3.1969329 -37.682319 -10.415137
-1.7849696 -42.355938 -8.6701217
1.6761974 -39.774858 -8.1417831
12.086256 -29.246368 -8.6144511
8.2402172 -33.181673 -9.363798
11.262009 -29.310904 -10.785733
11.098062 -30.973321 -6.6596029
9.334473 -31.24396 -11.241946
9.1418234 -33.010219 -6.9588241
-11.074477 -39.239261 -24.251197
-3.3141878 -35.821542 -22.138931
-8.9653587 -36.425232 -25.654918
-9.3052562 -40.77107 -21.324128
8.0942583 -28.679702 -17.725031
2.9803334 -32.213062 -19.908767
6.9407931 -28.199653 -19.861501
7.0550359 -30.911708 -16.167474
-5.0745177 -30.938294 -27.754203
-1.65471 -33.257713 -23.369558
-6.9533479 -33.624319 -26.811604
-1.6189738 -29.591615 -26.567031
-5.1140042 -34.879915 -24.528531
-5.5717118 -42.428886 -15.07907
-1.7206808 -36.862463 -19.340893
-7.4434216 -41.831244 -18.221152
-1.7596808 -40.117861 -14.236117
-5.2897828 -38.84199 -20.357844
4.3943236 -26.79129 -24.033997
1.5692589 -31.540246 -22.162727
5.7007997 -27.567369 -21.98187
1.542559 -28.194906 -25.31308
4.3795545 -29.870622 -21.005856
0 -30.695562 -24.402071
4.6478943 -35.393966 -12.578885
1.6235596 -34.781819 -18.249227
5.9023107 -33.170363 -14.448584
1.6549867 -37.731006 -13.389124
4.4711963 -32.831246 -17.207496
0 -37.462652 -16.397182
-15.62852 26.541974 -2.0298189
-14.467747 27.217277 -6.1614267
-14.129828 28.329347 -2.0881337
-11.280036 27.256692 -14.570738
-13.018564 27.465046 -10.356334
-10.758664 32.135557 -2.2429871
-12.873201 29.041231 -6.3632829
-12.504945 30.201452 -2.1617352
-13.536782 28.742518 -4.2225535
-1.5003745 21.119317 -30.243741
-4.3460994 23.544411 -26.717422
-9.2527169 26.561274 -18.753118
-6.9386915 25.340133 -22.835467
-1.6880935 40.798921 -2.7313927
-4.700886 37.244514 -7.6061934
-4.2919814 38.557173 -2.5937895
-9.3657394 29.07094 -15.154085
-7.2382753 33.238935 -11.711775
-10.348751 29.254979 -12.980738
-8.7616481 34.24386 -2.3581673
-7.007562 35.121421 -7.2471662
-6.651774 36.351628 -2.4668566
-9.988417 32.653598 -4.5671902
-5.7098535 36.90149 -5.020653
-12.086256 29.246368 -8.6144511
-8.2402172 33.181673 -9.363798
-11.262009 29.310904 -10.785733
-11.098062 30.973321 -6.6596029
-9.334473 31.24396 -11.241946
-9.1418234 33.010219 -6.9588241
29.131526 49.474179 -3.7835779
26.123165 49.143895 -11.125158
24.981743 50.0867 -3.6918509
17.928485 43.321778 -23.158726
22.44143 47.344307 -17.852271
16.729983 49.971568 -3.4878992
21.911564 49.43128 -10.830988
20.822931 50.290723 -3.5996689
23.509197 49.91685 -7.3332675
1.5581694 21.932839 -31.408739
4.9413987 26.769366 -30.376994
0 23.39471 -29.786434
13.158196 37.772523 -26.668621
8.7795465 32.062944 -28.893783
-2.9668042 25.79782 -26.105186
3.2482714 28.245315 -28.581841
-1.5183802 24.690471 -27.996937
1.5854119 25.780477 -29.232913
1.798567 43.468913 -2.9101425
5.6574081 44.822915 -9.1538787
5.0770067 45.609475 -3.0682067
0 41.739497 -5.6235562
13.689369 42.49134 -22.149864
9.7071428 44.576239 -15.706487
15.90211 44.953822 -19.946477
12.539105 49.007602 -3.3748568
9.313271 46.677477 -9.6317125
8.6960794 47.523659 -3.2250015
15.078501 49.293829 -6.8946244
7.1719302 46.350561 -6.3062516
-3.1969329 37.682319 -10.415137
3.6141338 42.599874 -11.774316
-1.6761974 39.774858 -8.1417831
1.7849696 42.355938 -8.6701217
20.028679 48.465475 -14.275395
11.565092 46.570266 -13.142031
18.056223 46.993765 -17.292616
17.597403 49.112183 -10.559657
13.746981 46.013323 -16.556137
13.33799 48.16216 -10.152977
-8.0942583 28.679702 -17.725031
-2.9803334 32.213062 -19.908767
-6.9407931 28.199653 -19.861501
-7.0550359 30.911708 -16.167474
11.074477 39.239261 -24.251197
3.3141878 35.821542 -22.138931
8.9653587 36.425232 -25.654918
9.3052562 40.77107 -21.324128
-4.3943236 26.79129 -24.033997
-1.5692589 31.540246 -22.162727
-5.7007997 27.567369 -21.98187
-1.542559 28.194906 -25.31308
-4.3795545 29.870622 -21.005856
-4.6478943 35.393966 -12.578885
-1.6235596 34.781819 -18.249227
-5.9023107 33.170363 -14.448584
-1.6549867 37.731006 -13.389124
-4.4711963 32.831246 -17.207496
5.0745177 30.938294 -27.754203
1.65471 33.257713 -23.369558
6.9533479 33.624319 -26.811604
1.6189738 29.591615 -26.567031
5.1140042 34.879915 -24.528531
0 30.695562 -24.402071
5.5717118 42.428886 -15.07907
1.7206808 36.862463 -19.340893
7.4434216 41.831244 -18.221152
1.7596808 40.117861 -14.236117
5.2897828 38.84199 -20.357844
0 37.462652 -16.397182
0 -17.295146 -32.868782
0 -12.470259 -34.593102
0 -2.519725 -36.355759
0 -7.532508 -35.762709
0 17.295146 -32.868782
0 12.470259 -34.593102
0 2.519725 -36.355759
0 7.532508 -35.762709
33.84578 48.468566 -2.4044975
40.230021 45.651702 -7.4261219
32.410985 48.576611 -6.2544517
42.663889 30.122083 -14.862121
43.972498 39.626174 -12.040647
29.185806 48.064718 -13.731814
38.385167 45.353902 -11.337595
30.862032 48.457485 -10.062988
35.589231 47.271419 -8.8189187
29.530931 2.2584019 -17.388487
32.319577 7.3164815 -17.17995
39.075216 20.888622 -16.171068
35.486354 13.380955 -16.820703
20.22023 41.525331 -25.664066
29.104616 40.401163 -24.969292
22.76286 43.982314 -23.394775
39.638519 28.798352 -17.79836
35.54104 35.398312 -21.87736
40.807817 33.640693 -16.950399
27.26108 47.23635 -17.390802
31.682275 42.236341 -22.141534
25.146154 45.91983 -20.592063
31.958384 46.322307 -16.434428
27.470957 43.647923 -23.066788
40.446492 42.351334 -13.770542
35.399731 39.850606 -20.672723
41.220524 38.378924 -15.628225
36.402798 44.656045 -15.205201
38.378761 36.942011 -18.920019
34.160734 43.62118 -18.853411
17.211212 -24.647172 -1.2227319
19.228218 -21.819548 -3.5493665
16.721416 -25.061557 -3.2267853
22.647871 -15.990128 -7.8894685
21.025651 -18.947437 -5.7572905
15.536093 -25.585653 -7.3096745
18.699364 -22.094188 -5.5231182
16.161295 -25.375378 -5.2696114
17.747122 -23.572626 -4.3976906
27.768954 -2.1236532 -16.350994
26.691205 -6.0423348 -14.188105
24.124539 -12.896368 -9.9838107
25.471672 -9.604686 -12.073695
12.323632 -25.308459 -15.641488
15.923409 -22.103856 -13.660935
13.221034 -25.545633 -13.58806
22.007124 -15.988713 -9.8815681
19.097943 -19.021248 -11.755778
21.260364 -17.526381 -8.8309464
14.82031 -25.679737 -9.4543973
16.698524 -22.261171 -11.669962
14.057319 -25.670316 -11.51147
16.519371 -23.944119 -8.4949978
15.026669 -23.875502 -12.61758
19.624848 -20.549087 -6.6815382
18.324703 -20.628703 -10.701254
20.463526 -19.052841 -7.7584792
18.120847 -22.229208 -7.5689545
19.817813 -19.075912 -9.7698149
17.450832 -22.283652 -9.6311663
2.3874304 -18.381937 -31.218113
6.7611822 -15.876043 -29.866617
3.8126016 -19.757155 -29.611431
2.3813006 -16.113608 -32.306691
14.231123 -11.01712 -26.621392
10.678414 -13.423439 -28.319203
6.5093875 -22.03853 -26.039572
8.0506215 -17.110913 -28.17915
5.1985755 -20.979137 -27.865552
6.0047525 -18.415889 -28.915389
2.381638 -11.423714 -34.122026
6.7877658 -13.731948 -30.978518
2.382071 -13.779517 -33.279747
4.6528516 -14.916244 -31.671516
26.684355 -1.3237954 -18.633784
23.642381 -3.8458852 -20.834568
26.270898 -3.3824933 -17.528305
17.512769 -8.6407334 -24.804487
20.618043 -6.2649141 -22.879495
25.297766 -7.2274268 -15.361282
23.313483 -5.8279182 -19.731311
25.803037 -5.3584217 -16.433666
24.781134 -4.6231488 -18.656971
11.168166 -24.872492 -18.070473
12.723162 -20.669515 -20.586509
10.123416 -24.371964 -20.091487
13.132652 -23.30022 -17.016318
15.324868 -12.074172 -24.796157
14.093051 -16.427091 -22.803036
13.657796 -13.288885 -25.676735
7.8218086 -22.974022 -24.055991
11.677769 -19.996877 -22.511122
9.000198 -23.738645 -22.102185
8.5988871 -20.586611 -25.25401
10.932292 -22.175868 -21.34569
16.678446 -20.21673 -14.988412
14.618684 -19.223124 -19.504723
14.972884 -21.739047 -15.983878
13.900699 -21.259363 -18.307967
10.070915 -15.786737 -27.354303
12.395477 -17.736662 -23.645137
11.89995 -14.531714 -26.536616
9.3501373 -18.182275 -26.354427
13.044124 -15.534654 -24.682627
10.566698 -19.145934 -24.448193
2.4232304 -1.4976387 -36.195888
7.0320738 -4.3460606 -34.433277
2.4144432 -3.9952145 -35.891156
14.438452 -8.9234542 -27.698102
11.064179 -6.8380387 -31.401006
12.676689 -10.106351 -28.569738
2.4007203 -8.9197515 -34.861788
6.9641531 -6.7339058 -33.749875
2.4051657 -6.485427 -35.442549
4.6957609 -10.2696 -33.572827
4.7613646 -5.4149718 -34.995736
8.8975086 -12.483391 -30.207359
9.0787881 -7.9894062 -32.171708
10.822895 -11.300812 -29.411893
6.877694 -11.461505 -31.987647
10.954192 -9.0955436 -30.444225
6.9394008 -9.1163069 -32.918082
22.843112 -14.117819 -11.123162
21.395152 -13.222931 -15.412865
23.503802 -12.501984 -12.164293
21.39949 -15.628201 -12.061348
17.228104 -10.647554 -23.713041
19.527629 -12.068739 -19.606366
18.77387 -9.4595134 -22.773629
16.619741 -12.826587 -22.757193
24.718763 -9.1005998 -14.265712
21.937443 -11.500254 -16.455689
24.13346 -10.82229 -13.215721
23.86954 -8.4685384 -16.467918
22.770188 -12.03345 -14.331011
18.368042 -18.637115 -13.968416
19.842764 -14.711158 -16.36993
19.903662 -17.140476 -13.014257
17.459011 -18.224812 -16.21992
20.672126 -15.199412 -14.238037
21.779822 -7.0817119 -20.800228
20.969314 -10.877948 -18.627272
20.296057 -8.2647271 -21.79879
22.884795 -7.7921793 -18.655271
19.929096 -10.206777 -20.70418
22.422304 -9.6910928 -17.559414
15.334348 -17.063388 -20.683337
18.855625 -14.132188 -18.583398
15.986345 -14.975195 -21.742402
16.441765 -17.697804 -18.474079
17.801397 -13.516075 -20.67113
18.187684 -16.186876 -17.423443
2.521593 19.414918 -32.972427
7.8396024 18.408299 -34.630394
4.1962085 21.745032 -32.590801
2.4999445 16.916439 -33.916313
17.74214 13.735198 -33.189263
13.13575 16.512465 -34.83607
7.8957415 26.732244 -31.585419
9.7815934 20.789947 -34.237976
5.994662 24.191788 -32.132758
6.9708558 21.378817 -33.567579
2.4675921 11.835999 -35.353501
7.7195356 15.61696 -35.231
2.4848333 14.373965 -34.715433
5.1027017 16.358386 -34.733602
27.658467 1.3721205 -19.31401
26.114296 4.2479894 -23.012914
28.906904 3.7218906 -19.287085
26.052171 0 -20.461764
21.325587 10.521963 -30.204832
24.042211 7.3053676 -26.679236
31.590459 9.025213 -19.182324
27.2646 6.8156207 -23.07533
30.220625 6.2758061 -19.247179
28.149215 5.2514955 -21.192699
22.902817 -2.6028612 -22.633157
24.410689 2.774228 -24.123275
24.462716 -1.326706 -21.573645
25.289783 1.371561 -22.303035
17.140219 38.17278 -27.733457
19.367418 31.463493 -31.33714
14.63525 35.234132 -29.04592
21.67206 38.451012 -28.08105
19.943279 15.712931 -32.268904
20.133907 23.468411 -32.577346
17.806998 17.326014 -33.47726
10.047348 29.51082 -30.900642
16.771637 28.719557 -32.330521
12.249124 32.307912 -30.080717
11.081723 26.530774 -32.545834
15.859847 32.171284 -30.966917
29.536803 35.802951 -26.543827
23.078129 30.347038 -30.79159
25.949746 37.676291 -27.701915
22.630882 34.611076 -29.806088
12.702438 19.911801 -34.501964
17.38911 24.882042 -33.1708
15.359747 18.756672 -34.251886
11.976357 23.289221 -33.756727
17.70696 21.087771 -33.505837
14.319799 25.946225 -33.131751
2.4348818 1.5048397 -36.369925
7.325136 4.527183 -35.868287
2.4455185 4.0466354 -36.353097
4.8426999 0 -35.943778
17.195963 10.627689 -32.987991
12.254492 7.5736925 -34.779207
15.16192 12.087675 -34.170759
2.4693536 9.1747553 -35.85844
7.4210358 7.1756832 -35.964033
2.4553466 6.6207377 -36.182016
5.0103597 10.957626 -35.822084
4.9286405 5.6052102 -36.225204
9.3480408 -2.8693872 -33.821529
9.6815136 2.9717469 -35.028045
7.1778969 -1.4777564 -35.066008
7.2780896 1.4983837 -35.555477
10.408401 14.603205 -35.336893
10.028368 8.8250439 -35.536651
12.87197 13.44037 -34.980382
7.6666937 12.776353 -35.657226
12.57594 10.442122 -34.951437
7.5672713 9.9411418 -35.896479
37.822631 23.375672 -18.417248
32.188063 19.893317 -23.187976
36.208429 19.259743 -18.739519
36.509497 26.663147 -20.577768
22.114535 13.667534 -30.438804
27.053114 16.719744 -27.162194
23.668627 11.925815 -28.71121
22.560082 17.411153 -30.891223
33.088718 12.18213 -19.096187
30.956054 16.228075 -23.220719
34.609617 15.520167 -18.952569
30.730335 10.902641 -21.201273
33.503834 17.705902 -21.08651
32.523276 32.999708 -24.733102
30.719137 22.774755 -25.342746
34.750014 29.925737 -22.721728
29.36971 30.657947 -27.285299
33.530399 24.653601 -23.09424
26.205777 8.5208117 -25.027116
28.423376 14.744784 -25.248798
25.028569 10.191846 -26.8817
28.436308 9.6824468 -23.180763
26.037822 13.335389 -27.050486
29.672268 12.824583 -23.237025
23.131738 25.739982 -31.200644
27.870605 20.888867 -27.468224
22.923648 21.473708 -31.177557
26.210948 28.213287 -29.4508
25.214028 19.144267 -29.278739
28.728314 25.567943 -27.52116
16.451928 -7.5128873 -26.619779
17.493949 -2.6188361 -28.305804
18.088215 -6.3211012 -25.681915
14.944724 -6.5214617 -28.573848
19.301093 8.8139779 -31.229824
18.453134 2.7624257 -29.857798
20.827864 7.2784981 -29.571709
16.957682 7.3998608 -32.422562
21.272732 -3.8894599 -23.713239
19.210095 -1.3601942 -27.338293
19.700694 -5.1091974 -24.706557
21.982199 -1.3395777 -24.484813
18.656354 -3.8897019 -26.529597
11.446644 -4.2295316 -32.208111
15.862964 -1.4112635 -30.233759
13.270353 -5.4209979 -30.465436
11.716239 -1.4482067 -33.016759
15.42243 -4.0073645 -29.425407
23.340403 4.2675083 -26.018123
19.772713 1.400031 -28.138966
22.174643 5.7507937 -27.809125
22.6754 1.3818208 -25.256932
20.30582 4.2336025 -28.875161
20.935731 0 -26.335225
12.193194 4.5053816 -34.308724
16.28632 1.4489278 -31.040648
14.572726 5.9530233 -33.455363
11.968495 1.4793873 -33.727625
16.646433 4.3254096 -31.760759
14.041852 0 -32.081429
33.84578 48.468566 2.4044975
40.230021 45.651702 7.4261219
32.410985 48.576611 6.2544517
37.315001 47.509921 0
42.663889 30.122083 14.862121
43.972498 39.626174 12.040647
29.185806 48.064718 13.731814
38.385167 45.353902 11.337595
30.862032 48.457485 10.062988
35.589231 47.271419 8.8189187
43.820888 44.342987 -5.0394954
43.820888 44.342987 5.0394954
40.74019 46.195982 -2.5053835
40.74019 46.195982 2.5053835
29.530931 2.2584019 17.388487
32.319577 7.3164815 17.17995
39.075216 20.888622 16.171068
35.486354 13.380955 16.820703
20.22023 41.525331 25.664066
29.104616 40.401163 24.969292
22.76286 43.982314 23.394775
39.638519 28.798352 17.79836
35.54104 35.398312 21.87736
40.807817 33.640693 16.950399
27.26108 47.23635 17.390802
31.682275 42.236341 22.141534
25.146154 45.91983 20.592063
31.958384 46.322307 16.434428
27.470957 43.647923 23.066788
40.446492 42.351334 13.770542
35.399731 39.850606 20.672723
41.220524 38.378924 15.628225
36.402798 44.656045 15.205201
38.378761 36.942011 18.920019
34.160734 43.62118 18.853411
44.314554 27.3879 -12.506875
51.06281 31.558552 -4.7243008
46.139533 32.496868 -11.356344
44.314554 27.3879 12.506875
51.06281 31.558552 4.7243008
46.139533 32.496868 11.356344
46.193815 41.439663 -7.5767375
51.902833 36.471126 -2.5823825
46.966372 37.450388 -9.7124205
47.403482 42.558331 -2.5934709
49.528419 34.829768 -7.2617305
46.193815 41.439663 7.5767375
51.902833 36.471126 2.5823825
46.966372 37.450388 9.7124205
47.403482 42.558331 2.5934709
49.528419 34.829768 7.2617305
50.440062 40.098369 0
17.211212 -24.647172 1.2227319
19.228218 -21.819548 3.5493665
16.721416 -25.061557 3.2267853
18.3018 -23.302078 0
22.647871 -15.990128 7.8894685
21.025651 -18.947437 5.7572905
15.536093 -25.585653 7.3096745
18.699364 -22.094188 5.5231182
16.161295 -25.375378 5.2696114
17.747122 -23.572626 4.3976906
20.316274 -20.55833 -2.3364147
20.316274 -20.55833 2.3364147
19.341098 -21.931193 -1.1894119
19.341098 -21.931193 1.1894119
27.768954 -2.1236532 16.350994
26.691205 -6.0423348 14.188105
24.124539 -12.896368 9.9838107
25.471672 -9.604686 12.073695
12.323632 -25.308459 15.641488
15.923409 -22.103856 13.660935
13.221034 -25.545633 13.58806
22.007124 -15.988713 9.8815681
19.097943 -19.021248 11.755778
21.260364 -17.526381 8.8309464
14.82031 -25.679737 9.4543973
16.698524 -22.261171 11.669962
14.057319 -25.670316 11.51147
16.519371 -23.944119 8.4949978
15.026669 -23.875502 12.61758
19.624848 -20.549087 6.6815382
18.324703 -20.628703 10.701254
20.463526 -19.052841 7.7584792
18.120847 -22.229208 7.5689545
19.817813 -19.075912 9.7698149
17.450832 -22.283652 9.6311663
23.847011 -14.738263 -6.7303303
24.364945 -15.058364 -2.2542303
23.031424 -16.221428 -5.6687346
23.847011 -14.738263 6.7303303
24.364945 -15.058364 2.2542303
23.031424 -16.221428 5.6687346
21.289832 -19.098735 -3.4919711
23.423865 -16.459501 -1.165435
22.174751 -17.681864 -4.5856322
21.39987 -19.212571 -1.1707988
23.292283 -16.379784 -3.4150552
21.289832 -19.098735 3.4919711
23.423865 -16.459501 1.165435
22.174751 -17.681864 4.5856322
21.39987 -19.212571 1.1707988
23.292283 -16.379784 3.4150552
22.440764 -17.839749 0
2.3874304 -18.381937 31.218113
6.7611822 -15.876043 29.866617
3.8126016 -19.757155 29.611431
2.3813006 -16.113608 32.306691
14.231123 -11.01712 26.621392
10.678414 -13.423439 28.319203
6.5093875 -22.03853 26.039572
8.0506215 -17.110913 28.17915
5.1985755 -20.979137 27.865552
6.0047525 -18.415889 28.915389
2.381638 -11.423714 34.122026
6.7877658 -13.731948 30.978518
2.382071 -13.779517 33.279747
4.6528516 -14.916244 31.671516
26.684355 -1.3237954 18.633784
23.642381 -3.8458852 20.834568
26.270898 -3.3824933 17.528305
17.512769 -8.6407334 24.804487
20.618043 -6.2649141 22.879495
25.297766 -7.2274268 15.361282
23.313483 -5.8279182 19.731311
25.803037 -5.3584217 16.433666
24.781134 -4.6231488 18.656971
11.168166 -24.872492 18.070473
12.723162 -20.669515 20.586509
10.123416 -24.371964 20.091487
13.132652 -23.30022 17.016318
15.324868 -12.074172 24.796157
14.093051 -16.427091 22.803036
13.657796 -13.288885 25.676735
7.8218086 -22.974022 24.055991
11.677769 -19.996877 22.511122
9.000198 -23.738645 22.102185
8.5988871 -20.586611 25.25401
10.932292 -22.175868 21.34569
16.678446 -20.21673 14.988412
14.618684 -19.223124 19.504723
14.972884 -21.739047 15.983878
13.900699 -21.259363 18.307967
10.070915 -15.786737 27.354303
12.395477 -17.736662 23.645137
11.89995 -14.531714 26.536616
9.3501373 -18.182275 26.354427
13.044124 -15.534654 24.682627
10.566698 -19.145934 24.448193
2.4232304 -1.4976387 36.195888
7.0320738 -4.3460606 34.433277
2.4144432 -3.9952145 35.891156
14.438452 -8.9234542 27.698102
11.064179 -6.8380387 31.401006
12.676689 -10.106351 28.569738
2.4007203 -8.9197515 34.861788
6.9641531 -6.7339058 33.749875
2.4051657 -6.485427 35.442549
4.6957609 -10.2696 33.572827
4.7613646 -5.4149718 34.995736
8.8975086 -12.483391 30.207359
9.0787881 -7.9894062 32.171708
10.822895 -11.300812 29.411893
6.877694 -11.461505 31.987647
10.954192 -9.0955436 30.444225
6.9394008 -9.1163069 32.918082
22.843112 -14.117819 11.123162
21.395152 -13.222931 15.412865
23.503802 -12.501984 12.164293
21.39949 -15.628201 12.061348
17.228104 -10.647554 23.713041
19.527629 -12.068739 19.606366
18.77387 -9.4595134 22.773629
16.619741 -12.826587 22.757193
24.718763 -9.1005998 14.265712
21.937443 -11.500254 16.455689
24.13346 -10.82229 13.215721
23.86954 -8.4685384 16.467918
22.770188 -12.03345 14.331011
18.368042 -18.637115 13.968416
19.842764 -14.711158 16.36993
19.903662 -17.140476 13.014257
17.459011 -18.224812 16.21992
20.672126 -15.199412 14.238037
21.779822 -7.0817119 20.800228
20.969314 -10.877948 18.627272
20.296057 -8.2647271 21.79879
22.884795 -7.7921793 18.655271
19.929096 -10.206777 20.70418
22.422304 -9.6910928 17.559414
15.334348 -17.063388 20.683337
18.855625 -14.132188 18.583398
15.986345 -14.975195 21.742402
16.441765 -17.697804 18.474079
17.801397 -13.516075 20.67113
18.187684 -16.186876 17.423443
2.521593 19.414918 32.972427
7.8396024 18.408299 34.630394
4.1962085 21.745032 32.590801
2.4999445 16.916439 33.916313
17.74214 13.735198 33.189263
13.13575 16.512465 34.83607
7.8957415 26.732244 31.585419
9.7815934 20.789947 34.237976
5.994662 24.191788 32.132758
6.9708558 21.378817 33.567579
2.4675921 11.835999 35.353501
7.7195356 15.61696 35.231
2.4848333 14.373965 34.715433
5.1027017 16.358386 34.733602
27.658467 1.3721205 19.31401
26.114296 4.2479894 23.012914
28.906904 3.7218906 19.287085
26.052171 0 20.461764
21.325587 10.521963 30.204832
24.042211 7.3053676 26.679236
31.590459 9.025213 19.182324
27.2646 6.8156207 23.07533
30.220625 6.2758061 19.247179
28.149215 5.2514955 21.192699
22.902817 -2.6028612 22.633157
24.410689 2.774228 24.123275
24.462716 -1.326706 21.573645
25.289783 1.371561 22.303035
17.140219 38.17278 27.733457
19.367418 31.463493 31.33714
14.63525 35.234132 29.04592
21.67206 38.451012 28.08105
19.943279 15.712931 32.268904
20.133907 23.468411 32.577346
17.806998 17.326014 33.47726
10.047348 29.51082 30.900642
16.771637 28.719557 32.330521
12.249124 32.307912 30.080717
11.081723 26.530774 32.545834
15.859847 32.171284 30.966917
29.536803 35.802951 26.543827
23.078129 30.347038 30.79159
25.949746 37.676291 27.701915
22.630882 34.611076 29.806088
12.702438 19.911801 34.501964
17.38911 24.882042 33.1708
15.359747 18.756672 34.251886
11.976357 23.289221 33.756727
17.70696 21.087771 33.505837
14.319799 25.946225 33.131751
2.4348818 1.5048397 36.369925
7.325136 4.527183 35.868287
2.4455185 4.0466354 36.353097
4.8426999 0 35.943778
17.195963 10.627689 32.987991
12.254492 7.5736925 34.779207
15.16192 12.087675 34.170759
2.4693536 9.1747553 35.85844
7.4210358 7.1756832 35.964033
2.4553466 6.6207377 36.182016
5.0103597 10.957626 35.822084
4.9286405 5.6052102 36.225204
9.3480408 -2.8693872 33.821529
9.6815136 2.9717469 35.028045
7.1778969 -1.4777564 35.066008
7.2780896 1.4983837 35.555477
10.408401 14.603205 35.336893
10.028368 8.8250439 35.536651
12.87197 13.44037 34.980382
7.6666937 12.776353 35.657226
12.57594 10.442122 34.951437
7.5672713 9.9411418 35.896479
37.822631 23.375672 18.417248
32.188063 19.893317 23.187976
36.208429 19.259743 18.739519
36.509497 26.663147 20.577768
22.114535 13.667534 30.438804
27.053114 16.719744 27.162194
23.668627 11.925815 28.71121
22.560082 17.411153 30.891223
33.088718 12.18213 19.096187
30.956054 16.228075 23.220719
34.609617 15.520167 18.952569
30.730335 10.902641 21.201273
33.503834 17.705902 21.08651
32.523276 32.999708 24.733102
30.719137 22.774755 25.342746
34.750014 29.925737 22.721728
29.36971 30.657947 27.285299
33.530399 24.653601 23.09424
26.205777 8.5208117 25.027116
28.423376 14.744784 25.248798
25.028569 10.191846 26.8817
28.436308 9.6824468 23.180763
26.037822 13.335389 27.050486
29.672268 12.824583 23.237025
23.131738 25.739982 31.200644
27.870605 20.888867 27.468224
22.923648 21.473708 31.177557
26.210948 28.213287 29.4508
25.214028 19.144267 29.278739
28.728314 25.567943 27.52116
16.451928 -7.5128873 26.619779
17.493949 -2.6188361 28.305804
18.088215 -6.3211012 25.681915
14.944724 -6.5214617 28.573848
19.301093 8.8139779 31.229824
18.453134 2.7624257 29.857798
20.827864 7.2784981 29.571709
16.957682 7.3998608 32.422562
21.272732 -3.8894599 23.713239
19.210095 -1.3601942 27.338293
19.700694 -5.1091974 24.706557
21.982199 -1.3395777 24.484813
18.656354 -3.8897019 26.529597
11.446644 -4.2295316 32.208111
15.862964 -1.4112635 30.233759
13.270353 -5.4209979 30.465436
11.716239 -1.4482067 33.016759
15.42243 -4.0073645 29.425407
23.340403 4.2675083 26.018123
19.772713 1.400031 28.138966
22.174643 5.7507937 27.809125
22.6754 1.3818208 25.256932
20.30582 4.2336025 28.875161
20.935731 0 26.335225
12.193194 4.5053816 34.308724
16.28632 1.4489278 31.040648
14.572726 5.9530233 33.455363
11.968495 1.4793873 33.727625
16.646433 4.3254096 31.760759
14.041852 0 32.081429
29.512776 0 -15.529258
31.80785 0 -11.466221
30.879703 2.2761184 -15.401869
28.931985 -2.1325537 -14.430406
34.66991 0 -2.402883
33.625157 0 -7.082287
33.914686 7.4311153 -15.033473
33.358914 2.3283746 -11.168231
32.350104 4.7525428 -15.235837
32.171568 2.3027506 -13.320674
27.665208 -6.0617796 -12.263246
30.986741 -2.1628025 -10.374052
28.312469 -4.1593752 -13.334243
30.015607 -2.1484329 -12.427996
29.512776 0 15.529258
31.80785 0 11.466221
30.879703 2.2761184 15.401869
28.931985 -2.1325537 14.430406
34.66991 0 2.402883
33.625157 0 7.082287
33.914686 7.4311153 15.033473
33.358914 2.3283746 11.168231
32.350104 4.7525428 15.235837
32.171568 2.3027506 13.320674
27.665208 -6.0617796 12.263246
30.986741 -2.1628025 10.374052
28.312469 -4.1593752 13.334243
30.015607 -2.1484329 12.427996
41.724051 21.749892 -13.442172
41.535228 14.634983 -9.0449172
39.572483 17.558721 -13.998498
44.93055 23.499623 -10.254582
36.367805 2.4347399 -1.504752
39.377781 8.0418561 -4.9701404
36.010013 2.4224388 -4.0084451
35.694142 10.513628 -14.750841
39.181048 11.056809 -9.7300804
37.543261 13.81505 -14.425095
35.530233 7.6393887 -12.73085
39.600864 14.248858 -11.831189
50.431983 26.460511 -2.3540843
43.63621 15.508149 -5.7302563
48.130335 25.226047 -6.5547367
44.681033 19.462484 -7.950511
34.474056 2.3740195 -8.8205462
38.350633 7.9135013 -7.6518669
35.355138 2.3992338 -6.4694321
35.10865 4.9105731 -10.739393
37.269549 5.0707295 -5.7668041
37.047774 7.8099737 -10.25998
24.77887 -12.916717 -7.9829698
27.521063 -9.6970767 -5.993123
25.532133 -11.328872 -9.0318193
25.179185 -13.169243 -5.7466915
33.275346 -2.2277069 -1.3767986
30.328368 -6.193756 -3.8279517
33.014756 -2.2209441 -3.6750288
26.967592 -7.9432427 -11.144536
28.387777 -8.0109707 -7.0497183
26.265188 -9.6649805 -10.091766
28.527357 -6.1336938 -10.221647
26.954942 -9.6987063 -8.0530822
25.594139 -13.428661 -1.1946935
27.832875 -9.8917013 -3.6549806
25.45494 -13.341431 -3.4666376
26.513299 -11.548852 -4.7177574
31.854104 -2.1935993 -8.1502043
29.905841 -6.170952 -5.9669293
32.529604 -2.2074904 -5.952404
30.15666 -4.2179488 -9.2246281
31.423342 -4.2753205 -4.8622069
29.28349 -6.1731991 -8.109746
41.724051 21.749892 13.442172
41.535228 14.634983 9.0449172
39.572483 17.558721 13.998498
44.93055 23.499623 10.254582
36.367805 2.4347399 1.504752
39.377781 8.0418561 4.9701404
36.010013 2.4224388 4.0084451
38.212692 5.1483903 0
35.694142 10.513628 14.750841
39.181048 11.056809 9.7300804
37.543261 13.81505 14.425095
35.530233 7.6393887 12.73085
39.600864 14.248858 11.831189
50.431983 26.460511 2.3540843
43.63621 15.508149 5.7302563
48.130335 25.226047 6.5547367
48.030904 21.022843 0
44.681033 19.462484 7.950511
34.474056 2.3740195 8.8205462
38.350633 7.9135013 7.6518669
35.355138 2.3992338 6.4694321
35.10865 4.9105731 10.739393
37.269549 5.0707295 5.7668041
37.047774 7.8099737 10.25998
41.966785 11.599334 -3.5604231
41.966785 11.599334 3.5604231
40.124092 8.21327 -1.6909149
44.935866 15.945821 -1.9710119
40.124092 8.21327 1.6909149
44.935866 15.945821 1.9710119
24.77887 -12.916717 7.9829698
27.521063 -9.6970767 5.993123
25.532133 -11.328872 9.0318193
25.179185 -13.169243 5.7466915
33.275346 -2.2277069 1.3767986
30.328368 -6.193756 3.8279517
33.014756 -2.2209441 3.6750288
31.922316 -4.3008889 0
26.967592 -7.9432427 11.144536
28.387777 -8.0109707 7.0497183
26.265188 -9.6649805 10.091766
28.527357 -6.1336938 10.221647
26.954942 -9.6987063 8.0530822
25.594139 -13.428661 1.1946935
27.832875 -9.8917013 3.6549806
25.45494 -13.341431 3.4666376
26.813495 -11.736109 0
26.513299 -11.548852 4.7177574
31.854104 -2.1935993 8.1502043
29.905841 -6.170952 5.9669293
32.529604 -2.2074904 5.952404
30.15666 -4.2179488 9.2246281
31.423342 -4.2753205 4.8622069
29.28349 -6.1731991 8.109746
29.223992 -8.0773128 -2.4793364
29.223992 -8.0773128 2.4793364
30.560674 -6.2556698 -1.287892
28.030209 -9.9467251 -1.2294828
30.560674 -6.2556698 1.287892
28.030209 -9.9467251 1.2294828
-17.211212 24.647172 -1.2227319
-19.228218 21.819548 -3.5493665
-16.721416 25.061557 -3.2267853
-22.647871 15.990128 -7.8894685
-21.025651 18.947437 -5.7572905
-15.536093 25.585653 -7.3096745
-18.699364 22.094188 -5.5231182
-16.161295 25.375378 -5.2696114
-17.747122 23.572626 -4.3976906
-27.768954 2.1236532 -16.350994
-26.691205 6.0423348 -14.188105
-24.124539 12.896368 -9.9838107
-25.471672 9.604686 -12.073695
-12.323632 25.308459 -15.641488
-15.923409 22.103856 -13.660935
-13.221034 25.545633 -13.58806
-22.007124 15.988713 -9.8815681
-19.097943 19.021248 -11.755778
-21.260364 17.526381 -8.8309464
-14.82031 25.679737 -9.4543973
-16.698524 22.261171 -11.669962
-14.057319 25.670316 -11.51147
-16.519371 23.944119 -8.4949978
-15.026669 23.875502 -12.61758
-19.624848 20.549087 -6.6815382
-18.324703 20.628703 -10.701254
-20.463526 19.052841 -7.7584792
-18.120847 22.229208 -7.5689545
-19.817813 19.075912 -9.7698149
-17.450832 22.283652 -9.6311663
-33.84578 -48.468566 -2.4044975
-40.230021 -45.651702 -7.4261219
-32.410985 -48.576611 -6.2544517
-42.663889 -30.122083 -14.862121
-43.972498 -39.626174 -12.040647
-29.185806 -48.064718 -13.731814
-38.385167 -45.353902 -11.337595
-30.862032 -48.457485 -10.062988
-35.589231 -47.271419 -8.8189187
-29.530931 -2.2584019 -17.388487
-32.319577 -7.3164815 -17.17995
-39.075216 -20.888622 -16.171068
-35.486354 -13.380955 -16.820703
-20.22023 -41.525331 -25.664066
-29.104616 -40.401163 -24.969292
-22.76286 -43.982314 -23.394775
-39.638519 -28.798352 -17.79836
-35.54104 -35.398312 -21.87736
-40.807817 -33.640693 -16.950399
-27.26108 -47.23635 -17.390802
-31.682275 -42.236341 -22.141534
-25.146154 -45.91983 -20.592063
-31.958384 -46.322307 -16.434428
-27.470957 -43.647923 -23.066788
-40.446492 -42.351334 -13.770542
-35.399731 -39.850606 -20.672723
-41.220524 -38.378924 -15.628225
-36.402798 -44.656045 -15.205201
-38.378761 -36.942011 -18.920019
-34.160734 -43.62118 -18.853411
-2.521593 -19.414918 -32.972427
-7.8396024 -18.408299 -34.630394
-4.1962085 -21.745032 -32.590801
-2.4999445 -16.916439 -33.916313
-17.74214 -13.735198 -33.189263
-13.13575 -16.512465 -34.83607
-7.8957415 -26.732244 -31.585419
-9.7815934 -20.789947 -34.237976
-5.994662 -24.191788 -32.132758
-6.9708558 -21.378817 -33.567579
-2.4675921 -11.835999 -35.353501
-7.7195356 -15.61696 -35.231
-2.4848333 -14.373965 -34.715433
-5.1027017 -16.358386 -34.733602
-27.658467 -1.3721205 -19.31401
-26.114296 -4.2479894 -23.012914
-28.906904 -3.7218906 -19.287085
-21.325587 -10.521963 -30.204832
-24.042211 -7.3053676 -26.679236
-31.590459 -9.025213 -19.182324
-27.2646 -6.8156207 -23.07533
-30.220625 -6.2758061 -19.247179
-28.149215 -5.2514955 -21.192699
-17.140219 -38.17278 -27.733457
-19.367418 -31.463493 -31.33714
-14.63525 -35.234132 -29.04592
-21.67206 -38.451012 -28.08105
-19.943279 -15.712931 -32.268904
-20.133907 -23.468411 -32.577346
-17.806998 -17.326014 -33.47726
-10.047348 -29.51082 -30.900642
-16.771637 -28.719557 -32.330521
-12.249124 -32.307912 -30.080717
-11.081723 -26.530774 -32.545834
-15.859847 -32.171284 -30.966917
-29.536803 -35.802951 -26.543827
-23.078129 -30.347038 -30.79159
-25.949746 -37.676291 -27.701915
-22.630882 -34.611076 -29.806088
-12.702438 -19.911801 -34.501964
-17.38911 -24.882042 -33.1708
-15.359747 -18.756672 -34.251886
-11.976357 -23.289221 -33.756727
-17.70696 -21.087771 -33.505837
-14.319799 -25.946225 -33.131751
-2.4348818 -1.5048397 -36.369925
-7.325136 -4.527183 -35.868287
-2.4455185 -4.0466354 -36.353097
-17.195963 -10.627689 -32.987991
-12.254492 -7.5736925 -34.779207
-15.16192 -12.087675 -34.170759
-2.4693536 -9.1747553 -35.85844
-7.4210358 -7.1756832 -35.964033
-2.4553466 -6.6207377 -36.182016
-5.0103597 -10.957626 -35.822084
-4.9286405 -5.6052102 -36.225204
-10.408401 -14.603205 -35.336893
-10.028368 -8.8250439 -35.536651
-12.87197 -13.44037 -34.980382
-7.6666937 -12.776353 -35.657226
-12.57594 -10.442122 -34.951437
-7.5672713 -9.9411418 -35.896479
-37.822631 -23.375672 -18.417248
-32.188063 -19.893317 -23.187976
-36.208429 -19.259743 -18.739519
-36.509497 -26.663147 -20.577768
-22.114535 -13.667534 -30.438804
-27.053114 -16.719744 -27.162194
-23.668627 -11.925815 -28.71121
-22.560082 -17.411153 -30.891223
-33.088718 -12.18213 -19.096187
-30.956054 -16.228075 -23.220719
-34.609617 -15.520167 -18.952569
-30.730335 -10.902641 -21.201273
-33.503834 -17.705902 -21.08651
-32.523276 -32.999708 -24.733102
-30.719137 -22.774755 -25.342746
-34.750014 -29.925737 -22.721728
-29.36971 -30.657947 -27.285299
-33.530399 -24.653601 -23.09424
-26.205777 -8.5208117 -25.027116
-28.423376 -14.744784 -25.248798
-25.028569 -10.191846 -26.8817
-28.436308 -9.6824468 -23.180763
-26.037822 -13.335389 -27.050486
-29.672268 -12.824583 -23.237025
-23.131738 -25.739982 -31.200644
-27.870605 -20.888867 -27.468224
-22.923648 -21.473708 -31.177557
-26.210948 -28.213287 -29.4508
-25.214028 -19.144267 -29.278739
-28.728314 -25.567943 -27.52116
-2.3874304 18.381937 -31.218113
-6.7611822 15.876043 -29.866617
-3.8126016 19.757155 -29.611431
-2.3813006 16.113608 -32.306691
-14.231123 11.01712 -26.621392
-10.678414 13.423439 -28.319203
-6.5093875 22.03853 -26.039572
-8.0506215 17.110913 -28.17915
-5.1985755 20.979137 -27.865552
-6.0047525 18.415889 -28.915389
-2.381638 11.423714 -34.122026
-6.7877658 13.731948 -30.978518
-2.382071 13.779517 -33.279747
-4.6528516 14.916244 -31.671516
-26.684355 1.3237954 -18.633784
-23.642381 3.8458852 -20.834568
-26.270898 3.3824933 -17.528305
-26.052171 0 -20.461764
-17.512769 8.6407334 -24.804487
-20.618043 6.2649141 -22.879495
-25.297766 7.2274268 -15.361282
-23.313483 5.8279182 -19.731311
-25.803037 5.3584217 -16.433666
-24.781134 4.6231488 -18.656971
-24.410689 -2.774228 -24.123275
-22.902817 2.6028612 -22.633157
-25.289783 -1.371561 -22.303035
-24.462716 1.326706 -21.573645
-11.168166 24.872492 -18.070473
-12.723162 20.669515 -20.586509
-10.123416 24.371964 -20.091487
-13.132652 23.30022 -17.016318
-15.324868 12.074172 -24.796157
-14.093051 16.427091 -22.803036
-13.657796 13.288885 -25.676735
-7.8218086 22.974022 -24.055991
-11.677769 19.996877 -22.511122
-9.000198 23.738645 -22.102185
-8.5988871 20.586611 -25.25401
-10.932292 22.175868 -21.34569
-16.678446 20.21673 -14.988412
-14.618684 19.223124 -19.504723
-14.972884 21.739047 -15.983878
-13.900699 21.259363 -18.307967
-10.070915 15.786737 -27.354303
-12.395477 17.736662 -23.645137
-11.89995 14.531714 -26.536616
-9.3501373 18.182275 -26.354427
-13.044124 15.534654 -24.682627
-10.566698 19.145934 -24.448193
-2.4232304 1.4976387 -36.195888
-7.0320738 4.3460606 -34.433277
-2.4144432 3.9952145 -35.891156
-4.8426999 0 -35.943778
-14.438452 8.9234542 -27.698102
-11.064179 6.8380387 -31.401006
-12.676689 10.106351 -28.569738
-2.4007203 8.9197515 -34.861788
-6.9641531 6.7339058 -33.749875
-2.4051657 6.485427 -35.442549
-4.6957609 10.2696 -33.572827
-4.7613646 5.4149718 -34.995736
-9.6815136 -2.9717469 -35.028045
-9.3480408 2.8693872 -33.821529
-7.2780896 -1.4983837 -35.555477
-7.1778969 1.4777564 -35.066008
-8.8975086 12.483391 -30.207359
-9.0787881 7.9894062 -32.171708
-10.822895 11.300812 -29.411893
-6.877694 11.461505 -31.987647
-10.954192 9.0955436 -30.444225
-6.9394008 9.1163069 -32.918082
-22.843112 14.117819 -11.123162
-21.395152 13.222931 -15.412865
-23.503802 12.501984 -12.164293
-21.39949 15.628201 -12.061348
-17.228104 10.647554 -23.713041
-19.527629 12.068739 -19.606366
-18.77387 9.4595134 -22.773629
-16.619741 12.826587 -22.757193
-24.718763 9.1005998 -14.265712
-21.937443 11.500254 -16.455689
-24.13346 10.82229 -13.215721
-23.86954 8.4685384 -16.467918
-22.770188 12.03345 -14.331011
-18.368042 18.637115 -13.968416
-19.842764 14.711158 -16.36993
-19.903662 17.140476 -13.014257
-17.459011 18.224812 -16.21992
-20.672126 15.199412 -14.238037
-21.779822 7.0817119 -20.800228
-20.969314 10.877948 -18.627272
-20.296057 8.2647271 -21.79879
-22.884795 7.7921793 -18.655271
-19.929096 10.206777 -20.70418
-22.422304 9.6910928 -17.559414
-15.334348 17.063388 -20.683337
-18.855625 14.132188 -18.583398
-15.986345 14.975195 -21.742402
-16.441765 17.697804 -18.474079
-17.801397 13.516075 -20.67113
-18.187684 16.186876 -17.423443
-19.301093 -8.8139779 -31.229824
-18.453134 -2.7624257 -29.857798
-20.827864 -7.2784981 -29.571709
-16.957682 -7.3998608 -32.422562
-16.451928 7.5128873 -26.619779
-17.493949 2.6188361 -28.305804
-18.088215 6.3211012 -25.681915
-14.944724 6.5214617 -28.573848
-23.340403 -4.2675083 -26.018123
-19.772713 -1.400031 -28.138966
-22.174643 -5.7507937 -27.809125
-22.6754 -1.3818208 -25.256932
-20.30582 -4.2336025 -28.875161
-12.193194 -4.5053816 -34.308724
-16.28632 -1.4489278 -31.040648
-14.572726 -5.9530233 -33.455363
-11.968495 -1.4793873 -33.727625
-16.646433 -4.3254096 -31.760759
-21.272732 3.8894599 -23.713239
-19.210095 1.3601942 -27.338293
-19.700694 5.1091974 -24.706557
-21.982199 1.3395777 -24.484813
-18.656354 3.8897019 -26.529597
-20.935731 0 -26.335225
-11.446644 4.2295316 -32.208111
-15.862964 1.4112635 -30.233759
-13.270353 5.4209979 -30.465436
-11.716239 1.4482067 -33.016759
-15.42243 4.0073645 -29.425407
-14.041852 0 -32.081429
-17.211212 24.647172 1.2227319
-19.228218 21.819548 3.5493665
-16.721416 25.061557 3.2267853
-18.3018 23.302078 0
-22.647871 15.990128 7.8894685
-21.025651 18.947437 5.7572905
-15.536093 25.585653 7.3096745
-18.699364 22.094188 5.5231182
-16.161295 25.375378 5.2696114
-17.747122 23.572626 4.3976906
-20.316274 20.55833 -2.3364147
-20.316274 20.55833 2.3364147
-19.341098 21.931193 -1.1894119
-19.341098 21.931193 1.1894119
-27.768954 2.1236532 16.350994
-26.691205 6.0423348 14.188105
-24.124539 12.896368 9.9838107
-25.471672 9.604686 12.073695
-12.323632 25.308459 15.641488
-15.923409 22.103856 13.660935
-13.221034 25.545633 13.58806
-22.007124 15.988713 9.8815681
-19.097943 19.021248 11.755778
-21.260364 17.526381 8.8309464
-14.82031 25.679737 9.4543973
-16.698524 22.261171 11.669962
-14.057319 25.670316 11.51147
-16.519371 23.944119 8.4949978
-15.026669 23.875502 12.61758
-19.624848 20.549087 6.6815382
-18.324703 20.628703 10.701254
-20.463526 19.052841 7.7584792
-18.120847 22.229208 7.5689545
-19.817813 19.075912 9.7698149
-17.450832 22.283652 9.6311663
-23.847011 14.738263 -6.7303303
-24.364945 15.058364 -2.2542303
-23.031424 16.221428 -5.6687346
-23.847011 14.738263 6.7303303
-24.364945 15.058364 2.2542303
-23.031424 16.221428 5.6687346
-21.289832 19.098735 -3.4919711
-23.423865 16.459501 -1.165435
-22.174751 17.681864 -4.5856322
-21.39987 19.212571 -1.1707988
-23.292283 16.379784 -3.4150552
-21.289832 19.098735 3.4919711
-23.423865 16.459501 1.165435
-22.174751 17.681864 4.5856322
-21.39987 19.212571 1.1707988
-23.292283 16.379784 3.4150552
-22.440764 17.839749 0
-33.84578 -48.468566 2.4044975
-40.230021 -45.651702 7.4261219
-32.410985 -48.576611 6.2544517
-37.315001 -47.509921 0
-42.663889 -30.122083 14.862121
-43.972498 -39.626174 12.040647
-29.185806 -48.064718 13.731814
-38.385167 -45.353902 11.337595
-30.862032 -48.457485 10.062988
-35.589231 -47.271419 8.8189187
-43.820888 -44.342987 -5.0394954
-43.820888 -44.342987 5.0394954
-40.74019 -46.195982 -2.5053835
-40.74019 -46.195982 2.5053835
-29.530931 -2.2584019 17.388487
-32.319577 -7.3164815 17.17995
-39.075216 -20.888622 16.171068
-35.486354 -13.380955 16.820703
-20.22023 -41.525331 25.664066
-29.104616 -40.401163 24.969292
-22.76286 -43.982314 23.394775
-39.638519 -28.798352 17.79836
-35.54104 -35.398312 21.87736
-40.807817 -33.640693 16.950399
-27.26108 -47.23635 17.390802
-31.682275 -42.236341 22.141534
-25.146154 -45.91983 20.592063
-31.958384 -46.322307 16.434428
-27.470957 -43.647923 23.066788
-40.446492 -42.351334 13.770542
-35.399731 -39.850606 20.672723
-41.220524 -38.378924 15.628225
-36.402798 -44.656045 15.205201
-38.378761 -36.942011 18.920019
-34.160734 -43.62118 18.853411
-44.314554 -27.3879 -12.506875
-51.06281 -31.558552 -4.7243008
-46.139533 -32.496868 -11.356344
-44.314554 -27.3879 12.506875
-51.06281 -31.558552 4.7243008
-46.139533 -32.496868 11.356344
-46.193815 -41.439663 -7.5767375
-51.902833 -36.471126 -2.5823825
-46.966372 -37.450388 -9.7124205
-47.403482 -42.558331 -2.5934709
-49.528419 -34.829768 -7.2617305
-46.193815 -41.439663 7.5767375
-51.902833 -36.471126 2.5823825
-46.966372 -37.450388 9.7124205
-47.403482 -42.558331 2.5934709
-49.528419 -34.829768 7.2617305
-50.440062 -40.098369 0
-2.521593 -19.414918 32.972427
-7.8396024 -18.408299 34.630394
-4.1962085 -21.745032 32.590801
-2.4999445 -16.916439 33.916313
-17.74214 -13.735198 33.189263
-13.13575 -16.512465 34.83607
-7.8957415 -26.732244 31.585419
-9.7815934 -20.789947 34.237976
-5.994662 -24.191788 32.132758
-6.9708558 -21.378817 33.567579
-2.4675921 -11.835999 35.353501
-7.7195356 -15.61696 35.231
