52.879870 32.681557 -9.845813
52.879870 32.681557 9.845813
47.390369 37.673953 -4.928635
47.390369 37.673953 4.928635
33.729583 -42.944922 4.442528
43.398927 -34.713610 13.562593
30.605843 -42.467619 11.413086
39.722993 -40.196268 0.000000
55.239029 -8.379160 30.939043
50.869307 -23.123474 22.606580
22.897156 -38.226716 23.625410
38.974718 -33.153876 20.490222
26.835402 -40.735053 17.997997
35.166330 -38.148295 16.078474
50.754264 -31.367860 -9.450042
50.754264 -31.367860 9.450042
45.563817 -36.221898 -4.738672
45.563817 -36.221898 4.738672
6.141591 -22.677085 40.488006
18.496443 -18.082980 40.690307
10.045479 -26.938406 37.378809
6.154769 -16.746869 43.210397
46.889562 -4.850589 36.827762
31.717616 -12.392059 39.653337
46.634700 -12.532981 33.609002
18.160844 -34.543978 29.384863
23.065207 -22.354222 37.320289
14.162752 -30.976325 33.602994
25.938320 -32.668375 28.508972
16.590408 -24.736656 37.549242
6.232611 -3.851966 46.260062
18.704801 -11.560203 43.155475
6.208524 -10.291259 45.182314
12.484988 -14.242557 43.317096
42.650685 -26.359573 25.547039
31.083079 -19.210399 36.540351
45.026904 -19.894268 29.662784
34.265798 -29.903008 27.206655
38.396908 -16.183257 35.395509
28.729198 -26.138688 32.920731
6.210433 22.931279 40.941848
19.143785 18.715852 42.114394
10.179754 27.298484 37.878442
6.230828 16.953825 43.744385
48.045249 4.970142 37.735455
33.201231 12.971707 41.508152
48.961742 13.158368 35.286070
40.795096 0.000000 40.314771
18.225501 34.666963 29.489480
23.907588 23.170637 38.683290
14.304352 31.286026 33.938957
26.215544 33.017529 28.813671
17.002935 25.351744 38.482920
6.258007 3.867661 46.448559
19.276133 11.913305 44.473644
6.269092 10.391657 45.623097
12.735395 0.000000 46.077092
12.778937 14.577886 44.336960
44.110122 27.261555 26.421217
32.580646 20.135947 38.300847
47.200502 20.854631 31.094705
35.018505 30.559879 27.804297
40.439159 17.044011 37.278122
29.623745 26.952574 33.945791
26.350246 -7.938410 42.635594
27.150777 8.179582 43.930881
33.242615 -4.348912 41.816153
19.609809 -4.039843 44.802544
33.917446 4.437196 42.665029
19.860077 4.091401 45.374332
63.502486 0.000000 -27.992188
76.091297 0.000000 -10.598297
65.133036 9.277368 -25.243333
63.177491 -8.998826 -24.485431
63.502486 0.000000 27.992188
76.091297 0.000000 10.598297
65.133036 9.277368 25.243333
63.177491 -8.998826 24.485431
58.612199 25.404182 -15.700648
75.301545 10.145366 -6.270181
62.774224 18.092982 -20.640014
61.861374 27.076358 -5.578037
71.633439 9.843186 -16.316081
56.280316 -24.393478 -15.075998
73.764938 -9.938339 -6.142231
60.302753 -17.380647 -19.827400
59.115805 -25.874639 -5.330469
69.902882 -9.605389 -15.921909
58.612199 25.404182 15.700648
75.301545 10.145366 6.270181
62.774224 18.092982 20.640014
61.861374 27.076358 5.578037
71.633439 9.843186 16.316081
69.990559 19.344915 0.000000
56.280316 -24.393478 15.075998
73.764938 -9.938339 6.142231
60.302753 -17.380647 19.827400
59.115805 -25.874639 5.330469
69.902882 -9.605389 15.921909
67.482177 -18.651615 0.000000
-33.729583 42.944922 -4.442528
-43.398927 34.713610 -13.562593
-30.605843 42.467619 -11.413086
-55.239029 8.379160 -30.939043
-50.869307 23.123474 -22.606580
-22.897156 38.226716 -23.625410
-38.974718 33.153876 -20.490222
-26.835402 40.735053 -17.997997
-35.166330 38.148295 -16.078474
-34.365704 -43.754840 -4.526312
-44.617311 -35.688163 -13.943350
-30.835931 -42.786882 -11.498887
-57.222850 -8.680084 -32.050169
-52.959225 -24.073480 -23.535350
-22.845031 -38.139693 -23.571627
-39.722484 -33.789963 -20.883346
-26.804696 -40.688443 -17.977403
-35.577147 -38.593948 -16.266304
-6.210433 -22.931279 -40.941848
-19.143785 -18.715852 -42.114394
-10.179754 -27.298484 -37.878442
-6.230828 -16.953825 -43.744385
-48.045249 -4.970142 -37.735455
-33.201231 -12.971707 -41.508152
-48.961742 -13.158368 -35.286070
-18.225501 -34.666963 -29.489480
-23.907588 -23.170637 -38.683290
-14.304352 -31.286026 -33.938957
-26.215544 -33.017529 -28.813671
-17.002935 -25.351744 -38.482920
-6.258007 -3.867661 -46.448559
-19.276133 -11.913305 -44.473644
-6.269092 -10.391657 -45.623097
-12.778937 -14.577886 -44.336960
-44.110122 -27.261555 -26.421217
-32.580646 -20.135947 -38.300847
-47.200502 -20.854631 -31.094705
-35.018505 -30.559879 -27.804297
-40.439159 -17.044011 -37.278122
-29.623745 -26.952574 -33.945791
-6.141591 22.677085 -40.488006
-18.496443 18.082980 -40.690307
-10.045479 26.938406 -37.378809
-6.154769 16.746869 -43.210397
-46.889562 4.850589 -36.827762
-31.717616 12.392059 -39.653337
-46.634700 12.532981 -33.609002
-40.795096 0.000000 -40.314771
-18.160844 34.543978 -29.384863
-23.065207 22.354222 -37.320289
-14.162752 30.976325 -33.602994
-25.938320 32.668375 -28.508972
-16.590408 24.736656 -37.549242
-6.232611 3.851966 -46.260062
-18.704801 11.560203 -43.155475
-6.208524 10.291259 -45.182314
-12.735395 0.000000 -46.077092
-12.484988 14.242557 -43.317096
-42.650685 26.359573 -25.547039
-31.083079 19.210399 -36.540351
-45.026904 19.894268 -29.662784
-34.265798 29.903008 -27.206655
-38.396908 16.183257 -35.395509
-28.729198 26.138688 -32.920731
-27.150777 -8.179582 -43.930881
-26.350246 7.938410 -42.635594
-33.917446 -4.437196 -42.665029
-19.860077 -4.091401 -45.374332
-33.242615 4.348912 -41.816153
-19.609809 4.039843 -44.802544
-33.729583 42.944922 4.442528
-43.398927 34.713610 13.562593
-30.605843 42.467619 11.413086
-39.722993 40.196268 0.000000
-55.239029 8.379160 30.939043
-50.869307 23.123474 22.606580
-22.897156 38.226716 23.625410
-38.974718 33.153876 20.490222
-26.835402 40.735053 17.997997
-35.166330 38.148295 16.078474
-50.754264 31.367860 -9.450042
-50.754264 31.367860 9.450042
-45.563817 36.221898 -4.738672
-45.563817 36.221898 4.738672
-34.365704 -43.754840 4.526312
-44.617311 -35.688163 13.943350
-30.835931 -42.786882 11.498887
-40.991624 -41.480014 0.000000
-57.222850 -8.680084 32.050169
-52.959225 -24.073480 23.535350
-22.845031 -38.139693 23.571627
-39.722484 -33.789963 20.883346
-26.804696 -40.688443 17.977403
-35.577147 -38.593948 16.266304
-52.879870 -32.681557 -9.845813
-52.879870 -32.681557 9.845813
-47.390369 -37.673953 -4.928635
-47.390369 -37.673953 4.928635
-6.210433 -22.931279 40.941848
-19.143785 -18.715852 42.114394
-10.179754 -27.298484 37.878442
-6.230828 -16.953825 43.744385
-48.045249 -4.970142 37.735455
-33.201231 -12.971707 41.508152
-48.961742 -13.158368 35.286070
-18.225501 -34.666963 29.489480
-23.907588 -23.170637 38.683290
-14.304352 -31.286026 33.938957
-26.215544 -33.017529 28.813671
-17.002935 -25.351744 38.482920
-6.258007 -3.867661 46.448559
-19.276133 -11.913305 44.473644
-6.269092 -10.391657 45.623097
-12.778937 -14.577886 44.336960
-44.110122 -27.261555 26.421217
-32.580646 -20.135947 38.300847
-47.200502 -20.854631 31.094705
-35.018505 -30.559879 27.804297
-40.439159 -17.044011 37.278122
-29.623745 -26.952574 33.945791
-6.141591 22.677085 40.488006
-18.496443 18.082980 40.690307
-10.045479 26.938406 37.378809
-6.154769 16.746869 43.210397
-46.889562 4.850589 36.827762
-31.717616 12.392059 39.653337
-46.634700 12.532981 33.609002
-40.795096 0.000000 40.314771
-18.160844 34.543978 29.384863
-23.065207 22.354222 37.320289
-14.162752 30.976325 33.602994
-25.938320 32.668375 28.508972
-16.590408 24.736656 37.549242
-6.232611 3.851966 46.260062
-18.704801 11.560203 43.155475
-6.208524 10.291259 45.182314
-12.735395 0.000000 46.077092
-12.484988 14.242557 43.317096
-42.650685 26.359573 25.547039
-31.083079 19.210399 36.540351
-45.026904 19.894268 29.662784
-34.265798 29.903008 27.206655
-38.396908 16.183257 35.395509
-28.729198 26.138688 32.920731
-27.150777 -8.179582 43.930881
-26.350246 7.938410 42.635594
-33.917446 -4.437196 42.665029
-19.860077 -4.091401 45.374332
-33.242615 4.348912 41.816153
-19.609809 4.039843 44.802544
-63.502486 0.000000 -27.992188
-76.091297 0.000000 -10.598297
-63.177491 8.998826 -24.485431
-65.133036 -9.277368 -25.243333
-63.502486 0.000000 27.992188
-76.091297 0.000000 10.598297
-63.177491 8.998826 24.485431
-65.133036 -9.277368 25.243333
-56.280316 24.393478 -15.075998
-73.764938 9.938339 -6.142231
-60.302753 17.380647 -19.827400
-59.115805 25.874639 -5.330469
-69.902882 9.605389 -15.921909
-58.612199 -25.404182 -15.700648
-75.301545 -10.145366 -6.270181
-62.774224 -18.092982 -20.640014
-61.861374 -27.076358 -5.578037
-71.633439 -9.843186 -16.316081
-56.280316 24.393478 15.075998
-73.764938 9.938339 6.142231
-60.302753 17.380647 19.827400
-59.115805 25.874639 5.330469
-69.902882 9.605389 15.921909
-67.482177 18.651615 0.000000
-58.612199 -25.404182 15.700648
-75.301545 -10.145366 6.270181
-62.774224 -18.092982 20.640014
-61.861374 -27.076358 5.578037
-71.633439 -9.843186 16.316081
-69.990559 -19.344915 0.000000
-24.628462 46.805476 0.000000
-17.532368 48.635635 0.000000
-3.480528 50.218676 0.000000
-10.476608 49.740657 0.000000
24.771907 47.078088 0.000000
17.523248 48.610336 0.000000
3.476453 50.159876 0.000000
10.451418 49.621061 0.000000
-24.771907 -47.078088 0.000000
-17.523248 -48.610336 0.000000
-3.476453 -50.159876 0.000000
-10.451418 -49.621061 0.000000
24.628462 -46.805476 0.000000
17.532368 -48.635635 0.000000
3.480528 -50.218676 0.000000
10.476608 -49.740657 0.000000
-27.202515 -46.198132 3.533040
-24.068148 -45.277918 10.249981
-23.517033 -47.150056 3.475393
-16.888739 -40.809371 21.815657
-20.535859 -43.324157 16.336380
-16.275422 -48.613820 3.393132
-20.468736 -46.176340 10.117791
-19.855637 -47.954552 3.432452
-22.053648 -46.826297 6.879235
-1.908375 -26.862345 38.467996
-5.721851 -30.997359 35.174781
-13.211200 -37.924678 26.776048
-9.494486 -34.673907 31.246673
-2.069830 -50.024974 3.349055
-6.105946 -48.376626 9.879629
-5.549880 -49.857552 3.353980
-13.393976 -41.574452 21.671909
-9.891203 -45.421463 16.004303
-15.178903 -42.909380 19.039337
-12.578935 -49.163270 3.385577
-9.584429 -48.036504 9.912142
-9.070276 -49.568625 3.363775
-14.759078 -48.249589 6.748569
-7.602852 -49.135513 6.685160
-18.695529 -45.239515 13.325196
-11.561139 -46.554349 13.137539
-16.962494 -44.147187 16.245141
-16.810818 -46.916920 10.087651
-13.398511 -44.846938 16.136458
-13.165033 -47.537629 10.021321
26.981652 -45.823040 3.504354
24.064356 -45.270784 10.248366
23.429272 -46.974101 3.462424
17.004137 -41.088215 21.964720
20.659589 -43.585187 16.434808
16.301541 -48.691836 3.398577
20.523613 -46.300140 10.144917
19.846476 -47.932428 3.430869
22.039873 -46.797049 6.874939
1.903275 -26.790561 38.365199
5.696242 -30.858629 35.017355
0.000000 -28.970362 36.885424
13.252997 -38.044662 26.860760
9.477669 -34.612490 31.191326
-3.797332 -33.019665 33.413074
3.790758 -32.962503 33.355231
-1.910198 -31.061850 35.221551
1.907362 -31.015731 35.169255
2.071434 -50.063732 3.351650
6.125368 -48.530498 9.911053
5.560504 -49.952993 3.360401
0.000000 -49.520770 6.671926
13.488609 -41.868189 21.825028
9.953447 -45.707296 16.105016
15.296552 -43.241964 19.186908
12.611720 -49.291407 3.394401
9.626752 -48.248620 9.955912
9.093993 -49.698239 3.372571
14.807651 -48.408381 6.770779
7.625578 -49.282383 6.705142
-4.015381 -47.329383 13.081520
4.025924 -47.453653 13.115867
-2.047565 -48.587123 9.945625
2.049914 -48.642850 9.957032
18.799703 -45.491596 13.399446
11.630930 -46.835383 13.216846
17.085916 -44.468410 16.363344
16.885107 -47.124250 10.132229
13.496427 -45.174678 16.254382
13.230040 -47.772364 10.070805
-11.251187 -39.865382 24.638161
-3.740583 -40.430255 24.987272
-9.434267 -38.330353 26.996728
-9.579324 -41.971901 21.952187
11.308877 -40.069788 24.764491
3.748575 -40.516636 25.040658
9.462597 -38.445455 27.077796
9.636463 -42.222258 22.083130
-5.733052 -34.953240 31.355941
-1.929145 -38.773526 27.245414
-7.586241 -36.684802 29.251994
-1.917270 -35.043870 31.462006
-5.661589 -38.614704 27.154939
-6.002948 -45.712775 16.246152
-1.981101 -42.441486 22.268080
-7.819197 -43.943061 19.141033
-2.015200 -45.943273 16.303307
-5.755852 -42.264256 22.151521
5.728353 -34.924595 31.330243
1.930633 -38.803446 27.266438
7.592804 -36.716539 29.277301
1.916799 -35.035277 31.454291
5.673535 -38.696177 27.212233
0.000000 -36.983805 29.401040
6.028627 -45.908319 16.315648
1.983925 -42.501992 22.299826
7.862394 -44.185826 19.246778
2.018245 -46.012712 16.327948
5.778638 -42.431569 22.239213
0.000000 -44.313866 19.395918
-26.981652 45.823040 3.504354
-24.064356 45.270784 10.248366
-23.429272 46.974101 3.462424
-17.004137 41.088215 21.964720
-20.659589 43.585187 16.434808
-16.301541 48.691836 3.398577
-20.523613 46.300140 10.144917
-19.846476 47.932428 3.430869
-22.039873 46.797049 6.874939
-1.903275 26.790561 38.365199
-5.696242 30.858629 35.017355
-13.252997 38.044662 26.860760
-9.477669 34.612490 31.191326
-2.071434 50.063732 3.351650
-6.125368 48.530498 9.911053
-5.560504 49.952993 3.360401
-13.488609 41.868189 21.825028
-9.953447 45.707296 16.105016
-15.296552 43.241964 19.186908
-12.611720 49.291407 3.394401
-9.626752 48.248620 9.955912
-9.093993 49.698239 3.372571
-14.807651 48.408381 6.770779
-7.625578 49.282383 6.705142
-18.799703 45.491596 13.399446
-11.630930 46.835383 13.216846
-17.085916 44.468410 16.363344
-16.885107 47.124250 10.132229
-13.496427 45.174678 16.254382
-13.230040 47.772364 10.070805
27.202515 46.198132 3.533040
24.068148 45.277918 10.249981
23.517033 47.150056 3.475393
16.888739 40.809371 21.815657
20.535859 43.324157 16.336380
16.275422 48.613820 3.393132
20.468736 46.176340 10.117791
19.855637 47.954552 3.432452
22.053648 46.826297 6.879235
1.908375 26.862345 38.467996
5.721851 30.997359 35.174781
0.000000 28.970362 36.885424
13.211200 37.924678 26.776048
9.494486 34.673907 31.246673
-3.790758 32.962503 33.355231
3.797332 33.019665 33.413074
-1.907362 31.015731 35.169255
1.910198 31.061850 35.221551
2.069830 50.024974 3.349055
6.105946 48.376626 9.879629
5.549880 49.857552 3.353980
0.000000 49.520770 6.671926
13.393976 41.574452 21.671909
9.891203 45.421463 16.004303
15.178903 42.909380 19.039337
12.578935 49.163270 3.385577
9.584429 48.036504 9.912142
9.070276 49.568625 3.363775
14.759078 48.249589 6.748569
7.602852 49.135513 6.685160
-4.025924 47.453653 13.115867
4.015381 47.329383 13.081520
-2.049914 48.642850 9.957032
2.047565 48.587123 9.945625
18.695529 45.239515 13.325196
11.561139 46.554349 13.137539
16.962494 44.147187 16.245141
16.810818 46.916920 10.087651
13.398511 44.846938 16.136458
13.165033 47.537629 10.021321
-11.308877 40.069788 24.764491
-3.748575 40.516636 25.040658
-9.462597 38.445455 27.077796
-9.636463 42.222258 22.083130
11.251187 39.865382 24.638161
3.740583 40.430255 24.987272
9.434267 38.330353 26.996728
9.579324 41.971901 21.952187
-5.728353 34.924595 31.330243
-1.930633 38.803446 27.266438
-7.592804 36.716539 29.277301
-1.916799 35.035277 31.454291
-5.673535 38.696177 27.212233
-6.028627 45.908319 16.315648
-1.983925 42.501992 22.299826
-7.862394 44.185826 19.246778
-2.018245 46.012712 16.327948
-5.778638 42.431569 22.239213
5.733052 34.953240 31.355941
1.929145 38.773526 27.245414
7.586241 36.684802 29.251994
1.917270 35.043870 31.462006
5.661589 38.614704 27.154939
0.000000 36.983805 29.401040
6.002948 45.712775 16.246152
1.981101 42.441486 22.268080
7.819197 43.943061 19.141033
2.015200 45.943273 16.303307
5.755852 42.264256 22.151521
0.000000 44.313866 19.395918
0.000000 -21.806522 41.442483
0.000000 -15.861355 44.000165
0.000000 -3.225237 46.535222
0.000000 -9.624886 45.696866
0.000000 21.806522 41.442483
0.000000 15.861355 44.000165
0.000000 3.225237 46.535222
0.000000 9.624886 45.696866
-27.202515 -46.198132 -3.533040
-24.068148 -45.277918 -10.249981
-23.517033 -47.150056 -3.475393
-16.888739 -40.809371 -21.815657
-20.535859 -43.324157 -16.336380
-16.275422 -48.613820 -3.393132
-20.468736 -46.176340 -10.117791
-19.855637 -47.954552 -3.432452
-22.053648 -46.826297 -6.879235
-1.908375 -26.862345 -38.467996
-5.721851 -30.997359 -35.174781
-13.211200 -37.924678 -26.776048
-9.494486 -34.673907 -31.246673
-2.069830 -50.024974 -3.349055
-6.105946 -48.376626 -9.879629
-5.549880 -49.857552 -3.353980
-13.393976 -41.574452 -21.671909
-9.891203 -45.421463 -16.004303
-15.178903 -42.909380 -19.039337
-12.578935 -49.163270 -3.385577
-9.584429 -48.036504 -9.912142
-9.070276 -49.568625 -3.363775
-14.759078 -48.249589 -6.748569
-7.602852 -49.135513 -6.685160
-18.695529 -45.239515 -13.325196
-11.561139 -46.554349 -13.137539
-16.962494 -44.147187 -16.245141
-16.810818 -46.916920 -10.087651
-13.398511 -44.846938 -16.136458
-13.165033 -47.537629 -10.021321
26.981652 -45.823040 -3.504354
24.064356 -45.270784 -10.248366
23.429272 -46.974101 -3.462424
17.004137 -41.088215 -21.964720
20.659589 -43.585187 -16.434808
16.301541 -48.691836 -3.398577
20.523613 -46.300140 -10.144917
19.846476 -47.932428 -3.430869
22.039873 -46.797049 -6.874939
1.903275 -26.790561 -38.365199
5.696242 -30.858629 -35.017355
0.000000 -28.970362 -36.885424
13.252997 -38.044662 -26.860760
9.477669 -34.612490 -31.191326
-3.797332 -33.019665 -33.413074
3.790758 -32.962503 -33.355231
-1.910198 -31.061850 -35.221551
1.907362 -31.015731 -35.169255
2.071434 -50.063732 -3.351650
6.125368 -48.530498 -9.911053
5.560504 -49.952993 -3.360401
0.000000 -49.520770 -6.671926
13.488609 -41.868189 -21.825028
9.953447 -45.707296 -16.105016
15.296552 -43.241964 -19.186908
12.611720 -49.291407 -3.394401
9.626752 -48.248620 -9.955912
9.093993 -49.698239 -3.372571
14.807651 -48.408381 -6.770779
7.625578 -49.282383 -6.705142
-4.015381 -47.329383 -13.081520
4.025924 -47.453653 -13.115867
-2.047565 -48.587123 -9.945625
2.049914 -48.642850 -9.957032
18.799703 -45.491596 -13.399446
11.630930 -46.835383 -13.216846
17.085916 -44.468410 -16.363344
16.885107 -47.124250 -10.132229
13.496427 -45.174678 -16.254382
13.230040 -47.772364 -10.070805
-11.251187 -39.865382 -24.638161
-3.740583 -40.430255 -24.987272
-9.434267 -38.330353 -26.996728
-9.579324 -41.971901 -21.952187
11.308877 -40.069788 -24.764491
3.748575 -40.516636 -25.040658
9.462597 -38.445455 -27.077796
9.636463 -42.222258 -22.083130
-5.733052 -34.953240 -31.355941
-1.929145 -38.773526 -27.245414
-7.586241 -36.684802 -29.251994
-1.917270 -35.043870 -31.462006
-5.661589 -38.614704 -27.154939
-6.002948 -45.712775 -16.246152
-1.981101 -42.441486 -22.268080
-7.819197 -43.943061 -19.141033
-2.015200 -45.943273 -16.303307
-5.755852 -42.264256 -22.151521
5.728353 -34.924595 -31.330243
1.930633 -38.803446 -27.266438
7.592804 -36.716539 -29.277301
1.916799 -35.035277 -31.454291
5.673535 -38.696177 -27.212233
0.000000 -36.983805 -29.401040
6.028627 -45.908319 -16.315648
1.983925 -42.501992 -22.299826
7.862394 -44.185826 -19.246778
2.018245 -46.012712 -16.327948
5.778638 -42.431569 -22.239213
0.000000 -44.313866 -19.395918
-26.981652 45.823040 -3.504354
-24.064356 45.270784 -10.248366
-23.429272 46.974101 -3.462424
-17.004137 41.088215 -21.964720
-20.659589 43.585187 -16.434808
-16.301541 48.691836 -3.398577
-20.523613 46.300140 -10.144917
-19.846476 47.932428 -3.430869
-22.039873 46.797049 -6.874939
-1.903275 26.790561 -38.365199
-5.696242 30.858629 -35.017355
-13.252997 38.044662 -26.860760
-9.477669 34.612490 -31.191326
-2.071434 50.063732 -3.351650
-6.125368 48.530498 -9.911053
-5.560504 49.952993 -3.360401
-13.488609 41.868189 -21.825028
-9.953447 45.707296 -16.105016
-15.296552 43.241964 -19.186908
-12.611720 49.291407 -3.394401
-9.626752 48.248620 -9.955912
-9.093993 49.698239 -3.372571
-14.807651 48.408381 -6.770779
-7.625578 49.282383 -6.705142
-18.799703 45.491596 -13.399446
-11.630930 46.835383 -13.216846
-17.085916 44.468410 -16.363344
-16.885107 47.124250 -10.132229
-13.496427 45.174678 -16.254382
-13.230040 47.772364 -10.070805
27.202515 46.198132 -3.533040
24.068148 45.277918 -10.249981
23.517033 47.150056 -3.475393
16.888739 40.809371 -21.815657
20.535859 43.324157 -16.336380
16.275422 48.613820 -3.393132
20.468736 46.176340 -10.117791
19.855637 47.954552 -3.432452
22.053648 46.826297 -6.879235
1.908375 26.862345 -38.467996
5.721851 30.997359 -35.174781
0.000000 28.970362 -36.885424
13.211200 37.924678 -26.776048
9.494486 34.673907 -31.246673
-3.790758 32.962503 -33.355231
3.797332 33.019665 -33.413074
-1.907362 31.015731 -35.169255
1.910198 31.061850 -35.221551
2.069830 50.024974 -3.349055
6.105946 48.376626 -9.879629
5.549880 49.857552 -3.353980
0.000000 49.520770 -6.671926
13.393976 41.574452 -21.671909
9.891203 45.421463 -16.004303
15.178903 42.909380 -19.039337
12.578935 49.163270 -3.385577
9.584429 48.036504 -9.912142
9.070276 49.568625 -3.363775
14.759078 48.249589 -6.748569
7.602852 49.135513 -6.685160
-4.025924 47.453653 -13.115867
4.015381 47.329383 -13.081520
-2.049914 48.642850 -9.957032
2.047565 48.587123 -9.945625
18.695529 45.239515 -13.325196
11.561139 46.554349 -13.137539
16.962494 44.147187 -16.245141
16.810818 46.916920 -10.087651
13.398511 44.846938 -16.136458
13.165033 47.537629 -10.021321
-11.308877 40.069788 -24.764491
-3.748575 40.516636 -25.040658
-9.462597 38.445455 -27.077796
-9.636463 42.222258 -22.083130
11.251187 39.865382 -24.638161
3.740583 40.430255 -24.987272
9.434267 38.330353 -26.996728
9.579324 41.971901 -21.952187
-5.728353 34.924595 -31.330243
-1.930633 38.803446 -27.266438
-7.592804 36.716539 -29.277301
-1.916799 35.035277 -31.454291
-5.673535 38.696177 -27.212233
-6.028627 45.908319 -16.315648
-1.983925 42.501992 -22.299826
-7.862394 44.185826 -19.246778
-2.018245 46.012712 -16.327948
-5.778638 42.431569 -22.239213
5.733052 34.953240 -31.355941
1.929145 38.773526 -27.245414
7.586241 36.684802 -29.251994
1.917270 35.043870 -31.462006
5.661589 38.614704 -27.154939
0.000000 36.983805 -29.401040
6.002948 45.712775 -16.246152
1.981101 42.441486 -22.268080
7.819197 43.943061 -19.141033
2.015200 45.943273 -16.303307
5.755852 42.264256 -22.151521
0.000000 44.313866 -19.395918
0.000000 -21.806522 -41.442483
0.000000 -15.861355 -44.000165
0.000000 -3.225237 -46.535222
0.000000 -9.624886 -45.696866
0.000000 21.806522 -41.442483
0.000000 15.861355 -44.000165
0.000000 3.225237 -46.535222
0.000000 9.624886 -45.696866
31.470613 45.067228 -2.235759
37.138744 42.143822 -6.855498
29.999903 44.962955 -5.789178
46.854624 33.080878 -16.321979
42.262138 38.084869 -11.572312
26.528074 43.687826 -12.481361
35.254438 41.654796 -10.412890
28.322658 44.470331 -9.234990
32.701613 43.435938 -8.103374
56.503525 4.321153 -33.270565
57.053152 12.915650 -30.327448
51.032581 27.280726 -21.119559
54.705146 20.627847 -25.930503
18.911306 38.837256 -24.002744
26.874997 37.306150 -23.056469
20.803841 40.197105 -21.381372
44.290964 32.178467 -19.887386
35.299601 35.157843 -21.728742
42.224161 34.808283 -17.538708
24.604235 42.632730 -15.695907
28.939754 38.580227 -20.224891
22.713464 41.477452 -18.599945
28.855309 41.824532 -14.838688
24.832630 39.455951 -20.851440
37.755797 39.533919 -12.854459
33.317090 37.506110 -19.456502
40.039961 37.279745 -15.180630
33.259102 40.799609 -13.892100
37.686473 36.275639 -18.578733
31.124670 39.744311 -17.177798
31.004088 -44.399145 -2.202616
36.340530 -41.238036 -6.708155
29.674634 -44.475451 -5.726409
45.480027 -32.110368 -15.843133
41.180459 -37.110105 -11.276125
26.499293 -43.640427 -12.467820
34.716935 -41.019711 -10.254131
28.156204 -44.208976 -9.180715
32.269561 -42.862064 -7.996313
55.388975 -4.235917 -32.614293
54.607112 -12.361917 -29.027219
49.221746 -26.312700 -20.370155
52.344980 -19.737892 -24.811773
18.996177 -39.011551 -24.110464
26.840258 -37.257927 -23.026665
20.917892 -40.417473 -21.498589
43.153247 -31.351888 -19.376532
34.871136 -34.731098 -21.464999
41.291743 -34.039626 -17.151408
24.673260 -42.752332 -15.739941
28.888325 -38.511665 -20.188949
22.826517 -41.683901 -18.692524
28.787485 -41.726225 -14.803810
24.897309 -39.558718 -20.905750
37.106447 -38.853988 -12.633379
33.058557 -37.215072 -19.305525
39.265611 -36.558775 -14.887045
32.952875 -40.423955 -13.764191
37.135410 -35.745206 -18.307069
30.985145 -39.566146 -17.100794
3.075963 -23.683273 -40.221391
9.205093 -21.614629 -40.662264
4.987775 -25.846984 -38.738684
3.076398 -20.817145 -41.736965
21.675772 -16.780446 -40.547695
15.369004 -19.319807 -40.758671
8.842849 -29.938821 -35.374142
11.191121 -23.785778 -39.171668
6.923839 -27.941534 -37.113360
8.100053 -24.841935 -39.005134
3.083226 -14.788934 -44.173760
9.217957 -18.648332 -42.069608
3.082389 -17.830631 -43.063838
6.162297 -19.755267 -41.946167
50.943604 -2.527283 -35.574108
42.895807 -6.977823 -37.801422
51.152837 -6.586152 -34.129878
28.266040 -13.946357 -40.035053
35.299368 -10.725921 -39.171114
50.243794 -14.354364 -30.508982
42.872272 -10.717236 -36.284846
50.881216 -10.566315 -32.405679
46.930962 -8.755403 -35.332912
16.693242 -37.177323 -27.010233
19.533600 -31.733467 -31.606029
14.754690 -35.521682 -29.282968
20.547453 -36.455712 -26.623867
24.045690 -18.945143 -38.906744
21.986293 -25.627582 -35.574569
20.798297 -20.236515 -39.100919
10.870050 -31.927240 -33.430865
17.472819 -29.920254 -33.682183
12.799659 -33.759987 -31.432691
12.110344 -28.993395 -35.566781
16.168600 -32.797581 -31.569768
28.426912 -34.457599 -25.546401
23.392776 -30.760788 -31.211402
24.482091 -35.545411 -26.135161
22.024108 -33.683092 -29.006934
14.444396 -22.642419 -39.233414
18.712951 -26.776323 -35.696108
17.584035 -21.472877 -39.211995
13.308322 -25.879360 -37.511022
19.805059 -23.586462 -37.475945
15.417755 -27.935625 -35.672094
3.116058 -1.925830 -46.544686
9.350012 -5.778625 -45.783301
3.113033 -5.151181 -46.275825
21.819135 -13.484967 -41.856885
15.587004 -9.633298 -44.237137
18.641813 -14.861981 -42.013471
3.106433 -11.541789 -45.109710
9.323040 -9.014804 -45.181580
3.107683 -8.379735 -45.794851
6.196631 -13.551995 -44.303456
6.234478 -7.090304 -45.823032
12.408676 -17.409632 -42.127896
12.505197 -11.004674 -44.313576
15.493184 -16.177332 -42.103696
9.310947 -15.516460 -43.304526
15.569559 -12.927800 -43.271395
9.349166 -12.282022 -44.349164
45.172659 -27.918239 -21.996250
39.929365 -24.677705 -28.764737
46.699879 -24.840284 -24.169324
40.904911 -29.873149 -23.055145
28.017185 -17.315573 -38.563308
34.107315 -21.079480 -34.244838
31.469770 -15.856545 -38.174381
27.013938 -20.848497 -36.989830
49.240843 -18.128788 -28.417915
40.972977 -21.479241 -30.734602
48.073963 -21.558052 -26.325778
45.943384 -16.299992 -31.696960
43.914059 -23.207434 -27.638457
32.627952 -33.105917 -24.812705
35.745347 -26.501120 -29.489282
36.702544 -31.607201 -23.998414
30.060133 -31.378654 -27.926721
38.397665 -28.232313 -26.446596
38.812669 -12.619944 -37.066987
37.808402 -19.613318 -33.585619
35.082089 -14.285725 -37.679590
42.427500 -14.446390 -34.586129
34.672669 -17.757765 -36.021160
41.775946 -18.055886 -32.715689
24.730278 -27.518766 -33.356793
32.831442 -24.606987 -32.357439
25.912104 -24.273142 -35.242040
27.401324 -29.494599 -30.788314
29.966823 -22.752924 -34.797724
31.538222 -28.068736 -30.212996
3.092543 23.810929 -40.438190
9.364252 21.988354 -41.365331
5.025428 26.042103 -39.031122
3.094876 20.942175 -41.987640
22.539881 17.449402 -42.164138
15.821244 19.888301 -41.958013
8.914090 30.180021 -35.659131
11.401680 24.233303 -39.908677
6.982478 28.178174 -37.427677
8.205417 25.165075 -39.512506
3.101673 14.877417 -44.438054
9.387663 18.991655 -42.844127
3.101586 17.941681 -43.332041
6.237761 19.997190 -42.459839
51.598791 2.559786 -36.031627
44.364521 7.216737 -39.095708
52.764437 6.793653 -35.205160
47.822455 0.000000 -37.560470
29.570065 14.589758 -41.882029
36.895702 11.210977 -40.942540
52.739419 15.067350 -32.024373
44.886812 11.220832 -37.989847
53.135756 11.034507 -33.841570
48.840662 9.111676 -36.770667
40.089357 -4.556078 -39.617341
41.009334 4.660632 -40.526486
43.921515 -2.382030 -38.734340
44.464800 2.411495 -39.213463
16.662018 37.107784 -26.959711
19.744485 32.076061 -31.947248
14.769080 35.556325 -29.311526
20.547889 36.456486 -26.624432
25.060152 19.744418 -40.548178
22.610001 26.354588 -36.583751
21.566578 20.984044 -40.545292
10.939664 32.131708 -33.644962
17.723487 30.349495 -34.165394
12.849754 33.892115 -31.555710
12.259862 29.351357 -36.005900
16.280842 33.025261 -31.788925
28.637593 34.712975 -25.735733
23.744578 31.223398 -31.680788
24.558849 35.656856 -26.217102
22.170560 33.907071 -29.199818
14.806851 23.210589 -40.217904
19.140137 27.387583 -36.510993
18.131160 22.141003 -40.432072
13.560201 26.369163 -38.220970
20.413556 24.311140 -38.627369
15.684979 28.419813 -36.290373
3.119276 1.927819 -46.592752
9.433698 5.830346 -46.193078
3.121413 5.165049 -46.400402
6.265500 0.000000 -46.504174
22.644610 13.995139 -43.440439
15.941854 9.852608 -45.244229
19.284394 15.374271 -43.461670
3.122841 11.602753 -45.347980
9.445949 9.133649 -45.777222
3.120588 8.414532 -45.985019
6.268366 13.708877 -44.816328
6.279477 7.141480 -46.153768
12.640846 -3.880116 -45.735010
12.744430 3.911911 -46.109779
9.460660 -1.947723 -46.217937
9.490338 1.953833 -46.362922
12.713364 17.837116 -43.162322
12.760029 11.228928 -45.216602
15.956578 16.661188 -43.362998
9.481158 15.800112 -44.096164
16.000089 13.285281 -44.467939
9.503295 12.484501 -45.080297
46.630539 28.819258 -22.706146
41.450519 25.617829 -29.860561
48.483065 25.788784 -25.092205
41.964937 30.647294 -23.652605
29.342689 18.134779 -40.387753
35.689256 22.057174 -35.833158
33.050990 16.653268 -40.092479
28.171023 21.741499 -38.574212
51.643984 19.013542 -29.804817
42.859685 22.468309 -32.149857
50.200024 22.511452 -27.490030
48.331136 17.147129 -33.344303
45.745510 24.175308 -28.791128
33.053817 33.538021 -25.136564
36.899560 27.356838 -30.441487
37.409446 32.215965 -24.460631
30.540192 31.879770 -28.372710
39.480773 29.028680 -27.192592
40.777780 13.258900 -38.943712
39.692588 20.590750 -35.259362
36.888841 15.021450 -39.620114
44.670366 15.210077 -36.414473
36.456783 18.671507 -37.874662
43.941605 18.991901 -34.411666
25.350936 28.209407 -34.193951
34.050635 25.520765 -33.559030
26.811875 25.116002 -36.465783
27.960893 30.096915 -31.417049
31.193306 23.684156 -36.221925
32.368580 28.807747 -31.008463
25.698391 -11.735348 -41.580870
26.857769 -4.020596 -43.456784
29.063716 -10.156596 -41.265094
22.464333 -9.802810 -42.951108
26.722111 12.202837 -43.237283
27.297909 4.086485 -44.168944
30.209035 10.556839 -42.891235
23.178677 10.114530 -44.316911
36.181196 -6.615291 -40.332071
30.236573 -2.140937 -43.030308
32.575818 -8.448245 -40.853195
36.970706 -2.252966 -41.179720
29.736729 -6.199872 -42.286046
15.995682 -5.910399 -45.008011
23.334879 -2.076010 -44.474736
19.208152 -7.846615 -44.097149
16.166743 -1.998319 -45.558433
22.978755 -5.970800 -43.842587
37.313344 6.822290 -41.594105
30.524595 2.161331 -43.440199
33.769481 8.757810 -42.350162
37.383883 2.278144 -41.639937
30.526059 6.364441 -43.408484
33.750592 0.000000 -42.455142
16.240167 6.000737 -45.695935
23.513158 2.091870 -44.814523
19.654843 8.029091 -45.122642
16.253257 2.009013 -45.802231
23.465693 6.097326 -44.771646
19.810443 0.000000 -45.260932
31.470613 45.067228 2.235759
37.138744 42.143822 6.855498
29.999903 44.962955 5.789178
34.624750 44.084660 0.000000
46.854624 33.080878 16.321979
42.262138 38.084869 11.572312
26.528074 43.687826 12.481361
35.254438 41.654796 10.412890
28.322658 44.470331 9.234990
32.701613 43.435938 8.103374
40.670416 41.154979 -4.677184
40.670416 41.154979 4.677184
37.724010 42.775885 -2.319899
37.724010 42.775885 2.319899
56.503525 4.321153 33.270565
57.053152 12.915650 30.327448
51.032581 27.280726 21.119559
54.705146 20.627847 25.930503
18.911306 38.837256 24.002744
26.874997 37.306150 23.056469
20.803841 40.197105 21.381372
44.290964 32.178467 19.887386
35.299601 35.157843 21.728742
42.224161 34.808283 17.538708
24.604235 42.632730 15.695907
28.939754 38.580227 20.224891
22.713464 41.477452 18.599945
28.855309 41.824532 14.838688
24.832630 39.455951 20.851440
37.755797 39.533919 12.854459
33.317090 37.506110 19.456502
40.039961 37.279745 15.180630
33.259102 40.799609 13.892100
37.686473 36.275639 18.578733
31.124670 39.744311 17.177798
51.120780 31.594380 -14.427793
54.068596 33.416230 -5.002394
48.760532 34.342883 -12.001452
51.120780 31.594380 14.427793
54.068596 33.416230 5.002394
48.760532 34.342883 12.001452
43.609362 39.121196 -7.152834
51.041654 35.865993 -2.539535
46.246354 36.876255 -9.563524
44.284381 39.758036 -2.422823
50.230389 35.323413 -7.364652
43.609362 39.121196 7.152834
51.041654 35.865993 2.539535
46.246354 36.876255 9.563524
44.284381 39.758036 2.422823
50.230389 35.323413 7.364652
47.785094 37.987747 0.000000
31.004088 -44.399145 2.202616
36.340530 -41.238036 6.708155
29.674634 -44.475451 5.726409
33.921807 -43.189665 0.000000
45.480027 -32.110368 15.843133
41.180459 -37.110105 11.276125
26.499293 -43.640427 12.467820
34.716935 -41.019711 10.254131
28.156204 -44.208976 9.180715
32.269561 -42.862064 7.996313
39.494642 -39.965196 -4.541968
39.494642 -39.965196 4.541968
36.775289 -41.700113 -2.261556
36.775289 -41.700113 2.261556
55.388975 -4.235917 32.614293
54.607112 -12.361917 29.027219
49.221746 -26.312700 20.370155
52.344980 -19.737892 24.811773
18.996177 -39.011551 24.110464
26.840258 -37.257927 23.026665
20.917892 -40.417473 21.498589
43.153247 -31.351888 19.376532
34.871136 -34.731098 21.464999
41.291743 -34.039626 17.151408
24.673260 -42.752332 15.739941
28.888325 -38.511665 20.188949
22.826517 -41.683901 18.692524
28.787485 -41.726225 14.803810
24.897309 -39.558718 20.905750
37.106447 -38.853988 12.633379
33.058557 -37.215072 19.305525
39.265611 -36.558775 14.887045
32.952875 -40.423955 13.764191
37.135410 -35.745206 18.307069
30.985145 -39.566146 17.100794
49.313364 -30.477335 -13.917686
51.659986 -31.927627 -4.779551
47.084841 -33.162665 -11.589013
49.313364 -30.477335 13.917686
51.659986 -31.927627 4.779551
47.084841 -33.162665 11.589013
42.228216 -37.882194 -6.926298
48.816607 -34.302495 -2.428830
44.706797 -35.648631 -9.245151
42.707601 -38.342420 -2.336557
48.225247 -33.913341 -7.070663
42.228216 -37.882194 6.926298
48.816607 -34.302495 2.428830
44.706797 -35.648631 9.245151
42.707601 -38.342420 2.336557
48.225247 -33.913341 7.070663
45.841248 -36.442447 0.000000
3.075963 -23.683273 40.221391
9.205093 -21.614629 40.662264
4.987775 -25.846984 38.738684
3.076398 -20.817145 41.736965
21.675772 -16.780446 40.547695
15.369004 -19.319807 40.758671
8.842849 -29.938821 35.374142
11.191121 -23.785778 39.171668
6.923839 -27.941534 37.113360
8.100053 -24.841935 39.005134
3.083226 -14.788934 44.173760
9.217957 -18.648332 42.069608
3.082389 -17.830631 43.063838
6.162297 -19.755267 41.946167
50.943604 -2.527283 35.574108
42.895807 -6.977823 37.801422
51.152837 -6.586152 34.129878
28.266040 -13.946357 40.035053
35.299368 -10.725921 39.171114
50.243794 -14.354364 30.508982
42.872272 -10.717236 36.284846
50.881216 -10.566315 32.405679
46.930962 -8.755403 35.332912
16.693242 -37.177323 27.010233
19.533600 -31.733467 31.606029
14.754690 -35.521682 29.282968
20.547453 -36.455712 26.623867
24.045690 -18.945143 38.906744
21.986293 -25.627582 35.574569
20.798297 -20.236515 39.100919
10.870050 -31.927240 33.430865
17.472819 -29.920254 33.682183
12.799659 -33.759987 31.432691
12.110344 -28.993395 35.566781
16.168600 -32.797581 31.569768
28.426912 -34.457599 25.546401
23.392776 -30.760788 31.211402
24.482091 -35.545411 26.135161
22.024108 -33.683092 29.006934
14.444396 -22.642419 39.233414
18.712951 -26.776323 35.696108
17.584035 -21.472877 39.211995
13.308322 -25.879360 37.511022
19.805059 -23.586462 37.475945
15.417755 -27.935625 35.672094
3.116058 -1.925830 46.544686
9.350012 -5.778625 45.783301
3.113033 -5.151181 46.275825
21.819135 -13.484967 41.856885
15.587004 -9.633298 44.237137
18.641813 -14.861981 42.013471
3.106433 -11.541789 45.109710
9.323040 -9.014804 45.181580
3.107683 -8.379735 45.794851
6.196631 -13.551995 44.303456
6.234478 -7.090304 45.823032
12.408676 -17.409632 42.127896
12.505197 -11.004674 44.313576
15.493184 -16.177332 42.103696
9.310947 -15.516460 43.304526
15.569559 -12.927800 43.271395
9.349166 -12.282022 44.349164
45.172659 -27.918239 21.996250
39.929365 -24.677705 28.764737
46.699879 -24.840284 24.169324
40.904911 -29.873149 23.055145
28.017185 -17.315573 38.563308
34.107315 -21.079480 34.244838
31.469770 -15.856545 38.174381
27.013938 -20.848497 36.989830
49.240843 -18.128788 28.417915
40.972977 -21.479241 30.734602
48.073963 -21.558052 26.325778
45.943384 -16.299992 31.696960
43.914059 -23.207434 27.638457
32.627952 -33.105917 24.812705
35.745347 -26.501120 29.489282
36.702544 -31.607201 23.998414
30.060133 -31.378654 27.926721
38.397665 -28.232313 26.446596
38.812669 -12.619944 37.066987
37.808402 -19.613318 33.585619
35.082089 -14.285725 37.679590
42.427500 -14.446390 34.586129
34.672669 -17.757765 36.021160
41.775946 -18.055886 32.715689
24.730278 -27.518766 33.356793
32.831442 -24.606987 32.357439
25.912104 -24.273142 35.242040
27.401324 -29.494599 30.788314
29.966823 -22.752924 34.797724
31.538222 -28.068736 30.212996
3.092543 23.810929 40.438190
9.364252 21.988354 41.365331
5.025428 26.042103 39.031122
3.094876 20.942175 41.987640
22.539881 17.449402 42.164138
15.821244 19.888301 41.958013
8.914090 30.180021 35.659131
11.401680 24.233303 39.908677
6.982478 28.178174 37.427677
8.205417 25.165075 39.512506
3.101673 14.877417 44.438054
9.387663 18.991655 42.844127
3.101586 17.941681 43.332041
6.237761 19.997190 42.459839
51.598791 2.559786 36.031627
44.364521 7.216737 39.095708
52.764437 6.793653 35.205160
47.822455 0.000000 37.560470
29.570065 14.589758 41.882029
36.895702 11.210977 40.942540
52.739419 15.067350 32.024373
44.886812 11.220832 37.989847
53.135756 11.034507 33.841570
48.840662 9.111676 36.770667
40.089357 -4.556078 39.617341
41.009334 4.660632 40.526486
43.921515 -2.382030 38.734340
44.464800 2.411495 39.213463
16.662018 37.107784 26.959711
19.744485 32.076061 31.947248
14.769080 35.556325 29.311526
20.547889 36.456486 26.624432
25.060152 19.744418 40.548178
22.610001 26.354588 36.583751
21.566578 20.984044 40.545292
10.939664 32.131708 33.644962
17.723487 30.349495 34.165394
12.849754 33.892115 31.555710
12.259862 29.351357 36.005900
16.280842 33.025261 31.788925
28.637593 34.712975 25.735733
23.744578 31.223398 31.680788
24.558849 35.656856 26.217102
22.170560 33.907071 29.199818
14.806851 23.210589 40.217904
19.140137 27.387583 36.510993
18.131160 22.141003 40.432072
13.560201 26.369163 38.220970
20.413556 24.311140 38.627369
15.684979 28.419813 36.290373
3.119276 1.927819 46.592752
9.433698 5.830346 46.193078
3.121413 5.165049 46.400402
6.265500 0.000000 46.504174
22.644610 13.995139 43.440439
15.941854 9.852608 45.244229
19.284394 15.374271 43.461670
3.122841 11.602753 45.347980
9.445949 9.133649 45.777222
3.120588 8.414532 45.985019
6.268366 13.708877 44.816328
6.279477 7.141480 46.153768
12.640846 -3.880116 45.735010
12.744430 3.911911 46.109779
9.460660 -1.947723 46.217937
9.490338 1.953833 46.362922
12.713364 17.837116 43.162322
12.760029 11.228928 45.216602
15.956578 16.661188 43.362998
9.481158 15.800112 44.096164
16.000089 13.285281 44.467939
9.503295 12.484501 45.080297
46.630539 28.819258 22.706146
41.450519 25.617829 29.860561
48.483065 25.788784 25.092205
41.964937 30.647294 23.652605
29.342689 18.134779 40.387753
35.689256 22.057174 35.833158
33.050990 16.653268 40.092479
28.171023 21.741499 38.574212
51.643984 19.013542 29.804817
42.859685 22.468309 32.149857
50.200024 22.511452 27.490030
48.331136 17.147129 33.344303
45.745510 24.175308 28.791128
33.053817 33.538021 25.136564
36.899560 27.356838 30.441487
37.409446 32.215965 24.460631
30.540192 31.879770 28.372710
39.480773 29.028680 27.192592
40.777780 13.258900 38.943712
39.692588 20.590750 35.259362
36.888841 15.021450 39.620114
44.670366 15.210077 36.414473
36.456783 18.671507 37.874662
43.941605 18.991901 34.411666
25.350936 28.209407 34.193951
34.050635 25.520765 33.559030
26.811875 25.116002 36.465783
27.960893 30.096915 31.417049
31.193306 23.684156 36.221925
32.368580 28.807747 31.008463
25.698391 -11.735348 41.580870
26.857769 -4.020596 43.456784
29.063716 -10.156596 41.265094
22.464333 -9.802810 42.951108
26.722111 12.202837 43.237283
27.297909 4.086485 44.168944
30.209035 10.556839 42.891235
23.178677 10.114530 44.316911
36.181196 -6.615291 40.332071
30.236573 -2.140937 43.030308
32.575818 -8.448245 40.853195
36.970706 -2.252966 41.179720
29.736729 -6.199872 42.286046
15.995682 -5.910399 45.008011
23.334879 -2.076010 44.474736
19.208152 -7.846615 44.097149
16.166743 -1.998319 45.558433
22.978755 -5.970800 43.842587
37.313344 6.822290 41.594105
30.524595 2.161331 43.440199
33.769481 8.757810 42.350162
37.383883 2.278144 41.639937
30.526059 6.364441 43.408484
33.750592 0.000000 42.455142
16.240167 6.000737 45.695935
23.513158 2.091870 44.814523
19.654843 8.029091 45.122642
16.253257 2.009013 45.802231
23.465693 6.097326 44.771646
19.810443 0.000000 45.260932
59.292375 0.000000 -31.198914
67.436979 0.000000 -24.309951
60.789831 4.480770 -30.320143
59.644136 -4.396322 -29.748705
77.468040 0.000000 -5.369112
73.879441 0.000000 -15.560831
60.843379 13.331516 -26.970242
68.629224 4.790160 -22.976380
61.307049 9.006598 -28.873607
64.899040 4.645291 -26.871521
58.407843 -12.797861 -25.890634
67.549461 -4.714795 -22.614886
59.300089 -8.711756 -27.928395
63.765085 -4.564126 -26.402006
59.292375 0.000000 31.198914
67.436979 0.000000 24.309951
60.789831 4.480770 30.320143
59.644136 -4.396322 29.748705
77.468040 0.000000 5.369112
73.879441 0.000000 15.560831
60.843379 13.331516 26.970242
68.629224 4.790160 22.976380
61.307049 9.006598 28.873607
64.899040 4.645291 26.871521
58.407843 -12.797861 25.890634
67.549461 -4.714795 22.614886
59.300089 -8.711756 27.928395
63.765085 -4.564126 26.402006
53.786622 28.037862 -17.328352
63.365108 22.326765 -13.798700
55.907883 24.806908 -19.777035
55.854266 29.212957 -12.747722
77.430733 5.183807 -3.203769
71.979926 14.699970 -9.085081
76.444358 5.142508 -8.509384
59.595008 17.553574 -24.628032
65.581791 18.507043 -16.286346
57.890820 21.302480 -22.243154
64.359360 13.837967 -23.060625
60.826262 21.886007 -18.172508
58.327895 30.603316 -2.722653
65.072647 23.126580 -8.545264
57.450694 30.111029 -7.824051
60.573614 26.385088 -10.778425
72.000060 4.958208 -18.421965
70.132181 14.471498 -13.993044
74.592240 5.061902 -13.649202
68.654777 9.602600 -21.000826
73.840441 10.046403 -11.425503
67.510625 14.231792 -18.696338
51.796076 -27.000232 -16.687061
60.854901 -21.442291 -13.252065
53.730402 -23.840737 -19.006766
53.621362 -28.045101 -12.238102
76.632229 -5.130349 -3.170730
69.862845 -14.267613 -8.817870
75.603791 -5.085962 -8.415816
57.088852 -16.815391 -23.592346
63.131819 -17.815666 -15.677928
55.516485 -20.428780 -21.330873
61.986524 -13.327781 -22.210413
58.405039 -21.014823 -17.449141
55.610106 -29.177354 -2.595791
62.429578 -22.187242 -8.198179
54.930838 -28.790324 -7.480878
58.034458 -25.279064 -10.326610
70.998780 -4.889256 -18.165777
67.951522 -14.021527 -13.557951
73.679048 -4.999931 -13.482103
66.796594 -9.342699 -20.432426
72.220773 -9.826038 -11.174888
65.233304 -13.751714 -18.065659
53.786622 28.037862 17.328352
63.365108 22.326765 13.798700
55.907883 24.806908 19.777035
55.854266 29.212957 12.747722
77.430733 5.183807 3.203769
71.979926 14.699970 9.085081
76.444358 5.142508 8.509384
75.904495 10.226601 0.000000
59.595008 17.553574 24.628032
65.581791 18.507043 16.286346
57.890820 21.302480 22.243154
64.359360 13.837967 23.060625
60.826262 21.886007 18.172508
58.327895 30.603316 2.722653
65.072647 23.126580 8.545264
57.450694 30.111029 7.824051
62.377606 27.302310 0.000000
60.573614 26.385088 10.778425
72.000060 4.958208 18.421965
70.132181 14.471498 13.993044
74.592240 5.061902 13.649202
68.654777 9.602600 21.000826
73.840441 10.046403 11.425503
67.510625 14.231792 18.696338
69.448604 19.195122 -5.891955
69.448604 19.195122 5.891955
73.081272 14.959497 -3.079801
66.134299 23.468240 -2.900834
73.081272 14.959497 3.079801
66.134299 23.468240 2.900834
51.796076 -27.000232 16.687061
60.854901 -21.442291 13.252065
53.730402 -23.840737 19.006766
53.621362 -28.045101 12.238102
76.632229 -5.130349 3.170730
69.862845 -14.267613 8.817870
75.603791 -5.085962 8.415816
74.398777 -10.023736 0.000000
57.088852 -16.815391 23.592346
63.131819 -17.815666 15.677928
55.516485 -20.428780 21.330873
61.986524 -13.327781 22.210413
58.405039 -21.014823 17.449141
55.610106 -29.177354 2.595791
62.429578 -22.187242 8.198179
54.930838 -28.790324 7.480878
59.539346 -26.060020 0.000000
58.034458 -25.279064 10.326610
70.998780 -4.889256 18.165777
67.951522 -14.021527 13.557951
73.679048 -4.999931 13.482103
66.796594 -9.342699 20.432426
72.220773 -9.826038 11.174888
65.233304 -13.751714 18.065659
66.960780 -18.507504 -5.680890
66.960780 -18.507504 5.680890
70.987978 -14.531006 -2.991585
63.385577 -22.492836 -2.780267
70.987978 -14.531006 2.991585
63.385577 -22.492836 2.780267
-31.004088 44.399145 -2.202616
-36.340530 41.238036 -6.708155
-29.674634 44.475451 -5.726409
-45.480027 32.110368 -15.843133
-41.180459 37.110105 -11.276125
-26.499293 43.640427 -12.467820
-34.716935 41.019711 -10.254131
-28.156204 44.208976 -9.180715
-32.269561 42.862064 -7.996313
-55.388975 4.235917 -32.614293
-54.607112 12.361917 -29.027219
-49.221746 26.312700 -20.370155
-52.344980 19.737892 -24.811773
-18.996177 39.011551 -24.110464
-26.840258 37.257927 -23.026665
-20.917892 40.417473 -21.498589
-43.153247 31.351888 -19.376532
-34.871136 34.731098 -21.464999
-41.291743 34.039626 -17.151408
-24.673260 42.752332 -15.739941
-28.888325 38.511665 -20.188949
-22.826517 41.683901 -18.692524
-28.787485 41.726225 -14.803810
-24.897309 39.558718 -20.905750
-37.106447 38.853988 -12.633379
-33.058557 37.215072 -19.305525
-39.265611 36.558775 -14.887045
-32.952875 40.423955 -13.764191
-37.135410 35.745206 -18.307069
-30.985145 39.566146 -17.100794
-31.470613 -45.067228 -2.235759
-37.138744 -42.143822 -6.855498
-29.999903 -44.962955 -5.789178
-46.854624 -33.080878 -16.321979
-42.262138 -38.084869 -11.572312
-26.528074 -43.687826 -12.481361
-35.254438 -41.654796 -10.412890
-28.322658 -44.470331 -9.234990
-32.701613 -43.435938 -8.103374
-56.503525 -4.321153 -33.270565
-57.053152 -12.915650 -30.327448
-51.032581 -27.280726 -21.119559
-54.705146 -20.627847 -25.930503
-18.911306 -38.837256 -24.002744
-26.874997 -37.306150 -23.056469
-20.803841 -40.197105 -21.381372
-44.290964 -32.178467 -19.887386
-35.299601 -35.157843 -21.728742
-42.224161 -34.808283 -17.538708
-24.604235 -42.632730 -15.695907
-28.939754 -38.580227 -20.224891
-22.713464 -41.477452 -18.599945
-28.855309 -41.824532 -14.838688
-24.832630 -39.455951 -20.851440
-37.755797 -39.533919 -12.854459
-33.317090 -37.506110 -19.456502
-40.039961 -37.279745 -15.180630
-33.259102 -40.799609 -13.892100
-37.686473 -36.275639 -18.578733
-31.124670 -39.744311 -17.177798
-3.092543 -23.810929 -40.438190
-9.364252 -21.988354 -41.365331
-5.025428 -26.042103 -39.031122
-3.094876 -20.942175 -41.987640
-22.539881 -17.449402 -42.164138
-15.821244 -19.888301 -41.958013
-8.914090 -30.180021 -35.659131
-11.401680 -24.233303 -39.908677
-6.982478 -28.178174 -37.427677
-8.205417 -25.165075 -39.512506
-3.101673 -14.877417 -44.438054
-9.387663 -18.991655 -42.844127
-3.101586 -17.941681 -43.332041
-6.237761 -19.997190 -42.459839
-51.598791 -2.559786 -36.031627
-44.364521 -7.216737 -39.095708
-52.764437 -6.793653 -35.205160
-29.570065 -14.589758 -41.882029
-36.895702 -11.210977 -40.942540
-52.739419 -15.067350 -32.024373
-44.886812 -11.220832 -37.989847
-53.135756 -11.034507 -33.841570
-48.840662 -9.111676 -36.770667
-16.662018 -37.107784 -26.959711
-19.744485 -32.076061 -31.947248
-14.769080 -35.556325 -29.311526
-20.547889 -36.456486 -26.624432
-25.060152 -19.744418 -40.548178
-22.610001 -26.354588 -36.583751
-21.566578 -20.984044 -40.545292
-10.939664 -32.131708 -33.644962
-17.723487 -30.349495 -34.165394
-12.849754 -33.892115 -31.555710
-12.259862 -29.351357 -36.005900
-16.280842 -33.025261 -31.788925
-28.637593 -34.712975 -25.735733
-23.744578 -31.223398 -31.680788
-24.558849 -35.656856 -26.217102
-22.170560 -33.907071 -29.199818
-14.806851 -23.210589 -40.217904
-19.140137 -27.387583 -36.510993
-18.131160 -22.141003 -40.432072
-13.560201 -26.369163 -38.220970
-20.413556 -24.311140 -38.627369
-15.684979 -28.419813 -36.290373
