4.307581 -23.335741 -26.480630
0.000000 -21.785883 -27.738056
10.570791 -30.344998 -21.424549
7.391398 -26.993419 -24.325338
-3.062530 -26.630205 -26.947487
2.959000 -25.729960 -26.036516
-1.484813 -24.144627 -27.377995
1.461961 -23.773042 -26.956649
2.144879 -51.838797 -3.470487
5.915907 -46.870966 -9.572138
5.501985 -49.427284 -3.325035
0.000000 -52.173335 -7.029306
11.206778 -34.785460 -18.132947
8.907230 -40.902954 -14.412201
12.708608 -35.926080 -15.940774
11.348998 -44.356209 -3.054543
8.896735 -44.589826 -9.200934
8.580971 -46.894600 -3.182313
12.897585 -42.164096 -5.897404
7.297818 -47.164149 -6.416945
-4.257900 -50.187966 -13.871613
3.922352 -46.232851 -12.778446
-2.175046 -51.612137 -10.564835
2.079503 -49.344978 -10.100755
15.395972 -37.255234 -10.973444
10.361007 -41.721663 -11.773765
14.123926 -36.759430 -13.526618
14.247604 -39.763307 -8.549546
11.606513 -38.848838 -13.978271
11.680656 -42.177691 -8.891402
-10.899299 -38.618567 -23.867587
-3.444466 -37.229655 -23.009192
-8.702784 -35.358422 -24.903545
-9.582065 -41.983911 -21.958469
9.337781 -33.085773 -20.448132
3.272071 -35.366317 -21.857586
7.737850 -31.438005 -22.142328
8.271770 -36.242839 -18.955768
-4.825093 -29.417603 -26.390017
-1.698557 -34.138979 -23.988807
-6.673689 -32.271971 -25.733259
-1.582336 -28.921957 -25.965819
-5.103447 -34.807907 -24.477893
-6.290064 -47.899179 -17.023192
-1.870575 -40.073669 -21.025740
-8.033325 -45.146439 -19.665209
-2.037515 -46.452037 -16.483846
-5.596095 -41.091189 -21.536694
4.552899 -27.758092 -24.901299
1.658237 -33.328599 -23.419368
6.128152 -29.633918 -23.629709
1.551940 -28.366364 -25.467013
4.755891 -32.437414 -22.810896
0.000000 -31.182081 -24.788840
5.621777 -42.810131 -15.214563
1.814649 -38.875559 -20.397119
7.032017 -39.519194 -17.214053
1.961920 -44.728587 -15.872267
5.123191 -37.618737 -19.716714
0.000000 -42.606753 -18.648725
-20.344624 34.551350 -2.642342
-18.677625 35.137061 -7.954301
-18.388693 36.868081 -2.717517
-13.672193 33.037020 -17.660755
-16.440157 34.683523 -13.078229
-13.972144 41.734052 -2.912940
-16.583138 37.410646 -8.197122
-16.262535 39.276633 -2.811311
-17.554469 37.273234 -5.475798
-1.390808 19.577060 -28.035165
-4.307581 23.335741 -26.480630
-10.570791 30.344998 -21.424549
-7.391398 26.993419 -24.325338
-2.144879 51.838797 -3.470487
-5.915907 46.870966 -9.572138
-5.501985 49.427284 -3.325035
-11.206778 34.785460 -18.132947
-8.907230 40.902954 -14.412201
-12.708608 35.926080 -15.940774
-11.348998 44.356209 -3.054543
-8.896735 44.589826 -9.200934
-8.580971 46.894600 -3.182313
-12.897585 42.164096 -5.897404
-7.297818 47.164149 -6.416945
-15.395972 37.255234 -10.973444
-10.361007 41.721663 -11.773765
-14.123926 36.759430 -13.526618
-14.247604 39.763307 -8.549546
-11.606513 38.848838 -13.978271
-11.680656 42.177691 -8.891402
36.702929 62.332720 -4.766945
30.275702 56.955805 -12.893612
30.856460 61.865109 -4.560028
17.637954 42.619749 -22.783439
23.661289 49.917824 -18.822676
20.228077 60.420192 -4.217189
25.221058 56.897316 -12.466886
25.352266 61.229794 -4.382657
28.138718 59.746665 -8.777362
1.407988 19.818884 -28.381467
4.512100 24.443697 -27.737901
0.000000 21.785883 -27.738056
12.459957 35.768125 -25.253451
8.135010 29.709094 -26.772591
-2.959000 25.729960 -26.036516
3.062530 26.630205 -26.947487
-1.461961 23.773042 -26.956649
1.484813 24.144627 -27.377995
2.253576 54.465874 -3.646363
6.759238 53.552568 -10.936676
6.276674 56.386726 -3.793206
0.000000 52.173335 -7.029306
13.765180 42.726655 -22.272529
10.714401 49.201678 -17.336266
16.381360 46.308617 -20.547614
15.180045 59.329400 -4.085656
10.941565 54.838376 -11.315682
10.616272 58.017421 -3.937118
17.892325 58.492630 -8.181241
8.682604 56.113702 -7.634581
-3.922352 46.232851 -12.778446
4.257900 50.187966 -13.871613
-2.079503 49.344978 -10.100755
2.175046 51.612137 -10.564835
22.097189 53.470863 -15.749721
13.059453 52.587753 -14.840153
19.191498 49.948472 -18.379880
20.233320 56.468701 -12.141388
14.850095 49.705621 -17.884669
15.449080 55.785098 -11.759955
-9.337781 33.085773 -20.448132
-3.272071 35.366317 -21.857586
-7.737850 31.438005 -22.142328
-8.271770 36.242839 -18.955768
10.899299 38.618567 -23.867587
3.444466 37.229655 -23.009192
8.702784 35.358422 -24.903545
9.582065 41.983911 -21.958469
-4.552899 27.758092 -24.901299
-1.658237 33.328599 -23.419368
-6.128152 29.633918 -23.629709
-1.551940 28.366364 -25.467013
-4.755891 32.437414 -22.810896
-5.621777 42.810131 -15.214563
-1.814649 38.875559 -20.397119
-7.032017 39.519194 -17.214053
-1.961920 44.728587 -15.872267
-5.123191 37.618737 -19.716714
4.825093 29.417603 -26.390017
1.698557 34.138979 -23.988807
6.673689 32.271971 -25.733259
1.582336 28.921957 -25.965819
5.103447 34.807907 -24.477893
0.000000 31.182081 -24.788840
6.290064 47.899179 -17.023192
1.870575 40.073669 -21.025740
8.033325 45.146439 -19.665209
2.037515 46.452037 -16.483846
5.596095 41.091189 -21.536694
0.000000 42.606753 -18.648725
0.000000 -15.285140 -29.048839
0.000000 -10.696784 -29.673396
0.000000 -2.095640 -30.236869
0.000000 -6.330420 -30.055458
0.000000 15.285140 -29.048839
0.000000 10.696784 -29.673396
0.000000 2.095640 -30.236869
0.000000 6.330420 -30.055458
44.187688 63.278609 -3.139215
52.303056 59.351784 -9.654702
40.773428 61.109991 -7.868179
54.508238 38.484577 -18.988144
55.747291 50.237124 -15.264847
33.029169 54.394170 -15.540103
46.944883 55.467613 -13.865826
36.901778 57.940688 -12.032330
44.260690 58.789289 -10.967684
37.157956 2.841685 -21.879453
41.102078 9.304657 -21.848418
50.364859 26.923779 -20.843226
45.557316 17.178445 -21.594388
19.203641 39.437609 -24.373783
28.488690 39.546175 -24.440880
22.270447 43.030876 -22.888693
48.904563 35.530360 -21.958970
38.773795 38.618085 -23.867289
49.699492 40.970712 -20.643746
29.153267 50.515017 -18.597895
32.471899 43.289006 -22.693372
25.612209 46.770902 -20.973714
35.227070 51.060127 -18.115332
27.229999 43.265071 -22.864461
48.786924 51.084562 -16.610152
38.223444 43.029349 -22.321713
49.689398 46.263983 -18.839088
41.827647 51.310815 -17.471123
44.004432 42.357079 -21.693370
36.972428 47.211542 -20.405193
22.414684 -32.098761 -1.592401
24.992039 -28.360142 -4.613319
21.741314 -32.585229 -4.195491
29.268046 -20.664185 -10.195631
27.254566 -24.560674 -7.462906
19.997656 -32.933190 -9.408824
24.232438 -28.631779 -7.157389
20.935584 -32.871646 -6.826334
23.039036 -30.601615 -5.709013
35.016215 -2.677893 -20.618347
34.002299 -7.697415 -18.074426
31.067597 -16.607951 -12.857158
32.657108 -12.314122 -15.479627
14.813683 -30.422161 -18.801929
19.747839 -27.412686 -16.941972
16.280578 -31.457273 -16.732540
28.268859 -20.538017 -12.693192
24.202116 -24.104923 -14.897662
27.376094 -22.567999 -11.371246
18.878164 -32.710941 -12.043045
21.065508 -28.082894 -14.721880
17.650027 -32.231022 -14.453521
21.187608 -30.710528 -10.895614
18.752590 -29.795526 -15.746158
25.379886 -26.575161 -8.640917
23.323002 -26.255447 -13.620159
26.409611 -24.589024 -10.012860
23.356170 -28.651483 -9.755713
25.391005 -24.440466 -12.517296
22.297485 -28.472533 -12.306048
2.179980 -16.784681 -28.505486
6.382896 -14.987781 -28.195586
3.590956 -18.608573 -27.889970
2.133195 -14.434743 -28.940681
14.577854 -11.285545 -27.270004
10.478475 -13.172104 -27.788966
6.567669 -22.235851 -26.272716
7.860511 -16.706850 -27.513718
5.064372 -20.437550 -27.146188
5.755359 -17.651028 -27.714457
2.065535 -9.907500 -29.593175
6.279874 -12.704461 -28.660565
2.097348 -12.132487 -29.301906
4.232590 -13.568958 -28.810838
32.796606 -1.627021 -22.901992
27.853306 -4.530873 -24.545396
32.610211 -4.198708 -21.757982
18.783272 -9.267595 -26.603985
23.186183 -7.045259 -25.729317
31.860134 -9.102258 -19.346076
27.855100 -6.963234 -23.575098
32.287412 -6.705008 -20.563492
30.205309 -5.635079 -22.740670
12.971801 -28.889346 -20.988816
14.343769 -23.302284 -23.208706
11.382340 -27.402804 -22.590017
15.575549 -27.634459 -20.181643
16.294321 -12.837986 -26.364764
15.427518 -17.982567 -24.962248
14.204081 -13.820415 -26.703755
8.193518 -24.065799 -25.199186
12.722695 -21.786195 -24.525414
9.771398 -25.772740 -23.996056
8.851246 -21.190784 -25.995161
12.097763 -24.539994 -23.621313
20.481069 -24.826068 -18.405713
16.871654 -22.185712 -22.510709
18.093342 -26.269622 -19.315034
16.262552 -24.871520 -21.418655
10.039188 -15.737003 -27.268126
13.291038 -19.018119 -25.353475
12.110182 -14.788440 -27.005429
9.466235 -18.408038 -26.681662
13.774636 -16.404643 -26.064931
11.101950 -20.115763 -25.686607
2.022799 -1.250159 -30.214629
6.096417 -3.767793 -29.851738
2.027261 -3.354538 -30.135616
14.504158 -8.964063 -27.824149
10.248425 -6.333875 -29.085833
12.455139 -9.929723 -28.070426
2.054405 -7.633037 -29.832815
6.118066 -5.915791 -29.649542
2.036413 -5.491100 -30.008600
4.126069 -9.023688 -29.499757
4.073579 -4.632772 -29.940556
8.390145 -11.771549 -28.484841
8.250992 -7.260939 -29.238321
10.410251 -10.869947 -28.290508
6.246472 -10.409589 -29.051879
10.334751 -8.581207 -28.722658
6.193867 -8.136898 -29.381532
29.247767 -18.076114 -14.241827
26.583090 -16.429253 -19.150207
29.999675 -15.957224 -15.526204
27.204987 -19.867997 -15.333487
18.816468 -11.629217 -25.899292
22.978148 -14.201276 -23.070797
20.976403 -10.569295 -25.445410
18.400430 -14.200866 -25.195468
31.299072 -11.523244 -18.063345
27.052789 -14.181869 -20.292807
30.690633 -13.762757 -16.806495
29.646006 -10.517938 -20.453179
28.654561 -15.143188 -18.034494
22.880060 -23.215229 -17.399688
24.300076 -18.015750 -20.047134
25.072688 -21.591895 -16.394088
21.229113 -22.160281 -19.722452
25.869676 -19.020969 -17.817877
25.454206 -8.276438 -24.309348
25.149973 -13.046688 -22.340998
23.200066 -9.447264 -24.917814
27.666512 -9.420334 -22.553239
23.128073 -11.845148 -24.027571
27.394370 -11.840058 -21.453151
17.447044 -19.414304 -23.532992
22.424462 -16.807013 -22.100710
17.943643 -16.808693 -24.404448
19.387230 -20.868282 -21.783623
20.473419 -15.544863 -23.773904
21.879361 -19.472435 -20.959997
2.216702 17.067417 -28.985657
6.678839 15.682691 -29.502876
3.703304 19.190769 -28.762549
2.163489 14.639736 -29.351678
15.854114 12.273570 -29.657435
11.213569 14.096163 -29.738437
7.039796 23.834310 -28.161372
8.373726 17.797644 -29.310094
5.315298 21.450176 -28.491209
6.037618 18.516684 -29.073650
2.085061 10.001157 -29.872925
6.521082 13.192436 -29.761407
2.121991 12.275036 -29.646184
4.347218 13.936434 -29.591094
33.855591 1.679556 -23.641485
29.978978 4.876654 -26.418619
35.567734 4.579502 -23.731283
31.191534 0.000000 -24.498296
20.605797 10.166822 -29.185346
25.396662 7.716926 -28.182248
39.255838 11.215168 -23.836887
31.375620 7.843296 -26.554682
37.373943 7.761309 -23.803047
33.606315 6.269568 -25.301185
26.129032 -2.969514 -25.821386
27.266218 3.098753 -26.945182
28.598982 -1.551031 -25.221414
29.313637 1.589790 -25.851667
15.890123 35.388707 -25.710760
17.216614 27.969387 -27.857066
13.381248 32.215143 -26.557160
19.987521 35.462269 -25.898349
18.200135 14.339541 -29.448436
17.926895 20.895882 -29.006326
15.717869 15.293315 -29.549686
9.018693 26.489481 -27.737013
14.711211 25.191308 -28.358658
11.084277 29.235548 -27.220151
9.703926 23.232187 -28.499390
14.127783 28.657837 -27.584999
28.859719 34.982225 -25.935352
20.946842 27.544460 -27.947957
24.338433 35.336834 -25.981803
20.563880 31.449857 -27.083734
10.851933 17.011028 -29.475680
15.169872 21.706538 -28.937466
13.253820 16.185003 -29.555716
10.314245 20.057077 -29.071873
15.493215 18.451352 -29.316897
12.430932 22.523763 -28.761476
2.025151 1.251612 -30.249755
6.161874 3.808247 -30.172253
2.033613 3.365048 -30.230037
4.066457 0.000000 -30.182303
15.482029 9.568420 -29.700055
10.571159 6.533335 -30.001776
13.240172 10.555582 -29.839672
2.069285 7.688320 -30.048884
6.222382 6.016659 -30.155082
2.046920 5.519434 -30.163442
4.198065 9.181142 -30.014499
4.109312 4.673410 -30.203191
8.226230 -2.525047 -29.762779
8.306305 2.549626 -30.052495
6.145111 -1.265131 -30.020566
6.167228 1.269684 -30.128614
8.797273 12.342758 -29.867054
8.488461 7.469914 -30.079818
10.999888 11.485620 -29.892882
6.440738 10.733328 -29.955396
10.786402 8.956224 -29.977899
6.342085 8.331612 -30.084627
47.165576 29.149929 -22.966676
36.815472 22.753213 -26.521517
45.312797 24.102477 -23.451446
43.232854 31.573263 -24.367239
21.203412 13.104429 -29.184720
28.158154 17.402696 -28.271689
23.757880 11.970787 -28.819479
21.279359 16.422732 -29.137547
41.284955 15.199703 -23.826406
35.587055 18.655782 -26.694520
43.300334 19.417389 -23.711692
36.932693 13.103140 -25.480363
40.293307 21.293961 -25.359642
33.800378 34.295519 -25.704305
33.057201 24.508165 -27.271608
38.587642 33.230594 -25.231009
29.078446 30.353907 -27.014706
37.877203 27.849638 -26.088125
28.862449 9.384629 -27.564298
31.139493 16.153784 -27.661554
26.338301 10.725181 -28.288406
32.740513 11.148011 -26.689473
27.267219 13.965030 -28.327697
34.157112 14.762967 -26.749208
21.182986 23.571496 -28.572120
28.545329 21.394569 -28.133207
21.280813 19.934784 -28.943202
24.861198 26.760425 -27.934211
24.726587 18.774167 -28.712718
28.946189 25.761849 -27.729879
16.989019 -7.758153 -27.488810
17.535094 -2.624996 -28.372379
19.132251 -6.685950 -27.164253
14.783977 -6.451316 -28.266505
18.173874 8.299226 -29.405946
17.936238 2.685046 -29.021442
20.448913 7.146070 -29.033669
15.498037 6.762912 -29.631765
23.644051 -4.323027 -26.356607
19.747151 -1.398221 -28.102589
21.360227 -5.539582 -26.787770
24.157893 -1.472163 -26.908203
19.455179 -4.056251 -27.665537
10.441207 -3.858023 -29.379052
15.209529 -1.353130 -28.988355
12.585519 -5.141241 -28.893229
10.515429 -1.299778 -29.632835
15.019760 -3.902735 -28.657129
24.984086 4.568036 -27.850377
20.019082 1.417476 -28.489580
22.741985 5.897929 -28.520626
24.609749 1.499699 -27.411502
20.250912 4.222155 -28.797082
22.094803 0.000000 -27.793231
10.642064 3.932239 -29.944214
15.359917 1.366510 -29.274986
12.984235 5.304118 -29.808582
10.582835 1.308110 -29.822790
15.454297 4.015645 -29.486209
12.899334 0.000000 -29.471116
44.187688 63.278609 3.139215
52.303056 59.351784 9.654702
40.773428 61.109991 7.868179
50.177764 63.886950 0.000000
54.508238 38.484577 18.988144
55.747291 50.237124 15.264847
33.029169 54.394170 15.540103
46.944883 55.467613 13.865826
36.901778 57.940688 12.032330
44.260690 58.789289 10.967684
59.809279 60.521870 -6.878194
59.809279 60.521870 6.878194
55.719429 63.181191 -3.426556
55.719429 63.181191 3.426556
37.157956 2.841685 21.879453
41.102078 9.304657 21.848418
50.364859 26.923779 20.843226
45.557316 17.178445 21.594388
19.203641 39.437609 24.373783
28.488690 39.546175 24.440880
22.270447 43.030876 22.888693
48.904563 35.530360 21.958970
38.773795 38.618085 23.867289
49.699492 40.970712 20.643746
29.153267 50.515017 18.597895
32.471899 43.289006 22.693372
25.612209 46.770902 20.973714
35.227070 51.060127 18.115332
27.229999 43.265071 22.864461
48.786924 51.084562 16.610152
38.223444 43.029349 22.321713
49.689398 46.263983 18.839088
41.827647 51.310815 17.471123
44.004432 42.357079 21.693370
36.972428 47.211542 20.405193
58.125500 35.923535 -16.404731
68.646266 42.425726 -6.351112
60.550045 42.646440 -14.903210
58.125500 35.923535 16.404731
68.646266 42.425726 6.351112
60.550045 42.646440 14.903210
61.991222 55.611241 -10.167838
71.998214 50.591766 -3.582212
62.033488 49.464714 -12.828228
67.163169 60.298364 -3.674534
66.809233 46.982119 -9.795400
61.991222 55.611241 10.167838
71.998214 50.591766 3.582212
62.033488 49.464714 12.828228
67.163169 60.298364 3.674534
66.809233 46.982119 9.795400
71.988175 57.228487 0.000000
22.414684 -32.098761 1.592401
24.992039 -28.360142 4.613319
21.741314 -32.585229 4.195491
23.836427 -30.348834 0.000000
29.268046 -20.664185 10.195631
27.254566 -24.560674 7.462906
19.997656 -32.933190 9.408824
24.232438 -28.631779 7.157389
20.935584 -32.871646 6.826334
23.039036 -30.601615 5.709013
26.429363 -26.744252 -3.039433
26.429363 -26.744252 3.039433
25.179047 -28.550942 -1.548426
25.179047 -28.550942 1.548426
35.016215 -2.677893 20.618347
34.002299 -7.697415 18.074426
31.067597 -16.607951 12.857158
32.657108 -12.314122 15.479627
14.813683 -30.422161 18.801929
19.747839 -27.412686 16.941972
16.280578 -31.457273 16.732540
28.268859 -20.538017 12.693192
24.202116 -24.104923 14.897662
27.376094 -22.567999 11.371246
18.878164 -32.710941 12.043045
21.065508 -28.082894 14.721880
17.650027 -32.231022 14.453521
21.187608 -30.710528 10.895614
18.752590 -29.795526 15.746158
25.379886 -26.575161 8.640917
23.323002 -26.255447 13.620159
26.409611 -24.589024 10.012860
23.356170 -28.651483 9.755713
25.391005 -24.440466 12.517296
22.297485 -28.472533 12.306048
30.900334 -19.097457 -8.720986
31.674489 -19.575911 -2.930505
29.874228 -21.040933 -7.352957
30.900334 -19.097457 8.720986
31.674489 -19.575911 2.930505
29.874228 -21.040933 7.352957
27.670280 -24.822524 -4.538496
30.464400 -21.406750 -1.515731
28.792330 -22.958638 -5.954116
27.845733 -24.999597 -1.523456
30.269967 -21.286686 -4.438105
27.670280 -24.822524 4.538496
30.464400 -21.406750 1.515731
28.792330 -22.958638 5.954116
27.845733 -24.999597 1.523456
30.269967 -21.286686 4.438105
29.196153 -23.210085 0.000000
2.179980 -16.784681 28.505486
6.382896 -14.987781 28.195586
3.590956 -18.608573 27.889970
2.133195 -14.434743 28.940681
14.577854 -11.285545 27.270004
10.478475 -13.172104 27.788966
6.567669 -22.235851 26.272716
7.860511 -16.706850 27.513718
5.064372 -20.437550 27.146188
5.755359 -17.651028 27.714457
2.065535 -9.907500 29.593175
6.279874 -12.704461 28.660565
2.097348 -12.132487 29.301906
4.232590 -13.568958 28.810838
32.796606 -1.627021 22.901992
27.853306 -4.530873 24.545396
32.610211 -4.198708 21.757982
18.783272 -9.267595 26.603985
23.186183 -7.045259 25.729317
31.860134 -9.102258 19.346076
27.855100 -6.963234 23.575098
32.287412 -6.705008 20.563492
30.205309 -5.635079 22.740670
12.971801 -28.889346 20.988816
14.343769 -23.302284 23.208706
11.382340 -27.402804 22.590017
15.575549 -27.634459 20.181643
16.294321 -12.837986 26.364764
15.427518 -17.982567 24.962248
14.204081 -13.820415 26.703755
8.193518 -24.065799 25.199186
12.722695 -21.786195 24.525414
9.771398 -25.772740 23.996056
8.851246 -21.190784 25.995161
12.097763 -24.539994 23.621313
20.481069 -24.826068 18.405713
16.871654 -22.185712 22.510709
18.093342 -26.269622 19.315034
16.262552 -24.871520 21.418655
10.039188 -15.737003 27.268126
13.291038 -19.018119 25.353475
12.110182 -14.788440 27.005429
9.466235 -18.408038 26.681662
13.774636 -16.404643 26.064931
11.101950 -20.115763 25.686607
2.022799 -1.250159 30.214629
6.096417 -3.767793 29.851738
2.027261 -3.354538 30.135616
14.504158 -8.964063 27.824149
10.248425 -6.333875 29.085833
12.455139 -9.929723 28.070426
2.054405 -7.633037 29.832815
6.118066 -5.915791 29.649542
2.036413 -5.491100 30.008600
4.126069 -9.023688 29.499757
4.073579 -4.632772 29.940556
8.390145 -11.771549 28.484841
8.250992 -7.260939 29.238321
10.410251 -10.869947 28.290508
6.246472 -10.409589 29.051879
10.334751 -8.581207 28.722658
6.193867 -8.136898 29.381532
29.247767 -18.076114 14.241827
26.583090 -16.429253 19.150207
29.999675 -15.957224 15.526204
27.204987 -19.867997 15.333487
18.816468 -11.629217 25.899292
22.978148 -14.201276 23.070797
20.976403 -10.569295 25.445410
18.400430 -14.200866 25.195468
31.299072 -11.523244 18.063345
27.052789 -14.181869 20.292807
30.690633 -13.762757 16.806495
29.646006 -10.517938 20.453179
28.654561 -15.143188 18.034494
22.880060 -23.215229 17.399688
24.300076 -18.015750 20.047134
25.072688 -21.591895 16.394088
21.229113 -22.160281 19.722452
25.869676 -19.020969 17.817877
25.454206 -8.276438 24.309348
25.149973 -13.046688 22.340998
23.200066 -9.447264 24.917814
27.666512 -9.420334 22.553239
23.128073 -11.845148 24.027571
27.394370 -11.840058 21.453151
17.447044 -19.414304 23.532992
22.424462 -16.807013 22.100710
17.943643 -16.808693 24.404448
19.387230 -20.868282 21.783623
20.473419 -15.544863 23.773904
21.879361 -19.472435 20.959997
2.216702 17.067417 28.985657
6.678839 15.682691 29.502876
3.703304 19.190769 28.762549
2.163489 14.639736 29.351678
15.854114 12.273570 29.657435
11.213569 14.096163 29.738437
7.039796 23.834310 28.161372
8.373726 17.797644 29.310094
5.315298 21.450176 28.491209
6.037618 18.516684 29.073650
2.085061 10.001157 29.872925
6.521082 13.192436 29.761407
2.121991 12.275036 29.646184
4.347218 13.936434 29.591094
33.855591 1.679556 23.641485
29.978978 4.876654 26.418619
35.567734 4.579502 23.731283
31.191534 0.000000 24.498296
20.605797 10.166822 29.185346
25.396662 7.716926 28.182248
39.255838 11.215168 23.836887
31.375620 7.843296 26.554682
37.373943 7.761309 23.803047
33.606315 6.269568 25.301185
26.129032 -2.969514 25.821386
27.266218 3.098753 26.945182
28.598982 -1.551031 25.221414
29.313637 1.589790 25.851667
15.890123 35.388707 25.710760
17.216614 27.969387 27.857066
13.381248 32.215143 26.557160
19.987521 35.462269 25.898349
18.200135 14.339541 29.448436
17.926895 20.895882 29.006326
15.717869 15.293315 29.549686
9.018693 26.489481 27.737013
14.711211 25.191308 28.358658
11.084277 29.235548 27.220151
9.703926 23.232187 28.499390
14.127783 28.657837 27.584999
28.859719 34.982225 25.935352
20.946842 27.544460 27.947957
24.338433 35.336834 25.981803
20.563880 31.449857 27.083734
10.851933 17.011028 29.475680
15.169872 21.706538 28.937466
13.253820 16.185003 29.555716
10.314245 20.057077 29.071873
15.493215 18.451352 29.316897
12.430932 22.523763 28.761476
2.025151 1.251612 30.249755
6.161874 3.808247 30.172253
2.033613 3.365048 30.230037
4.066457 0.000000 30.182303
15.482029 9.568420 29.700055
10.571159 6.533335 30.001776
13.240172 10.555582 29.839672
2.069285 7.688320 30.048884
6.222382 6.016659 30.155082
2.046920 5.519434 30.163442
4.198065 9.181142 30.014499
4.109312 4.673410 30.203191
8.226230 -2.525047 29.762779
8.306305 2.549626 30.052495
6.145111 -1.265131 30.020566
6.167228 1.269684 30.128614
8.797273 12.342758 29.867054
8.488461 7.469914 30.079818
10.999888 11.485620 29.892882
6.440738 10.733328 29.955396
10.786402 8.956224 29.977899
6.342085 8.331612 30.084627
47.165576 29.149929 22.966676
36.815472 22.753213 26.521517
45.312797 24.102477 23.451446
43.232854 31.573263 24.367239
21.203412 13.104429 29.184720
28.158154 17.402696 28.271689
23.757880 11.970787 28.819479
21.279359 16.422732 29.137547
41.284955 15.199703 23.826406
35.587055 18.655782 26.694520
43.300334 19.417389 23.711692
36.932693 13.103140 25.480363
40.293307 21.293961 25.359642
33.800378 34.295519 25.704305
33.057201 24.508165 27.271608
38.587642 33.230594 25.231009
29.078446 30.353907 27.014706
37.877203 27.849638 26.088125
28.862449 9.384629 27.564298
31.139493 16.153784 27.661554
26.338301 10.725181 28.288406
32.740513 11.148011 26.689473
27.267219 13.965030 28.327697
34.157112 14.762967 26.749208
21.182986 23.571496 28.572120
28.545329 21.394569 28.133207
21.280813 19.934784 28.943202
24.861198 26.760425 27.934211
24.726587 18.774167 28.712718
28.946189 25.761849 27.729879
16.989019 -7.758153 27.488810
17.535094 -2.624996 28.372379
19.132251 -6.685950 27.164253
14.783977 -6.451316 28.266505
18.173874 8.299226 29.405946
17.936238 2.685046 29.021442
20.448913 7.146070 29.033669
15.498037 6.762912 29.631765
23.644051 -4.323027 26.356607
19.747151 -1.398221 28.102589
21.360227 -5.539582 26.787770
24.157893 -1.472163 26.908203
19.455179 -4.056251 27.665537
10.441207 -3.858023 29.379052
15.209529 -1.353130 28.988355
12.585519 -5.141241 28.893229
10.515429 -1.299778 29.632835
15.019760 -3.902735 28.657129
24.984086 4.568036 27.850377
20.019082 1.417476 28.489580
22.741985 5.897929 28.520626
24.609749 1.499699 27.411502
20.250912 4.222155 28.797082
22.094803 0.000000 27.793231
10.642064 3.932239 29.944214
15.359917 1.366510 29.274986
12.984235 5.304118 29.808582
10.582835 1.308110 29.822790
15.454297 4.015645 29.486209
12.899334 0.000000 29.471116
37.635020 0.000000 -19.803082
41.306944 0.000000 -14.890492
39.566728 2.916432 -19.734697
37.042923 -2.730404 -18.475898
45.009190 0.000000 -3.119472
43.755731 0.000000 -9.216036
43.874776 9.613491 -19.448515
43.431158 3.031394 -14.540318
41.653063 6.119237 -19.617225
41.677129 2.983132 -17.256463
35.604603 -7.801397 -15.782568
40.235736 -2.808361 -13.470523
36.357650 -5.341290 -17.123259
38.793497 -2.776730 -16.062492
37.635020 0.000000 19.803082
41.306944 0.000000 14.890492
39.566728 2.916432 19.734697
37.042923 -2.730404 18.475898
45.009190 0.000000 3.119472
43.755731 0.000000 9.216036
43.874776 9.613491 19.448515
43.431158 3.031394 14.540318
41.653063 6.119237 19.617225
41.677129 2.983132 17.256463
35.604603 -7.801397 15.782568
40.235736 -2.808361 13.470523
36.357650 -5.341290 17.123259
38.793497 -2.776730 16.062492
54.719343 28.524071 -17.628845
54.487018 19.198561 -11.865363
51.806971 22.987290 -18.326365
59.333305 31.032567 -13.541749
47.189643 3.159237 -1.952516
51.229244 10.462200 -6.465995
46.784854 3.147276 -5.207844
46.397498 13.666277 -19.174073
51.325726 14.484011 -12.746046
48.996134 18.029442 -18.825585
46.368682 9.969774 -16.614379
52.003008 18.711296 -15.536464
66.524535 34.903906 -3.105259
56.972021 20.247647 -7.481499
63.590315 33.328924 -8.660188
58.723865 25.579361 -10.449282
44.926697 3.093830 -11.494963
50.053166 10.328273 -9.986802
46.017916 3.122820 -8.420552
45.818156 6.408489 -14.015327
48.504801 6.599348 -7.505261
48.447650 10.213161 -13.417053
32.067584 -16.716174 -10.331164
35.732205 -12.590282 -7.781222
33.005806 -14.645019 -11.675580
32.675478 -17.089963 -7.457584
43.195768 -2.891856 -1.787265
39.399635 -8.046319 -4.972899
42.885913 -2.884989 -4.773834
34.770252 -10.241498 -14.369037
36.852553 -10.399712 -9.151830
33.911821 -12.478764 -13.029801
36.932855 -7.940968 -13.233424
34.936473 -12.570556 -10.437652
33.270636 -17.456344 -1.553020
36.159357 -12.850902 -4.748405
33.074853 -17.335176 -4.504372
34.434942 -14.999418 -6.127329
41.425260 -2.852707 -10.599084
38.854651 -8.017503 -7.752430
42.292153 -2.869986 -7.738796
39.153575 -5.476328 -11.976696
40.831906 -5.555408 -6.318016
38.015963 -8.014076 -10.528110
54.719343 28.524071 17.628845
54.487018 19.198561 11.865363
51.806971 22.987290 18.326365
59.333305 31.032567 13.541749
47.189643 3.159237 1.952516
51.229244 10.462200 6.465995
46.784854 3.147276 5.207844
49.560085 6.677223 0.000000
46.397498 13.666277 19.174073
51.325726 14.484011 12.746046
48.996134 18.029442 18.825585
46.368682 9.969774 16.614379
52.003008 18.711296 15.536464
66.524535 34.903906 3.105259
56.972021 20.247647 7.481499
63.590315 33.328924 8.660188
62.621455 27.409041 0.000000
58.723865 25.579361 10.449282
44.926697 3.093830 11.494963
50.053166 10.328273 9.986802
46.017916 3.122820 8.420552
45.818156 6.408489 14.015327
48.504801 6.599348 7.505261
48.447650 10.213161 13.417053
54.543381 15.075420 -4.627410
54.543381 15.075420 4.627410
52.053388 10.655158 -2.193641
58.394526 20.721725 -2.561346
52.053388 10.655158 2.193641
58.394526 20.721725 2.561346
32.067584 -16.716174 10.331164
35.732205 -12.590282 7.781222
33.005806 -14.645019 11.675580
32.675478 -17.089963 7.457584
43.195768 -2.891856 1.787265
39.399635 -8.046319 4.972899
42.885913 -2.884989 4.773834
41.445165 -5.583901 0.000000
34.770252 -10.241498 14.369037
36.852553 -10.399712 9.151830
33.911821 -12.478764 13.029801
36.932855 -7.940968 13.233424
34.936473 -12.570556 10.437652
33.270636 -17.456344 1.553020
36.159357 -12.850902 4.748405
33.074853 -17.335176 4.504372
34.848057 -15.252789 0.000000
34.434942 -14.999418 6.127329
41.425260 -2.852707 10.599084
38.854651 -8.017503 7.752430
42.292153 -2.869986 7.738796
39.153575 -5.476328 11.976696
40.831906 -5.555408 6.318016
38.015963 -8.014076 10.528110
37.963839 -10.492947 -3.220817
37.963839 -10.492947 3.220817
39.689453 -8.124301 -1.672598
36.419606 -12.923764 -1.597465
39.689453 -8.124301 1.672598
36.419606 -12.923764 1.597465
-22.414684 32.098761 -1.592401
-24.992039 28.360142 -4.613319
-21.741314 32.585229 -4.195491
-29.268046 20.664185 -10.195631
-27.254566 24.560674 -7.462906
-19.997656 32.933190 -9.408824
-24.232438 28.631779 -7.157389
-20.935584 32.871646 -6.826334
-23.039036 30.601615 -5.709013
-35.016215 2.677893 -20.618347
-34.002299 7.697415 -18.074426
-31.067597 16.607951 -12.857158
-32.657108 12.314122 -15.479627
-14.813683 30.422161 -18.801929
-19.747839 27.412686 -16.941972
-16.280578 31.457273 -16.732540
-28.268859 20.538017 -12.693192
-24.202116 24.104923 -14.897662
-27.376094 22.567999 -11.371246
-18.878164 32.710941 -12.043045
-21.065508 28.082894 -14.721880
-17.650027 32.231022 -14.453521
-21.187608 30.710528 -10.895614
-18.752590 29.795526 -15.746158
-25.379886 26.575161 -8.640917
-23.323002 26.255447 -13.620159
-26.409611 24.589024 -10.012860
-23.356170 28.651483 -9.755713
-25.391005 24.440466 -12.517296
-22.297485 28.472533 -12.306048
-44.187688 -63.278609 -3.139215
-52.303056 -59.351784 -9.654702
-40.773428 -61.109991 -7.868179
-54.508238 -38.484577 -18.988144
-55.747291 -50.237124 -15.264847
-33.029169 -54.394170 -15.540103
-46.944883 -55.467613 -13.865826
-36.901778 -57.940688 -12.032330
-44.260690 -58.789289 -10.967684
-37.157956 -2.841685 -21.879453
-41.102078 -9.304657 -21.848418
-50.364859 -26.923779 -20.843226
-45.557316 -17.178445 -21.594388
-19.203641 -39.437609 -24.373783
-28.488690 -39.546175 -24.440880
-22.270447 -43.030876 -22.888693
-48.904563 -35.530360 -21.958970
-38.773795 -38.618085 -23.867289
-49.699492 -40.970712 -20.643746
-29.153267 -50.515017 -18.597895
-32.471899 -43.289006 -22.693372
-25.612209 -46.770902 -20.973714
-35.227070 -51.060127 -18.115332
-27.229999 -43.265071 -22.864461
-48.786924 -51.084562 -16.610152
-38.223444 -43.029349 -22.321713
-49.689398 -46.263983 -18.839088
-41.827647 -51.310815 -17.471123
-44.004432 -42.357079 -21.693370
-36.972428 -47.211542 -20.405193
-2.216702 -17.067417 -28.985657
-6.678839 -15.682691 -29.502876
-3.703304 -19.190769 -28.762549
-2.163489 -14.639736 -29.351678
-15.854114 -12.273570 -29.657435
-11.213569 -14.096163 -29.738437
-7.039796 -23.834310 -28.161372
-8.373726 -17.797644 -29.310094
-5.315298 -21.450176 -28.491209
-6.037618 -18.516684 -29.073650
-2.085061 -10.001157 -29.872925
-6.521082 -13.192436 -29.761407
-2.121991 -12.275036 -29.646184
-4.347218 -13.936434 -29.591094
-33.855591 -1.679556 -23.641485
-29.978978 -4.876654 -26.418619
-35.567734 -4.579502 -23.731283
-20.605797 -10.166822 -29.185346
-25.396662 -7.716926 -28.182248
-39.255838 -11.215168 -23.836887
-31.375620 -7.843296 -26.554682
-37.373943 -7.761309 -23.803047
-33.606315 -6.269568 -25.301185
-15.890123 -35.388707 -25.710760
-17.216614 -27.969387 -27.857066
-13.381248 -32.215143 -26.557160
-19.987521 -35.462269 -25.898349
-18.200135 -14.339541 -29.448436
-17.926895 -20.895882 -29.006326
-15.717869 -15.293315 -29.549686
-9.018693 -26.489481 -27.737013
-14.711211 -25.191308 -28.358658
-11.084277 -29.235548 -27.220151
-9.703926 -23.232187 -28.499390
-14.127783 -28.657837 -27.584999
-28.859719 -34.982225 -25.935352
-20.946842 -27.544460 -27.947957
-24.338433 -35.336834 -25.981803
-20.563880 -31.449857 -27.083734
-10.851933 -17.011028 -29.475680
-15.169872 -21.706538 -28.937466
-13.253820 -16.185003 -29.555716
-10.314245 -20.057077 -29.071873
-15.493215 -18.451352 -29.316897
-12.430932 -22.523763 -28.761476
-2.025151 -1.251612 -30.249755
-6.161874 -3.808247 -30.172253
-2.033613 -3.365048 -30.230037
-15.482029 -9.568420 -29.700055
-10.571159 -6.533335 -30.001776
-13.240172 -10.555582 -29.839672
-2.069285 -7.688320 -30.048884
-6.222382 -6.016659 -30.155082
-2.046920 -5.519434 -30.163442
-4.198065 -9.181142 -30.014499
-4.109312 -4.673410 -30.203191
-8.797273 -12.342758 -29.867054
-8.488461 -7.469914 -30.079818
-10.999888 -11.485620 -29.892882
-6.440738 -10.733328 -29.955396
-10.786402 -8.956224 -29.977899
-6.342085 -8.331612 -30.084627
-47.165576 -29.149929 -22.966676
-36.815472 -22.753213 -26.521517
-45.312797 -24.102477 -23.451446
-43.232854 -31.573263 -24.367239
-21.203412 -13.104429 -29.184720
-28.158154 -17.402696 -28.271689
-23.757880 -11.970787 -28.819479
-21.279359 -16.422732 -29.137547
-41.284955 -15.199703 -23.826406
-35.587055 -18.655782 -26.694520
-43.300334 -19.417389 -23.711692
-36.932693 -13.103140 -25.480363
-40.293307 -21.293961 -25.359642
-33.800378 -34.295519 -25.704305
-33.057201 -24.508165 -27.271608
-38.587642 -33.230594 -25.231009
-29.078446 -30.353907 -27.014706
-37.877203 -27.849638 -26.088125
-28.862449 -9.384629 -27.564298
-31.139493 -16.153784 -27.661554
-26.338301 -10.725181 -28.288406
-32.740513 -11.148011 -26.689473
-27.267219 -13.965030 -28.327697
-34.157112 -14.762967 -26.749208
-21.182986 -23.571496 -28.572120
-28.545329 -21.394569 -28.133207
-21.280813 -19.934784 -28.943202
-24.861198 -26.760425 -27.934211
-24.726587 -18.774167 -28.712718
-28.946189 -25.761849 -27.729879
-2.179980 16.784681 -28.505486
-6.382896 14.987781 -28.195586
-3.590956 18.608573 -27.889970
-2.133195 14.434743 -28.940681
-14.577854 11.285545 -27.270004
-10.478475 13.172104 -27.788966
-6.567669 22.235851 -26.272716
-7.860511 16.706850 -27.513718
-5.064372 20.437550 -27.146188
-5.755359 17.651028 -27.714457
-2.065535 9.907500 -29.593175
-6.279874 12.704461 -28.660565
-2.097348 12.132487 -29.301906
-4.232590 13.568958 -28.810838
-32.796606 1.627021 -22.901992
-27.853306 4.530873 -24.545396
-32.610211 4.198708 -21.757982
-31.191534 0.000000 -24.498296
-18.783272 9.267595 -26.603985
-23.186183 7.045259 -25.729317
-31.860134 9.102258 -19.346076
-27.855100 6.963234 -23.575098
-32.287412 6.705008 -20.563492
-30.205309 5.635079 -22.740670
-27.266218 -3.098753 -26.945182
-26.129032 2.969514 -25.821386
-29.313637 -1.589790 -25.851667
-28.598982 1.551031 -25.221414
-12.971801 28.889346 -20.988816
-14.343769 23.302284 -23.208706
-11.382340 27.402804 -22.590017
-15.575549 27.634459 -20.181643
-16.294321 12.837986 -26.364764
-15.427518 17.982567 -24.962248
-14.204081 13.820415 -26.703755
-8.193518 24.065799 -25.199186
-12.722695 21.786195 -24.525414
-9.771398 25.772740 -23.996056
-8.851246 21.190784 -25.995161
-12.097763 24.539994 -23.621313
-20.481069 24.826068 -18.405713
-16.871654 22.185712 -22.510709
-18.093342 26.269622 -19.315034
-16.262552 24.871520 -21.418655
-10.039188 15.737003 -27.268126
-13.291038 19.018119 -25.353475
-12.110182 14.788440 -27.005429
-9.466235 18.408038 -26.681662
-13.774636 16.404643 -26.064931
-11.101950 20.115763 -25.686607
-2.022799 1.250159 -30.214629
-6.096417 3.767793 -29.851738
-2.027261 3.354538 -30.135616
-4.066457 0.000000 -30.182303
-14.504158 8.964063 -27.824149
-10.248425 6.333875 -29.085833
-12.455139 9.929723 -28.070426
-2.054405 7.633037 -29.832815
-6.118066 5.915791 -29.649542
-2.036413 5.491100 -30.008600
-4.126069 9.023688 -29.499757
-4.073579 4.632772 -29.940556
-8.306305 -2.549626 -30.052495
-8.226230 2.525047 -29.762779
-6.167228 -1.269684 -30.128614
-6.145111 1.265131 -30.020566
-8.390145 11.771549 -28.484841
-8.250992 7.260939 -29.238321
-10.410251 10.869947 -28.290508
-6.246472 10.409589 -29.051879
-10.334751 8.581207 -28.722658
-6.193867 8.136898 -29.381532
-29.247767 18.076114 -14.241827
-26.583090 16.429253 -19.150207
-29.999675 15.957224 -15.526204
-27.204987 19.867997 -15.333487
-18.816468 11.629217 -25.899292
-22.978148 14.201276 -23.070797
-20.976403 10.569295 -25.445410
-18.400430 14.200866 -25.195468
-31.299072 11.523244 -18.063345
-27.052789 14.181869 -20.292807
-30.690633 13.762757 -16.806495
-29.646006 10.517938 -20.453179
-28.654561 15.143188 -18.034494
-22.880060 23.215229 -17.399688
-24.300076 18.015750 -20.047134
-25.072688 21.591895 -16.394088
-21.229113 22.160281 -19.722452
-25.869676 19.020969 -17.817877
-25.454206 8.276438 -24.309348
-25.149973 13.046688 -22.340998
-23.200066 9.447264 -24.917814
-27.666512 9.420334 -22.553239
-23.128073 11.845148 -24.027571
-27.394370 11.840058 -21.453151
-17.447044 19.414304 -23.532992
-22.424462 16.807013 -22.100710
-17.943643 16.808693 -24.404448
-19.387230 20.868282 -21.783623
-20.473419 15.544863 -23.773904
-21.879361 19.472435 -20.959997
-18.173874 -8.299226 -29.405946
-17.936238 -2.685046 -29.021442
-20.448913 -7.146070 -29.033669
-15.498037 -6.762912 -29.631765
-16.989019 7.758153 -27.488810
-17.535094 2.624996 -28.372379
-19.132251 6.685950 -27.164253
-14.783977 6.451316 -28.266505
-24.984086 -4.568036 -27.850377
-20.019082 -1.417476 -28.489580
-22.741985 -5.897929 -28.520626
-24.609749 -1.499699 -27.411502
-20.250912 -4.222155 -28.797082
-10.642064 -3.932239 -29.944214
-15.359917 -1.366510 -29.274986
-12.984235 -5.304118 -29.808582
-10.582835 -1.308110 -29.822790
-15.454297 -4.015645 -29.486209
-23.644051 4.323027 -26.356607
-19.747151 1.398221 -28.102589
-21.360227 5.539582 -26.787770
-24.157893 1.472163 -26.908203
-19.455179 4.056251 -27.665537
-22.094803 0.000000 -27.793231
-10.441207 3.858023 -29.379052
-15.209529 1.353130 -28.988355
-12.585519 5.141241 -28.893229
-10.515429 1.299778 -29.632835
-15.019760 3.902735 -28.657129
-12.899334 0.000000 -29.471116
-22.414684 32.098761 1.592401
-24.992039 28.360142 4.613319
-21.741314 32.585229 4.195491
-23.836427 30.348834 0.000000
-29.268046 20.664185 10.195631
-27.254566 24.560674 7.462906
-19.997656 32.933190 9.408824
-24.232438 28.631779 7.157389
-20.935584 32.871646 6.826334
-23.039036 30.601615 5.709013
-26.429363 26.744252 -3.039433
-26.429363 26.744252 3.039433
-25.179047 28.550942 -1.548426
-25.179047 28.550942 1.548426
-35.016215 2.677893 20.618347
-34.002299 7.697415 18.074426
-31.067597 16.607951 12.857158
-32.657108 12.314122 15.479627
-14.813683 30.422161 18.801929
-19.747839 27.412686 16.941972
-16.280578 31.457273 16.732540
-28.268859 20.538017 12.693192
-24.202116 24.104923 14.897662
-27.376094 22.567999 11.371246
-18.878164 32.710941 12.043045
-21.065508 28.082894 14.721880
-17.650027 32.231022 14.453521
-21.187608 30.710528 10.895614
-18.752590 29.795526 15.746158
-25.379886 26.575161 8.640917
-23.323002 26.255447 13.620159
-26.409611 24.589024 10.012860
-23.356170 28.651483 9.755713
-25.391005 24.440466 12.517296
-22.297485 28.472533 12.306048
-30.900334 19.097457 -8.720986
-31.674489 19.575911 -2.930505
-29.874228 21.040933 -7.352957
-30.900334 19.097457 8.720986
-31.674489 19.575911 2.930505
-29.874228 21.040933 7.352957
-27.670280 24.822524 -4.538496
-30.464400 21.406750 -1.515731
-28.792330 22.958638 -5.954116
-27.845733 24.999597 -1.523456
-30.269967 21.286686 -4.438105
-27.670280 24.822524 4.538496
-30.464400 21.406750 1.515731
-28.792330 22.958638 5.954116
-27.845733 24.999597 1.523456
-30.269967 21.286686 4.438105
-29.196153 23.210085 0.000000
-44.187688 -63.278609 3.139215
-52.303056 -59.351784 9.654702
-40.773428 -61.109991 7.868179
-50.177764 -63.886950 0.000000
-54.508238 -38.484577 18.988144
-55.747291 -50.237124 15.264847
-33.029169 -54.394170 15.540103
-46.944883 -55.467613 13.865826
-36.901778 -57.940688 12.032330
-44.260690 -58.789289 10.967684
-59.809279 -60.521870 -6.878194
-59.809279 -60.521870 6.878194
-55.719429 -63.181191 -3.426556
-55.719429 -63.181191 3.426556
-37.157956 -2.841685 21.879453
-41.102078 -9.304657 21.848418
-50.364859 -26.923779 20.843226
-45.557316 -17.178445 21.594388
-19.203641 -39.437609 24.373783
-28.488690 -39.546175 24.440880
-22.270447 -43.030876 22.888693
-48.904563 -35.530360 21.958970
-38.773795 -38.618085 23.867289
-49.699492 -40.970712 20.643746
-29.153267 -50.515017 18.597895
-32.471899 -43.289006 22.693372
-25.612209 -46.770902 20.973714
-35.227070 -51.060127 18.115332
-27.229999 -43.265071 22.864461
-48.786924 -51.084562 16.610152
-38.223444 -43.029349 22.321713
-49.689398 -46.263983 18.839088
-41.827647 -51.310815 17.471123
-44.004432 -42.357079 21.693370
-36.972428 -47.211542 20.405193
-58.125500 -35.923535 -16.404731
-68.646266 -42.425726 -6.351112
-60.550045 -42.646440 -14.903210
-58.125500 -35.923535 16.404731
-68.646266 -42.425726 6.351112
-60.550045 -42.646440 14.903210
-61.991222 -55.611241 -10.167838
-71.998214 -50.591766 -3.582212
-62.033488 -49.464714 -12.828228
-67.163169 -60.298364 -3.674534
-66.809233 -46.982119 -9.795400
-61.991222 -55.611241 10.167838
-71.998214 -50.591766 3.582212
-62.033488 -49.464714 12.828228
-67.163169 -60.298364 3.674534
-66.809233 -46.982119 9.795400
-71.988175 -57.228487 0.000000
-2.216702 -17.067417 28.985657
-6.678839 -15.682691 29.502876
-3.703304 -19.190769 28.762549
-2.163489 -14.639736 29.351678
-15.854114 -12.273570 29.657435
-11.213569 -14.096163 29.738437
-7.039796 -23.834310 28.161372
-8.373726 -17.797644 29.310094
-5.315298 -21.450176 28.491209
-6.037618 -18.516684 29.073650
-2.085061 -10.001157 29.872925
-6.521082 -13.192436 29.761407
-2.121991 -12.275036 29.646184
-4.347218 -13.936434 29.591094
-33.855591 -1.679556 23.641485
-29.978978 -4.876654 26.418619
-35.567734 -4.579502 23.731283
-20.605797 -10.166822 29.185346
-25.396662 -7.716926 28.182248
-39.255838 -11.215168 23.836887
-31.375620 -7.843296 26.554682
-37.373943 -7.761309 23.803047
-33.606315 -6.269568 25.301185
-15.890123 -35.388707 25.710760
-17.216614 -27.969387 27.857066
-13.381248 -32.215143 26.557160
-19.987521 -35.462269 25.898349
-18.200135 -14.339541 29.448436
-17.926895 -20.895882 29.006326
-15.717869 -15.293315 29.549686
-9.018693 -26.489481 27.737013
-14.711211 -25.191308 28.358658
-11.084277 -29.235548 27.220151
-9.703926 -23.232187 28.499390
-14.127783 -28.657837 27.584999
-28.859719 -34.982225 25.935352
-20.946842 -27.544460 27.947957
-24.338433 -35.336834 25.981803
-20.563880 -31.449857 27.083734
-10.851933 -17.011028 29.475680
-15.169872 -21.706538 28.937466
-13.253820 -16.185003 29.555716
-10.314245 -20.057077 29.071873
-15.493215 -18.451352 29.316897
-12.430932 -22.523763 28.761476
-2.025151 -1.251612 30.249755
-6.161874 -3.808247 30.172253
-2.033613 -3.365048 30.230037
-15.482029 -9.568420 29.700055
-10.571159 -6.533335 30.001776
-13.240172 -10.555582 29.839672
-2.069285 -7.688320 30.048884
-6.222382 -6.016659 30.155082
-2.046920 -5.519434 30.163442
-4.198065 -9.181142 30.014499
-4.109312 -4.673410 30.203191
-8.797273 -12.342758 29.867054
-8.488461 -7.469914 30.079818
-10.999888 -11.485620 29.892882
-6.440738 -10.733328 29.955396
-10.786402 -8.956224 29.977899
-6.342085 -8.331612 30.084627
-47.165576 -29.149929 22.966676
-36.815472 -22.753213 26.521517
-45.312797 -24.102477 23.451446
-43.232854 -31.573263 24.367239
-21.203412 -13.104429 29.184720
-28.158154 -17.402696 28.271689
-23.757880 -11.970787 28.819479
-21.279359 -16.422732 29.137547
-41.284955 -15.199703 23.826406
-35.587055 -18.655782 26.694520
-43.300334 -19.417389 23.711692
-36.932693 -13.103140 25.480363
-40.293307 -21.293961 25.359642
-33.800378 -34.295519 25.704305
-33.057201 -24.508165 27.271608
-38.587642 -33.230594 25.231009
-29.078446 -30.353907 27.014706
-37.877203 -27.849638 26.088125
-28.862449 -9.384629 27.564298
-31.139493 -16.153784 27.661554
-26.338301 -10.725181 28.288406
-32.740513 -11.148011 26.689473
-27.267219 -13.965030 28.327697
-34.157112 -14.762967 26.749208
-21.182986 -23.571496 28.572120
-28.545329 -21.394569 28.133207
-21.280813 -19.934784 28.943202
-24.861198 -26.760425 27.934211
-24.726587 -18.774167 28.712718
-28.946189 -25.761849 27.729879
-2.179980 16.784681 28.505486
-6.382896 14.987781 28.195586
-3.590956 18.608573 27.889970
-2.133195 14.434743 28.940681
-14.577854 11.285545 27.270004
-10.478475 13.172104 27.788966
-6.567669 22.235851 26.272716
-7.860511 16.706850 27.513718
-5.064372 20.437550 27.146188
-5.755359 17.651028 27.714457
-2.065535 9.907500 29.593175
-6.279874 12.704461 28.660565
-2.097348 12.132487 29.301906
-4.232590 13.568958 28.810838
-32.796606 1.627021 22.901992
-27.853306 4.530873 24.545396
-32.610211 4.198708 21.757982
-31.191534 0.000000 24.498296
-18.783272 9.267595 26.603985
-23.186183 7.045259 25.729317
-31.860134 9.102258 19.346076
-27.855100 6.963234 23.575098
-32.287412 6.705008 20.563492
-30.205309 5.635079 22.740670
-27.266218 -3.098753 26.945182
-26.129032 2.969514 25.821386
-29.313637 -1.589790 25.851667
-28.598982 1.551031 25.221414
-12.971801 28.889346 20.988816
-14.343769 23.302284 23.208706
-11.382340 27.402804 22.590017
-15.575549 27.634459 20.181643
-16.294321 12.837986 26.364764
-15.427518 17.982567 24.962248
-14.204081 13.820415 26.703755
-8.193518 24.065799 25.199186
-12.722695 21.786195 24.525414
-9.771398 25.772740 23.996056
-8.851246 21.190784 25.995161
-12.097763 24.539994 23.621313
-20.481069 24.826068 18.405713
-16.871654 22.185712 22.510709
-18.093342 26.269622 19.315034
-16.262552 24.871520 21.418655
-10.039188 15.737003 27.268126
-13.291038 19.018119 25.353475
-12.110182 14.788440 27.005429
-9.466235 18.408038 26.681662
-13.774636 16.404643 26.064931
-11.101950 20.115763 25.686607
-2.022799 1.250159 30.214629
-6.096417 3.767793 29.851738
-2.027261 3.354538 30.135616
-4.066457 0.000000 30.182303
-14.504158 8.964063 27.824149
-10.248425 6.333875 29.085833
-12.455139 9.929723 28.070426
-2.054405 7.633037 29.832815
-6.118066 5.915791 29.649542
-2.036413 5.491100 30.008600
-4.126069 9.023688 29.499757
-4.073579 4.632772 29.940556
-8.306305 -2.549626 30.052495
-8.226230 2.525047 29.762779
-6.167228 -1.269684 30.128614
-6.145111 1.265131 30.020566
-8.390145 11.771549 28.484841
-8.250992 7.260939 29.238321
-10.410251 10.869947 28.290508
-6.246472 10.409589 29.051879
-10.334751 8.581207 28.722658
-6.193867 8.136898 29.381532
-29.247767 18.076114 14.241827
-26.583090 16.429253 19.150207
-29.999675 15.957224 15.526204
-27.204987 19.867997 15.333487
-18.816468 11.629217 25.899292
-22.978148 14.201276 23.070797
-20.976403 10.569295 25.445410
-18.400430 14.200866 25.195468
-31.299072 11.523244 18.063345
-27.052789 14.181869 20.292807
-30.690633 13.762757 16.806495
-29.646006 10.517938 20.453179
-28.654561 15.143188 18.034494
-22.880060 23.215229 17.399688
-24.300076 18.015750 20.047134
-25.072688 21.591895 16.394088
-21.229113 22.160281 19.722452
-25.869676 19.020969 17.817877
-25.454206 8.276438 24.309348
-25.149973 13.046688 22.340998
-23.200066 9.447264 24.917814
-27.666512 9.420334 22.553239
-23.128073 11.845148 24.027571
-27.394370 11.840058 21.453151
-17.447044 19.414304 23.532992
-22.424462 16.807013 22.100710
-17.943643 16.808693 24.404448
-19.387230 20.868282 21.783623
-20.473419 15.544863 23.773904
-21.879361 19.472435 20.959997
-18.173874 -8.299226 29.405946
-17.936238 -2.685046 29.021442
-20.448913 -7.146070 29.033669
-15.498037 -6.762912 29.631765
-16.989019 7.758153 27.488810
-17.535094 2.624996 28.372379
-19.132251 6.685950 27.164253
-14.783977 6.451316 28.266505
-24.984086 -4.568036 27.850377
-20.019082 -1.417476 28.489580
-22.741985 -5.897929 28.520626
-24.609749 -1.499699 27.411502
-20.250912 -4.222155 28.797082
-10.642064 -3.932239 29.944214
-15.359917 -1.366510 29.274986
-12.984235 -5.304118 29.808582
-10.582835 -1.308110 29.822790
-15.454297 -4.015645 29.486209
-23.644051 4.323027 26.356607
-19.747151 1.398221 28.102589
-21.360227 5.539582 26.787770
-24.157893 1.472163 26.908203
-19.455179 4.056251 27.665537
-22.094803 0.000000 27.793231
-10.441207 3.858023 29.379052
-15.209529 1.353130 28.988355
-12.585519 5.141241 28.893229
-10.515429 1.299778 29.632835
-15.019760 3.902735 28.657129
-12.899334 0.000000 29.471116
-37.635020 0.000000 -19.803082
-41.306944 0.000000 -14.890492
-37.042923 2.730404 -18.475898
-39.566728 -2.916432 -19.734697
-45.009190 0.000000 -3.119472
-43.755731 0.000000 -9.216036
-35.604603 7.801397 -15.782568
-40.235736 2.808361 -13.470523
-36.357650 5.341290 -17.123259
-38.793497 2.776730 -16.062492
-43.874776 -9.613491 -19.448515
-43.431158 -3.031394 -14.540318
-41.653063 -6.119237 -19.617225
-41.677129 -2.983132 -17.256463
-37.635020 0.000000 19.803082
-41.306944 0.000000 14.890492
-37.042923 2.730404 18.475898
-39.566728 -2.916432 19.734697
-45.009190 0.000000 3.119472
-43.755731 0.000000 9.216036
-35.604603 7.801397 15.782568
-40.235736 2.808361 13.470523
-36.357650 5.341290 17.123259
-38.793497 2.776730 16.062492
-43.874776 -9.613491 19.448515
-43.431158 -3.031394 14.540318
-41.653063 -6.119237 19.617225
-41.677129 -2.983132 17.256463
-32.067584 16.716174 -10.331164
-35.732205 12.590282 -7.781222
-33.005806 14.645019 -11.675580
-32.675478 17.089963 -7.457584
-43.195768 2.891856 -1.787265
-39.399635 8.046319 -4.972899
