-0.50976253 -7.1754329 10.275519
-1.638664 -8.8772429 10.073603
-4.612914 -13.242043 9.34931
-2.9733207 -10.858581 9.7852986
-0.90367231 -21.840529 1.4621725
-2.6807314 -21.239089 4.3375146
-2.5458651 -22.870873 1.5385523
-5.2016168 -16.145644 8.4163928
-4.1485014 -19.050363 6.7124162
-6.2984358 -17.805106 7.9003104
-6.3691198 -24.892947 1.7142266
-4.3885434 -21.995079 4.5385975
-4.3735424 -23.901201 1.6219586
-7.4772405 -24.444194 3.4189582
-3.5128392 -22.702685 3.0888265
-8.9294902 -21.607615 6.3644738
-5.1688744 -20.814002 5.8736675
-7.5470917 -19.642328 7.2279214
-8.3375548 -23.269087 5.0031083
-5.7926984 -19.389079 6.9764197
-6.2779213 -22.668952 4.7788005
8.2189956 -13.958351 1.0674762
7.4438147 -14.003588 3.1701217
7.4009193 -14.838341 1.0937223
5.1955238 -12.554286 6.7112037
6.4045579 -13.511588 5.0948584
5.5789128 -16.663916 1.1631026
6.5780406 -14.839697 3.251556
6.5189794 -15.744382 1.1269387
7.024054 -14.914105 2.1910262
0.50398027 -7.0940416 10.158963
1.5691163 -8.5004775 9.6460616
0 -7.9018301 10.060708
3.93714 -11.302135 7.9796724
2.7157377 -9.9178865 8.937584
-1.1147091 -9.6929431 9.8084285
1.0792904 -9.3849605 9.4967765
-0.53932124 -8.7699348 9.9443755
0.53156002 -8.6437292 9.8012688
0.85320657 -20.62084 1.3805172
2.3112233 -18.311524 3.7396378
2.183043 -19.611447 1.3192867
0 -20.660771 2.7836226
4.2373276 -13.152522 6.8561401
3.4173086 -15.692647 5.5293214
4.8610349 -13.741705 6.0973369
4.5151403 -17.646889 1.2152344
3.4826694 -17.454901 3.6017496
3.4059836 -18.613538 1.2631327
5.1159428 -16.724766 2.339258
2.8780244 -18.60002 2.5306362
-1.6545289 -19.501968 5.3902114
1.5145948 -17.852562 4.9343269
-0.85422648 -20.270129 4.1492289
0.81273172 -19.28549 3.9476766
6.0372604 -14.608986 4.3030436
4.0229482 -16.199591 4.5714904
5.4706204 -14.23803 5.239265
5.6228578 -15.692703 3.3741028
4.4718727 -14.968066 5.3856869
4.5884403 -16.568404 3.492755
-4.0576745 -14.377216 8.8856079
-1.2756308 -13.787711 8.521274
-3.2116951 -13.048752 9.1904607
-3.5990217 -15.769149 8.2475965
3.4892272 -12.363084 7.6408064
1.2133874 -13.11495 8.1054849
2.8680823 -11.652692 8.2071916
3.1091973 -13.622978 7.1251041
-1.7618409 -10.741583 9.636086
-0.62534679 -12.56873 8.831806
-2.4474944 -11.835354 9.4373604
-0.57774635 -10.560052 9.4807004
-1.8798454 -12.82143 9.016388
-2.4145414 -18.386863 6.5346235
-0.69835932 -14.961081 7.8497379
-3.0488897 -17.134438 7.4635412
-0.77829418 -17.743842 6.2965322
-2.0932971 -15.37073 8.0560994
1.6677679 -10.168039 9.1215696
0.61106033 -12.281589 8.6300376
2.256509 -10.911805 8.7009348
0.56725666 -10.368322 9.3085667
1.7564864 -11.980063 8.4247153
0 -11.431823 9.0879637
2.1471662 -16.350787 5.8110095
0.67764018 -14.517211 7.6168495
2.662466 -14.962778 6.5175939
0.74820347 -17.057822 6.0530932
1.9175582 -14.080309 7.3797647
0 -16.062693 7.030546
-8.2189956 13.958351 1.0674762
-7.4438147 14.003588 3.1701217
-7.4009193 14.838341 1.0937223
-5.1955238 12.554286 6.7112037
-6.4045579 13.511588 5.0948584
-5.5789128 16.663916 1.1631026
-6.5780406 14.839697 3.251556
-6.5189794 15.744382 1.1269387
-7.024054 14.914105 2.1910262
-0.50398027 7.0940416 10.158963
-1.5691163 8.5004775 9.6460616
-3.93714 11.302135 7.9796724
-2.7157377 9.9178865 8.937584
-0.85320657 20.62084 1.3805172
-2.3112233 18.311524 3.7396378
-2.183043 19.611447 1.3192867
-4.2373276 13.152522 6.8561401
-3.4173086 15.692647 5.5293214
-4.8610349 13.741705 6.0973369
-4.5151403 17.646889 1.2152344
-3.4826694 17.454901 3.6017496
-3.4059836 18.613538 1.2631327
-5.1159428 16.724766 2.339258
-2.8780244 18.60002 2.5306362
-6.0372604 14.608986 4.3030436
-4.0229482 16.199591 4.5714904
-5.4706204 14.23803 5.239265
-5.6228578 15.692703 3.3741028
-4.4718727 14.968066 5.3856869
-4.5884403 16.568404 3.492755
16.472034 27.974516 2.1393738
12.74549 23.977302 5.4279636
13.689109 27.445736 2.0230034
6.6943574 16.176016 8.647289
9.3753896 19.779102 7.4581701
8.6629771 25.875852 1.8060743
10.5272 23.748782 5.2036437
11.064378 26.72225 1.9127037
12.130519 25.756612 3.7838952
0.50976253 7.1754329 10.275519
1.638664 8.8772429 10.073603
0 7.9018301 10.060708
4.612914 13.242043 9.34931
2.9733207 10.858581 9.7852986
-1.0792904 9.3849605 9.4967765
1.1147091 9.6929431 9.8084285
-0.53156002 8.6437292 9.8012688
0.53932124 8.7699348 9.9443755
0.90367231 21.840529 1.4621725
2.6807314 21.239089 4.3375146
2.5458651 22.870873 1.5385523
0 20.660771 2.7836226
5.2016168 16.145644 8.4163928
4.1485014 19.050363 6.7124162
6.2984358 17.805106 7.9003104
6.3691198 24.892947 1.7142266
4.3885434 21.995079 4.5385975
4.3735424 23.901201 1.6219586
7.4772405 24.444194 3.4189582
3.5128392 22.702685 3.0888265
-1.5145948 17.852562 4.9343269
1.6545289 19.501968 5.3902114
-0.81273172 19.28549 3.9476766
0.85422648 20.270129 4.1492289
8.9294902 21.607615 6.3644738
5.1688744 20.814002 5.8736675
7.5470917 19.642328 7.2279214
8.3375548 23.269087 5.0031083
5.7926984 19.389079 6.9764197
6.2779213 22.668952 4.7788005
-3.4892272 12.363084 7.6408064
-1.2133874 13.11495 8.1054849
-2.8680823 11.652692 8.2071916
-3.1091973 13.622978 7.1251041
4.0576745 14.377216 8.8856079
1.2756308 13.787711 8.521274
3.2116951 13.048752 9.1904607
3.5990217 15.769149 8.2475965
-1.6677679 10.168039 9.1215696
-0.61106033 12.281589 8.6300376
-2.256509 10.911805 8.7009348
-0.56725666 10.368322 9.3085667
-1.7564864 11.980063 8.4247153
-2.1471662 16.350787 5.8110095
-0.67764018 14.517211 7.6168495
-2.662466 14.962778 6.5175939
-0.74820347 17.057822 6.0530932
-1.9175582 14.080309 7.3797647
1.7618409 10.741583 9.636086
0.62534679 12.56873 8.831806
2.4474944 11.835354 9.4373604
0.57774635 10.560052 9.4807004
1.8798454 12.82143 9.016388
0 11.431823 9.0879637
2.4145414 18.386863 6.5346235
0.69835932 14.961081 7.8497379
3.0488897 17.134438 7.4635412
0.77829418 17.743842 6.2965322
2.0932971 15.37073 8.0560994
0 16.062693 7.030546
0 -5.523054 10.496358
0 -3.8592163 10.705652
0 -0.75515913 10.895786
0 -2.2819959 10.83442
0 5.523054 10.496358
0 3.8592163 10.705652
0 0.75515913 10.895786
0 2.2819959 10.83442
-16.472034 -27.974516 -2.1393738
-12.74549 -23.977302 -5.4279636
-13.689109 -27.445736 -2.0230034
-6.6943574 -16.176016 -8.647289
-9.3753896 -19.779102 -7.4581701
-8.6629771 -25.875852 -1.8060743
-10.5272 -23.748782 -5.2036437
-11.064378 -26.72225 -1.9127037
-12.130519 -25.756612 -3.7838952
-0.50976253 -7.1754329 -10.275519
-1.638664 -8.8772429 -10.073603
-4.612914 -13.242043 -9.34931
-2.9733207 -10.858581 -9.7852986
-0.90367231 -21.840529 -1.4621725
-2.6807314 -21.239089 -4.3375146
-2.5458651 -22.870873 -1.5385523
-5.2016168 -16.145644 -8.4163928
-4.1485014 -19.050363 -6.7124162
-6.2984358 -17.805106 -7.9003104
-6.3691198 -24.892947 -1.7142266
-4.3885434 -21.995079 -4.5385975
-4.3735424 -23.901201 -1.6219586
-7.4772405 -24.444194 -3.4189582
-3.5128392 -22.702685 -3.0888265
-8.9294902 -21.607615 -6.3644738
-5.1688744 -20.814002 -5.8736675
-7.5470917 -19.642328 -7.2279214
-8.3375548 -23.269087 -5.0031083
-5.7926984 -19.389079 -6.9764197
-6.2779213 -22.668952 -4.7788005
8.2189956 -13.958351 -1.0674762
7.4438147 -14.003588 -3.1701217
7.4009193 -14.838341 -1.0937223
5.1955238 -12.554286 -6.7112037
6.4045579 -13.511588 -5.0948584
5.5789128 -16.663916 -1.1631026
6.5780406 -14.839697 -3.251556
6.5189794 -15.744382 -1.1269387
7.024054 -14.914105 -2.1910262
0.50398027 -7.0940416 -10.158963
1.5691163 -8.5004775 -9.6460616
0 -7.9018301 -10.060708
3.93714 -11.302135 -7.9796724
2.7157377 -9.9178865 -8.937584
-1.1147091 -9.6929431 -9.8084285
1.0792904 -9.3849605 -9.4967765
-0.53932124 -8.7699348 -9.9443755
0.53156002 -8.6437292 -9.8012688
0.85320657 -20.62084 -1.3805172
2.3112233 -18.311524 -3.7396378
2.183043 -19.611447 -1.3192867
0 -20.660771 -2.7836226
4.2373276 -13.152522 -6.8561401
3.4173086 -15.692647 -5.5293214
4.8610349 -13.741705 -6.0973369
4.5151403 -17.646889 -1.2152344
3.4826694 -17.454901 -3.6017496
3.4059836 -18.613538 -1.2631327
5.1159428 -16.724766 -2.339258
2.8780244 -18.60002 -2.5306362
-1.6545289 -19.501968 -5.3902114
1.5145948 -17.852562 -4.9343269
-0.85422648 -20.270129 -4.1492289
0.81273172 -19.28549 -3.9476766
6.0372604 -14.608986 -4.3030436
4.0229482 -16.199591 -4.5714904
5.4706204 -14.23803 -5.239265
5.6228578 -15.692703 -3.3741028
4.4718727 -14.968066 -5.3856869
4.5884403 -16.568404 -3.492755
-4.0576745 -14.377216 -8.8856079
-1.2756308 -13.787711 -8.521274
-3.2116951 -13.048752 -9.1904607
-3.5990217 -15.769149 -8.2475965
3.4892272 -12.363084 -7.6408064
1.2133874 -13.11495 -8.1054849
2.8680823 -11.652692 -8.2071916
3.1091973 -13.622978 -7.1251041
-1.7618409 -10.741583 -9.636086
-0.62534679 -12.56873 -8.831806
-2.4474944 -11.835354 -9.4373604
-0.57774635 -10.560052 -9.4807004
-1.8798454 -12.82143 -9.016388
-2.4145414 -18.386863 -6.5346235
-0.69835932 -14.961081 -7.8497379
-3.0488897 -17.134438 -7.4635412
-0.77829418 -17.743842 -6.2965322
-2.0932971 -15.37073 -8.0560994
1.6677679 -10.168039 -9.1215696
0.61106033 -12.281589 -8.6300376
2.256509 -10.911805 -8.7009348
0.56725666 -10.368322 -9.3085667
1.7564864 -11.980063 -8.4247153
0 -11.431823 -9.0879637
2.1471662 -16.350787 -5.8110095
0.67764018 -14.517211 -7.6168495
2.662466 -14.962778 -6.5175939
0.74820347 -17.057822 -6.0530932
1.9175582 -14.080309 -7.3797647
0 -16.062693 -7.030546
-8.2189956 13.958351 -1.0674762
-7.4438147 14.003588 -3.1701217
-7.4009193 14.838341 -1.0937223
-5.1955238 12.554286 -6.7112037
-6.4045579 13.511588 -5.0948584
-5.5789128 16.663916 -1.1631026
-6.5780406 14.839697 -3.251556
-6.5189794 15.744382 -1.1269387
-7.024054 14.914105 -2.1910262
-0.50398027 7.0940416 -10.158963
-1.5691163 8.5004775 -9.6460616
-3.93714 11.302135 -7.9796724
-2.7157377 9.9178865 -8.937584
-0.85320657 20.62084 -1.3805172
-2.3112233 18.311524 -3.7396378
-2.183043 19.611447 -1.3192867
-4.2373276 13.152522 -6.8561401
-3.4173086 15.692647 -5.5293214
-4.8610349 13.741705 -6.0973369
-4.5151403 17.646889 -1.2152344
-3.4826694 17.454901 -3.6017496
-3.4059836 18.613538 -1.2631327
-5.1159428 16.724766 -2.339258
-2.8780244 18.60002 -2.5306362
-6.0372604 14.608986 -4.3030436
-4.0229482 16.199591 -4.5714904
-5.4706204 14.23803 -5.239265
-5.6228578 15.692703 -3.3741028
-4.4718727 14.968066 -5.3856869
-4.5884403 16.568404 -3.492755
16.472034 27.974516 -2.1393738
12.74549 23.977302 -5.4279636
13.689109 27.445736 -2.0230034
6.6943574 16.176016 -8.647289
9.3753896 19.779102 -7.4581701
8.6629771 25.875852 -1.8060743
10.5272 23.748782 -5.2036437
11.064378 26.72225 -1.9127037
12.130519 25.756612 -3.7838952
0.50976253 7.1754329 -10.275519
1.638664 8.8772429 -10.073603
0 7.9018301 -10.060708
4.612914 13.242043 -9.34931
2.9733207 10.858581 -9.7852986
-1.0792904 9.3849605 -9.4967765
1.1147091 9.6929431 -9.8084285
-0.53156002 8.6437292 -9.8012688
0.53932124 8.7699348 -9.9443755
0.90367231 21.840529 -1.4621725
2.6807314 21.239089 -4.3375146
2.5458651 22.870873 -1.5385523
0 20.660771 -2.7836226
5.2016168 16.145644 -8.4163928
4.1485014 19.050363 -6.7124162
6.2984358 17.805106 -7.9003104
6.3691198 24.892947 -1.7142266
4.3885434 21.995079 -4.5385975
4.3735424 23.901201 -1.6219586
7.4772405 24.444194 -3.4189582
3.5128392 22.702685 -3.0888265
-1.5145948 17.852562 -4.9343269
1.6545289 19.501968 -5.3902114
-0.81273172 19.28549 -3.9476766
0.85422648 20.270129 -4.1492289
8.9294902 21.607615 -6.3644738
5.1688744 20.814002 -5.8736675
7.5470917 19.642328 -7.2279214
8.3375548 23.269087 -5.0031083
5.7926984 19.389079 -6.9764197
6.2779213 22.668952 -4.7788005
-3.4892272 12.363084 -7.6408064
-1.2133874 13.11495 -8.1054849
-2.8680823 11.652692 -8.2071916
-3.1091973 13.622978 -7.1251041
4.0576745 14.377216 -8.8856079
1.2756308 13.787711 -8.521274
3.2116951 13.048752 -9.1904607
3.5990217 15.769149 -8.2475965
-1.6677679 10.168039 -9.1215696
-0.61106033 12.281589 -8.6300376
-2.256509 10.911805 -8.7009348
-0.56725666 10.368322 -9.3085667
-1.7564864 11.980063 -8.4247153
-2.1471662 16.350787 -5.8110095
-0.67764018 14.517211 -7.6168495
-2.662466 14.962778 -6.5175939
-0.74820347 17.057822 -6.0530932
-1.9175582 14.080309 -7.3797647
1.7618409 10.741583 -9.636086
0.62534679 12.56873 -8.831806
2.4474944 11.835354 -9.4373604
0.57774635 10.560052 -9.4807004
1.8798454 12.82143 -9.016388
0 11.431823 -9.0879637
2.4145414 18.386863 -6.5346235
0.69835932 14.961081 -7.8497379
3.0488897 17.134438 -7.4635412
0.77829418 17.743842 -6.2965322
2.0932971 15.37073 -8.0560994
0 16.062693 -7.030546
0 -5.523054 -10.496358
0 -3.8592163 -10.705652
0 -0.75515913 -10.895786
0 -2.2819959 -10.83442
0 5.523054 -10.496358
0 3.8592163 -10.705652
0 0.75515913 -10.895786
0 2.2819959 -10.83442
20.10309 28.788462 -1.4281789
22.515043 25.549328 -4.1560867
18.035249 27.03069 -3.4803199
21.228288 14.987857 -7.3949517
22.463536 20.243198 -6.1510152
13.669528 22.511697 -6.4314627
19.662692 23.232406 -5.8076504
15.775723 24.769978 -5.1438902
19.085362 25.350144 -4.7293029
14.347122 1.0972077 -8.4479128
15.905428 3.6006588 -8.4547659
19.480483 10.413773 -8.0618933
17.635255 6.6497827 -8.3591957
7.2287375 14.845316 -9.1749101
10.869949 15.088967 -9.3254944
8.5229131 16.467941 -8.759516
18.89318 13.726357 -8.4833551
14.936034 14.876053 -9.1939065
19.417051 16.006812 -8.065287
11.697319 20.268406 -7.4621312
12.6269 16.833199 -8.8244586
10.014435 18.287534 -8.2007721
14.289458 20.711957 -7.3482772
10.510206 16.699406 -8.8252
19.852752 20.787724 -6.759131
14.940014 16.81845 -8.724664
19.756937 18.394962 -7.4905852
17.059467 20.927191 -7.125623
17.22442 16.579605 -8.4913203
14.705813 18.778429 -8.1161819
9.0966847 -13.026831 -0.64625356
10.151914 -11.520058 -1.8739576
8.7888192 -13.172418 -1.6960066
11.799996 -8.3311784 -4.1105718
11.043501 -9.9519411 -3.023956
7.9547314 -13.100269 -3.7426719
9.7808875 -11.556584 -2.8889217
8.4059785 -13.198502 -2.7408843
9.3101538 -12.366218 -2.3070318
13.585824 -1.0389869 -7.9996434
13.351713 -3.0225507 -7.0973006
12.437533 -6.6487903 -5.1472061
12.958882 -4.8864477 -6.1425725
5.6087167 -11.518356 -7.1187357
7.6060595 -10.558245 -6.5253541
6.2378029 -12.05266 -6.4109693
11.280817 -8.195789 -5.0652762
9.4961153 -9.4579801 -5.8453532
10.96419 -9.0385364 -4.5542106
7.4201242 -12.857142 -4.7335584
8.2203618 -10.958746 -5.7448974
6.8500821 -12.509055 -5.609499
8.403966 -12.181188 -4.3216944
7.2501178 -11.519533 -6.0877723
10.222987 -10.704442 -3.4805507
9.1881318 -10.343373 -5.365682
10.610549 -9.8790947 -4.0228515
9.3413041 -11.459165 -3.901799
10.089783 -9.7120615 -4.9740764
8.815128 -11.256382 -4.8650953
0.78895195 -6.0745081 -10.31636
2.3147335 -5.4352635 -10.225025
1.302165 -6.7479057 -10.113559
0.77112747 -5.2180082 -10.461753
5.3314424 -4.1273723 -9.9732413
3.8132132 -4.7934492 -10.112659
2.3957462 -8.1111664 -9.5837292
2.8581125 -6.0746756 -10.004095
1.8412519 -7.4304731 -9.8695306
2.0894378 -6.4080667 -10.061515
0.74547938 -3.5757504 -10.680576
2.2744666 -4.6013458 -10.380382
0.75748471 -4.3818064 -10.582766
1.5312494 -4.9089229 -10.423068
12.529745 -0.62159337 -8.7495672
10.474939 -1.7039491 -9.2309159
12.534766 -1.6139061 -8.3633686
6.9159238 -3.4122905 -9.7954779
8.614684 -2.6176226 -9.5595699
12.39351 -3.5407548 -7.5255739
10.527439 -2.6316554 -8.9098732
12.486251 -2.5929738 -7.9523538
11.507562 -2.1468417 -8.6636978
4.851853 -10.805505 -7.850463
5.3230138 -8.6475447 -8.6128173
4.2218186 -10.163961 -8.3788531
5.8662649 -10.408047 -7.6010714
5.9876641 -4.7175669 -9.6882441
5.6927146 -6.6355213 -9.2110057
5.2023772 -5.061856 -9.7804995
3.0021153 -8.8177384 -9.2330128
4.6890429 -8.0294629 -9.0390224
3.5996202 -9.4942474 -8.8397469
3.2354932 -7.7461002 -9.5022968
4.4715895 -9.0705019 -8.7309378
7.8432392 -9.5071597 -7.0484804
6.2998582 -8.2841218 -8.4054755
6.869119 -9.9732355 -7.3329331
6.0966952 -9.3241254 -8.0296751
3.6578127 -5.7338311 -9.9352357
4.8863064 -6.9918057 -9.3209308
4.4228764 -5.401029 -9.8629134
3.4539493 -6.716549 -9.7353497
5.0538319 -6.0187659 -9.5630681
4.0688789 -7.3724532 -9.4141745
0.72905097 -0.45057828 -10.889863
2.2014786 -1.3605886 -10.779768
0.73078572 -1.2092419 -10.863269
5.295044 -3.2725171 -10.157783
3.7158671 -2.2965322 -10.545922
4.5356908 -3.6160298 -10.222188
0.74106094 -2.7533735 -10.761233
2.2103581 -2.1372797 -10.7119
0.73428666 -1.9799728 -10.820457
1.4901606 -3.2589722 -10.654057
1.4697055 -1.6714565 -10.802245
3.0433662 -4.2699066 -10.332337
2.9869217 -2.628515 -10.584494
3.7828913 -3.9499361 -10.280243
2.2601037 -3.7664062 -10.511575
3.7509145 -3.1144796 -10.424657
2.2392296 -2.9416812 -10.622119
11.614455 -7.1781281 -5.6555109
10.259293 -6.3405915 -7.3906972
11.858769 -6.3078363 -6.1374555
10.713408 -7.8240784 -6.0383746
6.9466111 -4.2932417 -9.5614281
8.6383264 -5.3387793 -8.6731567
7.7796172 -3.9198841 -9.4370588
6.8080236 -5.2542159 -9.3221373
12.245822 -4.5084911 -7.0673183
10.38721 -5.4452813 -7.7916417
12.071597 -5.4133276 -6.6105259
11.424358 -4.0531831 -7.8818188
11.16436 -5.9000727 -7.0265804
8.8463585 -8.9759484 -6.7274245
9.2953959 -6.8914816 -7.6685378
9.7843285 -8.4259892 -6.3976048
8.0881421 -8.4429104 -7.5141148
10.039202 -7.381436 -6.9145541
9.5497024 -3.105087 -9.1201842
9.5229793 -4.9400983 -8.4593671
8.6505985 -3.5225974 -9.2910943
10.508546 -3.5781169 -8.5663762
8.6577399 -4.4341008 -8.9944571
10.460601 -4.5211526 -8.1919337
6.4912118 -7.2231352 -8.7555024
8.4619113 -6.3421565 -8.3397428
6.6562087 -6.235198 -9.0528492
7.2903225 -7.8472536 -8.191456
7.6420898 -5.8024131 -8.8740581
8.2946689 -7.3821811 -7.9461296
0.80126772 6.169333 -10.477401
2.4141278 5.6686529 -10.664086
1.3399664 6.9437953 -10.407152
0.78126481 5.2866048 -10.599284
5.7634081 4.4617814 -10.781296
4.0609999 5.1049327 -10.769791
2.5562751 8.6546615 -10.225894
3.0310921 6.4423289 -10.609566
1.9260604 7.7727225 -10.324124
2.184459 6.6994856 -10.519081
0.75199746 3.6070148 -10.773962
2.3553326 4.7649414 -10.749445
0.76571852 4.4294363 -10.6978
1.5696294 5.0319626 -10.684317
12.897408 0.63983292 -9.0063077
11.199466 1.8218072 -9.8693962
13.567092 1.7468226 -9.0521508
11.787393 0 -9.257994
7.534354 3.7174216 -10.671401
9.3652513 2.8456869 -10.392462
15.002253 4.2860576 -9.1096516
11.730291 2.932345 -9.927904
14.271263 2.9636607 -9.0892083
12.678789 2.3653449 -9.5454794
9.7427978 -1.1072503 -9.6280851
10.129052 1.1511473 -10.009791
10.730129 -0.58193564 -9.4628901
10.973637 0.59514199 -9.6776393
5.8968243 13.132748 -9.5412622
6.3201536 10.267456 -10.226223
4.9243206 11.855224 -9.773077
7.4540928 13.225204 -9.6584611
6.6345984 5.2272741 -10.735006
6.5466675 7.6309027 -10.59273
5.7154544 5.5610745 -10.745088
3.2850256 9.6486955 -10.103104
5.3720901 9.1991049 -10.355726
4.0545308 10.694106 -9.956891
3.5256614 8.4407924 -10.35449
5.1755578 10.498483 -10.105461
10.879733 13.187838 -9.7772855
7.7177076 10.148551 -10.297216
9.1264425 13.250631 -9.7426747
7.6147074 11.645733 -10.028979
3.9322398 6.1640114 -10.680626
5.5273779 7.9091137 -10.543814
4.8097707 5.8734879 -10.725679
3.7411229 7.2749867 -10.544781
5.6377949 6.7142257 -10.668067
4.5217152 8.1929532 -10.461903
0.72983505 0.45106287 -10.901575
2.2233695 1.3741179 -10.886959
0.73290375 1.2127466 -10.894753
1.4663188 0 -10.883399
5.6256665 3.4768531 -10.792035
3.8243588 2.3635837 -10.853829
4.8005579 3.8271921 -10.819125
0.74602499 2.7718171 -10.833318
2.2452521 2.1710201 -10.881004
0.73779112 1.9894224 -10.872098
1.5142153 3.3115796 -10.826039
1.4816354 1.6850241 -10.889929
2.97411 -0.91290499 -10.760431
3.000952 0.92114416 -10.857546
2.2182188 -0.45667792 -10.836611
2.225615 0.45820063 -10.872744
3.1801174 4.4617715 -10.796612
3.0665609 2.6985981 -10.866704
3.9813778 4.1571874 -10.819643
2.3251597 3.8748205 -10.814146
3.9028234 3.2406134 -10.846847
2.2888306 3.0068421 -10.857409
18.098937 11.185758 -8.8130464
13.83029 8.5475895 -9.9632102
17.349139 9.228237 -8.9789734
16.502087 12.051592 -9.301035
7.7577746 4.7945684 -10.677927
10.411321 6.4345502 -10.4533
8.7252052 4.3963337 -10.584104
7.7887833 6.011135 -10.665079
15.785847 5.8118068 -9.1103405
13.341653 6.9940873 -10.007825
16.564469 7.4280892 -9.0708674
13.95556 4.9512138 -9.6281292
15.256339 8.0625771 -9.6019743
12.804985 12.992564 -9.7378563
12.346609 9.1536098 -10.185735
14.674325 12.637117 -9.5949896
10.86824 11.344952 -10.096905
14.289039 10.506176 -9.8416515
10.709919 3.4823315 -10.228217
11.575539 6.0048748 -10.282678
9.7177385 3.9571459 -10.437246
12.247427 4.1701988 -9.9838804
10.068758 5.15676 -10.460352
12.787965 5.5270573 -10.014545
7.7775948 8.6545656 -10.490607
10.570897 7.92283 -10.41828
7.7978124 7.3045943 -10.6055
9.1968191 9.8993936 -10.333608
9.0976763 6.907597 -10.564297
10.756457 9.5731506 -10.304474
6.2238649 -2.8421711 -10.070425
6.4093288 -0.95947359 -10.370512
7.0331364 -2.4577974 -9.985751
5.3914537 -2.3526805 -10.308292
6.6252442 3.0254637 -10.71987
6.5451627 0.97980787 -10.590296
7.4795967 2.6138172 -10.619642
5.6328102 2.4580017 -10.769758
8.7668141 -1.6029051 -9.772584
7.2405478 -0.51267581 -10.304177
7.8836963 -2.0445656 -9.8869101
8.942552 -0.54495202 -9.9606372
7.1419255 -1.4890349 -10.155918
3.7834091 -1.3979685 -10.645606
5.5371109 -0.49261428 -10.553367
4.5731852 -1.8681664 -10.498898
3.8080117 -0.47069614 -10.731107
5.47235 -1.4219356 -10.441035
9.2214944 1.6860379 -10.279427
7.3327136 0.51920172 -10.43534
8.3524209 2.1661251 -10.474736
9.0958239 0.55429228 -10.131359
7.4116572 1.5452718 -10.539481
8.1309346 0 -10.227968
3.8509301 1.4229175 -10.835594
5.5879382 0.49713618 -10.65024
4.7075968 1.9230742 -10.807474
3.8306705 0.47349691 -10.79496
5.6192133 1.4600965 -10.721244
4.681015 0 -10.694718
20.10309 28.788462 1.4281789
22.515043 25.549328 4.1560867
18.035249 27.03069 3.4803199
22.912712 29.172748 0
21.228288 14.987857 7.3949517
22.463536 20.243198 6.1510152
13.669528 22.511697 6.4314627
19.662692 23.232406 5.8076504
15.775723 24.769978 5.1438902
19.085362 25.350144 4.7293029
25.670751 25.976602 -2.952191
25.670751 25.976602 2.952191
24.925163 28.263058 -1.5328129
24.925163 28.263058 1.5328129
14.347122 1.0972077 8.4479128
15.905428 3.6006588 8.4547659
19.480483 10.413773 8.0618933
17.635255 6.6497827 8.3591957
7.2287375 14.845316 9.1749101
10.869949 15.088967 9.3254944
8.5229131 16.467941 8.759516
18.89318 13.726357 8.4833551
14.936034 14.876053 9.1939065
19.417051 16.006812 8.065287
11.697319 20.268406 7.4621312
12.6269 16.833199 8.8244586
10.014435 18.287534 8.2007721
14.289458 20.711957 7.3482772
10.510206 16.699406 8.8252
19.852752 20.787724 6.759131
14.940014 16.81845 8.724664
19.756937 18.394962 7.4905852
17.059467 20.927191 7.125623
17.22442 16.579605 8.4913203
14.705813 18.778429 8.1161819
22.592572 13.962977 -6.3762904
26.049497 16.099474 -2.4100839
23.668611 16.67021 -5.8255658
22.592572 13.962977 6.3762904
26.049497 16.099474 2.4100839
23.668611 16.67021 5.8255658
25.430415 22.813181 -4.1711121
27.500052 19.32376 -1.3682424
24.663368 19.666256 -5.1002663
28.013987 25.150653 -1.5326608
25.938407 18.240613 -3.8030232
25.430415 22.813181 4.1711121
27.500052 19.32376 1.3682424
24.663368 19.666256 5.1002663
28.013987 25.150653 1.5326608
25.938407 18.240613 3.8030232
28.503733 22.659631 0
9.0966847 -13.026831 0.64625356
10.151914 -11.520058 1.8739576
8.7888192 -13.172418 1.6960066
9.7008655 -12.351262 0
11.799996 -8.3311784 4.1105718
11.043501 -9.9519411 3.023956
7.9547314 -13.100269 3.7426719
9.7808875 -11.556584 2.8889217
8.4059785 -13.198502 2.7408843
9.3101538 -12.366218 2.3070318
10.778801 -10.907224 -1.2395851
10.778801 -10.907224 1.2395851
10.263576 -11.63804 -0.63117508
10.263576 -11.63804 0.63117508
13.585824 -1.0389869 7.9996434
13.351713 -3.0225507 7.0973006
12.437533 -6.6487903 5.1472061
12.958882 -4.8864477 6.1425725
5.6087167 -11.518356 7.1187357
7.6060595 -10.558245 6.5253541
6.2378029 -12.05266 6.4109693
11.280817 -8.195789 5.0652762
9.4961153 -9.4579801 5.8453532
10.96419 -9.0385364 4.5542106
7.4201242 -12.857142 4.7335584
8.2203618 -10.958746 5.7448974
6.8500821 -12.509055 5.609499
8.403966 -12.181188 4.3216944
7.2501178 -11.519533 6.0877723
10.222987 -10.704442 3.4805507
9.1881318 -10.343373 5.365682
10.610549 -9.8790947 4.0228515
9.3413041 -11.459165 3.901799
10.089783 -9.7120615 4.9740764
8.815128 -11.256382 4.8650953
12.530671 -7.7443804 -3.536525
12.970181 -8.0160128 -1.1999934
12.143157 -8.5526346 -2.9888007
12.530671 -7.7443804 3.536525
12.970181 -8.0160128 1.1999934
12.143157 -8.5526346 2.9888007
11.280622 -10.119649 -1.8502544
12.480408 -8.7697435 -0.62095238
11.724546 -9.3490038 -2.4245799
11.386757 -10.222906 -0.6229758
12.369211 -8.6983746 -1.8135422
11.280622 -10.119649 1.8502544
12.480408 -8.7697435 0.62095238
11.724546 -9.3490038 2.4245799
11.386757 -10.222906 0.6229758
12.369211 -8.6983746 1.8135422
11.956366 -9.5049605 0
0.78895195 -6.0745081 10.31636
2.3147335 -5.4352635 10.225025
1.302165 -6.7479057 10.113559
0.77112747 -5.2180082 10.461753
5.3314424 -4.1273723 9.9732413
3.8132132 -4.7934492 10.112659
2.3957462 -8.1111664 9.5837292
2.8581125 -6.0746756 10.004095
1.8412519 -7.4304731 9.8695306
2.0894378 -6.4080667 10.061515
0.74547938 -3.5757504 10.680576
2.2744666 -4.6013458 10.380382
0.75748471 -4.3818064 10.582766
1.5312494 -4.9089229 10.423068
12.529745 -0.62159337 8.7495672
10.474939 -1.7039491 9.2309159
12.534766 -1.6139061 8.3633686
6.9159238 -3.4122905 9.7954779
8.614684 -2.6176226 9.5595699
12.39351 -3.5407548 7.5255739
10.527439 -2.6316554 8.9098732
12.486251 -2.5929738 7.9523538
11.507562 -2.1468417 8.6636978
4.851853 -10.805505 7.850463
5.3230138 -8.6475447 8.6128173
4.2218186 -10.163961 8.3788531
5.8662649 -10.408047 7.6010714
5.9876641 -4.7175669 9.6882441
5.6927146 -6.6355213 9.2110057
5.2023772 -5.061856 9.7804995
3.0021153 -8.8177384 9.2330128
4.6890429 -8.0294629 9.0390224
3.5996202 -9.4942474 8.8397469
3.2354932 -7.7461002 9.5022968
4.4715895 -9.0705019 8.7309378
7.8432392 -9.5071597 7.0484804
6.2998582 -8.2841218 8.4054755
6.869119 -9.9732355 7.3329331
6.0966952 -9.3241254 8.0296751
3.6578127 -5.7338311 9.9352357
4.8863064 -6.9918057 9.3209308
4.4228764 -5.401029 9.8629134
3.4539493 -6.716549 9.7353497
5.0538319 -6.0187659 9.5630681
4.0688789 -7.3724532 9.4141745
0.72905097 -0.45057828 10.889863
2.2014786 -1.3605886 10.779768
0.73078572 -1.2092419 10.863269
5.295044 -3.2725171 10.157783
3.7158671 -2.2965322 10.545922
4.5356908 -3.6160298 10.222188
0.74106094 -2.7533735 10.761233
2.2103581 -2.1372797 10.7119
0.73428666 -1.9799728 10.820457
1.4901606 -3.2589722 10.654057
1.4697055 -1.6714565 10.802245
3.0433662 -4.2699066 10.332337
2.9869217 -2.628515 10.584494
3.7828913 -3.9499361 10.280243
2.2601037 -3.7664062 10.511575
3.7509145 -3.1144796 10.424657
2.2392296 -2.9416812 10.622119
11.614455 -7.1781281 5.6555109
10.259293 -6.3405915 7.3906972
11.858769 -6.3078363 6.1374555
10.713408 -7.8240784 6.0383746
6.9466111 -4.2932417 9.5614281
8.6383264 -5.3387793 8.6731567
7.7796172 -3.9198841 9.4370588
6.8080236 -5.2542159 9.3221373
12.245822 -4.5084911 7.0673183
10.38721 -5.4452813 7.7916417
12.071597 -5.4133276 6.6105259
11.424358 -4.0531831 7.8818188
11.16436 -5.9000727 7.0265804
8.8463585 -8.9759484 6.7274245
9.2953959 -6.8914816 7.6685378
9.7843285 -8.4259892 6.3976048
8.0881421 -8.4429104 7.5141148
10.039202 -7.381436 6.9145541
9.5497024 -3.105087 9.1201842
9.5229793 -4.9400983 8.4593671
8.6505985 -3.5225974 9.2910943
10.508546 -3.5781169 8.5663762
8.6577399 -4.4341008 8.9944571
10.460601 -4.5211526 8.1919337
6.4912118 -7.2231352 8.7555024
8.4619113 -6.3421565 8.3397428
6.6562087 -6.235198 9.0528492
7.2903225 -7.8472536 8.191456
7.6420898 -5.8024131 8.8740581
8.2946689 -7.3821811 7.9461296
0.80126772 6.169333 10.477401
2.4141278 5.6686529 10.664086
1.3399664 6.9437953 10.407152
0.78126481 5.2866048 10.599284
5.7634081 4.4617814 10.781296
4.0609999 5.1049327 10.769791
2.5562751 8.6546615 10.225894
3.0310921 6.4423289 10.609566
1.9260604 7.7727225 10.324124
2.184459 6.6994856 10.519081
0.75199746 3.6070148 10.773962
2.3553326 4.7649414 10.749445
0.76571852 4.4294363 10.6978
1.5696294 5.0319626 10.684317
12.897408 0.63983292 9.0063077
11.199466 1.8218072 9.8693962
13.567092 1.7468226 9.0521508
11.787393 0 9.257994
7.534354 3.7174216 10.671401
9.3652513 2.8456869 10.392462
15.002253 4.2860576 9.1096516
11.730291 2.932345 9.927904
14.271263 2.9636607 9.0892083
12.678789 2.3653449 9.5454794
9.7427978 -1.1072503 9.6280851
10.129052 1.1511473 10.009791
10.730129 -0.58193564 9.4628901
10.973637 0.59514199 9.6776393
5.8968243 13.132748 9.5412622
6.3201536 10.267456 10.226223
4.9243206 11.855224 9.773077
7.4540928 13.225204 9.6584611
6.6345984 5.2272741 10.735006
6.5466675 7.6309027 10.59273
5.7154544 5.5610745 10.745088
3.2850256 9.6486955 10.103104
5.3720901 9.1991049 10.355726
4.0545308 10.694106 9.956891
3.5256614 8.4407924 10.35449
5.1755578 10.498483 10.105461
10.879733 13.187838 9.7772855
7.7177076 10.148551 10.297216
9.1264425 13.250631 9.7426747
7.6147074 11.645733 10.028979
3.9322398 6.1640114 10.680626
5.5273779 7.9091137 10.543814
4.8097707 5.8734879 10.725679
3.7411229 7.2749867 10.544781
5.6377949 6.7142257 10.668067
4.5217152 8.1929532 10.461903
0.72983505 0.45106287 10.901575
2.2233695 1.3741179 10.886959
0.73290375 1.2127466 10.894753
1.4663188 0 10.883399
5.6256665 3.4768531 10.792035
3.8243588 2.3635837 10.853829
4.8005579 3.8271921 10.819125
0.74602499 2.7718171 10.833318
2.2452521 2.1710201 10.881004
0.73779112 1.9894224 10.872098
1.5142153 3.3115796 10.826039
1.4816354 1.6850241 10.889929
2.97411 -0.91290499 10.760431
3.000952 0.92114416 10.857546
2.2182188 -0.45667792 10.836611
2.225615 0.45820063 10.872744
3.1801174 4.4617715 10.796612
3.0665609 2.6985981 10.866704
3.9813778 4.1571874 10.819643
2.3251597 3.8748205 10.814146
3.9028234 3.2406134 10.846847
2.2888306 3.0068421 10.857409
18.098937 11.185758 8.8130464
13.83029 8.5475895 9.9632102
17.349139 9.228237 8.9789734
16.502087 12.051592 9.301035
7.7577746 4.7945684 10.677927
10.411321 6.4345502 10.4533
8.7252052 4.3963337 10.584104
7.7887833 6.011135 10.665079
15.785847 5.8118068 9.1103405
13.341653 6.9940873 10.007825
16.564469 7.4280892 9.0708674
13.95556 4.9512138 9.6281292
15.256339 8.0625771 9.6019743
12.804985 12.992564 9.7378563
12.346609 9.1536098 10.185735
14.674325 12.637117 9.5949896
10.86824 11.344952 10.096905
14.289039 10.506176 9.8416515
10.709919 3.4823315 10.228217
11.575539 6.0048748 10.282678
9.7177385 3.9571459 10.437246
12.247427 4.1701988 9.9838804
10.068758 5.15676 10.460352
12.787965 5.5270573 10.014545
7.7775948 8.6545656 10.490607
10.570897 7.92283 10.41828
7.7978124 7.3045943 10.6055
9.1968191 9.8993936 10.333608
9.0976763 6.907597 10.564297
10.756457 9.5731506 10.304474
6.2238649 -2.8421711 10.070425
6.4093288 -0.95947359 10.370512
7.0331364 -2.4577974 9.985751
5.3914537 -2.3526805 10.308292
6.6252442 3.0254637 10.71987
6.5451627 0.97980787 10.590296
7.4795967 2.6138172 10.619642
5.6328102 2.4580017 10.769758
8.7668141 -1.6029051 9.772584
7.2405478 -0.51267581 10.304177
7.8836963 -2.0445656 9.8869101
8.942552 -0.54495202 9.9606372
7.1419255 -1.4890349 10.155918
3.7834091 -1.3979685 10.645606
5.5371109 -0.49261428 10.553367
4.5731852 -1.8681664 10.498898
3.8080117 -0.47069614 10.731107
5.47235 -1.4219356 10.441035
9.2214944 1.6860379 10.279427
7.3327136 0.51920172 10.43534
8.3524209 2.1661251 10.474736
9.0958239 0.55429228 10.131359
7.4116572 1.5452718 10.539481
8.1309346 0 10.227968
3.8509301 1.4229175 10.835594
5.5879382 0.49713618 10.65024
4.7075968 1.9230742 10.807474
3.8306705 0.47349691 10.79496
5.6192133 1.4600965 10.721244
4.681015 0 10.694718
14.702066 0 -7.7360454
16.487275 0 -5.9433986
15.47958 1.1409875 -7.7207498
14.560689 -1.0732568 -7.2624347
18.145988 0 -1.2576521
17.622999 0 -3.711838
17.189462 3.7664178 -7.6196287
17.328895 1.2095166 -5.8015411
16.312926 2.3965264 -7.6828523
16.494351 1.1806194 -6.8295049
14.150602 -3.100567 -6.2725832
16.134571 -1.1261556 -5.4016935
14.374311 -2.1117252 -6.7698287
15.424427 -1.1040372 -6.3865016
14.702066 0 7.7360454
16.487275 0 5.9433986
15.47958 1.1409875 7.7207498
14.560689 -1.0732568 7.2624347
18.145988 0 1.2576521
17.622999 0 3.711838
17.189462 3.7664178 7.6196287
17.328895 1.2095166 5.8015411
16.312926 2.3965264 7.6828523
16.494351 1.1806194 6.8295049
14.150602 -3.100567 6.2725832
16.134571 -1.1261556 5.4016935
14.374311 -2.1117252 6.7698287
15.424427 -1.1040372 6.3865016
21.286324 11.096124 -6.8577817
21.381415 7.5337653 -4.656123
20.207631 8.9663356 -7.1483127
23.014016 12.036815 -5.2525311
18.923042 1.2668536 -0.78295858
20.304513 4.1466525 -2.5627722
18.771184 1.2627611 -2.0895093
18.169808 5.3518755 -7.5087935
20.28297 5.7238112 -5.0369997
19.15828 7.0498031 -7.3611081
18.335476 3.9423279 -6.5697908
20.433365 7.3521659 -6.1046901
25.114937 13.177235 -1.1723251
22.195664 7.8882574 -2.9147087
24.356236 12.765578 -3.3170082
22.78995 9.9270094 -4.0552273
18.006564 1.2400031 -4.607167
19.882905 4.1027588 -3.9671143
18.468415 1.2532845 -3.3794283
18.255522 2.5533616 -5.5841861
19.363623 2.6345286 -2.9961784
19.242945 4.0565702 -5.3291256
12.959105 -6.7553157 -4.1750147
14.537713 -5.1223792 -3.1658045
13.292764 -5.8981375 -4.7022254
13.301222 -6.956819 -3.0357623
17.490433 -1.1709438 -0.72368305
16.037461 -3.2752214 -2.0241982
17.359899 -1.1678222 -1.9324125
13.888872 -4.0909356 -5.7396685
14.95012 -4.2188923 -3.712659
13.604423 -5.0061123 -5.2271721
14.82651 -3.1878617 -5.3124918
14.133504 -5.0854018 -4.2225382
13.634744 -7.1538393 -0.63644804
14.7681 -5.2485285 -1.9393297
13.525436 -7.0889447 -1.8419916
14.050833 -6.1203622 -2.5001951
16.704721 -1.150353 -4.2740769
15.77882 -3.255897 -3.1482513
17.100823 -1.1604784 -3.1291806
15.769764 -2.2056838 -4.823817
16.569237 -2.2543368 -2.5637966
15.370936 -3.2403191 -4.2568147
21.286324 11.096124 6.8577817
21.381415 7.5337653 4.656123
20.207631 8.9663356 7.1483127
23.014016 12.036815 5.2525311
18.923042 1.2668536 0.78295858
20.304513 4.1466525 2.5627722
18.771184 1.2627611 2.0895093
19.740843 2.6596809 0
18.169808 5.3518755 7.5087935
20.28297 5.7238112 5.0369997
19.15828 7.0498031 7.3611081
18.335476 3.9423279 6.5697908
20.433365 7.3521659 6.1046901
25.114937 13.177235 1.1723251
22.195664 7.8882574 2.9147087
24.356236 12.765578 3.3170082
23.883259 10.453562 0
22.78995 9.9270094 4.0552273
18.006564 1.2400031 4.607167
19.882905 4.1027588 3.9671143
18.468415 1.2532845 3.3794283
18.255522 2.5533616 5.5841861
19.363623 2.6345286 2.9961784
19.242945 4.0565702 5.3291256
21.395377 5.9135369 -1.815164
21.395377 5.9135369 1.815164
20.576032 4.2118462 -0.86711789
22.601755 8.0203982 -0.99137574
20.576032 4.2118462 0.86711789
22.601755 8.0203982 0.99137574
12.959105 -6.7553157 4.1750147
14.537713 -5.1223792 3.1658045
13.292764 -5.8981375 4.7022254
13.301222 -6.956819 3.0357623
17.490433 -1.1709438 0.72368305
16.037461 -3.2752214 2.0241982
17.359899 -1.1678222 1.9324125
16.843086 -2.2692665 0
13.888872 -4.0909356 5.7396685
14.95012 -4.2188923 3.712659
13.604423 -5.0061123 5.2271721
14.82651 -3.1878617 5.3124918
14.133504 -5.0854018 4.2225382
13.634744 -7.1538393 0.63644804
14.7681 -5.2485285 1.9393297
13.525436 -7.0889447 1.8419916
14.276972 -6.2489463 0
14.050833 -6.1203622 2.5001951
16.704721 -1.150353 4.2740769
15.77882 -3.255897 3.1482513
17.100823 -1.1604784 3.1291806
15.769764 -2.2056838 4.823817
16.569237 -2.2543368 2.5637966
15.370936 -3.2403191 4.2568147
15.497787 -4.2834831 -1.3148179
15.497787 -4.2834831 1.3148179
16.17475 -3.3109183 -0.68163849
14.900573 -5.2875776 -0.65358054
16.17475 -3.3109183 0.68163849
14.900573 -5.2875776 0.65358054
-9.0966847 13.026831 -0.64625356
-10.151914 11.520058 -1.8739576
-8.7888192 13.172418 -1.6960066
-11.799996 8.3311784 -4.1105718
-11.043501 9.9519411 -3.023956
-7.9547314 13.100269 -3.7426719
-9.7808875 11.556584 -2.8889217
-8.4059785 13.198502 -2.7408843
-9.3101538 12.366218 -2.3070318
-13.585824 1.0389869 -7.9996434
-13.351713 3.0225507 -7.0973006
-12.437533 6.6487903 -5.1472061
-12.958882 4.8864477 -6.1425725
-5.6087167 11.518356 -7.1187357
-7.6060595 10.558245 -6.5253541
-6.2378029 12.05266 -6.4109693
-11.280817 8.195789 -5.0652762
-9.4961153 9.4579801 -5.8453532
-10.96419 9.0385364 -4.5542106
-7.4201242 12.857142 -4.7335584
-8.2203618 10.958746 -5.7448974
-6.8500821 12.509055 -5.609499
-8.403966 12.181188 -4.3216944
-7.2501178 11.519533 -6.0877723
-10.222987 10.704442 -3.4805507
-9.1881318 10.343373 -5.365682
-10.610549 9.8790947 -4.0228515
-9.3413041 11.459165 -3.901799
-10.089783 9.7120615 -4.9740764
-8.815128 11.256382 -4.8650953
-20.10309 -28.788462 -1.4281789
-22.515043 -25.549328 -4.1560867
-18.035249 -27.03069 -3.4803199
-21.228288 -14.987857 -7.3949517
-22.463536 -20.243198 -6.1510152
-13.669528 -22.511697 -6.4314627
-19.662692 -23.232406 -5.8076504
-15.775723 -24.769978 -5.1438902
-19.085362 -25.350144 -4.7293029
-14.347122 -1.0972077 -8.4479128
-15.905428 -3.6006588 -8.4547659
-19.480483 -10.413773 -8.0618933
-17.635255 -6.6497827 -8.3591957
-7.2287375 -14.845316 -9.1749101
-10.869949 -15.088967 -9.3254944
-8.5229131 -16.467941 -8.759516
-18.89318 -13.726357 -8.4833551
-14.936034 -14.876053 -9.1939065
-19.417051 -16.006812 -8.065287
-11.697319 -20.268406 -7.4621312
-12.6269 -16.833199 -8.8244586
-10.014435 -18.287534 -8.2007721
-14.289458 -20.711957 -7.3482772
-10.510206 -16.699406 -8.8252
-19.852752 -20.787724 -6.759131
-14.940014 -16.81845 -8.724664
-19.756937 -18.394962 -7.4905852
-17.059467 -20.927191 -7.125623
-17.22442 -16.579605 -8.4913203
-14.705813 -18.778429 -8.1161819
-0.80126772 -6.169333 -10.477401
-2.4141278 -5.6686529 -10.664086
-1.3399664 -6.9437953 -10.407152
-0.78126481 -5.2866048 -10.599284
-5.7634081 -4.4617814 -10.781296
-4.0609999 -5.1049327 -10.769791
-2.5562751 -8.6546615 -10.225894
-3.0310921 -6.4423289 -10.609566
-1.9260604 -7.7727225 -10.324124
-2.184459 -6.6994856 -10.519081
-0.75199746 -3.6070148 -10.773962
-2.3553326 -4.7649414 -10.749445
-0.76571852 -4.4294363 -10.6978
-1.5696294 -5.0319626 -10.684317
-12.897408 -0.63983292 -9.0063077
-11.199466 -1.8218072 -9.8693962
-13.567092 -1.7468226 -9.0521508
-7.534354 -3.7174216 -10.671401
-9.3652513 -2.8456869 -10.392462
-15.002253 -4.2860576 -9.1096516
-11.730291 -2.932345 -9.927904
-14.271263 -2.9636607 -9.0892083
-12.678789 -2.3653449 -9.5454794
-5.8968243 -13.132748 -9.5412622
-6.3201536 -10.267456 -10.226223
-4.9243206 -11.855224 -9.773077
-7.4540928 -13.225204 -9.6584611
-6.6345984 -5.2272741 -10.735006
-6.5466675 -7.6309027 -10.59273
-5.7154544 -5.5610745 -10.745088
-3.2850256 -9.6486955 -10.103104
-5.3720901 -9.1991049 -10.355726
-4.0545308 -10.694106 -9.956891
-3.5256614 -8.4407924 -10.35449
-5.1755578 -10.498483 -10.105461
-10.879733 -13.187838 -9.7772855
-7.7177076 -10.148551 -10.297216
-9.1264425 -13.250631 -9.7426747
-7.6147074 -11.645733 -10.028979
-3.9322398 -6.1640114 -10.680626
-5.5273779 -7.9091137 -10.543814
-4.8097707 -5.8734879 -10.725679
-3.7411229 -7.2749867 -10.544781
-5.6377949 -6.7142257 -10.668067
-4.5217152 -8.1929532 -10.461903
-0.72983505 -0.45106287 -10.901575
-2.2233695 -1.3741179 -10.886959
-0.73290375 -1.2127466 -10.894753
-5.6256665 -3.4768531 -10.792035
-3.8243588 -2.3635837 -10.853829
-4.8005579 -3.8271921 -10.819125
-0.74602499 -2.7718171 -10.833318
-2.2452521 -2.1710201 -10.881004
-0.73779112 -1.9894224 -10.872098
-1.5142153 -3.3115796 -10.826039
-1.4816354 -1.6850241 -10.889929
-3.1801174 -4.4617715 -10.796612
-3.0665609 -2.6985981 -10.866704
-3.9813778 -4.1571874 -10.819643
-2.3251597 -3.8748205 -10.814146
-3.9028234 -3.2406134 -10.846847
-2.2888306 -3.0068421 -10.857409
-18.098937 -11.185758 -8.8130464
-13.83029 -8.5475895 -9.9632102
-17.349139 -9.228237 -8.9789734
-16.502087 -12.051592 -9.301035
-7.7577746 -4.7945684 -10.677927
-10.411321 -6.4345502 -10.4533
-8.7252052 -4.3963337 -10.584104
-7.7887833 -6.011135 -10.665079
-15.785847 -5.8118068 -9.1103405
-13.341653 -6.9940873 -10.007825
-16.564469 -7.4280892 -9.0708674
-13.95556 -4.9512138 -9.6281292
-15.256339 -8.0625771 -9.6019743
-12.804985 -12.992564 -9.7378563
-12.346609 -9.1536098 -10.185735
-14.674325 -12.637117 -9.5949896
-10.86824 -11.344952 -10.096905
-14.289039 -10.506176 -9.8416515
-10.709919 -3.4823315 -10.228217
-11.575539 -6.0048748 -10.282678
-9.7177385 -3.9571459 -10.437246
-12.247427 -4.1701988 -9.9838804
-10.068758 -5.15676 -10.460352
-12.787965 -5.5270573 -10.014545
-7.7775948 -8.6545656 -10.490607
-10.570897 -7.92283 -10.41828
-7.7978124 -7.3045943 -10.6055
-9.1968191 -9.8993936 -10.333608
-9.0976763 -6.907597 -10.564297
-10.756457 -9.5731506 -10.304474
-0.78895195 6.0745081 -10.31636
-2.3147335 5.4352635 -10.225025
-1.302165 6.7479057 -10.113559
-0.77112747 5.2180082 -10.461753
-5.3314424 4.1273723 -9.9732413
-3.8132132 4.7934492 -10.112659
-2.3957462 8.1111664 -9.5837292
-2.8581125 6.0746756 -10.004095
-1.8412519 7.4304731 -9.8695306
-2.0894378 6.4080667 -10.061515
-0.74547938 3.5757504 -10.680576
-2.2744666 4.6013458 -10.380382
-0.75748471 4.3818064 -10.582766
-1.5312494 4.9089229 -10.423068
-12.529745 0.62159337 -8.7495672
-10.474939 1.7039491 -9.2309159
-12.534766 1.6139061 -8.3633686
-11.787393 0 -9.257994
-6.9159238 3.4122905 -9.7954779
-8.614684 2.6176226 -9.5595699
-12.39351 3.5407548 -7.5255739
-10.527439 2.6316554 -8.9098732
-12.486251 2.5929738 -7.9523538
-11.507562 2.1468417 -8.6636978
-10.129052 -1.1511473 -10.009791
-9.7427978 1.1072503 -9.6280851
-10.973637 -0.59514199 -9.6776393
-10.730129 0.58193564 -9.4628901
-4.851853 10.805505 -7.850463
-5.3230138 8.6475447 -8.6128173
-4.2218186 10.163961 -8.3788531
-5.8662649 10.408047 -7.6010714
-5.9876641 4.7175669 -9.6882441
-5.6927146 6.6355213 -9.2110057
-5.2023772 5.061856 -9.7804995
-3.0021153 8.8177384 -9.2330128
-4.6890429 8.0294629 -9.0390224
-3.5996202 9.4942474 -8.8397469
-3.2354932 7.7461002 -9.5022968
-4.4715895 9.0705019 -8.7309378
-7.8432392 9.5071597 -7.0484804
-6.2998582 8.2841218 -8.4054755
-6.869119 9.9732355 -7.3329331
-6.0966952 9.3241254 -8.0296751
-3.6578127 5.7338311 -9.9352357
-4.8863064 6.9918057 -9.3209308
-4.4228764 5.401029 -9.8629134
-3.4539493 6.716549 -9.7353497
-5.0538319 6.0187659 -9.5630681
-4.0688789 7.3724532 -9.4141745
-0.72905097 0.45057828 -10.889863
-2.2014786 1.3605886 -10.779768
-0.73078572 1.2092419 -10.863269
-1.4663188 0 -10.883399
-5.295044 3.2725171 -10.157783
-3.7158671 2.2965322 -10.545922
-4.5356908 3.6160298 -10.222188
-0.74106094 2.7533735 -10.761233
-2.2103581 2.1372797 -10.7119
-0.73428666 1.9799728 -10.820457
-1.4901606 3.2589722 -10.654057
-1.4697055 1.6714565 -10.802245
-3.000952 -0.92114416 -10.857546
-2.97411 0.91290499 -10.760431
-2.225615 -0.45820063 -10.872744
-2.2182188 0.45667792 -10.836611
-3.0433662 4.2699066 -10.332337
-2.9869217 2.628515 -10.584494
-3.7828913 3.9499361 -10.280243
-2.2601037 3.7664062 -10.511575
-3.7509145 3.1144796 -10.424657
-2.2392296 2.9416812 -10.622119
-11.614455 7.1781281 -5.6555109
-10.259293 6.3405915 -7.3906972
-11.858769 6.3078363 -6.1374555
-10.713408 7.8240784 -6.0383746
-6.9466111 4.2932417 -9.5614281
-8.6383264 5.3387793 -8.6731567
-7.7796172 3.9198841 -9.4370588
-6.8080236 5.2542159 -9.3221373
-12.245822 4.5084911 -7.0673183
-10.38721 5.4452813 -7.7916417
-12.071597 5.4133276 -6.6105259
-11.424358 4.0531831 -7.8818188
-11.16436 5.9000727 -7.0265804
-8.8463585 8.9759484 -6.7274245
-9.2953959 6.8914816 -7.6685378
-9.7843285 8.4259892 -6.3976048
-8.0881421 8.4429104 -7.5141148
-10.039202 7.381436 -6.9145541
-9.5497024 3.105087 -9.1201842
-9.5229793 4.9400983 -8.4593671
-8.6505985 3.5225974 -9.2910943
-10.508546 3.5781169 -8.5663762
-8.6577399 4.4341008 -8.9944571
-10.460601 4.5211526 -8.1919337
-6.4912118 7.2231352 -8.7555024
-8.4619113 6.3421565 -8.3397428
-6.6562087 6.235198 -9.0528492
-7.2903225 7.8472536 -8.191456
-7.6420898 5.8024131 -8.8740581
-8.2946689 7.3821811 -7.9461296
-6.6252442 -3.0254637 -10.71987
-6.5451627 -0.97980787 -10.590296
-7.4795967 -2.6138172 -10.619642
-5.6328102 -2.4580017 -10.769758
-6.2238649 2.8421711 -10.070425
-6.4093288 0.95947359 -10.370512
-7.0331364 2.4577974 -9.985751
-5.3914537 2.3526805 -10.308292
-9.2214944 -1.6860379 -10.279427
-7.3327136 -0.51920172 -10.43534
-8.3524209 -2.1661251 -10.474736
-9.0958239 -0.55429228 -10.131359
-7.4116572 -1.5452718 -10.539481
-3.8509301 -1.4229175 -10.835594
-5.5879382 -0.49713618 -10.65024
-4.7075968 -1.9230742 -10.807474
-3.8306705 -0.47349691 -10.79496
-5.6192133 -1.4600965 -10.721244
-8.7668141 1.6029051 -9.772584
-7.2405478 0.51267581 -10.304177
-7.8836963 2.0445656 -9.8869101
-8.942552 0.54495202 -9.9606372
-7.1419255 1.4890349 -10.155918
-8.1309346 0 -10.227968
-3.7834091 1.3979685 -10.645606
-5.5371109 0.49261428 -10.553367
-4.5731852 1.8681664 -10.498898
-3.8080117 0.47069614 -10.731107
-5.47235 1.4219356 -10.441035
-4.681015 0 -10.694718
-9.0966847 13.026831 0.64625356
-10.151914 11.520058 1.8739576
-8.7888192 13.172418 1.6960066
-9.7008655 12.351262 0
-11.799996 8.3311784 4.1105718
-11.043501 9.9519411 3.023956
-7.9547314 13.100269 3.7426719
-9.7808875 11.556584 2.8889217
-8.4059785 13.198502 2.7408843
-9.3101538 12.366218 2.3070318
-10.778801 10.907224 -1.2395851
-10.778801 10.907224 1.2395851
-10.263576 11.63804 -0.63117508
-10.263576 11.63804 0.63117508
-13.585824 1.0389869 7.9996434
-13.351713 3.0225507 7.0973006
-12.437533 6.6487903 5.1472061
-12.958882 4.8864477 6.1425725
-5.6087167 11.518356 7.1187357
-7.6060595 10.558245 6.5253541
-6.2378029 12.05266 6.4109693
-11.280817 8.195789 5.0652762
-9.4961153 9.4579801 5.8453532
-10.96419 9.0385364 4.5542106
-7.4201242 12.857142 4.7335584
-8.2203618 10.958746 5.7448974
-6.8500821 12.509055 5.609499
-8.403966 12.181188 4.3216944
-7.2501178 11.519533 6.0877723
-10.222987 10.704442 3.4805507
-9.1881318 10.343373 5.365682
-10.610549 9.8790947 4.0228515
-9.3413041 11.459165 3.901799
-10.089783 9.7120615 4.9740764
-8.815128 11.256382 4.8650953
-12.530671 7.7443804 -3.536525
-12.970181 8.0160128 -1.1999934
-12.143157 8.5526346 -2.9888007
-12.530671 7.7443804 3.536525
-12.970181 8.0160128 1.1999934
-12.143157 8.5526346 2.9888007
-11.280622 10.119649 -1.8502544
-12.480408 8.7697435 -0.62095238
-11.724546 9.3490038 -2.4245799
-11.386757 10.222906 -0.6229758
-12.369211 8.6983746 -1.8135422
-11.280622 10.119649 1.8502544
-12.480408 8.7697435 0.62095238
-11.724546 9.3490038 2.4245799
-11.386757 10.222906 0.6229758
-12.369211 8.6983746 1.8135422
-11.956366 9.5049605 0
-20.10309 -28.788462 1.4281789
-22.515043 -25.549328 4.1560867
-18.035249 -27.03069 3.4803199
-22.912712 -29.172748 0
-21.228288 -14.987857 7.3949517
-22.463536 -20.243198 6.1510152
-13.669528 -22.511697 6.4314627
-19.662692 -23.232406 5.8076504
-15.775723 -24.769978 5.1438902
-19.085362 -25.350144 4.7293029
-25.670751 -25.976602 -2.952191
-25.670751 -25.976602 2.952191
-24.925163 -28.263058 -1.5328129
-24.925163 -28.263058 1.5328129
-14.347122 -1.0972077 8.4479128
-15.905428 -3.6006588 8.4547659
-19.480483 -10.413773 8.0618933
-17.635255 -6.6497827 8.3591957
-7.2287375 -14.845316 9.1749101
-10.869949 -15.088967 9.3254944
-8.5229131 -16.467941 8.759516
-18.89318 -13.726357 8.4833551
-14.936034 -14.876053 9.1939065
-19.417051 -16.006812 8.065287
-11.697319 -20.268406 7.4621312
-12.6269 -16.833199 8.8244586
-10.014435 -18.287534 8.2007721
-14.289458 -20.711957 7.3482772
-10.510206 -16.699406 8.8252
-19.852752 -20.787724 6.759131
-14.940014 -16.81845 8.724664
-19.756937 -18.394962 7.4905852
-17.059467 -20.927191 7.125623
-17.22442 -16.579605 8.4913203
-14.705813 -18.778429 8.1161819
-22.592572 -13.962977 -6.3762904
-26.049497 -16.099474 -2.4100839
-23.668611 -16.67021 -5.8255658
-22.592572 -13.962977 6.3762904
-26.049497 -16.099474 2.4100839
-23.668611 -16.67021 5.8255658
-25.430415 -22.813181 -4.1711121
-27.500052 -19.32376 -1.3682424
-24.663368 -19.666256 -5.1002663
-28.013987 -25.150653 -1.5326608
-25.938407 -18.240613 -3.8030232
-25.430415 -22.813181 4.1711121
-27.500052 -19.32376 1.3682424
-24.663368 -19.666256 5.1002663
-28.013987 -25.150653 1.5326608
-25.938407 -18.240613 3.8030232
-28.503733 -22.659631 0
-0.80126772 -6.169333 10.477401
-2.4141278 -5.6686529 10.664086
-1.3399664 -6.9437953 10.407152
-0.78126481 -5.2866048 10.599284
-5.7634081 -4.4617814 10.781296
-4.0609999 -5.1049327 10.769791
-2.5562751 -8.6546615 10.225894
-3.0310921 -6.4423289 10.609566
-1.9260604 -7.7727225 10.324124
-2.184459 -6.6994856 10.519081
-0.75199746 -3.6070148 10.773962
-2.3553326 -4.7649414 10.749445
