-3.699727 41.030596 -17.958850
3.467162 33.337853 -26.502615
3.816437 42.324929 -18.525372
0.000000 -15.036354 -34.111155
0.000000 -4.969063 -35.675776
0.000000 15.036354 -34.111155
0.000000 4.969063 -35.675776
29.671804 37.778508 -3.908077
33.738175 26.986240 -10.543513
27.358435 37.961627 -10.202110
33.057312 5.014435 -18.515199
34.461092 15.664852 -15.314685
20.571350 34.343791 -21.225630
30.967731 26.342725 -16.280700
24.172032 36.692165 -16.211725
29.683034 32.200038 -13.571444
24.685968 -31.430480 -3.251392
28.917255 -23.130119 -9.036927
23.023254 -31.946278 -8.585497
32.021129 -4.857257 -17.934839
31.274376 -14.216278 -13.898492
18.180553 -30.352364 -18.758793
26.916723 -22.896732 -14.150959
20.789487 -31.557599 -13.943116
25.275149 -27.418381 -11.556106
4.940937 -18.243815 -32.572780
14.070223 -13.755703 -30.953070
8.159529 -21.880959 -30.361269
4.840731 -13.171428 -33.985016
28.912889 -2.990955 -22.708614
22.093430 -8.631894 -27.621187
29.121443 -7.826328 -20.987433
14.697010 -27.955374 -23.780261
17.367447 -16.832096 -28.101120
11.532506 -25.223533 -27.362388
19.805518 -24.944333 -21.768371
13.010776 -19.399348 -29.447424
4.777722 -2.952795 -35.461496
13.983636 -8.642363 -32.262864
4.802532 -7.960686 -34.950262
9.610979 -10.963961 -33.345623
28.237514 -17.451743 -16.913793
22.087998 -13.651134 -25.965999
28.880229 -12.760172 -19.025692
24.427516 -21.317356 -19.395171
25.727641 -10.843505 -23.716571
21.119704 -19.215342 -24.201028
5.031731 18.579062 -33.171335
14.643683 14.316343 -32.214623
8.464834 22.699679 -31.497296
4.903143 13.341250 -34.423192
29.422018 3.043623 -23.108492
22.979883 8.978230 -28.729431
30.534674 8.206131 -22.005930
26.253252 0.000000 -25.944144
16.064527 30.556545 -25.992950
18.471623 17.902235 -29.887713
12.261750 26.818512 -29.092616
22.088169 27.819250 -24.277247
13.715617 20.450281 -31.042698
4.791149 2.961093 -35.561156
14.331432 8.857312 -33.065295
4.839375 8.021756 -35.218381
9.591742 0.000000 -34.703249
9.818408 11.200590 -34.065304
31.482337 19.457154 -18.857387
23.540921 14.549089 -27.674012
31.255346 13.809571 -20.590369
27.424093 23.932403 -21.774419
27.281713 11.498503 -25.149164
23.057320 20.978243 -26.421338
18.813894 -5.667970 -30.441521
19.224969 5.791812 -31.106653
22.616402 -2.958755 -28.449354
14.420467 -2.970780 -32.946451
22.922733 2.998830 -28.834691
14.544601 2.996352 -33.230059
29.671804 37.778508 3.908077
33.738175 26.986240 10.543513
27.358435 37.961627 10.202110
32.924754 33.317032 0.000000
33.057312 5.014435 18.515199
34.461092 15.664852 15.314685
20.571350 34.343791 21.225630
30.967731 26.342725 16.280700
24.172032 36.692165 16.211725
29.683034 32.200038 13.571444
36.347093 22.463739 -6.767541
36.347093 22.463739 6.767541
35.165016 27.955156 -3.657189
35.165016 27.955156 3.657189
24.685968 -31.430480 3.251392
28.917255 -23.130119 9.036927
23.023254 -31.946278 8.585497
27.483038 -27.810481 0.000000
32.021129 -4.857257 17.934839
31.274376 -14.216278 13.898492
18.180553 -30.352364 18.758793
26.916723 -22.896732 14.150959
20.789487 -31.557599 13.943116
25.275149 -27.418381 11.556106
31.588996 -19.523073 -5.881621
31.588996 -19.523073 5.881621
29.826398 -23.711111 -3.101968
29.826398 -23.711111 3.101968
4.940937 -18.243815 32.572780
14.070223 -13.755703 30.953070
8.159529 -21.880959 30.361269
4.840731 -13.171428 33.985016
28.912889 -2.990955 22.708614
22.093430 -8.631894 27.621187
29.121443 -7.826328 20.987433
14.697010 -27.955374 23.780261
17.367447 -16.832096 28.101120
11.532506 -25.223533 27.362388
19.805518 -24.944333 21.768371
13.010776 -19.399348 29.447424
4.777722 -2.952795 35.461496
13.983636 -8.642363 32.262864
4.802532 -7.960686 34.950262
9.610979 -10.963961 33.345623
28.237514 -17.451743 16.913793
22.087998 -13.651134 25.965999
28.880229 -12.760172 19.025692
24.427516 -21.317356 19.395171
25.727641 -10.843505 23.716571
21.119704 -19.215342 24.201028
5.031731 18.579062 33.171335
14.643683 14.316343 32.214623
8.464834 22.699679 31.497296
4.903143 13.341250 34.423192
29.422018 3.043623 23.108492
22.979883 8.978230 28.729431
30.534674 8.206131 22.005930
26.253252 0.000000 25.944144
16.064527 30.556545 25.992950
18.471623 17.902235 29.887713
12.261750 26.818512 29.092616
22.088169 27.819250 24.277247
13.715617 20.450281 31.042698
4.791149 2.961093 35.561156
14.331432 8.857312 33.065295
4.839375 8.021756 35.218381
9.591742 0.000000 34.703249
9.818408 11.200590 34.065304
31.482337 19.457154 18.857387
23.540921 14.549089 27.674012
31.255346 13.809571 20.590369
27.424093 23.932403 21.774419
27.281713 11.498503 25.149164
23.057320 20.978243 26.421338
18.813894 -5.667970 30.441521
19.224969 5.791812 31.106653
22.616402 -2.958755 28.449354
14.420467 -2.970780 32.946451
22.922733 2.998830 28.834691
14.544601 2.996352 33.230059
34.448955 0.000000 -15.185258
37.617996 0.000000 -5.239583
35.608653 5.071997 -13.800694
34.397596 -4.899498 -13.331330
34.448955 0.000000 15.185258
37.617996 0.000000 5.239583
35.608653 5.071997 13.800694
34.397596 -4.899498 13.331330
36.746482 15.926963 -9.843404
38.407906 5.174691 -3.198135
36.430628 10.500149 -11.978303
38.019120 16.640745 -3.428182
37.460499 5.147465 -8.532447
33.103616 -14.348042 -8.867578
36.977674 -4.981997 -3.079043
33.945691 -9.783933 -11.161261
33.991650 -14.877945 -3.065025
36.104885 -4.961190 -8.223676
36.746482 15.926963 9.843404
38.407906 5.174691 3.198135
36.430628 10.500149 11.978303
38.019120 16.640745 3.428182
37.460499 5.147465 8.532447
38.663770 10.686403 0.000000
33.103616 -14.348042 8.867578
36.977674 -4.981997 3.079043
33.945691 -9.783933 11.161261
33.991650 -14.877945 3.065025
36.104885 -4.961190 8.223676
35.837823 -9.905331 0.000000
-24.685968 31.430480 -3.251392
-28.917255 23.130119 -9.036927
-23.023254 31.946278 -8.585497
-32.021129 4.857257 -17.934839
-31.274376 14.216278 -13.898492
-18.180553 30.352364 -18.758793
-26.916723 22.896732 -14.150959
-20.789487 31.557599 -13.943116
-25.275149 27.418381 -11.556106
-29.671804 -37.778508 -3.908077
-33.738175 -26.986240 -10.543513
-27.358435 -37.961627 -10.202110
-33.057312 -5.014435 -18.515199
-34.461092 -15.664852 -15.314685
-20.571350 -34.343791 -21.225630
-30.967731 -26.342725 -16.280700
-24.172032 -36.692165 -16.211725
-29.683034 -32.200038 -13.571444
-5.031731 -18.579062 -33.171335
-14.643683 -14.316343 -32.214623
-8.464834 -22.699679 -31.497296
-4.903143 -13.341250 -34.423192
-29.422018 -3.043623 -23.108492
-22.979883 -8.978230 -28.729431
-30.534674 -8.206131 -22.005930
-16.064527 -30.556545 -25.992950
-18.471623 -17.902235 -29.887713
-12.261750 -26.818512 -29.092616
-22.088169 -27.819250 -24.277247
-13.715617 -20.450281 -31.042698
-4.791149 -2.961093 -35.561156
-14.331432 -8.857312 -33.065295
-4.839375 -8.021756 -35.218381
-9.818408 -11.200590 -34.065304
-31.482337 -19.457154 -18.857387
-23.540921 -14.549089 -27.674012
-31.255346 -13.809571 -20.590369
-27.424093 -23.932403 -21.774419
-27.281713 -11.498503 -25.149164
-23.057320 -20.978243 -26.421338
-4.940937 18.243815 -32.572780
-14.070223 13.755703 -30.953070
-8.159529 21.880959 -30.361269
-4.840731 13.171428 -33.985016
-28.912889 2.990955 -22.708614
-22.093430 8.631894 -27.621187
-29.121443 7.826328 -20.987433
-26.253252 0.000000 -25.944144
-14.697010 27.955374 -23.780261
-17.367447 16.832096 -28.101120
-11.532506 25.223533 -27.362388
-19.805518 24.944333 -21.768371
-13.010776 19.399348 -29.447424
-4.777722 2.952795 -35.461496
-13.983636 8.642363 -32.262864
-4.802532 7.960686 -34.950262
-9.591742 0.000000 -34.703249
-9.610979 10.963961 -33.345623
-28.237514 17.451743 -16.913793
-22.087998 13.651134 -25.965999
-28.880229 12.760172 -19.025692
-24.427516 21.317356 -19.395171
-25.727641 10.843505 -23.716571
-21.119704 19.215342 -24.201028
-19.224969 -5.791812 -31.106653
-18.813894 5.667970 -30.441521
-22.922733 -2.998830 -28.834691
-14.544601 -2.996352 -33.230059
-22.616402 2.958755 -28.449354
-14.420467 2.970780 -32.946451
-24.685968 31.430480 3.251392
-28.917255 23.130119 9.036927
-23.023254 31.946278 8.585497
-27.483038 27.810481 0.000000
-32.021129 4.857257 17.934839
-31.274376 14.216278 13.898492
-18.180553 30.352364 18.758793
-26.916723 22.896732 14.150959
-20.789487 31.557599 13.943116
-25.275149 27.418381 11.556106
-31.588996 19.523073 -5.881621
-31.588996 19.523073 5.881621
-29.826398 23.711111 -3.101968
-29.826398 23.711111 3.101968
-29.671804 -37.778508 3.908077
-33.738175 -26.986240 10.543513
-27.358435 -37.961627 10.202110
-32.924754 -33.317032 0.000000
-33.057312 -5.014435 18.515199
-34.461092 -15.664852 15.314685
-20.571350 -34.343791 21.225630
-30.967731 -26.342725 16.280700
-24.172032 -36.692165 16.211725
-29.683034 -32.200038 13.571444
-36.347093 -22.463739 -6.767541
-36.347093 -22.463739 6.767541
-35.165016 -27.955156 -3.657189
-35.165016 -27.955156 3.657189
-5.031731 -18.579062 33.171335
-14.643683 -14.316343 32.214623
-8.464834 -22.699679 31.497296
-4.903143 -13.341250 34.423192
-29.422018 -3.043623 23.108492
-22.979883 -8.978230 28.729431
-30.534674 -8.206131 22.005930
-16.064527 -30.556545 25.992950
-18.471623 -17.902235 29.887713
-12.261750 -26.818512 29.092616
-22.088169 -27.819250 24.277247
-13.715617 -20.450281 31.042698
-4.791149 -2.961093 35.561156
-14.331432 -8.857312 33.065295
-4.839375 -8.021756 35.218381
-9.818408 -11.200590 34.065304
-31.482337 -19.457154 18.857387
-23.540921 -14.549089 27.674012
-31.255346 -13.809571 20.590369
-27.424093 -23.932403 21.774419
-27.281713 -11.498503 25.149164
-23.057320 -20.978243 26.421338
-4.940937 18.243815 32.572780
-14.070223 13.755703 30.953070
-8.159529 21.880959 30.361269
-4.840731 13.171428 33.985016
-28.912889 2.990955 22.708614
-22.093430 8.631894 27.621187
-29.121443 7.826328 20.987433
-26.253252 0.000000 25.944144
-14.697010 27.955374 23.780261
-17.367447 16.832096 28.101120
-11.532506 25.223533 27.362388
-19.805518 24.944333 21.768371
-13.010776 19.399348 29.447424
-4.777722 2.952795 35.461496
-13.983636 8.642363 32.262864
-4.802532 7.960686 34.950262
-9.591742 0.000000 34.703249
-9.610979 10.963961 33.345623
-28.237514 17.451743 16.913793
-22.087998 13.651134 25.965999
-28.880229 12.760172 19.025692
-24.427516 21.317356 19.395171
-25.727641 10.843505 23.716571
-21.119704 19.215342 24.201028
-19.224969 -5.791812 31.106653
-18.813894 5.667970 30.441521
-22.922733 -2.998830 28.834691
-14.544601 -2.996352 33.230059
-22.616402 2.958755 28.449354
-14.420467 2.970780 32.946451
-34.448955 0.000000 -15.185258
-37.617996 0.000000 -5.239583
-34.397596 4.899498 -13.331330
-35.608653 -5.071997 -13.800694
-34.448955 0.000000 15.185258
-37.617996 0.000000 5.239583
-34.397596 4.899498 13.331330
-35.608653 -5.071997 13.800694
-33.103616 14.348042 -8.867578
-36.977674 4.981997 -3.079043
-33.945691 9.783933 -11.161261
-33.991650 14.877945 -3.065025
-36.104885 4.961190 -8.223676
-36.746482 -15.926963 -9.843404
-38.407906 -5.174691 -3.198135
-36.430628 -10.500149 -11.978303
-38.019120 -16.640745 -3.428182
-37.460499 -5.147465 -8.532447
-33.103616 14.348042 8.867578
-36.977674 4.981997 3.079043
-33.945691 9.783933 11.161261
-33.991650 14.877945 3.065025
-36.104885 4.961190 8.223676
-35.837823 9.905331 0.000000
-36.746482 -15.926963 9.843404
-38.407906 -5.174691 3.198135
-36.430628 -10.500149 11.978303
-38.019120 -16.640745 3.428182
-37.460499 -5.147465 8.532447
-38.663770 -10.686403 0.000000
-19.645457 37.335460 0.000000
-14.930841 41.418874 0.000000
-3.309356 47.748925 0.000000
-9.476492 44.992323 0.000000
23.331318 44.340301 0.000000
17.187497 47.678946 0.000000
3.418240 49.319950 0.000000
10.396539 49.360506 0.000000
-23.331318 -44.340301 0.000000
-17.187497 -47.678946 0.000000
-3.418240 -49.319950 0.000000
-10.396539 -49.360506 0.000000
19.645457 -37.335460 0.000000
14.930841 -41.418874 0.000000
3.309356 -47.748925 0.000000
9.476492 -44.992323 0.000000
-25.129159 -42.676945 3.263754
-22.638368 -42.588161 9.641076
-22.331155 -44.772451 3.300142
-15.869365 -38.346191 20.498903
-19.457864 -41.049928 15.478830
-16.025763 -47.868102 3.341082
-19.690007 -44.419570 9.732862
-19.264591 -46.527081 3.330278
-21.098498 -44.798235 6.581294
-1.586418 -22.330464 31.978154
-4.916441 -26.634162 30.223569
-12.135991 -34.838135 24.596848
-8.448415 -30.853653 27.804020
-2.023776 -48.911921 3.274539
-6.017558 -47.676335 9.736613
-5.487150 -49.294010 3.316070
-12.728060 -39.507470 20.594434
-9.664991 -44.382674 15.638284
-14.551339 -41.135313 18.252165
-12.488595 -48.810190 3.361262
-9.484049 -47.533405 9.808330
-9.015300 -49.268183 3.343387
-14.569940 -47.631268 6.662085
-7.534132 -48.691391 6.624735
-18.033962 -43.638651 12.853665
-11.372468 -45.794607 12.923141
-16.343507 -42.536190 15.652332
-16.437160 -45.874087 9.863430
-13.043256 -43.657844 15.708608
-12.994684 -46.922516 9.891650
21.047329 -35.744758 2.733609
19.253546 -36.220505 8.199571
18.895736 -37.884670 2.792449
14.242897 -34.416048 18.397949
16.955838 -35.771446 13.488455
14.032059 -41.913014 2.925431
16.965314 -38.272813 8.386033
16.545966 -39.961165 2.860308
17.992906 -38.204163 5.612561
1.575385 -22.175173 31.755771
4.793502 -25.968157 29.467808
0.000000 -24.383422 31.045274
11.230572 -32.238997 22.761773
8.042766 -29.372217 26.469012
-3.314279 -28.819281 29.162645
3.253211 -28.288272 28.625309
-1.636768 -26.615577 30.179847
1.622804 -26.388510 29.922372
1.985171 -47.978870 3.212074
5.701800 -45.174628 9.225707
5.214488 -46.844541 3.151291
0.000000 -47.910706 6.455002
11.621477 -36.072674 18.803945
8.934575 -41.028524 14.456446
13.080783 -36.978185 16.407605
11.206762 -43.800296 3.016261
8.735010 -43.779275 9.033680
8.312578 -45.427843 3.082777
12.901664 -42.177430 5.899268
7.039264 -45.493169 6.189599
-3.917177 -46.171846 12.761584
3.783773 -44.599418 12.326976
-1.993298 -47.299412 9.682035
1.957032 -46.438846 9.505880
15.742959 -38.094873 11.220758
10.353063 -41.689670 11.764737
14.469442 -37.658682 13.857522
14.420998 -40.247228 8.653594
11.780252 -39.430369 14.187512
11.660584 -42.105213 8.876123
-10.535515 -37.329603 23.070963
-3.481805 -37.633241 23.258622
-8.700392 -35.348703 24.896701
-9.129472 -40.000869 20.921296
9.798745 -34.719066 21.457563
3.394685 -36.691599 22.676655
8.213703 -33.371339 23.504009
8.532270 -37.384223 19.552735
-5.102494 -31.108858 27.907212
-1.762071 -35.415549 24.885828
-6.876192 -33.251215 26.514095
-1.696953 -31.016917 27.846651
-5.210417 -35.537497 24.990960
-5.840057 -44.472352 15.805310
-1.862938 -39.910063 20.939900
-7.548648 -42.422607 18.478743
-1.938346 -44.191126 15.681545
-5.465318 -40.130914 21.033395
4.949037 -30.173263 27.067907
1.740655 -34.985104 24.583363
6.584046 -31.838486 25.387604
1.679507 -30.698050 27.560376
5.028969 -34.299931 24.120670
0.000000 -33.096861 26.311034
5.560591 -42.344198 15.048972
1.836055 -39.334142 20.637727
7.110456 -39.960013 17.406068
1.906225 -43.458839 15.421687
5.242002 -38.491146 20.173960
0.000000 -41.867509 18.325162
-21.047329 35.744758 2.733609
-19.253546 36.220505 8.199571
-18.895736 37.884670 2.792449
-14.242897 34.416048 18.397949
-16.955838 35.771446 13.488455
-14.032059 41.913014 2.925431
-16.965314 38.272813 8.386033
-16.545966 39.961165 2.860308
-17.992906 38.204163 5.612561
-1.575385 22.175173 31.755771
-4.793502 25.968157 29.467808
-11.230572 32.238997 22.761773
-8.042766 29.372217 26.469012
-1.985171 47.978870 3.212074
-5.701800 45.174628 9.225707
-5.214488 46.844541 3.151291
-11.621477 36.072674 18.803945
-8.934575 41.028524 14.456446
-13.080783 36.978185 16.407605
-11.206762 43.800296 3.016261
-8.735010 43.779275 9.033680
-8.312578 45.427843 3.082777
-12.901664 42.177430 5.899268
-7.039264 45.493169 6.189599
-15.742959 38.094873 11.220758
-10.353063 41.689670 11.764737
-14.469442 37.658682 13.857522
-14.420998 40.247228 8.653594
-11.780252 39.430369 14.187512
-11.660584 42.105213 8.876123
25.129159 42.676945 3.263754
22.638368 42.588161 9.641076
22.331155 44.772451 3.300142
15.869365 38.346191 20.498903
19.457864 41.049928 15.478830
16.025763 47.868102 3.341082
19.690007 44.419570 9.732862
19.264591 46.527081 3.330278
21.098498 44.798235 6.581294
1.586418 22.330464 31.978154
4.916441 26.634162 30.223569
0.000000 24.383422 31.045274
12.135991 34.838135 24.596848
8.448415 30.853653 27.804020
-3.253211 28.288272 28.625309
3.314279 28.819281 29.162645
-1.622804 26.388510 29.922372
1.636768 26.615577 30.179847
2.023776 48.911921 3.274539
6.017558 47.676335 9.736613
5.487150 49.294010 3.316070
0.000000 47.910706 6.455002
12.728060 39.507470 20.594434
9.664991 44.382674 15.638284
14.551339 41.135313 18.252165
12.488595 48.810190 3.361262
9.484049 47.533405 9.808330
9.015300 49.268183 3.343387
14.569940 47.631268 6.662085
7.534132 48.691391 6.624735
-3.783773 44.599418 12.326976
3.917177 46.171846 12.761584
-1.957032 46.438846 9.505880
1.993298 47.299412 9.682035
18.033962 43.638651 12.853665
11.372468 45.794607 12.923141
16.343507 42.536190 15.652332
16.437160 45.874087 9.863430
13.043256 43.657844 15.708608
12.994684 46.922516 9.891650
-9.798745 34.719066 21.457563
-3.394685 36.691599 22.676655
-8.213703 33.371339 23.504009
-8.532270 37.384223 19.552735
10.535515 37.329603 23.070963
3.481805 37.633241 23.258622
8.700392 35.348703 24.896701
9.129472 40.000869 20.921296
-4.949037 30.173263 27.067907
-1.740655 34.985104 24.583363
-6.584046 31.838486 25.387604
-1.679507 30.698050 27.560376
-5.028969 34.299931 24.120670
-5.560591 42.344198 15.048972
-1.836055 39.334142 20.637727
-7.110456 39.960013 17.406068
-1.906225 43.458839 15.421687
-5.242002 38.491146 20.173960
5.102494 31.108858 27.907212
1.762071 35.415549 24.885828
6.876192 33.251215 26.514095
1.696953 31.016917 27.846651
5.210417 35.537497 24.990960
0.000000 33.096861 26.311034
5.840057 44.472352 15.805310
1.862938 39.910063 20.939900
7.548648 42.422607 18.478743
1.938346 44.191126 15.681545
5.465318 40.130914 21.033395
0.000000 41.867509 18.325162
0.000000 -17.596111 33.440755
0.000000 -12.495330 34.662650
0.000000 -2.482336 35.816293
0.000000 -7.464380 35.439250
0.000000 17.596111 33.440755
0.000000 12.495330 34.662650
0.000000 2.482336 35.816293
0.000000 7.464380 35.439250
-25.129159 -42.676945 -3.263754
-22.638368 -42.588161 -9.641076
-22.331155 -44.772451 -3.300142
-15.869365 -38.346191 -20.498903
-19.457864 -41.049928 -15.478830
-16.025763 -47.868102 -3.341082
-19.690007 -44.419570 -9.732862
-19.264591 -46.527081 -3.330278
-21.098498 -44.798235 -6.581294
-1.586418 -22.330464 -31.978154
-4.916441 -26.634162 -30.223569
-12.135991 -34.838135 -24.596848
-8.448415 -30.853653 -27.804020
-2.023776 -48.911921 -3.274539
-6.017558 -47.676335 -9.736613
-5.487150 -49.294010 -3.316070
-12.728060 -39.507470 -20.594434
-9.664991 -44.382674 -15.638284
-14.551339 -41.135313 -18.252165
-12.488595 -48.810190 -3.361262
-9.484049 -47.533405 -9.808330
-9.015300 -49.268183 -3.343387
-14.569940 -47.631268 -6.662085
-7.534132 -48.691391 -6.624735
-18.033962 -43.638651 -12.853665
-11.372468 -45.794607 -12.923141
-16.343507 -42.536190 -15.652332
-16.437160 -45.874087 -9.863430
-13.043256 -43.657844 -15.708608
-12.994684 -46.922516 -9.891650
21.047329 -35.744758 -2.733609
19.253546 -36.220505 -8.199571
18.895736 -37.884670 -2.792449
14.242897 -34.416048 -18.397949
16.955838 -35.771446 -13.488455
14.032059 -41.913014 -2.925431
16.965314 -38.272813 -8.386033
16.545966 -39.961165 -2.860308
17.992906 -38.204163 -5.612561
1.575385 -22.175173 -31.755771
4.793502 -25.968157 -29.467808
0.000000 -24.383422 -31.045274
11.230572 -32.238997 -22.761773
8.042766 -29.372217 -26.469012
-3.314279 -28.819281 -29.162645
3.253211 -28.288272 -28.625309
-1.636768 -26.615577 -30.179847
1.622804 -26.388510 -29.922372
1.985171 -47.978870 -3.212074
5.701800 -45.174628 -9.225707
5.214488 -46.844541 -3.151291
0.000000 -47.910706 -6.455002
11.621477 -36.072674 -18.803945
8.934575 -41.028524 -14.456446
13.080783 -36.978185 -16.407605
11.206762 -43.800296 -3.016261
8.735010 -43.779275 -9.033680
8.312578 -45.427843 -3.082777
12.901664 -42.177430 -5.899268
7.039264 -45.493169 -6.189599
-3.917177 -46.171846 -12.761584
3.783773 -44.599418 -12.326976
-1.993298 -47.299412 -9.682035
1.957032 -46.438846 -9.505880
15.742959 -38.094873 -11.220758
10.353063 -41.689670 -11.764737
14.469442 -37.658682 -13.857522
14.420998 -40.247228 -8.653594
11.780252 -39.430369 -14.187512
11.660584 -42.105213 -8.876123
-10.535515 -37.329603 -23.070963
-3.481805 -37.633241 -23.258622
-8.700392 -35.348703 -24.896701
-9.129472 -40.000869 -20.921296
9.798745 -34.719066 -21.457563
3.394685 -36.691599 -22.676655
8.213703 -33.371339 -23.504009
8.532270 -37.384223 -19.552735
-5.102494 -31.108858 -27.907212
-1.762071 -35.415549 -24.885828
-6.876192 -33.251215 -26.514095
-1.696953 -31.016917 -27.846651
-5.210417 -35.537497 -24.990960
-5.840057 -44.472352 -15.805310
-1.862938 -39.910063 -20.939900
-7.548648 -42.422607 -18.478743
-1.938346 -44.191126 -15.681545
-5.465318 -40.130914 -21.033395
4.949037 -30.173263 -27.067907
1.740655 -34.985104 -24.583363
6.584046 -31.838486 -25.387604
1.679507 -30.698050 -27.560376
5.028969 -34.299931 -24.120670
0.000000 -33.096861 -26.311034
5.560591 -42.344198 -15.048972
1.836055 -39.334142 -20.637727
7.110456 -39.960013 -17.406068
1.906225 -43.458839 -15.421687
5.242002 -38.491146 -20.173960
0.000000 -41.867509 -18.325162
-21.047329 35.744758 -2.733609
-19.253546 36.220505 -8.199571
-18.895736 37.884670 -2.792449
-14.242897 34.416048 -18.397949
-16.955838 35.771446 -13.488455
-14.032059 41.913014 -2.925431
-16.965314 38.272813 -8.386033
-16.545966 39.961165 -2.860308
-17.992906 38.204163 -5.612561
-1.575385 22.175173 -31.755771
-4.793502 25.968157 -29.467808
-11.230572 32.238997 -22.761773
-8.042766 29.372217 -26.469012
-1.985171 47.978870 -3.212074
-5.701800 45.174628 -9.225707
-5.214488 46.844541 -3.151291
-11.621477 36.072674 -18.803945
-8.934575 41.028524 -14.456446
-13.080783 36.978185 -16.407605
-11.206762 43.800296 -3.016261
-8.735010 43.779275 -9.033680
-8.312578 45.427843 -3.082777
-12.901664 42.177430 -5.899268
-7.039264 45.493169 -6.189599
-15.742959 38.094873 -11.220758
-10.353063 41.689670 -11.764737
-14.469442 37.658682 -13.857522
-14.420998 40.247228 -8.653594
-11.780252 39.430369 -14.187512
-11.660584 42.105213 -8.876123
25.129159 42.676945 -3.263754
22.638368 42.588161 -9.641076
22.331155 44.772451 -3.300142
15.869365 38.346191 -20.498903
19.457864 41.049928 -15.478830
16.025763 47.868102 -3.341082
19.690007 44.419570 -9.732862
19.264591 46.527081 -3.330278
21.098498 44.798235 -6.581294
1.586418 22.330464 -31.978154
4.916441 26.634162 -30.223569
0.000000 24.383422 -31.045274
12.135991 34.838135 -24.596848
8.448415 30.853653 -27.804020
-3.253211 28.288272 -28.625309
3.314279 28.819281 -29.162645
-1.622804 26.388510 -29.922372
1.636768 26.615577 -30.179847
2.023776 48.911921 -3.274539
6.017558 47.676335 -9.736613
5.487150 49.294010 -3.316070
0.000000 47.910706 -6.455002
12.728060 39.507470 -20.594434
9.664991 44.382674 -15.638284
14.551339 41.135313 -18.252165
12.488595 48.810190 -3.361262
9.484049 47.533405 -9.808330
9.015300 49.268183 -3.343387
14.569940 47.631268 -6.662085
7.534132 48.691391 -6.624735
-3.783773 44.599418 -12.326976
3.917177 46.171846 -12.761584
-1.957032 46.438846 -9.505880
1.993298 47.299412 -9.682035
18.033962 43.638651 -12.853665
11.372468 45.794607 -12.923141
16.343507 42.536190 -15.652332
16.437160 45.874087 -9.863430
13.043256 43.657844 -15.708608
12.994684 46.922516 -9.891650
-9.798745 34.719066 -21.457563
-3.394685 36.691599 -22.676655
-8.213703 33.371339 -23.504009
-8.532270 37.384223 -19.552735
10.535515 37.329603 -23.070963
3.481805 37.633241 -23.258622
8.700392 35.348703 -24.896701
9.129472 40.000869 -20.921296
-4.949037 30.173263 -27.067907
-1.740655 34.985104 -24.583363
-6.584046 31.838486 -25.387604
-1.679507 30.698050 -27.560376
-5.028969 34.299931 -24.120670
-5.560591 42.344198 -15.048972
-1.836055 39.334142 -20.637727
-7.110456 39.960013 -17.406068
-1.906225 43.458839 -15.421687
-5.242002 38.491146 -20.173960
5.102494 31.108858 -27.907212
1.762071 35.415549 -24.885828
6.876192 33.251215 -26.514095
1.696953 31.016917 -27.846651
5.210417 35.537497 -24.990960
0.000000 33.096861 -26.311034
5.840057 44.472352 -15.805310
1.862938 39.910063 -20.939900
7.548648 42.422607 -18.478743
1.938346 44.191126 -15.681545
5.465318 40.130914 -21.033395
0.000000 41.867509 -18.325162
0.000000 -17.596111 -33.440755
0.000000 -12.495330 -34.662650
0.000000 -2.482336 -35.816293
0.000000 -7.464380 -35.439250
0.000000 17.596111 -33.440755
0.000000 12.495330 -34.662650
0.000000 2.482336 -35.816293
0.000000 7.464380 -35.439250
27.995970 40.091395 -1.988911
31.071976 35.259454 -5.735624
27.016092 40.490908 -5.213382
34.179404 24.131763 -11.906520
33.087430 29.817007 -9.060073
24.395681 40.176089 -11.478078
29.967782 35.408361 -8.851403
25.802865 40.513921 -8.413377
28.635573 38.035218 -7.095820
32.470918 2.483240 -19.119618
33.558479 7.596943 -17.838506
34.520680 18.453882 -14.286198
34.271494 12.922864 -16.244854
17.369572 35.671069 -22.045933
23.565423 32.712011 -20.217135
19.233226 37.162368 -19.767156
32.849411 23.865900 -14.749937
28.786586 28.670983 -17.719642
32.467253 26.764991 -13.485967
22.763331 39.442922 -14.521530
25.350848 33.795776 -17.716741
21.051903 38.443247 -17.239301
25.860744 37.484039 -13.298749
22.423821 35.628654 -18.828814
31.066124 32.529194 -10.576872
28.087060 31.618499 -16.402272
31.877884 29.680333 -12.086084
28.650837 35.146558 -11.967259
30.426906 29.287842 -14.999901
27.092069 34.594925 -14.952193
23.287122 -33.348129 -1.654381
25.941410 -29.437457 -4.788565
22.560454 -33.812931 -4.353563
29.668121 -20.946651 -10.334998
28.050117 -25.277591 -7.680745
20.700651 -34.090920 -9.739580
25.139649 -29.703692 -7.425346
21.693449 -34.061594 -7.073446
23.928555 -31.783119 -5.929434
31.963672 -2.444448 -18.820940
31.980090 -7.239629 -16.999490
30.842424 -16.487579 -12.763971
31.606943 -11.918133 -14.981844
15.561864 -31.958664 -19.751541
20.621982 -28.626115 -17.691912
16.976248 -32.801444 -17.447523
28.689280 -20.843463 -12.881969
24.985111 -24.884774 -15.379636
27.997699 -23.080431 -11.629443
19.546595 -33.869157 -12.469461
21.900523 -29.196071 -15.305440
18.315793 -33.446790 -14.998714
21.977608 -31.855600 -11.301867
19.539863 -31.046404 -16.407214
26.246930 -27.483039 -8.936114
24.152597 -27.189349 -14.104625
27.181815 -25.307995 -10.305631
24.218592 -29.709433 -10.115941
26.152909 -25.173847 -12.892900
23.130724 -29.536528 -12.765915
2.498830 -19.239657 -32.674781
7.321868 -17.192598 -32.343372
4.084503 -21.166167 -31.723216
2.465989 -16.686670 -33.455641
16.182690 -12.527939 -30.272084
11.888415 -14.944486 -31.528131
7.325021 -24.799983 -29.302360
8.928810 -18.977428 -31.253024
5.707608 -23.033365 -30.594081
6.552056 -20.094407 -31.550885
2.418683 -11.601405 -34.652779
7.252292 -14.671706 -33.098559
2.441891 -14.125558 -34.115490
4.897894 -15.701809 -33.339497
30.406652 -1.508456 -21.233078
27.330156 -4.445772 -24.084376
30.567571 -3.935709 -20.395105
20.195487 -9.964377 -28.604198
23.916878 -7.267285 -26.540157
30.580401 -8.736645 -18.568998
27.477899 -6.868941 -23.255855
30.623471 -6.359464 -19.503747
29.062416 -5.421862 -21.880220
13.788577 -30.708378 -22.310386
15.500785 -25.181924 -25.080797
12.239918 -29.467409 -24.292013
16.493854 -29.263733 -21.371514
17.831293 -14.048937 -28.851638
16.828524 -19.615604 -27.229125
15.749057 -15.323660 -29.608319
9.029517 -26.521274 -27.770302
13.925800 -23.846378 -26.844628
10.638145 -28.058843 -26.124563
9.858584 -23.602454 -28.953604
13.138971 -26.652059 -25.654310
21.421007 -25.965412 -19.250408
18.061508 -23.750333 -24.098250
19.054572 -27.665226 -20.341167
17.330161 -26.504293 -22.824753
11.341311 -17.778155 -30.804912
14.636853 -20.943842 -27.920699
13.572073 -16.573640 -30.265413
10.630852 -20.672751 -29.964266
15.232786 -18.141200 -28.824103
12.311832 -22.307965 -28.485914
2.394218 -1.479708 -35.762523
7.139677 -4.412563 -34.960165
2.397422 -3.967049 -35.638135
16.144758 -9.978009 -30.971405
11.754272 -7.264540 -33.359545
14.048528 -11.200035 -31.661481
2.416820 -8.979570 -35.095583
7.154147 -6.917619 -34.670631
2.403340 -6.480503 -35.415640
4.828849 -10.560664 -34.524357
4.796562 -5.455001 -35.254434
9.639692 -13.524690 -32.727097
9.553754 -8.407380 -33.854803
11.867519 -12.391565 -32.250725
7.252598 -12.086273 -33.731297
11.824151 -9.817893 -32.862044
7.221491 -9.486889 -34.256217
29.366828 -18.149698 -14.299802
26.931911 -16.644836 -19.401494
29.819335 -15.861299 -15.432870
27.647227 -20.190967 -15.582746
20.210453 -12.490747 -27.817995
23.843449 -14.736062 -23.939588
22.126001 -11.148538 -26.839929
19.789191 -15.272668 -27.097080
30.419032 -11.199243 -17.555456
27.227635 -14.273528 -20.423961
30.172305 -13.530320 -16.522653
29.048490 -10.305949 -20.040945
28.605067 -15.117031 -18.003344
23.725753 -24.073311 -18.042815
25.003788 -18.537472 -20.627684
25.756108 -22.180438 -16.840951
22.200091 -23.173849 -20.624518
26.405966 -19.415282 -18.187249
25.736063 -8.368084 -24.578529
25.637213 -13.299446 -22.773818
23.978927 -9.764423 -25.754343
27.475580 -9.355323 -22.397595
23.953145 -12.267712 -24.884732
27.390674 -11.838461 -21.450257
18.735590 -20.848141 -25.271014
23.361730 -17.509489 -23.024446
19.296840 -18.076299 -26.244877
20.519112 -22.086633 -23.055414
21.649243 -16.437631 -25.139280
22.848211 -20.334704 -21.888137
2.523008 19.425814 -32.990933
7.511852 17.638704 -33.182602
4.156407 21.538778 -32.281675
2.486368 16.824571 -33.732124
16.875604 13.064363 -31.568280
12.330948 15.500778 -32.701731
7.604171 25.745089 -30.419048
9.244970 19.649399 -32.359663
5.862545 23.658622 -31.424579
6.730190 20.640723 -32.408674
2.432260 11.666526 -34.847294
7.410393 14.991552 -33.820114
2.458773 14.223215 -34.351348
4.974371 15.946980 -33.860067
30.687149 1.522372 -21.428950
28.013708 4.556965 -24.686748
31.324269 4.033137 -20.899984
29.220230 0.000000 -22.950005
21.053409 10.387672 -29.819328
24.786771 7.531607 -27.505462
32.342529 9.240075 -19.638996
28.568354 7.141534 -24.178759
31.879832 6.620368 -20.303910
30.015789 5.599722 -22.597986
26.003632 -2.955263 -25.697463
26.409343 3.001371 -26.098397
27.647092 -1.499407 -24.381943
27.877287 1.511891 -24.584952
15.116649 33.666111 -24.459252
16.861284 27.392133 -27.282130
13.222474 31.832896 -26.242047
18.343465 32.545351 -23.768103
18.789453 14.803853 -30.401973
18.052096 21.041818 -29.208905
16.561883 16.114531 -31.136437
9.491670 27.878698 -29.191655
14.945069 25.591764 -28.809465
11.330170 29.884109 -27.824002
10.347787 24.773655 -30.390340
14.159329 28.721827 -27.646594
24.264957 29.412698 -21.806179
19.827351 26.072363 -26.454296
21.426453 31.108948 -22.873202
19.164084 29.309046 -25.240128
11.824099 18.534953 -32.116246
15.617343 22.346824 -29.791045
14.221485 17.366674 -31.713587
11.127007 21.637574 -31.362736
16.143426 19.225709 -30.547253
13.042945 23.632678 -30.177493
2.395902 1.480749 -35.787682
7.184719 4.440401 -35.180721
2.401958 3.974555 -35.705562
4.793263 0.000000 -35.576844
16.686810 10.313016 -32.011254
11.958582 7.390810 -33.939393
14.508679 11.566885 -32.698535
2.427293 9.018479 -35.247654
7.225434 6.986548 -35.016101
2.410799 6.500618 -35.525570
4.878453 10.669146 -34.879001
4.821654 5.483537 -35.438857
9.547657 -2.930660 -34.543749
9.601098 2.947063 -34.737100
7.196962 -1.481682 -35.159149
7.212235 1.484826 -35.233760
9.899107 13.888654 -33.607820
9.709718 8.544629 -34.407479
12.229644 12.769681 -33.234822
7.382099 12.302082 -34.333595
12.106228 10.052108 -33.645999
7.321681 9.618509 -34.731482
33.070925 20.438956 -16.103465
29.702432 18.357112 -21.397350
33.084624 17.598150 -17.122807
31.333904 22.883374 -17.660660
21.305529 13.167541 -29.325276
25.702080 15.884759 -25.805713
23.295250 11.737683 -28.258285
21.094264 16.279881 -28.884099
32.709750 12.042607 -18.877477
29.605548 15.520100 -22.207679
32.959300 14.780107 -18.048839
30.944250 10.978534 -21.348855
31.427718 16.608729 -19.779853
26.978567 27.373774 -20.516495
27.677856 20.519990 -22.833743
29.288218 25.222192 -19.150465
24.884454 25.975956 -23.118368
29.585751 21.753254 -20.377343
26.911433 8.750256 -25.701034
27.569671 14.301920 -24.490442
25.176810 10.252211 -27.040917
28.993720 9.872243 -23.635155
25.484714 13.052112 -26.475867
29.343121 12.682323 -22.979262
20.381263 22.679374 -27.490737
25.524537 19.130502 -25.156028
20.788873 19.473959 -28.274133
22.656857 24.387686 -25.457398
23.361096 17.737391 -27.127099
25.298541 22.515475 -24.235504
18.551539 -8.471689 -30.017021
19.013061 -2.846246 -30.763779
20.499085 -7.163603 -29.104903
16.438317 -7.173224 -31.429552
19.158450 8.748839 -30.999024
19.220514 2.877302 -31.099445
21.123659 7.381866 -29.991683
16.836868 7.347141 -32.191570
24.196097 -4.423961 -26.971986
20.931613 -1.482088 -29.788222
22.393099 -5.807448 -28.083090
24.471490 -1.491273 -27.257502
20.745776 -4.325330 -29.500785
11.970935 -4.423257 -33.683340
16.814564 -1.495923 -32.047446
14.226563 -5.811614 -32.660658
12.041176 -1.488371 -33.932442
16.662077 -4.329474 -31.790607
24.726850 4.521003 -27.563629
21.061628 1.491294 -29.973249
22.994149 5.963325 -28.836865
24.650594 1.502188 -27.456997
21.125221 4.404441 -30.040361
22.810716 0.000000 -28.693784
12.098693 4.470464 -34.042821
16.899097 1.503444 -32.208560
14.465799 5.909343 -33.209884
12.084214 1.493691 -34.053725
16.905757 4.392792 -32.255540
14.509381 0.000000 -33.149593
27.995970 40.091395 1.988911
31.071976 35.259454 5.735624
27.016092 40.490908 5.213382
29.849566 38.004837 0.000000
34.179404 24.131763 11.906520
33.087430 29.817007 9.060073
24.395681 40.176089 11.478078
29.967782 35.408361 8.851403
25.802865 40.513921 8.413377
28.635573 38.035218 7.095820
32.742764 33.132874 -3.765488
32.742764 33.132874 3.765488
31.441408 35.651937 -1.933540
31.441408 35.651937 1.933540
32.470918 2.483240 19.119618
33.558479 7.596943 17.838506
34.520680 18.453882 14.286198
34.271494 12.922864 16.244854
17.369572 35.671069 22.045933
23.565423 32.712011 20.217135
19.233226 37.162368 19.767156
32.849411 23.865900 14.749937
28.786586 28.670983 17.719642
32.467253 26.764991 13.485967
22.763331 39.442922 14.521530
25.350848 33.795776 17.716741
21.051903 38.443247 17.239301
25.860744 37.484039 13.298749
22.423821 35.628654 18.828814
31.066124 32.529194 10.576872
28.087060 31.618499 16.402272
31.877884 29.680333 12.086084
28.650837 35.146558 11.967259
30.426906 29.287842 14.999901
27.092069 34.594925 14.952193
35.535340 21.962048 -10.029121
36.844487 22.771145 -3.408830
35.178451 24.776789 -8.658488
35.535340 21.962048 10.029121
36.844487 22.771145 3.408830
35.178451 24.776789 8.658488
33.830023 30.348322 -5.548821
36.220420 25.451396 -1.802117
34.613352 27.600246 -7.157875
34.187865 30.693494 -1.870437
35.869094 25.224149 -5.259035
33.830023 30.348322 5.548821
36.220420 25.451396 1.802117
34.613352 27.600246 7.157875
34.187865 30.693494 1.870437
35.869094 25.224149 5.259035
35.349301 28.101657 0.000000
23.287122 -33.348129 1.654381
25.941410 -29.437457 4.788565
22.560454 -33.812931 4.353563
24.788052 -31.560454 0.000000
29.668121 -20.946651 10.334998
28.050117 -25.277591 7.680745
20.700651 -34.090920 9.739580
25.139649 -29.703692 7.425346
21.693449 -34.061594 7.073446
23.928555 -31.783119 5.929434
27.376926 -27.703105 -3.148405
27.376926 -27.703105 3.148405
26.158254 -29.661281 -1.608644
26.158254 -29.661281 1.608644
31.963672 -2.444448 18.820940
31.980090 -7.239629 16.999490
30.842424 -16.487579 12.763971
31.606943 -11.918133 14.981844
15.561864 -31.958664 19.751541
20.621982 -28.626115 17.691912
16.976248 -32.801444 17.447523
28.689280 -20.843463 12.881969
24.985111 -24.884774 15.379636
27.997699 -23.080431 11.629443
19.546595 -33.869157 12.469461
21.900523 -29.196071 15.305440
18.315793 -33.446790 14.998714
21.977608 -31.855600 11.301867
19.539863 -31.046404 16.407214
26.246930 -27.483039 8.936114
24.152597 -27.189349 14.104625
27.181815 -25.307995 10.305631
24.218592 -29.709433 10.115941
26.152909 -25.173847 12.892900
23.130724 -29.536528 12.765915
31.051749 -19.191036 -8.763720
31.913869 -19.723856 -2.952652
30.323932 -21.357668 -7.463643
31.051749 -19.191036 8.763720
31.913869 -19.723856 2.952652
30.323932 -21.357668 7.463643
28.517022 -25.582121 -4.677379
30.993388 -21.778460 -1.542050
29.475263 -23.503199 -6.095343
28.727052 -25.790835 -1.571673
30.769248 -21.637795 -4.511309
28.517022 -25.582121 4.677379
30.993388 -21.778460 1.542050
29.475263 -23.503199 6.095343
28.727052 -25.790835 1.571673
30.769248 -21.637795 4.511309
29.938600 -23.800308 0.000000
2.498830 -19.239657 32.674781
7.321868 -17.192598 32.343372
4.084503 -21.166167 31.723216
2.465989 -16.686670 33.455641
16.182690 -12.527939 30.272084
11.888415 -14.944486 31.528131
7.325021 -24.799983 29.302360
8.928810 -18.977428 31.253024
5.707608 -23.033365 30.594081
6.552056 -20.094407 31.550885
2.418683 -11.601405 34.652779
7.252292 -14.671706 33.098559
2.441891 -14.125558 34.115490
4.897894 -15.701809 33.339497
30.406652 -1.508456 21.233078
27.330156 -4.445772 24.084376
30.567571 -3.935709 20.395105
20.195487 -9.964377 28.604198
23.916878 -7.267285 26.540157
30.580401 -8.736645 18.568998
27.477899 -6.868941 23.255855
30.623471 -6.359464 19.503747
29.062416 -5.421862 21.880220
13.788577 -30.708378 22.310386
15.500785 -25.181924 25.080797
12.239918 -29.467409 24.292013
16.493854 -29.263733 21.371514
17.831293 -14.048937 28.851638
16.828524 -19.615604 27.229125
15.749057 -15.323660 29.608319
9.029517 -26.521274 27.770302
13.925800 -23.846378 26.844628
10.638145 -28.058843 26.124563
9.858584 -23.602454 28.953604
13.138971 -26.652059 25.654310
21.421007 -25.965412 19.250408
18.061508 -23.750333 24.098250
19.054572 -27.665226 20.341167
17.330161 -26.504293 22.824753
11.341311 -17.778155 30.804912
14.636853 -20.943842 27.920699
13.572073 -16.573640 30.265413
10.630852 -20.672751 29.964266
15.232786 -18.141200 28.824103
12.311832 -22.307965 28.485914
2.394218 -1.479708 35.762523
7.139677 -4.412563 34.960165
2.397422 -3.967049 35.638135
16.144758 -9.978009 30.971405
11.754272 -7.264540 33.359545
14.048528 -11.200035 31.661481
2.416820 -8.979570 35.095583
7.154147 -6.917619 34.670631
2.403340 -6.480503 35.415640
4.828849 -10.560664 34.524357
4.796562 -5.455001 35.254434
9.639692 -13.524690 32.727097
9.553754 -8.407380 33.854803
11.867519 -12.391565 32.250725
7.252598 -12.086273 33.731297
11.824151 -9.817893 32.862044
7.221491 -9.486889 34.256217
29.366828 -18.149698 14.299802
26.931911 -16.644836 19.401494
29.819335 -15.861299 15.432870
27.647227 -20.190967 15.582746
20.210453 -12.490747 27.817995
23.843449 -14.736062 23.939588
22.126001 -11.148538 26.839929
19.789191 -15.272668 27.097080
30.419032 -11.199243 17.555456
27.227635 -14.273528 20.423961
30.172305 -13.530320 16.522653
29.048490 -10.305949 20.040945
28.605067 -15.117031 18.003344
23.725753 -24.073311 18.042815
25.003788 -18.537472 20.627684
25.756108 -22.180438 16.840951
22.200091 -23.173849 20.624518
26.405966 -19.415282 18.187249
25.736063 -8.368084 24.578529
25.637213 -13.299446 22.773818
23.978927 -9.764423 25.754343
27.475580 -9.355323 22.397595
23.953145 -12.267712 24.884732
27.390674 -11.838461 21.450257
18.735590 -20.848141 25.271014
23.361730 -17.509489 23.024446
19.296840 -18.076299 26.244877
20.519112 -22.086633 23.055414
21.649243 -16.437631 25.139280
22.848211 -20.334704 21.888137
2.523008 19.425814 32.990933
7.511852 17.638704 33.182602
4.156407 21.538778 32.281675
2.486368 16.824571 33.732124
16.875604 13.064363 31.568280
12.330948 15.500778 32.701731
7.604171 25.745089 30.419048
9.244970 19.649399 32.359663
5.862545 23.658622 31.424579
6.730190 20.640723 32.408674
2.432260 11.666526 34.847294
7.410393 14.991552 33.820114
2.458773 14.223215 34.351348
4.974371 15.946980 33.860067
30.687149 1.522372 21.428950
28.013708 4.556965 24.686748
31.324269 4.033137 20.899984
29.220230 0.000000 22.950005
21.053409 10.387672 29.819328
24.786771 7.531607 27.505462
32.342529 9.240075 19.638996
28.568354 7.141534 24.178759
31.879832 6.620368 20.303910
30.015789 5.599722 22.597986
26.003632 -2.955263 25.697463
26.409343 3.001371 26.098397
27.647092 -1.499407 24.381943
27.877287 1.511891 24.584952
15.116649 33.666111 24.459252
16.861284 27.392133 27.282130
13.222474 31.832896 26.242047
18.343465 32.545351 23.768103
18.789453 14.803853 30.401973
18.052096 21.041818 29.208905
16.561883 16.114531 31.136437
9.491670 27.878698 29.191655
14.945069 25.591764 28.809465
11.330170 29.884109 27.824002
10.347787 24.773655 30.390340
14.159329 28.721827 27.646594
24.264957 29.412698 21.806179
19.827351 26.072363 26.454296
21.426453 31.108948 22.873202
19.164084 29.309046 25.240128
11.824099 18.534953 32.116246
15.617343 22.346824 29.791045
14.221485 17.366674 31.713587
11.127007 21.637574 31.362736
16.143426 19.225709 30.547253
13.042945 23.632678 30.177493
2.395902 1.480749 35.787682
7.184719 4.440401 35.180721
2.401958 3.974555 35.705562
4.793263 0.000000 35.576844
16.686810 10.313016 32.011254
11.958582 7.390810 33.939393
14.508679 11.566885 32.698535
2.427293 9.018479 35.247654
7.225434 6.986548 35.016101
2.410799 6.500618 35.525570
4.878453 10.669146 34.879001
4.821654 5.483537 35.438857
9.547657 -2.930660 34.543749
9.601098 2.947063 34.737100
7.196962 -1.481682 35.159149
7.212235 1.484826 35.233760
9.899107 13.888654 33.607820
9.709718 8.544629 34.407479
12.229644 12.769681 33.234822
7.382099 12.302082 34.333595
12.106228 10.052108 33.645999
7.321681 9.618509 34.731482
33.070925 20.438956 16.103465
29.702432 18.357112 21.397350
33.084624 17.598150 17.122807
31.333904 22.883374 17.660660
21.305529 13.167541 29.325276
25.702080 15.884759 25.805713
23.295250 11.737683 28.258285
21.094264 16.279881 28.884099
32.709750 12.042607 18.877477
29.605548 15.520100 22.207679
32.959300 14.780107 18.048839
30.944250 10.978534 21.348855
31.427718 16.608729 19.779853
26.978567 27.373774 20.516495
27.677856 20.519990 22.833743
29.288218 25.222192 19.150465
24.884454 25.975956 23.118368
29.585751 21.753254 20.377343
26.911433 8.750256 25.701034
27.569671 14.301920 24.490442
25.176810 10.252211 27.040917
28.993720 9.872243 23.635155
25.484714 13.052112 26.475867
29.343121 12.682323 22.979262
20.381263 22.679374 27.490737
25.524537 19.130502 25.156028
20.788873 19.473959 28.274133
22.656857 24.387686 25.457398
23.361096 17.737391 27.127099
25.298541 22.515475 24.235504
18.551539 -8.471689 30.017021
19.013061 -2.846246 30.763779
20.499085 -7.163603 29.104903
16.438317 -7.173224 31.429552
19.158450 8.748839 30.999024
19.220514 2.877302 31.099445
21.123659 7.381866 29.991683
16.836868 7.347141 32.191570
24.196097 -4.423961 26.971986
20.931613 -1.482088 29.788222
22.393099 -5.807448 28.083090
24.471490 -1.491273 27.257502
20.745776 -4.325330 29.500785
11.970935 -4.423257 33.683340
16.814564 -1.495923 32.047446
14.226563 -5.811614 32.660658
12.041176 -1.488371 33.932442
16.662077 -4.329474 31.790607
24.726850 4.521003 27.563629
21.061628 1.491294 29.973249
22.994149 5.963325 28.836865
24.650594 1.502188 27.456997
21.125221 4.404441 30.040361
22.810716 0.000000 28.693784
12.098693 4.470464 34.042821
16.899097 1.503444 32.208560
14.465799 5.909343 33.209884
12.084214 1.493691 34.053725
16.905757 4.392792 32.255540
14.509381 0.000000 33.149593
33.207262 0.000000 -17.473250
35.519768 0.000000 -12.804308
33.851361 2.495157 -16.884043
33.298037 -2.454372 -16.608061
37.923758 0.000000 -2.628399
37.111795 0.000000 -7.816659
34.897683 7.646502 -15.469209
36.109596 2.520366 -12.089132
34.421644 5.056872 -16.211464
35.075199 2.510584 -14.522926
33.185219 -7.271280 -14.710120
35.474822 -2.476060 -11.876617
33.291292 -4.890812 -15.679105
34.478089 -2.467845 -14.275692
33.207262 0.000000 17.473250
35.519768 0.000000 12.804308
33.851361 2.495157 16.884043
33.298037 -2.454372 16.608061
37.923758 0.000000 2.628399
37.111795 0.000000 7.816659
34.897683 7.646502 15.469209
36.109596 2.520366 12.089132
34.421644 5.056872 16.211464
35.075199 2.510584 14.522926
33.185219 -7.271280 14.710120
35.474822 -2.476060 11.876617
33.291292 -4.890812 15.679105
34.478089 -2.467845 14.275692
35.727720 18.624127 -11.510344
37.506054 13.215299 -8.167504
35.717967 15.848432 -12.634989
36.670849 19.179626 -8.369455
38.305656 2.564474 -1.584932
38.319285 7.825687 -4.836540
38.075688 2.561399 -4.238385
35.300232 10.397603 -14.588055
37.342760 10.538048 -9.273566
35.568504 13.088385 -13.666342
36.078971 7.757373 -12.927469
36.657596 13.189836 -10.951856
37.656080 19.757286 -1.757726
38.132321 13.552087 -5.007492
37.324376 19.562433 -5.083103
37.535595 16.350023 -6.679057
36.991111 2.547354 -9.464561
37.808845 7.801705 -7.543767
37.633192 2.553825 -6.886280
36.641467 5.124965 -11.208267
38.041737 5.175790 -5.886287
37.059422 7.812429 -10.263206
31.778473 -16.565466 -10.238021
34.286110 -12.080749 -7.466313
32.276914 -14.321602 -11.417740
32.424877 -16.958893 -7.400389
37.580333 -2.515916 -1.554921
36.224924 -7.397970 -4.572197
37.359762 -2.513238 -4.158692
32.980501 -9.714331 -13.629411
34.729914 -9.800708 -8.624702
32.678475 -12.024921 -12.555917
34.228613 -7.359526 -12.264466
33.578171 -12.081822 -10.031844
33.088085 -17.360564 -1.544499
34.737211 -12.345477 -4.561650
32.866294 -17.225866 -4.475969
33.660691 -14.662164 -5.989559
36.318458 -2.501032 -9.292456
35.773480 -7.381716 -7.137663
36.935593 -2.506485 -6.758630
35.348340 -4.944098 -10.812712
36.637626 -4.984753 -5.669025
35.098383 -7.399026 -9.720118
35.727720 18.624127 11.510344
37.506054 13.215299 8.167504
35.717967 15.848432 12.634989
36.670849 19.179626 8.369455
38.305656 2.564474 1.584932
38.319285 7.825687 4.836540
38.075688 2.561399 4.238385
38.561542 5.195391 0.000000
35.300232 10.397603 14.588055
37.342760 10.538048 9.273566
35.568504 13.088385 13.666342
36.078971 7.757373 12.927469
36.657596 13.189836 10.951856
37.656080 19.757286 1.757726
38.132321 13.552087 5.007492
37.324376 19.562433 5.083103
38.194023 16.717299 0.000000
37.535595 16.350023 6.679057
36.991111 2.547354 9.464561
37.808845 7.801705 7.543767
37.633192 2.553825 6.886280
36.641467 5.124965 11.208267
38.041737 5.175790 5.886287
37.059422 7.812429 10.263206
38.503050 10.641981 -3.266563
38.503050 10.641981 3.266563
38.633067 7.908062 -1.628080
38.468470 13.650818 -1.687334
38.633067 7.908062 1.628080
38.468470 13.650818 1.687334
31.778473 -16.565466 10.238021
34.286110 -12.080749 7.466313
32.276914 -14.321602 11.417740
32.424877 -16.958893 7.400389
37.580333 -2.515916 1.554921
36.224924 -7.397970 4.572197
37.359762 -2.513238 4.158692
37.114718 -5.000460 0.000000
32.980501 -9.714331 13.629411
34.729914 -9.800708 8.624702
32.678475 -12.024921 12.555917
34.228613 -7.359526 12.264466
33.578171 -12.081822 10.031844
33.088085 -17.360564 1.544499
34.737211 -12.345477 4.561650
32.866294 -17.225866 4.475969
34.116476 -14.932580 0.000000
33.660691 -14.662164 5.989559
36.318458 -2.501032 9.292456
35.773480 -7.381716 7.137663
36.935593 -2.506485 6.758630
35.348340 -4.944098 10.812712
36.637626 -4.984753 5.669025
35.098383 -7.399026 9.720118
35.709719 -9.869924 -3.029580
35.709719 -9.869924 3.029580
36.485108 -7.468382 -1.537560
34.995339 -12.418352 -1.534993
36.485108 -7.468382 1.537560
34.995339 -12.418352 1.534993
-23.287122 33.348129 -1.654381
-25.941410 29.437457 -4.788565
-22.560454 33.812931 -4.353563
-29.668121 20.946651 -10.334998
-28.050117 25.277591 -7.680745
-20.700651 34.090920 -9.739580
-25.139649 29.703692 -7.425346
-21.693449 34.061594 -7.073446
-23.928555 31.783119 -5.929434
-31.963672 2.444448 -18.820940
-31.980090 7.239629 -16.999490
-30.842424 16.487579 -12.763971
-31.606943 11.918133 -14.981844
-15.561864 31.958664 -19.751541
-20.621982 28.626115 -17.691912
-16.976248 32.801444 -17.447523
-28.689280 20.843463 -12.881969
-24.985111 24.884774 -15.379636
-27.997699 23.080431 -11.629443
-19.546595 33.869157 -12.469461
-21.900523 29.196071 -15.305440
-18.315793 33.446790 -14.998714
-21.977608 31.855600 -11.301867
-19.539863 31.046404 -16.407214
-26.246930 27.483039 -8.936114
-24.152597 27.189349 -14.104625
-27.181815 25.307995 -10.305631
-24.218592 29.709433 -10.115941
-26.152909 25.173847 -12.892900
-23.130724 29.536528 -12.765915
-27.995970 -40.091395 -1.988911
-31.071976 -35.259454 -5.735624
