-38.419428 30.542318 3.9956499
-46.548703 -59.266385 6.1309359
-53.868966 -43.088307 16.834583
-42.333122 -58.739989 15.786252
-52.675895 -53.303496 0
-49.310921 -7.4799307 27.618746
-53.644798 -24.385118 23.840022
-30.858681 -51.518452 31.840154
-48.850286 -41.554535 25.682115
-36.80446 -55.867678 24.684055
-46.697645 -50.65742 21.350731
-58.045662 -35.874192 -10.807642
-58.045662 -35.874192 10.807642
-56.575023 -44.975483 -5.8838457
-56.575023 -44.975483 5.8838457
-7.3192858 -27.025584 48.251881
-21.856102 -21.367539 48.081218
-12.344083 -33.102446 45.93182
-7.1846051 -19.549012 50.440506
-43.506213 -4.5005918 34.170429
-34.505284 -13.4812 43.138477
-46.066959 -12.380401 33.199839
-23.758184 -45.190751 38.441549
-27.830887 -26.973 45.031321
-17.980915 -39.32729 42.662087
-33.62541 -42.349988 36.957902
-20.386221 -30.396295 46.140344
-7.049345 -4.3567348 52.322072
-21.313841 -13.172678 49.175018
-7.1189538 -11.80039 51.807937
-14.528208 -16.573409 50.406115
-49.175943 -30.392404 29.455558
-35.760147 -22.100986 42.038574
-48.077925 -21.242303 31.672733
-42.588664 -37.16619 33.814916
-41.434559 -17.463545 38.195715
-35.227443 -32.050986 40.367057
-7.0079227 25.875913 46.199241
-19.832718 19.389384 43.629976
-11.32704 30.375098 42.147445
-6.9635523 18.947536 48.888575
-41.673039 4.3109552 32.730627
-31.321758 12.237397 39.158435
-41.008849 11.021045 29.554527
-38.381066 0 37.929163
-19.443734 36.984179 31.460622
-24.00002 23.260219 38.832848
-15.622458 34.168946 37.066337
-26.146275 32.930287 28.737537
-17.987079 26.819123 40.710342
-7.0001557 4.3263342 51.956976
-20.059906 12.397704 46.281955
-6.985492 11.579163 50.836674
-14.08421 0 50.957152
-13.786036 15.726759 47.831127
-37.868946 23.404296 22.682858
-30.631147 18.93109 36.009073
-39.667778 17.526442 26.132304
-32.409023 28.282641 25.732397
-35.897591 15.129863 33.091559
-28.587561 26.009823 32.75843
-28.579269 -8.6099365 46.242228
-27.089725 8.161189 43.832096
-33.876301 -4.431813 42.613273
-21.463768 -4.4217794 49.038285
-32.76566 4.2865151 41.216188
-21.010802 4.3284633 48.003393
-50.180959 0 -22.119998
-54.706779 0 -7.6197765
-48.841284 6.9568163 -18.929208
-53.164677 -7.5726285 -20.604807
-50.180959 0 22.119998
-54.706779 0 7.6197765
-48.841284 6.9568163 18.929208
-53.164677 -7.5726285 20.604807
-44.666569 19.359752 -11.964985
-52.321996 7.0493348 -4.3567285
-46.94264 13.529954 -15.434627
-45.631298 19.97255 -4.1145716
-51.146006 7.0279976 -11.64962
-57.524954 -24.932939 -15.409404
-57.4091 -7.7347195 -4.7803196
-55.775728 -16.075854 -18.338925
-59.839861 -26.191554 -5.3957569
-55.97381 -7.6913885 -12.749258
-44.666569 19.359752 11.964985
-52.321996 7.0493348 4.3567285
-46.94264 13.529954 15.434627
-45.631298 19.97255 4.1145716
-51.146006 7.0279976 11.64962
-49.361214 13.643104 0
-57.524954 -24.932939 15.409404
-57.4091 -7.7347195 4.7803196
-55.775728 -16.075854 18.338925
-59.839861 -26.191554 5.3957569
-55.97381 -7.6913885 12.749258
-59.391517 -16.415411 0
-24.251626 46.089313 0
-18.380362 50.988014 0
-4.1653879 60.100147 0
-11.733259 55.706962 0
34.761431 66.062805 0
24.353005 67.556413 0
4.4276511 63.884202 0
14.025403 66.589564 0
-34.761431 -66.062805 0
-24.353005 -67.556413 0
-4.4276511 -63.884202 0
-14.025403 -66.589564 0
24.251626 -46.089313 0
18.380362 -50.988014 0
4.1653879 -60.100147 0
11.733259 -55.706962 0
-38.031763 -64.589484 4.939533
-33.73987 -63.472731 14.368909
-33.018064 -66.198978 4.8794741
-23.016597 -55.616517 29.731183
-28.57097 -60.275694 22.728352
-22.524394 -67.279167 4.6959294
-28.663232 -64.662671 14.168368
-27.774824 -67.080662 4.8014456
-30.949238 -65.714217 9.6540533
-2.2656506 -31.891366 45.669765
-7.0178211 -38.018106 43.141693
-17.448264 -50.087788 35.363596
-12.083924 -44.130547 39.768601
-2.6062201 -62.98879 4.2169527
-7.9727783 -63.167294 12.900226
-7.1929303 -64.617953 4.3469309
-18.088799 -56.147022 29.268291
-13.26277 -60.904062 21.459613
-20.773035 -58.723483 26.056219
-17.105084 -66.853186 4.6037741
-12.828155 -64.293835 13.266778
-12.066491 -65.942795 4.4749419
-20.312011 -66.402939 9.2876397
-10.022648 -64.774106 8.8128775
-26.053542 -63.044463 18.569603
-15.668502 -63.093862 17.804955
-23.461212 -61.06098 22.469025
-23.336448 -65.129148 14.003479
-18.297736 -61.24542 22.036825
-17.993815 -64.973883 13.697026
26.071089 -44.276628 3.3860909
23.957229 -45.069252 10.202743
23.325659 -46.766364 3.4471115
18.265821 -44.136905 23.594473
21.3501 -45.041947 16.984113
17.296346 -51.663267 3.6059759
21.067314 -47.526698 10.413671
20.389791 -49.24462 3.5247917
22.255085 -47.254006 6.94207
2.228974 -31.375106 44.930457
6.6237766 -35.883423 40.719325
0 -34.438721 43.847806
14.739529 -42.31197 29.873617
10.830393 -39.552645 35.643188
-4.671468 -40.620709 41.10468
4.4803408 -38.958765 39.422934
-2.3087079 -37.542036 42.569542
2.264091 -36.816519 41.746866
2.5132128 -60.740928 4.0664637
7.1851208 -56.926785 11.62577
6.5297659 -58.660391 3.9461582
0 -61.324863 8.2622897
14.937778 -46.36636 24.169832
11.327323 -52.016282 18.327994
16.630844 -47.013887 20.860549
13.850774 -54.134102 3.7278878
10.925044 -54.755572 11.298595
10.326494 -56.433795 3.8296519
15.961752 -52.181306 7.2984897
8.796809 -56.851785 7.7350016
-5.1654899 -60.885742 16.828405
4.8285686 -56.914444 15.730765
-2.5870011 -61.387519 12.565824
2.4975357 -59.264575 12.131264
19.670709 -47.599258 14.020253
12.994235 -52.325135 14.766042
18.221288 -47.423369 17.450701
17.909106 -49.982106 10.7467
14.867813 -49.764925 17.906008
14.514591 -52.41075 11.048615
-14.912533 -52.838321 32.655879
-4.7556633 -51.401793 31.768055
-12.286297 -49.917825 35.157984
-12.708635 -55.683009 29.123386
12.778789 -45.278003 27.983345
4.509303 -48.738997 30.122357
10.852735 -44.093429 31.055761
11.04073 -48.375064 25.301176
-7.19056 -43.83937 39.327532
-2.4089902 -48.417852 34.022297
-9.696273 -46.888288 37.388124
-2.3586218 -43.110907 38.704505
-7.2336164 -49.336667 34.694923
-7.8429788 -59.724706 21.225941
-2.5004281 -53.567133 28.105453
-10.32162 -58.006414 25.266849
-2.5526019 -58.195171 20.650983
-7.461972 -54.792012 28.717562
6.7205753 -40.973969 36.757031
2.3469576 -47.171069 33.146207
8.8192642 -42.647335 34.006442
2.3054125 -42.138348 37.831351
6.7050338 -45.731485 32.159658
0 -45.316282 36.025115
7.1150006 -54.181113 19.255768
2.4269067 -51.992073 27.279055
9.1412126 -51.372651 22.377267
2.4697549 -56.306396 19.980737
6.8468579 -50.275332 26.350282
0 -55.185561 24.154395
-26.071089 44.276628 3.3860909
-23.957229 45.069252 10.202743
-23.325659 46.766364 3.4471115
-18.265821 44.136905 23.594473
-21.3501 45.041947 16.984113
-17.296346 51.663267 3.6059759
-21.067314 47.526698 10.413671
-20.389791 49.24462 3.5247917
-22.255085 47.254006 6.94207
-2.228974 31.375106 44.930457
-6.6237766 35.883423 40.719325
-14.739529 42.31197 29.873617
-10.830393 39.552645 35.643188
-2.5132128 60.740928 4.0664637
-7.1851208 56.926785 11.62577
-6.5297659 58.660391 3.9461582
-14.937778 46.36636 24.169832
-11.327323 52.016282 18.327994
-16.630844 47.013887 20.860549
-13.850774 54.134102 3.7278878
-10.925044 54.755572 11.298595
-10.326494 56.433795 3.8296519
-15.961752 52.181306 7.2984897
-8.796809 56.851785 7.7350016
-19.670709 47.599258 14.020253
-12.994235 52.325135 14.766042
-18.221288 47.423369 17.450701
-17.909106 49.982106 10.7467
-14.867813 49.764925 17.906008
-14.514591 52.41075 11.048615
38.031763 64.589484 4.939533
33.73987 63.472731 14.368909
33.018064 66.198978 4.8794741
23.016597 55.616517 29.731183
28.57097 60.275694 22.728352
22.524394 67.279167 4.6959294
28.663232 64.662671 14.168368
27.774824 67.080662 4.8014456
30.949238 65.714217 9.6540533
2.2656506 31.891366 45.669765
7.0178211 38.018106 43.141693
0 34.438721 43.847806
17.448264 50.087788 35.363596
12.083924 44.130547 39.768601
-4.4803408 38.958765 39.422934
4.671468 40.620709 41.10468
-2.264091 36.816519 41.746866
2.3087079 37.542036 42.569542
2.6062201 62.98879 4.2169527
7.9727783 63.167294 12.900226
7.1929303 64.617953 4.3469309
0 61.324863 8.2622897
18.088799 56.147022 29.268291
13.26277 60.904062 21.459613
20.773035 58.723483 26.056219
17.105084 66.853186 4.6037741
12.828155 64.293835 13.266778
12.066491 65.942795 4.4749419
20.312011 66.402939 9.2876397
10.022648 64.774106 8.8128775
-4.8285686 56.914444 15.730765
5.1654899 60.885742 16.828405
-2.4975357 59.264575 12.131264
2.5870011 61.387519 12.565824
26.053542 63.044463 18.569603
15.668502 63.093862 17.804955
23.461212 61.06098 22.469025
23.336448 65.129148 14.003479
18.297736 61.24542 22.036825
17.993815 64.973883 13.697026
-12.778789 45.278003 27.983345
-4.509303 48.738997 30.122357
-10.852735 44.093429 31.055761
-11.04073 48.375064 25.301176
14.912533 52.838321 32.655879
4.7556633 51.401793 31.768055
12.286297 49.917825 35.157984
12.708635 55.683009 29.123386
-6.7205753 40.973969 36.757031
-2.3469576 47.171069 33.146207
-8.8192642 42.647335 34.006442
-2.3054125 42.138348 37.831351
-6.7050338 45.731485 32.159658
-7.1150006 54.181113 19.255768
-2.4269067 51.992073 27.279055
-9.1412126 51.372651 22.377267
-2.4697549 56.306396 19.980737
-6.8468579 50.275332 26.350282
7.19056 43.83937 39.327532
2.4089902 48.417852 34.022297
9.696273 46.888288 37.388124
2.3586218 43.110907 38.704505
7.2336164 49.336667 34.694923
0 45.316282 36.025115
7.8429788 59.724706 21.225941
2.5004281 53.567133 28.105453
10.32162 58.006414 25.266849
2.5526019 58.195171 20.650983
7.461972 54.792012 28.717562
0 55.185561 24.154395
0 -25.318124 48.116152
0 -18.164904 50.390321
0 -3.6458999 52.604733
0 -10.92583 51.873461
0 25.318124 48.116152
0 18.164904 50.390321
0 3.6458999 52.604733
0 10.92583 51.873461
-38.031763 -64.589484 -4.939533
-33.73987 -63.472731 -14.368909
-33.018064 -66.198978 -4.8794741
-23.016597 -55.616517 -29.731183
-28.57097 -60.275694 -22.728352
-22.524394 -67.279167 -4.6959294
-28.663232 -64.662671 -14.168368
-27.774824 -67.080662 -4.8014456
-30.949238 -65.714217 -9.6540533
-2.2656506 -31.891366 -45.669765
-7.0178211 -38.018106 -43.141693
-17.448264 -50.087788 -35.363596
-12.083924 -44.130547 -39.768601
-2.6062201 -62.98879 -4.2169527
-7.9727783 -63.167294 -12.900226
-7.1929303 -64.617953 -4.3469309
-18.088799 -56.147022 -29.268291
-13.26277 -60.904062 -21.459613
-20.773035 -58.723483 -26.056219
-17.105084 -66.853186 -4.6037741
-12.828155 -64.293835 -13.266778
-12.066491 -65.942795 -4.4749419
-20.312011 -66.402939 -9.2876397
-10.022648 -64.774106 -8.8128775
-26.053542 -63.044463 -18.569603
-15.668502 -63.093862 -17.804955
-23.461212 -61.06098 -22.469025
-23.336448 -65.129148 -14.003479
-18.297736 -61.24542 -22.036825
-17.993815 -64.973883 -13.697026
26.071089 -44.276628 -3.3860909
23.957229 -45.069252 -10.202743
23.325659 -46.766364 -3.4471115
18.265821 -44.136905 -23.594473
21.3501 -45.041947 -16.984113
17.296346 -51.663267 -3.6059759
21.067314 -47.526698 -10.413671
20.389791 -49.24462 -3.5247917
22.255085 -47.254006 -6.94207
2.228974 -31.375106 -44.930457
6.6237766 -35.883423 -40.719325
0 -34.438721 -43.847806
14.739529 -42.31197 -29.873617
10.830393 -39.552645 -35.643188
-4.671468 -40.620709 -41.10468
4.4803408 -38.958765 -39.422934
-2.3087079 -37.542036 -42.569542
2.264091 -36.816519 -41.746866
2.5132128 -60.740928 -4.0664637
7.1851208 -56.926785 -11.62577
6.5297659 -58.660391 -3.9461582
0 -61.324863 -8.2622897
14.937778 -46.36636 -24.169832
11.327323 -52.016282 -18.327994
16.630844 -47.013887 -20.860549
13.850774 -54.134102 -3.7278878
10.925044 -54.755572 -11.298595
10.326494 -56.433795 -3.8296519
15.961752 -52.181306 -7.2984897
8.796809 -56.851785 -7.7350016
-5.1654899 -60.885742 -16.828405
4.8285686 -56.914444 -15.730765
-2.5870011 -61.387519 -12.565824
2.4975357 -59.264575 -12.131264
19.670709 -47.599258 -14.020253
12.994235 -52.325135 -14.766042
18.221288 -47.423369 -17.450701
17.909106 -49.982106 -10.7467
14.867813 -49.764925 -17.906008
14.514591 -52.41075 -11.048615
-14.912533 -52.838321 -32.655879
-4.7556633 -51.401793 -31.768055
-12.286297 -49.917825 -35.157984
-12.708635 -55.683009 -29.123386
12.778789 -45.278003 -27.983345
4.509303 -48.738997 -30.122357
10.852735 -44.093429 -31.055761
11.04073 -48.375064 -25.301176
-7.19056 -43.83937 -39.327532
-2.4089902 -48.417852 -34.022297
-9.696273 -46.888288 -37.388124
-2.3586218 -43.110907 -38.704505
-7.2336164 -49.336667 -34.694923
-7.8429788 -59.724706 -21.225941
-2.5004281 -53.567133 -28.105453
-10.32162 -58.006414 -25.266849
-2.5526019 -58.195171 -20.650983
-7.461972 -54.792012 -28.717562
6.7205753 -40.973969 -36.757031
2.3469576 -47.171069 -33.146207
8.8192642 -42.647335 -34.006442
2.3054125 -42.138348 -37.831351
6.7050338 -45.731485 -32.159658
0 -45.316282 -36.025115
7.1150006 -54.181113 -19.255768
2.4269067 -51.992073 -27.279055
9.1412126 -51.372651 -22.377267
2.4697549 -56.306396 -19.980737
6.8468579 -50.275332 -26.350282
0 -55.185561 -24.154395
-26.071089 44.276628 -3.3860909
-23.957229 45.069252 -10.202743
-23.325659 46.766364 -3.4471115
-18.265821 44.136905 -23.594473
-21.3501 45.041947 -16.984113
-17.296346 51.663267 -3.6059759
-21.067314 47.526698 -10.413671
-20.389791 49.24462 -3.5247917
-22.255085 47.254006 -6.94207
-2.228974 31.375106 -44.930457
-6.6237766 35.883423 -40.719325
-14.739529 42.31197 -29.873617
-10.830393 39.552645 -35.643188
-2.5132128 60.740928 -4.0664637
-7.1851208 56.926785 -11.62577
-6.5297659 58.660391 -3.9461582
-14.937778 46.36636 -24.169832
-11.327323 52.016282 -18.327994
-16.630844 47.013887 -20.860549
-13.850774 54.134102 -3.7278878
-10.925044 54.755572 -11.298595
-10.326494 56.433795 -3.8296519
-15.961752 52.181306 -7.2984897
-8.796809 56.851785 -7.7350016
-19.670709 47.599258 -14.020253
-12.994235 52.325135 -14.766042
-18.221288 47.423369 -17.450701
-17.909106 49.982106 -10.7467
-14.867813 49.764925 -17.906008
-14.514591 52.41075 -11.048615
38.031763 64.589484 -4.939533
33.73987 63.472731 -14.368909
33.018064 66.198978 -4.8794741
23.016597 55.616517 -29.731183
28.57097 60.275694 -22.728352
22.524394 67.279167 -4.6959294
28.663232 64.662671 -14.168368
27.774824 67.080662 -4.8014456
30.949238 65.714217 -9.6540533
2.2656506 31.891366 -45.669765
7.0178211 38.018106 -43.141693
0 34.438721 -43.847806
17.448264 50.087788 -35.363596
12.083924 44.130547 -39.768601
-4.4803408 38.958765 -39.422934
4.671468 40.620709 -41.10468
-2.264091 36.816519 -41.746866
2.3087079 37.542036 -42.569542
2.6062201 62.98879 -4.2169527
7.9727783 63.167294 -12.900226
7.1929303 64.617953 -4.3469309
0 61.324863 -8.2622897
18.088799 56.147022 -29.268291
13.26277 60.904062 -21.459613
20.773035 58.723483 -26.056219
17.105084 66.853186 -4.6037741
12.828155 64.293835 -13.266778
12.066491 65.942795 -4.4749419
20.312011 66.402939 -9.2876397
10.022648 64.774106 -8.8128775
-4.8285686 56.914444 -15.730765
5.1654899 60.885742 -16.828405
-2.4975357 59.264575 -12.131264
2.5870011 61.387519 -12.565824
26.053542 63.044463 -18.569603
15.668502 63.093862 -17.804955
23.461212 61.06098 -22.469025
23.336448 65.129148 -14.003479
18.297736 61.24542 -22.036825
17.993815 64.973883 -13.697026
-12.778789 45.278003 -27.983345
-4.509303 48.738997 -30.122357
-10.852735 44.093429 -31.055761
-11.04073 48.375064 -25.301176
14.912533 52.838321 -32.655879
4.7556633 51.401793 -31.768055
12.286297 49.917825 -35.157984
12.708635 55.683009 -29.123386
-6.7205753 40.973969 -36.757031
-2.3469576 47.171069 -33.146207
-8.8192642 42.647335 -34.006442
-2.3054125 42.138348 -37.831351
-6.7050338 45.731485 -32.159658
-7.1150006 54.181113 -19.255768
-2.4269067 51.992073 -27.279055
-9.1412126 51.372651 -22.377267
-2.4697549 56.306396 -19.980737
-6.8468579 50.275332 -26.350282
7.19056 43.83937 -39.327532
2.4089902 48.417852 -34.022297
9.696273 46.888288 -37.388124
2.3586218 43.110907 -38.704505
7.2336164 49.336667 -34.694923
0 45.316282 -36.025115
7.8429788 59.724706 -21.225941
2.5004281 53.567133 -28.105453
10.32162 58.006414 -25.266849
2.5526019 58.195171 -20.650983
7.461972 54.792012 -28.717562
0 55.185561 -24.154395
0 -25.318124 -48.116152
0 -18.164904 -50.390321
0 -3.6458999 -52.604733
0 -10.92583 -51.873461
0 25.318124 -48.116152
0 18.164904 -50.390321
0 3.6458999 -52.604733
0 10.92583 -51.873461
43.35304 62.083359 -3.0799195
49.21522 55.847809 -9.0847137
41.556556 62.283719 -8.0193019
54.390424 38.401396 -18.947103
52.861384 47.636466 -14.474621
36.956474 60.861863 -17.387885
47.173566 55.737813 -13.933371
39.394778 61.85503 -12.845206
44.637567 59.289877 -11.061073
47.89339 3.6626858 -28.200722
50.622901 11.459974 -26.909353
54.216459 28.982747 -22.43719
52.825158 19.918954 -25.03938
25.568511 52.508842 -32.452249
35.961334 49.91922 -30.851775
28.487554 55.043547 -29.278392
51.998456 37.778148 -23.34818
45.074035 44.893023 -27.745414
51.552971 42.498662 -21.413628
34.207606 59.272871 -21.822236
38.987109 51.974577 -27.246604
31.399453 57.339089 -25.71286
39.699626 57.542905 -20.41532
33.883209 53.836191 -28.451022
49.215901 51.533741 -16.756202
43.845389 49.358152 -25.604815
50.638421 47.147584 -19.198898
44.782959 54.936156 -18.705537
48.003113 46.206064 -23.664646
42.01205 53.646833 -23.186575
28.992686 -41.518733 -2.0597203
32.721896 -37.131729 -6.0401855
28.090567 -42.101298 -5.4207267
38.858964 -27.435684 -13.536662
35.998152 -32.440027 -9.8570938
25.920097 -42.686577 -12.19531
31.75098 -37.515294 -9.3780953
27.062994 -42.492491 -8.8242593
29.990463 -39.834851 -7.4315584
46.073643 -3.5235191 -27.129213
44.984333 -10.183519 -23.912088
41.320836 -22.089073 -17.100406
43.375361 -16.355688 -20.56013
20.110157 -41.299278 -25.524357
26.624539 -36.958479 -22.841596
21.721185 -41.969594 -22.324183
37.703169 -27.392273 -16.929356
32.451682 -32.321361 -19.975699
36.398113 -30.00547 -15.118734
24.616314 -42.653661 -15.703613
28.05987 -37.407233 -19.609973
23.231721 -42.423851 -19.024344
27.734038 -40.199299 -14.262081
24.994965 -39.713881 -20.987749
33.451025 -35.026413 -11.388843
31.051714 -34.955904 -18.133569
34.974306 -32.563299 -13.260053
30.686671 -37.643956 -12.817613
33.78715 -32.522292 -16.656439
29.450708 -37.606763 -16.253933
3.556817 -27.385589 -46.509047
10.356462 -24.318177 -45.748282
5.753847 -29.816818 -44.688552
3.5346362 -23.917914 -47.953795
22.818678 -17.665234 -42.685668
16.763771 -21.073116 -44.457599
10.080766 -34.12998 -40.326196
12.501041 -26.569902 -43.75671
7.949343 -32.080011 -42.610294
9.1973773 -28.207304 -44.28921
3.5067886 -16.820587 -50.242199
10.339465 -20.917192 -47.188032
3.5217892 -20.372422 -49.202671
6.9988741 -22.43719 -47.640666
44.074679 -2.1865193 -30.777512
39.192426 -6.3753973 -34.537861
43.79715 -5.639075 -29.222062
28.559657 -14.091226 -40.450921
34.014544 -10.33552 -37.745367
42.76888 -12.218824 -25.970073
38.963136 -9.7400275 -32.976357
43.351955 -9.0027411 -27.610377
41.41118 -7.7256373 -31.177234
18.054691 -40.209389 -29.213103
20.72797 -33.673789 -33.53856
16.218571 -39.045954 -32.188268
21.538638 -38.214293 -27.908171
24.907836 -19.624411 -40.301725
23.002303 -26.811861 -37.218509
21.9851 -21.391261 -41.332115
12.267035 -36.030431 -37.727297
18.834213 -32.251489 -36.306529
14.272776 -37.645436 -35.05029
13.521363 -32.37152 -39.710794
17.587105 -35.674981 -34.339449
27.979449 -33.915208 -25.144279
24.121732 -31.719343 -32.183998
24.863256 -36.098822 -26.542063
22.883649 -34.997651 -30.138995
15.848637 -24.843647 -43.047569
20.01144 -28.634328 -38.173055
18.94864 -23.139275 -42.255035
14.719501 -28.623538 -41.48859
21.044943 -25.063078 -39.822104
16.849031 -30.528973 -38.983642
3.5154447 -2.1726643 -52.510336
10.424202 -6.4425114 -51.043187
3.5137515 -5.8142562 -52.232584
22.981511 -14.203355 -44.086737
16.978949 -10.493568 -48.187586
19.983207 -15.931393 -45.036601
3.5201668 -13.078997 -51.117704
10.397801 -10.054031 -50.390117
3.5129318 -9.4724713 -51.766604
6.9880271 -15.282772 -49.961621
7.0051562 -7.9667756 -51.487467
13.722198 -19.252532 -46.587353
13.79844 -12.142738 -48.896328
16.880853 -17.626277 -45.874772
10.414447 -17.355416 -48.436826
16.955874 -14.078893 -47.124285
10.4371 -13.711242 -49.509938
39.117896 -24.176189 -19.047961
36.393548 -22.492449 -26.217567
40.189579 -21.377369 -20.799946
36.574339 -26.710501 -20.614315
28.280002 -17.478003 -38.925054
32.771039 -20.253616 -32.903174
31.029589 -15.634753 -37.64042
27.378849 -21.130124 -37.489499
42.004245 -15.464521 -24.241523
37.231064 -19.51762 -27.927723
41.16039 -18.457763 -22.539837
40.400719 -14.333541 -27.873001
38.820055 -20.515386 -24.432413
31.077485 -31.532737 -23.633615
33.614058 -24.921011 -27.731005
33.880017 -29.176519 -22.15287
29.357735 -30.645447 -27.274174
35.201313 -25.88216 -24.245092
36.329346 -11.812492 -34.695357
35.35043 -18.338231 -31.402175
33.727747 -13.734226 -36.224971
38.498467 -13.108571 -31.383253
33.306527 -17.058089 -34.601886
37.913386 -16.386458 -29.690831
25.326815 -28.182567 -34.161417
31.70646 -23.763819 -31.248699
26.38933 -24.720183 -35.891096
27.4261 -29.521268 -30.816152
29.661835 -22.521356 -34.443569
30.607746 -27.24062 -29.321618
3.6391356 28.019398 -47.585448
11.012845 25.859441 -48.647766
5.9948325 31.065621 -46.560221
3.605311 24.396151 -48.912629
25.277809 19.568987 -47.285832
18.315002 23.023111 -48.57147
10.985897 37.194439 -43.946999
13.579472 28.862014 -47.531481
8.4601193 34.141277 -45.348172
9.7996107 30.054285 -47.189215
3.5552695 17.053129 -50.936791
10.894598 22.040251 -49.721591
3.581279 20.716552 -50.0338
7.2657462 23.292736 -49.457239
45.083521 2.2365674 -31.48199
41.654966 6.7759765 -36.707945
46.51414 5.9888994 -31.034875
42.667437 0 -33.511641
31.631632 15.606927 -44.801962
37.144698 11.286636 -41.218846
49.058421 14.01571 -29.789201
42.878012 10.71867 -36.289703
47.851513 9.9371477 -30.476095
44.835372 8.3644518 -33.755205
37.574832 -4.2703075 -37.132422
39.04065 4.4368949 -38.580981
40.146583 -2.1773016 -35.405232
40.977415 2.2223608 -36.137942
22.112965 49.247523 -35.779528
25.145972 40.85109 -40.687037
19.258762 46.365164 -38.221996
27.309295 48.452709 -35.38536
28.283549 22.284071 -45.763743
27.169058 31.668699 -43.960459
24.828989 24.158334 -46.678644
13.740426 40.358037 -42.258713
22.179941 37.980675 -42.756057
16.445004 43.374836 -40.384725
15.126774 36.215037 -44.425713
20.844388 42.282294 -40.699411
37.248122 45.150203 -33.473754
29.950427 39.3839 -39.960833
32.428396 47.082608 -34.618015
28.779685 44.014894 -37.904392
17.510503 27.448718 -47.561478
23.312193 33.357369 -44.469446
21.203014 25.892221 -47.282237
16.390187 31.872354 -46.19761
24.175349 28.791176 -45.745587
19.27912 34.932082 -44.606144
3.5216259 2.1764845 -52.602666
10.588756 6.5442111 -51.84894
3.5303505 5.8417228 -52.479331
7.0418548 0 -52.266478
24.925353 15.404715 -47.815717
17.719279 10.951116 -50.288699
21.62645 17.24145 -48.740013
3.5579789 13.219486 -51.666789
10.656736 10.304405 -51.644975
3.5400832 9.5456838 -52.166707
7.1659501 15.671889 -51.2337
7.0966816 8.0708649 -52.160173
13.953468 -4.283026 -50.484121
14.148967 4.3430346 -51.191443
10.552617 -2.1725302 -51.552449
10.608607 2.1840572 -51.825974
14.638862 20.538631 -49.699459
14.362005 12.638679 -50.893383
18.167581 18.969825 -49.371537
10.875558 18.123845 -50.581417
17.969368 14.920423 -49.941019
10.79792 14.185252 -51.221541
52.008541 32.143046 -25.324896
46.067628 28.47136 -33.186683
51.64939 27.472995 -26.730923
49.25444 35.97087 -27.761173
32.16493 19.87902 -44.272331
39.303558 24.290935 -39.462032
35.196837 17.734487 -42.695497
31.949652 24.657724 -43.748239
50.143401 18.461078 -28.938799
45.610639 23.91044 -34.213399
51.008902 22.874181 -27.93298
47.153836 16.729441 -32.532067
48.74317 25.759493 -30.677783
41.904927 42.51879 -31.867602
42.851729 31.769696 -35.351921
45.847663 39.482721 -29.978064
38.322556 40.00349 -35.602748
46.156975 33.937433 -31.790862
40.543095 13.182592 -38.719583
42.182183 21.882241 -37.470897
38.012052 15.478831 -40.826489
43.922793 14.955532 -35.805065
38.741491 19.841631 -40.248227
44.846353 19.38294 -35.120195
30.890236 34.373297 -41.665492
39.206436 29.385011 -38.640395
31.531414 29.537026 -42.884644
34.603013 37.246448 -38.880181
35.625113 27.049097 -41.368177
38.962252 34.676056 -37.325071
26.45451 -12.080636 -42.804297
27.627445 -4.1358159 -44.702146
29.297703 -10.238365 -41.597311
23.614874 -10.304874 -45.150906
28.639347 13.078356 -46.339437
28.382077 4.2487839 -45.923164
31.551157 11.025856 -44.796798
25.056316 10.933879 -47.906898
34.809449 -6.3644835 -38.802951
30.513199 -2.1605243 -43.423981
32.099457 -8.3247048 -40.255793
35.603457 -2.1696464 -39.656814
29.954318 -6.2452378 -42.59546
17.411526 -6.4335536 -48.991858
24.560309 -2.185031 -46.810324
20.574915 -8.4049441 -47.234899
17.624501 -2.1785081 -49.666442
24.145307 -6.2739171 -46.068324
36.727781 6.7152273 -40.941364
30.985818 2.1939886 -44.096575
34.270907 8.8878509 -42.978999
36.252234 2.2091824 -40.379453
31.330231 6.5321048 -44.552028
33.389415 0 -42.000814
17.877396 6.6056923 -50.302703
24.868643 2.2124622 -47.397987
21.443966 8.759955 -49.230024
17.781957 2.1979707 -50.110158
25.031635 6.5042208 -47.759405
21.286551 0 -48.633398
43.35304 62.083359 3.0799195
49.21522 55.847809 9.0847137
41.556556 62.283719 8.0193019
46.866989 59.671631 0
54.390424 38.401396 18.947103
52.861384 47.636466 14.474621
36.956474 60.861863 17.387885
47.173566 55.737813 13.933371
39.394778 61.85503 12.845206
44.637567 59.289877 11.061073
52.331237 52.954731 -6.0182036
52.331237 52.954731 6.0182036
49.897542 56.579655 -3.0685295
49.897542 56.579655 3.0685295
47.89339 3.6626858 28.200722
50.622901 11.459974 26.909353
54.216459 28.982747 22.43719
52.825158 19.918954 25.03938
25.568511 52.508842 32.452249
35.961334 49.91922 30.851775
28.487554 55.043547 29.278392
51.998456 37.778148 23.34818
45.074035 44.893023 27.745414
51.552971 42.498662 21.413628
34.207606 59.272871 21.822236
38.987109 51.974577 27.246604
31.399453 57.339089 25.71286
39.699626 57.542905 20.41532
33.883209 53.836191 28.451022
49.215901 51.533741 16.756202
43.845389 49.358152 25.604815
50.638421 47.147584 19.198898
44.782959 54.936156 18.705537
48.003113 46.206064 23.664646
42.01205 53.646833 23.186575
56.523511 34.933451 -15.952603
58.987484 36.45627 -5.4574869
56.262262 39.62648 -13.847856
56.523511 34.933451 15.952603
58.987484 36.45627 5.4574869
56.262262 39.62648 13.847856
54.265364 48.680509 -8.9006379
58.24542 40.927941 -2.8979527
55.523273 44.273552 -11.481947
54.952845 49.336068 -3.0065008
57.573166 40.487059 -8.4412309
54.265364 48.680509 8.9006379
58.24542 40.927941 2.8979527
55.523273 44.273552 11.481947
54.952845 49.336068 3.0065008
57.573166 40.487059 8.4412309
56.931024 45.258494 0
28.992686 -41.518733 2.0597203
32.721896 -37.131729 6.0401855
28.090567 -42.101298 5.4207267
31.009699 -39.481933 0
38.858964 -27.435684 13.536662
35.998152 -32.440027 9.8570938
25.920097 -42.686577 12.19531
31.75098 -37.515294 9.3780953
27.062994 -42.492491 8.8242593
29.990463 -39.834851 7.4315584
34.71403 -35.127626 -3.9921873
34.71403 -35.127626 3.9921873
32.927098 -37.336587 -2.0249048
32.927098 -37.336587 2.0249048
46.073643 -3.5235191 27.129213
44.984333 -10.183519 23.912088
41.320836 -22.089073 17.100406
43.375361 -16.355688 20.56013
20.110157 -41.299278 25.524357
26.624539 -36.958479 22.841596
21.721185 -41.969594 22.324183
37.703169 -27.392273 16.929356
32.451682 -32.321361 19.975699
36.398113 -30.00547 15.118734
24.616314 -42.653661 15.703613
28.05987 -37.407233 19.609973
23.231721 -42.423851 19.024344
27.734038 -40.199299 14.262081
24.994965 -39.713881 20.987749
33.451025 -35.026413 11.388843
31.051714 -34.955904 18.133569
34.974306 -32.563299 13.260053
30.686671 -37.643956 12.817613
33.78715 -32.522292 16.656439
29.450708 -37.606763 16.253933
40.934055 -25.298637 -11.552798
41.841377 -25.859393 -3.8711393
39.548947 -27.855005 -9.7342001
40.934055 -25.298637 11.552798
41.841377 -25.859393 3.8711393
39.548947 -27.855005 9.7342001
36.477545 -32.723368 -5.983069
40.244146 -28.27879 -2.0023142
38.054437 -30.344124 -7.869475
36.676197 -32.927492 -2.0065752
40.012332 -28.137789 -5.8665061
36.477545 -32.723368 5.983069
40.244146 -28.27879 2.0023142
38.054437 -30.344124 7.869475
36.676197 -32.927492 2.0065752
40.012332 -28.137789 5.8665061
38.530351 -30.630499 0
3.556817 -27.385589 46.509047
10.356462 -24.318177 45.748282
5.753847 -29.816818 44.688552
3.5346362 -23.917914 47.953795
22.818678 -17.665234 42.685668
16.763771 -21.073116 44.457599
10.080766 -34.12998 40.326196
12.501041 -26.569902 43.75671
7.949343 -32.080011 42.610294
9.1973773 -28.207304 44.28921
3.5067886 -16.820587 50.242199
10.339465 -20.917192 47.188032
3.5217892 -20.372422 49.202671
6.9988741 -22.43719 47.640666
44.074679 -2.1865193 30.777512
39.192426 -6.3753973 34.537861
43.79715 -5.639075 29.222062
28.559657 -14.091226 40.450921
34.014544 -10.33552 37.745367
42.76888 -12.218824 25.970073
38.963136 -9.7400275 32.976357
43.351955 -9.0027411 27.610377
41.41118 -7.7256373 31.177234
18.054691 -40.209389 29.213103
20.72797 -33.673789 33.53856
16.218571 -39.045954 32.188268
21.538638 -38.214293 27.908171
24.907836 -19.624411 40.301725
23.002303 -26.811861 37.218509
21.9851 -21.391261 41.332115
12.267035 -36.030431 37.727297
18.834213 -32.251489 36.306529
14.272776 -37.645436 35.05029
13.521363 -32.37152 39.710794
17.587105 -35.674981 34.339449
27.979449 -33.915208 25.144279
24.121732 -31.719343 32.183998
24.863256 -36.098822 26.542063
22.883649 -34.997651 30.138995
15.848637 -24.843647 43.047569
20.01144 -28.634328 38.173055
18.94864 -23.139275 42.255035
14.719501 -28.623538 41.48859
21.044943 -25.063078 39.822104
16.849031 -30.528973 38.983642
3.5154447 -2.1726643 52.510336
10.424202 -6.4425114 51.043187
3.5137515 -5.8142562 52.232584
22.981511 -14.203355 44.086737
16.978949 -10.493568 48.187586
19.983207 -15.931393 45.036601
3.5201668 -13.078997 51.117704
10.397801 -10.054031 50.390117
3.5129318 -9.4724713 51.766604
6.9880271 -15.282772 49.961621
7.0051562 -7.9667756 51.487467
13.722198 -19.252532 46.587353
13.79844 -12.142738 48.896328
16.880853 -17.626277 45.874772
10.414447 -17.355416 48.436826
16.955874 -14.078893 47.124285
10.4371 -13.711242 49.509938
39.117896 -24.176189 19.047961
36.393548 -22.492449 26.217567
40.189579 -21.377369 20.799946
36.574339 -26.710501 20.614315
28.280002 -17.478003 38.925054
32.771039 -20.253616 32.903174
31.029589 -15.634753 37.64042
27.378849 -21.130124 37.489499
42.004245 -15.464521 24.241523
37.231064 -19.51762 27.927723
41.16039 -18.457763 22.539837
40.400719 -14.333541 27.873001
38.820055 -20.515386 24.432413
31.077485 -31.532737 23.633615
33.614058 -24.921011 27.731005
33.880017 -29.176519 22.15287
29.357735 -30.645447 27.274174
35.201313 -25.88216 24.245092
36.329346 -11.812492 34.695357
35.35043 -18.338231 31.402175
33.727747 -13.734226 36.224971
38.498467 -13.108571 31.383253
33.306527 -17.058089 34.601886
37.913386 -16.386458 29.690831
25.326815 -28.182567 34.161417
31.70646 -23.763819 31.248699
26.38933 -24.720183 35.891096
27.4261 -29.521268 30.816152
29.661835 -22.521356 34.443569
30.607746 -27.24062 29.321618
3.6391356 28.019398 47.585448
11.012845 25.859441 48.647766
5.9948325 31.065621 46.560221
3.605311 24.396151 48.912629
25.277809 19.568987 47.285832
18.315002 23.023111 48.57147
10.985897 37.194439 43.946999
13.579472 28.862014 47.531481
8.4601193 34.141277 45.348172
9.7996107 30.054285 47.189215
3.5552695 17.053129 50.936791
10.894598 22.040251 49.721591
3.581279 20.716552 50.0338
7.2657462 23.292736 49.457239
45.083521 2.2365674 31.48199
41.654966 6.7759765 36.707945
46.51414 5.9888994 31.034875
42.667437 0 33.511641
31.631632 15.606927 44.801962
37.144698 11.286636 41.218846
49.058421 14.01571 29.789201
42.878012 10.71867 36.289703
47.851513 9.9371477 30.476095
44.835372 8.3644518 33.755205
37.574832 -4.2703075 37.132422
39.04065 4.4368949 38.580981
40.146583 -2.1773016 35.405232
40.977415 2.2223608 36.137942
22.112965 49.247523 35.779528
25.145972 40.85109 40.687037
19.258762 46.365164 38.221996
27.309295 48.452709 35.38536
28.283549 22.284071 45.763743
27.169058 31.668699 43.960459
24.828989 24.158334 46.678644
13.740426 40.358037 42.258713
22.179941 37.980675 42.756057
16.445004 43.374836 40.384725
15.126774 36.215037 44.425713
20.844388 42.282294 40.699411
37.248122 45.150203 33.473754
29.950427 39.3839 39.960833
32.428396 47.082608 34.618015
28.779685 44.014894 37.904392
17.510503 27.448718 47.561478
23.312193 33.357369 44.469446
21.203014 25.892221 47.282237
16.390187 31.872354 46.19761
24.175349 28.791176 45.745587
19.27912 34.932082 44.606144
3.5216259 2.1764845 52.602666
10.588756 6.5442111 51.84894
3.5303505 5.8417228 52.479331
7.0418548 0 52.266478
24.925353 15.404715 47.815717
17.719279 10.951116 50.288699
21.62645 17.24145 48.740013
3.5579789 13.219486 51.666789
10.656736 10.304405 51.644975
3.5400832 9.5456838 52.166707
7.1659501 15.671889 51.2337
7.0966816 8.0708649 52.160173
13.953468 -4.283026 50.484121
14.148967 4.3430346 51.191443
10.552617 -2.1725302 51.552449
10.608607 2.1840572 51.825974
14.638862 20.538631 49.699459
14.362005 12.638679 50.893383
18.167581 18.969825 49.371537
10.875558 18.123845 50.581417
17.969368 14.920423 49.941019
10.79792 14.185252 51.221541
52.008541 32.143046 25.324896
46.067628 28.47136 33.186683
51.64939 27.472995 26.730923
49.25444 35.97087 27.761173
32.16493 19.87902 44.272331
39.303558 24.290935 39.462032
35.196837 17.734487 42.695497
31.949652 24.657724 43.748239
50.143401 18.461078 28.938799
45.610639 23.91044 34.213399
51.008902 22.874181 27.93298
47.153836 16.729441 32.532067
48.74317 25.759493 30.677783
41.904927 42.51879 31.867602
42.851729 31.769696 35.351921
45.847663 39.482721 29.978064
38.322556 40.00349 35.602748
46.156975 33.937433 31.790862
40.543095 13.182592 38.719583
42.182183 21.882241 37.470897
38.012052 15.478831 40.826489
43.922793 14.955532 35.805065
38.741491 19.841631 40.248227
44.846353 19.38294 35.120195
30.890236 34.373297 41.665492
39.206436 29.385011 38.640395
31.531414 29.537026 42.884644
34.603013 37.246448 38.880181
35.625113 27.049097 41.368177
38.962252 34.676056 37.325071
26.45451 -12.080636 42.804297
27.627445 -4.1358159 44.702146
29.297703 -10.238365 41.597311
23.614874 -10.304874 45.150906
28.639347 13.078356 46.339437
28.382077 4.2487839 45.923164
31.551157 11.025856 44.796798
25.056316 10.933879 47.906898
34.809449 -6.3644835 38.802951
30.513199 -2.1605243 43.423981
32.099457 -8.3247048 40.255793
35.603457 -2.1696464 39.656814
29.954318 -6.2452378 42.59546
17.411526 -6.4335536 48.991858
24.560309 -2.185031 46.810324
20.574915 -8.4049441 47.234899
17.624501 -2.1785081 49.666442
24.145307 -6.2739171 46.068324
36.727781 6.7152273 40.941364
30.985818 2.1939886 44.096575
34.270907 8.8878509 42.978999
36.252234 2.2091824 40.379453
31.330231 6.5321048 44.552028
33.389415 0 42.000814
17.877396 6.6056923 50.302703
24.868643 2.2124622 47.397987
21.443966 8.759955 49.230024
17.781957 2.1979707 50.110158
25.031635 6.5042208 47.759405
21.286551 0 48.633398
48.401683 0 -25.468367
51.712723 0 -18.641609
49.92399 3.6798577 -24.900588
47.942663 -3.5338156 -23.912361
55.142245 0 -3.8217684
53.985375 0 -11.370651
52.700975 11.547417 -23.360932
53.24369 3.7162857 -17.825456
51.373927 7.5473262 -24.195433
51.724075 3.7022642 -21.416412
46.591464 -10.20875 -20.65275
50.978046 -3.558149 -17.066941
47.332657 -6.9536245 -22.292127
49.589652 -3.5494882 -20.532652
48.401683 0 25.468367
51.712723 0 18.641609
49.92399 3.6798577 24.900588
47.942663 -3.5338156 23.912361
55.142245 0 3.8217684
53.985375 0 11.370651
52.700975 11.547417 23.360932
53.24369 3.7162857 17.825456
51.373927 7.5473262 24.195433
51.724075 3.7022642 21.416412
46.591464 -10.20875 20.65275
50.978046 -3.558149 17.066941
47.332657 -6.9536245 22.292127
49.589652 -3.5494882 20.532652
56.315459 29.356094 -18.143064
58.170693 20.496508 -12.667538
55.780145 24.750229 -19.731849
58.048601 30.36064 -13.248539
56.473477 3.7807677 -2.336643
58.044483 11.85403 -7.3261932
56.135879 3.7763311 -6.2487505
53.953967 15.892018 -22.296834
57.23956 16.152883 -14.214666
54.969788 20.227608 -21.120818
54.554177 11.729745 -19.547326
56.772882 20.427553 -16.961516
59.883102 31.419298 -2.7952474
59.285294 21.069775 -7.7852756
59.262529 31.060647 -8.0707993
58.951428 25.678484 -10.489775
54.54317 3.7560579 -13.955438
57.245969 11.812479 -11.421938
55.485662 3.7653107 -10.153
54.733823 7.6555049 -16.742542
56.857665 7.7358016 -8.7977189
56.086975 11.823593 -15.532682
42.45953 -22.133282 -13.679121
46.76143 -16.476441 -10.183001
43.63734 -19.362341 -15.436414
43.155542 -22.571257 -9.8494686
53.89323 -3.6080262 -2.2298828
50.598712 -10.33343 -6.3864112
53.588153 -3.6049424 -5.965151
45.701726 -13.461339 -18.886541
47.957207 -13.533422 -11.90952
44.724996 -16.457762 -17.184503
47.960793 -10.312095 -17.184848
45.859894 -16.500931 -13.701142
43.861438 -23.013096 -2.0473817
47.260581 -16.796237 -6.2062043
43.626448 -22.865472 -5.9413649
45.278496 -19.722731 -8.056823
52.145475 -3.5909431 -13.341963
50.006074 -10.318555 -9.9774056
53.001468 -3.5967309 -9.6984319
50.123605 -7.0106835 -15.332322
51.861019 -7.0559801 -8.0245762
49.106209 -10.35199 -13.599434
56.315459 29.356094 18.143064
58.170693 20.496508 12.667538
55.780145 24.750229 19.731849
58.048601 30.36064 13.248539
56.473477 3.7807677 2.336643
58.044483 11.85403 7.3261932
56.135879 3.7763311 6.2487505
57.646787 7.7667431 0
53.953967 15.892018 22.296834
57.23956 16.152883 14.214666
54.969788 20.227608 21.120818
54.554177 11.729745 19.547326
56.772882 20.427553 16.961516
59.883102 31.419298 2.7952474
59.285294 21.069775 7.7852756
59.262529 31.060647 8.0707993
60.156051 26.329948 0
58.951428 25.678484 10.489775
54.54317 3.7560579 13.955438
57.245969 11.812479 11.421938
55.485662 3.7653107 10.153
54.733823 7.6555049 16.742542
56.857665 7.7358016 8.7977189
56.086975 11.823593 15.532682
59.121855 16.340879 -5.0158433
59.121855 16.340879 5.0158433
58.5553 11.986078 -2.4676453
59.865997 21.243888 -2.6258889
58.5553 11.986078 2.4676453
59.865997 21.243888 2.6258889
42.45953 -22.133282 13.679121
46.76143 -16.476441 10.183001
43.63734 -19.362341 15.436414
43.155542 -22.571257 9.8494686
53.89323 -3.6080262 2.2298828
50.598712 -10.33343 6.3864112
53.588153 -3.6049424 5.965151
52.501742 -7.073552 0
45.701726 -13.461339 18.886541
47.957207 -13.533422 11.90952
44.724996 -16.457762 17.184503
47.960793 -10.312095 17.184848
45.859894 -16.500931 13.701142
43.861438 -23.013096 2.0473817
47.260581 -16.796237 6.2062043
43.626448 -22.865472 5.9413649
45.771039 -20.033714 0
45.278496 -19.722731 8.056823
52.145475 -3.5909431 13.341963
50.006074 -10.318555 9.9774056
53.001468 -3.5967309 9.6984319
50.123605 -7.0106835 15.332322
51.861019 -7.0559801 8.0245762
49.106209 -10.35199 13.599434
49.206076 -13.600225 -4.1745978
49.206076 -13.600225 4.1745978
50.921654 -10.423496 -2.1459472
47.566501 -16.879321 -2.0863989
50.921654 -10.423496 2.1459472
47.566501 -16.879321 2.0863989
-28.992686 41.518733 -2.0597203
-32.721896 37.131729 -6.0401855
-28.090567 42.101298 -5.4207267
-38.858964 27.435684 -13.536662
-35.998152 32.440027 -9.8570938
-25.920097 42.686577 -12.19531
-31.75098 37.515294 -9.3780953
-27.062994 42.492491 -8.8242593
-29.990463 39.834851 -7.4315584
-46.073643 3.5235191 -27.129213
-44.984333 10.183519 -23.912088
-41.320836 22.089073 -17.100406
-43.375361 16.355688 -20.56013
-20.110157 41.299278 -25.524357
-26.624539 36.958479 -22.841596
-21.721185 41.969594 -22.324183
-37.703169 27.392273 -16.929356
-32.451682 32.321361 -19.975699
-36.398113 30.00547 -15.118734
-24.616314 42.653661 -15.703613
-28.05987 37.407233 -19.609973
-23.231721 42.423851 -19.024344
-27.734038 40.199299 -14.262081
-24.994965 39.713881 -20.987749
-33.451025 35.026413 -11.388843
-31.051714 34.955904 -18.133569
-34.974306 32.563299 -13.260053
-30.686671 37.643956 -12.817613
-33.78715 32.522292 -16.656439
-29.450708 37.606763 -16.253933
-43.35304 -62.083359 -3.0799195
-49.21522 -55.847809 -9.0847137
-41.556556 -62.283719 -8.0193019
-54.390424 -38.401396 -18.947103
-52.861384 -47.636466 -14.474621
-36.956474 -60.861863 -17.387885
-47.173566 -55.737813 -13.933371
-39.394778 -61.85503 -12.845206
-44.637567 -59.289877 -11.061073
-47.89339 -3.6626858 -28.200722
-50.622901 -11.459974 -26.909353
-54.216459 -28.982747 -22.43719
-52.825158 -19.918954 -25.03938
-25.568511 -52.508842 -32.452249
-35.961334 -49.91922 -30.851775
-28.487554 -55.043547 -29.278392
-51.998456 -37.778148 -23.34818
-45.074035 -44.893023 -27.745414
-51.552971 -42.498662 -21.413628
-34.207606 -59.272871 -21.822236
-38.987109 -51.974577 -27.246604
-31.399453 -57.339089 -25.71286
-39.699626 -57.542905 -20.41532
-33.883209 -53.836191 -28.451022
-49.215901 -51.533741 -16.756202
-43.845389 -49.358152 -25.604815
-50.638421 -47.147584 -19.198898
-44.782959 -54.936156 -18.705537
-48.003113 -46.206064 -23.664646
-42.01205 -53.646833 -23.186575
-3.6391356 -28.019398 -47.585448
-11.012845 -25.859441 -48.647766
-5.9948325 -31.065621 -46.560221
-3.605311 -24.396151 -48.912629
-25.277809 -19.568987 -47.285832
-18.315002 -23.023111 -48.57147
-10.985897 -37.194439 -43.946999
-13.579472 -28.862014 -47.531481
-8.4601193 -34.141277 -45.348172
-9.7996107 -30.054285 -47.189215
-3.5552695 -17.053129 -50.936791
-10.894598 -22.040251 -49.721591
-3.581279 -20.716552 -50.0338
-7.2657462 -23.292736 -49.457239
-45.083521 -2.2365674 -31.48199
-41.654966 -6.7759765 -36.707945
-46.51414 -5.9888994 -31.034875
-31.631632 -15.606927 -44.801962
-37.144698 -11.286636 -41.218846
-49.058421 -14.01571 -29.789201
-42.878012 -10.71867 -36.289703
-47.851513 -9.9371477 -30.476095
-44.835372 -8.3644518 -33.755205
-22.112965 -49.247523 -35.779528
-25.145972 -40.85109 -40.687037
-19.258762 -46.365164 -38.221996
-27.309295 -48.452709 -35.38536
-28.283549 -22.284071 -45.763743
-27.169058 -31.668699 -43.960459
-24.828989 -24.158334 -46.678644
-13.740426 -40.358037 -42.258713
-22.179941 -37.980675 -42.756057
-16.445004 -43.374836 -40.384725
-15.126774 -36.215037 -44.425713
-20.844388 -42.282294 -40.699411
-37.248122 -45.150203 -33.473754
-29.950427 -39.3839 -39.960833
-32.428396 -47.082608 -34.618015
-28.779685 -44.014894 -37.904392
-17.510503 -27.448718 -47.561478
-23.312193 -33.357369 -44.469446
-21.203014 -25.892221 -47.282237
-16.390187 -31.872354 -46.19761
-24.175349 -28.791176 -45.745587
-19.27912 -34.932082 -44.606144
-3.5216259 -2.1764845 -52.602666
-10.588756 -6.5442111 -51.84894
-3.5303505 -5.8417228 -52.479331
-24.925353 -15.404715 -47.815717
-17.719279 -10.951116 -50.288699
-21.62645 -17.24145 -48.740013
-3.5579789 -13.219486 -51.666789
-10.656736 -10.304405 -51.644975
-3.5400832 -9.5456838 -52.166707
-7.1659501 -15.671889 -51.2337
-7.0966816 -8.0708649 -52.160173
-14.638862 -20.538631 -49.699459
-14.362005 -12.638679 -50.893383
-18.167581 -18.969825 -49.371537
-10.875558 -18.123845 -50.581417
-17.969368 -14.920423 -49.941019
-10.79792 -14.185252 -51.221541
-52.008541 -32.143046 -25.324896
-46.067628 -28.47136 -33.186683
-51.64939 -27.472995 -26.730923
-49.25444 -35.97087 -27.761173
-32.16493 -19.87902 -44.272331
-39.303558 -24.290935 -39.462032
-35.196837 -17.734487 -42.695497
-31.949652 -24.657724 -43.748239
-50.143401 -18.461078 -28.938799
-45.610639 -23.91044 -34.213399
-51.008902 -22.874181 -27.93298
-47.153836 -16.729441 -32.532067
-48.74317 -25.759493 -30.677783
-41.904927 -42.51879 -31.867602
-42.851729 -31.769696 -35.351921
-45.847663 -39.482721 -29.978064
-38.322556 -40.00349 -35.602748
-46.156975 -33.937433 -31.790862
-40.543095 -13.182592 -38.719583
-42.182183 -21.882241 -37.470897
-38.012052 -15.478831 -40.826489
-43.922793 -14.955532 -35.805065
-38.741491 -19.841631 -40.248227
-44.846353 -19.38294 -35.120195
-30.890236 -34.373297 -41.665492
-39.206436 -29.385011 -38.640395
-31.531414 -29.537026 -42.884644
-34.603013 -37.246448 -38.880181
-35.625113 -27.049097 -41.368177
-38.962252 -34.676056 -37.325071
-3.556817 27.385589 -46.509047
-10.356462 24.318177 -45.748282
-5.753847 29.816818 -44.688552
-3.5346362 23.917914 -47.953795
-22.818678 17.665234 -42.685668
-16.763771 21.073116 -44.457599
-10.080766 34.12998 -40.326196
-12.501041 26.569902 -43.75671
-7.949343 32.080011 -42.610294
-9.1973773 28.207304 -44.28921
-3.5067886 16.820587 -50.242199
-10.339465 20.917192 -47.188032
-3.5217892 20.372422 -49.202671
-6.9988741 22.43719 -47.640666
-44.074679 2.1865193 -30.777512
-39.192426 6.3753973 -34.537861
-43.79715 5.639075 -29.222062
-42.667437 0 -33.511641
-28.559657 14.091226 -40.450921
-34.014544 10.33552 -37.745367
-42.76888 12.218824 -25.970073
-38.963136 9.7400275 -32.976357
-43.351955 9.0027411 -27.610377
-41.41118 7.7256373 -31.177234
-39.04065 -4.4368949 -38.580981
-37.574832 4.2703075 -37.132422
-40.977415 -2.2223608 -36.137942
-40.146583 2.1773016 -35.405232
-18.054691 40.209389 -29.213103
-20.72797 33.673789 -33.53856
-16.218571 39.045954 -32.188268
-21.538638 38.214293 -27.908171
-24.907836 19.624411 -40.301725
-23.002303 26.811861 -37.218509
-21.9851 21.391261 -41.332115
-12.267035 36.030431 -37.727297
-18.834213 32.251489 -36.306529
-14.272776 37.645436 -35.05029
-13.521363 32.37152 -39.710794
-17.587105 35.674981 -34.339449
-27.979449 33.915208 -25.144279
-24.121732 31.719343 -32.183998
-24.863256 36.098822 -26.542063
-22.883649 34.997651 -30.138995
-15.848637 24.843647 -43.047569
-20.01144 28.634328 -38.173055
-18.94864 23.139275 -42.255035
-14.719501 28.623538 -41.48859
-21.044943 25.063078 -39.822104
-16.849031 30.528973 -38.983642
-3.5154447 2.1726643 -52.510336
-10.424202 6.4425114 -51.043187
-3.5137515 5.8142562 -52.232584
-7.0418548 0 -52.266478
-22.981511 14.203355 -44.086737
-16.978949 10.493568 -48.187586
-19.983207 15.931393 -45.036601
-3.5201668 13.078997 -51.117704
-10.397801 10.054031 -50.390117
-3.5129318 9.4724713 -51.766604
-6.9880271 15.282772 -49.961621
-7.0051562 7.9667756 -51.487467
-14.148967 -4.3430346 -51.191443
-13.953468 4.283026 -50.484121
-10.608607 -2.1840572 -51.825974
-10.552617 2.1725302 -51.552449
-13.722198 19.252532 -46.587353
-13.79844 12.142738 -48.896328
-16.880853 17.626277 -45.874772
-10.414447 17.355416 -48.436826
-16.955874 14.078893 -47.124285
-10.4371 13.711242 -49.509938
-39.117896 24.176189 -19.047961
-36.393548 22.492449 -26.217567
-40.189579 21.377369 -20.799946
-36.574339 26.710501 -20.614315
-28.280002 17.478003 -38.925054
-32.771039 20.253616 -32.903174
-31.029589 15.634753 -37.64042
-27.378849 21.130124 -37.489499
-42.004245 15.464521 -24.241523
-37.231064 19.51762 -27.927723
-41.16039 18.457763 -22.539837
-40.400719 14.333541 -27.873001
-38.820055 20.515386 -24.432413
-31.077485 31.532737 -23.633615
-33.614058 24.921011 -27.731005
-33.880017 29.176519 -22.15287
-29.357735 30.645447 -27.274174
-35.201313 25.88216 -24.245092
-36.329346 11.812492 -34.695357
-35.35043 18.338231 -31.402175
-33.727747 13.734226 -36.224971
-38.498467 13.108571 -31.383253
-33.306527 17.058089 -34.601886
-37.913386 16.386458 -29.690831
-25.326815 28.182567 -34.161417
-31.70646 23.763819 -31.248699
-26.38933 24.720183 -35.891096
-27.4261 29.521268 -30.816152
-29.661835 22.521356 -34.443569
-30.607746 27.24062 -29.321618
-28.639347 -13.078356 -46.339437
-28.382077 -4.2487839 -45.923164
-31.551157 -11.025856 -44.796798
-25.056316 -10.933879 -47.906898
-26.45451 12.080636 -42.804297
-27.627445 4.1358159 -44.702146
-29.297703 10.238365 -41.597311
-23.614874 10.304874 -45.150906
-36.727781 -6.7152273 -40.941364
-30.985818 -2.1939886 -44.096575
-34.270907 -8.8878509 -42.978999
-36.252234 -2.2091824 -40.379453
-31.330231 -6.5321048 -44.552028
-17.877396 -6.6056923 -50.302703
-24.868643 -2.2124622 -47.397987
-21.443966 -8.759955 -49.230024
-17.781957 -2.1979707 -50.110158
-25.031635 -6.5042208 -47.759405
-34.809449 6.3644835 -38.802951
-30.513199 2.1605243 -43.423981
-32.099457 8.3247048 -40.255793
-35.603457 2.1696464 -39.656814
-29.954318 6.2452378 -42.59546
-33.389415 0 -42.000814
-17.411526 6.4335536 -48.991858
-24.560309 2.185031 -46.810324
-20.574915 8.4049441 -47.234899
-17.624501 2.1785081 -49.666442
-24.145307 6.2739171 -46.068324
-21.286551 0 -48.633398
-28.992686 41.518733 2.0597203
-32.721896 37.131729 6.0401855
-28.090567 42.101298 5.4207267
-31.009699 39.481933 0
-38.858964 27.435684 13.536662
-35.998152 32.440027 9.8570938
-25.920097 42.686577 12.19531
-31.75098 37.515294 9.3780953
