-1.016760 -20.435677 -14.359758
-4.110675 -19.878002 -15.850466
-0.990553 -18.105334 -16.254773
-3.066468 -20.914753 -14.707839
-3.367509 -25.643765 -9.113700
-1.061130 -22.732786 -11.927374
-4.435087 -24.924722 -10.856889
-1.089152 -24.830890 -8.811423
-3.183201 -23.373713 -12.250619
2.816647 -17.172518 -15.405166
0.988141 -19.860468 -13.955571
3.704824 -17.915427 -14.285534
0.966349 -17.662935 -15.857592
2.821261 -19.242329 -13.531743
0.000000 -19.053425 -15.146914
3.018972 -22.989635 -8.170432
1.026687 -21.994897 -11.540221
3.871065 -21.754980 -9.476190
1.049746 -23.932499 -8.492623
2.893313 -21.245114 -11.134978
0.000000 -23.437603 -10.258501
-11.229645 19.071347 -1.458497
-10.279564 19.338307 -4.377791
-10.010140 20.069653 -1.479318
-7.755264 18.739555 -10.017692
-9.116058 19.231994 -7.251870
-7.382901 22.052332 -1.539201
-9.009725 20.325442 -4.453549
-8.723409 21.068433 -1.508019
-9.535446 20.246519 -2.974409
-0.927138 13.050421 -18.688747
-2.765706 14.982841 -17.002034
-6.220992 17.858267 -12.608513
-4.544913 16.598044 -14.957462
-1.073881 25.954243 -1.737576
-3.058020 24.228301 -4.947981
-2.784085 25.010928 -1.682517
-6.327023 19.638866 -10.237338
-4.806803 22.073354 -7.777571
-7.062383 19.964716 -8.858551
-5.903320 23.072423 -1.588858
-4.647859 23.294752 -4.806780
-4.399443 24.042747 -1.631564
-6.805237 22.247317 -3.111686
-3.746208 24.210895 -3.294027
-8.393752 20.311234 -5.982628
-5.523548 22.242202 -6.276702
-7.757202 20.189169 -7.429146
-7.638581 21.318339 -4.583676
-6.316184 21.141269 -7.606878
-6.179582 22.313859 -4.703944
17.883252 30.371193 -2.322662
15.536016 29.226946 -6.616374
15.233031 30.541195 -2.251167
10.105193 24.417843 -13.053161
12.838638 27.085458 -10.213202
10.051057 30.021973 -2.095464
12.976188 29.273564 -6.414190
12.588289 30.402739 -2.176143
14.151863 30.048512 -4.414417
0.943420 13.279608 -19.016952
2.943562 15.946351 -18.095393
0.000000 14.355399 -18.277472
7.512073 21.564501 -15.225234
5.124290 18.713933 -16.864212
-1.873647 16.292278 -16.486391
1.960169 17.044631 -17.247708
-0.945136 15.368913 -17.427067
0.965169 15.694669 -17.796447
1.118885 27.041913 -1.810393
3.439539 27.251024 -5.565291
3.106748 27.909588 -1.877513
0.000000 26.237983 -3.535039
7.856251 24.385538 -12.711681
5.745528 26.384079 -9.296459
9.108125 25.747843 -11.424585
7.528892 29.425779 -2.026375
5.580044 27.966796 -5.770838
5.255138 28.719077 -1.948904
8.999375 29.420275 -4.114952
4.344646 28.078467 -3.820232
-2.053872 24.209034 -6.691213
2.215548 26.114718 -7.217930
-1.065251 25.277573 -5.174236
1.108286 26.298770 -5.383272
11.664334 28.225400 -8.313727
6.837743 27.534197 -7.770092
10.393133 27.049536 -9.953602
10.400003 29.025126 -6.240720
8.006395 26.798671 -9.642478
7.911977 28.569366 -6.022656
-5.395661 19.117992 -11.815569
-1.901583 20.553345 -12.702666
-4.570536 18.569566 -13.078865
-4.667814 20.452071 -10.696864
6.411312 22.716662 -14.039669
2.016280 21.793054 -13.468848
5.242878 21.301216 -15.002813
5.463238 23.937229 -12.519674
-2.816647 17.172518 -15.405166
-0.988141 19.860468 -13.955571
-3.704824 17.915427 -14.285534
-0.966349 17.662935 -15.857592
-2.821261 19.242329 -13.531743
-3.018972 22.989635 -8.170432
-1.026687 21.994897 -11.540221
-3.871065 21.754980 -9.476190
-1.049746 23.932499 -8.492623
-2.893313 21.245114 -11.134978
3.031624 18.483188 -16.580945
1.016760 20.435677 -14.359758
4.110675 19.878002 -15.850466
0.990553 18.105334 -16.254773
3.066468 20.914753 -14.707839
0.000000 19.053425 -15.146914
3.367509 25.643765 -9.113700
1.061130 22.732786 -11.927374
4.435087 24.924722 -10.856889
1.089152 24.830890 -8.811423
3.183201 23.373713 -12.250619
0.000000 23.437603 -10.258501
0.000000 -10.497268 -19.949667
0.000000 -7.508668 -20.829409
0.000000 -1.502463 -21.678239
0.000000 -4.507113 -21.398792
0.000000 10.497268 -19.949667
0.000000 7.508668 -20.829409
0.000000 1.502463 -21.678239
0.000000 4.507113 -21.398792
20.852940 29.862278 -1.481450
24.235021 27.501103 -4.473580
19.802405 29.679250 -3.821334
26.938823 19.019679 -9.384237
26.287065 23.688802 -7.197982
17.175161 28.284957 -8.080850
22.926805 27.089111 -6.771752
18.552135 29.129314 -6.049177
21.512327 28.573762 -5.330698
22.088367 1.689226 -13.006134
23.797597 5.387282 -12.649965
26.485786 14.158631 -10.961000
25.330696 9.551528 -12.006872
11.257380 23.118750 -14.288173
16.358018 22.707152 -14.033792
12.698376 24.535755 -13.050893
25.312266 18.389979 -11.365632
21.261603 21.176219 -13.087623
25.195231 20.770163 -10.465378
15.669711 27.151527 -9.996260
18.024540 24.028913 -12.596664
14.185149 25.903748 -11.616150
18.581641 26.933292 -9.555509
15.370680 24.422093 -12.906439
24.044605 25.176994 -8.186303
20.683109 23.283635 -12.078515
24.782469 23.074052 -9.395950
21.430309 26.288991 -8.951294
23.071788 22.208070 -11.373964
19.763373 25.236625 -10.907464
12.549417 -17.971287 -0.891545
14.268411 -16.191322 -2.633828
12.136705 -18.190129 -2.342059
17.213913 -12.153579 -5.996530
15.819762 -14.256107 -4.331802
11.147273 -18.357914 -5.244751
13.809151 -16.316169 -4.078726
11.667404 -18.319373 -3.804317
12.999799 -17.266991 -3.221316
21.007744 -1.606584 -12.369839
20.386935 -4.615179 -10.836977
18.451002 -9.863439 -7.635848
19.518317 -7.359835 -9.251776
8.543916 -17.546236 -10.844170
11.423546 -15.857434 -9.800433
9.258411 -17.889068 -9.515432
16.630936 -12.082781 -7.467569
14.101431 -14.044801 -8.680165
15.999002 -13.189078 -6.645527
10.556712 -18.292032 -6.734498
12.083952 -16.109383 -8.445013
9.933541 -18.139813 -8.134529
11.956128 -17.329895 -6.148375
10.704994 -17.008900 -8.988760
14.600459 -15.288073 -4.970919
13.457930 -15.150021 -7.859157
15.318773 -14.262750 -5.807913
13.307605 -16.324707 -5.558496
14.742774 -14.190862 -7.267914
12.729203 -16.254419 -7.025285
1.476341 -11.367034 -19.304677
4.306478 -10.112112 -19.023290
2.392749 -12.399385 -18.583826
1.464676 -9.911063 -19.871010
9.632003 -7.456681 -18.018068
7.010990 -8.813256 -18.593178
4.212488 -14.262025 -16.851261
5.213233 -11.080283 -18.247592
3.313262 -13.370852 -17.759842
3.828182 -11.740596 -18.434294
1.449239 -6.951390 -20.763432
4.293675 -8.686293 -19.595799
1.457216 -8.429526 -20.358659
2.901786 -9.302629 -19.752181
19.912501 -0.987848 -13.904973
17.332474 -2.819458 -15.274037
19.749396 -2.542821 -13.177069
12.206783 -6.022780 -17.289270
14.766301 -4.486828 -16.385916
19.189756 -5.482403 -11.652383
17.212514 -4.302794 -14.567770
19.502803 -4.050075 -12.421118
18.476202 -3.446906 -13.910178
7.640452 -17.015960 -12.362510
8.771771 -14.250251 -14.193024
6.840795 -16.469105 -13.576617
9.153379 -16.240112 -11.860270
10.564939 -8.323915 -17.094431
9.741976 -11.355406 -15.762848
9.274551 -9.024036 -17.436209
5.141428 -15.101275 -15.812475
7.939509 -13.595524 -15.304915
6.000524 -15.826797 -14.735753
5.661394 -13.553955 -16.626909
7.415040 -15.041214 -14.478130
12.022162 -14.572629 -10.803952
10.262685 -13.495118 -13.692807
10.620734 -15.420185 -11.337863
9.729596 -14.880188 -12.814400
6.629341 -10.391872 -18.006407
8.436183 -12.071317 -16.092540
7.956217 -9.715794 -17.742181
6.158950 -11.976692 -17.359701
8.874073 -10.568411 -16.791886
7.075762 -12.820664 -16.371208
1.449305 -0.895720 -21.648333
4.315903 -2.667375 -21.133267
1.448916 -2.397543 -21.538416
9.697303 -5.993263 -18.602887
7.086491 -4.379692 -20.112016
8.387714 -6.687013 -18.903578
1.453297 -5.399649 -21.103885
4.306515 -4.164134 -20.870354
1.449263 -3.907876 -21.356359
2.890432 -6.321358 -20.665444
2.893547 -3.290753 -21.267391
5.713810 -8.016595 -19.398587
5.736455 -5.048126 -20.327775
7.053979 -7.365468 -19.169627
4.320161 -7.199441 -20.092752
7.080481 -5.879103 -19.678289
4.325728 -5.682719 -20.519736
17.326364 -10.708282 -8.436852
15.953762 -9.859967 -11.492939
17.861493 -9.500765 -9.244140
16.064793 -11.732233 -9.054564
12.085407 -7.469192 -16.634550
14.189896 -8.769838 -14.247110
13.354986 -6.729122 -16.200256
11.684411 -9.017656 -15.999310
18.788381 -6.917237 -10.843166
16.357244 -8.574949 -12.269876
18.353635 -8.230414 -10.050632
17.950789 -6.368658 -12.384491
17.158675 -9.067912 -10.799259
13.445729 -13.642695 -10.225125
14.612450 -10.833474 -12.055014
14.764449 -12.714729 -9.653918
12.637250 -13.191555 -11.740366
15.385580 -11.312420 -10.596900
15.895139 -5.168307 -15.180222
15.426787 -8.002731 -13.703785
14.631375 -5.958021 -15.714692
16.978372 -5.781066 -13.840461
14.435980 -7.393453 -14.997424
16.689307 -7.213247 -13.069774
10.784826 -12.000880 -14.546832
13.699187 -10.267466 -13.501406
11.248662 -10.537175 -15.298865
11.742430 -12.639472 -13.193874
12.738019 -9.671602 -14.791494
13.199951 -11.747839 -12.645293
1.512674 11.646777 -19.779765
4.598983 10.798948 -20.315392
2.499928 12.954791 -19.416252
1.495701 10.120998 -20.291915
10.790005 8.353155 -20.184279
7.717678 9.701607 -20.467318
4.623559 15.653768 -18.495672
5.699532 12.113871 -19.949759
3.542614 14.296412 -18.989219
4.097446 12.566397 -19.730910
1.470337 7.052585 -21.065696
4.539771 9.184155 -20.718948
1.483207 8.579875 -20.721777
3.019328 9.679446 -20.552273
20.490614 1.016528 -14.308672
18.670629 3.037135 -16.453270
21.321467 2.745232 -14.225977
19.165185 0.000000 -15.052622
13.715677 6.767263 -19.426416
16.380488 4.977308 -18.177151
22.895918 6.541233 -13.902835
19.358952 4.839362 -16.384403
22.130709 4.595803 -14.094802
20.404954 3.806732 -15.362277
16.519334 -1.877391 -16.324833
17.295219 1.965569 -17.091584
17.832681 -0.967134 -15.726624
18.284169 0.991620 -16.124790
9.608438 21.398839 -15.546779
10.909610 17.723294 -17.652119
8.287303 19.951551 -16.447437
12.023222 21.331846 -15.578800
12.188880 9.603387 -19.722021
11.752354 13.698736 -19.015708
10.615608 10.328870 -19.957405
5.819967 17.094263 -17.899324
9.525490 16.311339 -18.362194
7.016293 18.505959 -17.230222
6.398040 15.317559 -18.790358
8.961971 18.179123 -17.498568
16.925508 20.516205 -15.210439
13.158235 17.302679 -17.556145
14.495683 21.046201 -15.474455
12.661000 19.363401 -16.675217
7.388016 11.581139 -20.067097
9.997884 14.305952 -19.071581
9.000675 10.991242 -20.071299
6.923294 13.463036 -19.514093
10.352602 12.329236 -19.589618
8.206345 14.869180 -18.987039
1.451973 0.897369 -21.688183
4.387925 2.711887 -21.485931
1.456087 2.409408 -21.645005
2.907837 0.000000 -21.582724
10.608241 6.556253 -20.350390
7.419601 4.585566 -21.057408
9.144277 7.290175 -20.608662
1.469697 5.460583 -21.342039
4.420059 4.273924 -21.420615
1.461011 3.939554 -21.529477
2.968138 6.491299 -21.221008
2.933313 3.335977 -21.559667
5.797996 -1.779699 -20.977348
5.884495 1.806250 -21.290303
4.369045 -0.899481 -21.343992
4.393529 0.904522 -21.463601
6.124243 8.592441 -20.792022
5.986848 5.268474 -21.215071
7.637374 7.974625 -20.755040
4.523700 7.538633 -21.039394
7.538088 6.259066 -20.950087
4.484417 5.891189 -21.272501
25.132382 15.532666 -12.237893
21.412570 13.233696 -15.425413
24.767783 13.174312 -12.818461
23.509007 17.168796 -13.250330
14.004520 8.655270 -19.276049
17.626771 10.893944 -17.697843
15.463936 7.791751 -18.758517
13.945542 10.762725 -19.095447
23.625365 8.698048 -13.634689
21.058984 11.039740 -15.796741
24.250801 10.874910 -13.279979
21.821878 7.742060 -15.055208
22.930085 12.117951 -14.431646
19.382704 19.666641 -14.740040
19.662462 14.577485 -16.221185
21.557200 18.564456 -14.095443
17.382662 18.145114 -16.148989
21.591462 15.875364 -14.871234
18.141721 5.898783 -17.325759
19.122122 9.919707 -16.986391
16.856033 6.863920 -18.104064
19.975820 6.801685 -16.283927
17.277181 8.848587 -17.949126
20.550343 8.882017 -16.093439
13.545099 15.072390 -18.269954
17.653180 13.230962 -17.398313
13.796255 12.923631 -18.763747
15.415223 16.592841 -17.320650
15.780395 11.981588 -18.324326
17.616596 15.678613 -16.876353
11.245295 -5.135242 -18.195270
11.776455 -1.762930 -19.054704
12.542384 -4.383057 -17.807862
9.972914 -4.351902 -19.067901
12.293928 5.614107 -19.891993
12.138194 1.817082 -19.640011
13.648148 4.769477 -19.377842
10.647781 4.646395 -20.358226
15.152196 -2.770394 -16.890526
13.111307 -0.928362 -18.658979
13.851665 -3.592304 -17.371314
15.547255 -0.947437 -17.317268
12.846388 -2.678370 -18.267745
7.269508 -2.686081 -20.454653
10.394030 -0.924715 -19.810334
8.636438 -3.528023 -19.827118
7.361128 -0.909885 -20.743908
10.207004 -2.652188 -19.474574
16.140549 2.951103 -17.992268
13.342980 0.944766 -18.988677
14.942951 3.875320 -18.739892
15.881578 0.967811 -17.689652
13.521085 2.819039 -19.227172
14.478501 0.000000 -18.212624
7.478949 2.763469 -21.043968
10.538247 0.937545 -20.085201
9.034467 3.690620 -20.740894
7.431853 0.918628 -20.943213
10.621701 2.759943 -20.265800
8.949295 0.000000 -20.446460
20.852940 29.862278 1.481450
24.235021 27.501103 4.473580
19.802405 29.679250 3.821334
22.905614 29.163711 0.000000
26.938823 19.019679 9.384237
26.287065 23.688802 7.197982
17.175161 28.284957 8.080850
22.926805 27.089111 6.771752
18.552135 29.129314 6.049177
21.512327 28.573762 5.330698
26.178589 26.490491 -3.010594
26.178589 26.490491 3.010594
24.717188 28.027233 -1.520023
24.717188 28.027233 1.520023
22.088367 1.689226 13.006134
23.797597 5.387282 12.649965
26.485786 14.158631 10.961000
25.330696 9.551528 12.006872
11.257380 23.118750 14.288173
16.358018 22.707152 14.033792
12.698376 24.535755 13.050893
25.312266 18.389979 11.365632
21.261603 21.176219 13.087623
25.195231 20.770163 10.465378
15.669711 27.151527 9.996260
18.024540 24.028913 12.596664
14.185149 25.903748 11.616150
18.581641 26.933292 9.555509
15.370680 24.422093 12.906439
24.044605 25.176994 8.186303
20.683109 23.283635 12.078515
24.782469 23.074052 9.395950
21.430309 26.288991 8.951294
23.071788 22.208070 11.373964
19.763373 25.236625 10.907464
28.293208 17.486164 -7.985178
30.172909 18.647883 -2.791580
28.305971 19.936383 -6.966961
28.293208 17.486164 7.985178
30.172909 18.647883 2.791580
28.305971 19.936383 6.966961
27.311979 24.501099 -4.479727
29.828881 20.960183 -1.484111
27.991084 22.319734 -5.788422
27.835157 24.990102 -1.522877
29.303522 20.607055 -4.296408
27.311979 24.501099 4.479727
29.828881 20.960183 1.484111
27.991084 22.319734 5.788422
27.835157 24.990102 1.522877
29.303522 20.607055 4.296408
29.066931 23.107357 0.000000
12.549417 -17.971287 0.891545
14.268411 -16.191322 2.633828
12.136705 -18.190129 2.342059
13.475665 -17.157383 0.000000
17.213913 -12.153579 5.996530
15.819762 -14.256107 4.331802
11.147273 -18.357914 5.244751
13.809151 -16.316169 4.078726
11.667404 -18.319373 3.804317
12.999799 -17.266991 3.221316
15.212721 -15.393971 -1.749495
15.212721 -15.393971 1.749495
14.368486 -16.292666 -0.883613
14.368486 -16.292666 0.883613
21.007744 -1.606584 12.369839
20.386935 -4.615179 10.836977
18.451002 -9.863439 7.635848
19.518317 -7.359835 9.251776
8.543916 -17.546236 10.844170
11.423546 -15.857434 9.800433
9.258411 -17.889068 9.515432
16.630936 -12.082781 7.467569
14.101431 -14.044801 8.680165
15.999002 -13.189078 6.645527
10.556712 -18.292032 6.734498
12.083952 -16.109383 8.445013
9.933541 -18.139813 8.134529
11.956128 -17.329895 6.148375
10.704994 -17.008900 8.988760
14.600459 -15.288073 4.970919
13.457930 -15.150021 7.859157
15.318773 -14.262750 5.807913
13.307605 -16.324707 5.558496
14.742774 -14.190862 7.267914
12.729203 -16.254419 7.025285
18.266243 -11.289159 -5.155273
18.743872 -11.584350 -1.734172
17.568215 -12.373597 -4.324073
18.266243 -11.289159 5.155273
18.743872 -11.584350 1.734172
17.568215 -12.373597 4.324073
16.058865 -14.406127 -2.633985
17.928226 -12.597821 -0.892004
16.827644 -13.418149 -3.479876
16.159026 -14.507398 -0.884069
17.807839 -12.522970 -2.610940
16.058865 -14.406127 2.633985
17.928226 -12.597821 0.892004
16.827644 -13.418149 3.479876
16.159026 -14.507398 0.884069
17.807839 -12.522970 2.610940
17.070002 -13.570151 0.000000
1.476341 -11.367034 19.304677
4.306478 -10.112112 19.023290
2.392749 -12.399385 18.583826
1.464676 -9.911063 19.871010
9.632003 -7.456681 18.018068
7.010990 -8.813256 18.593178
4.212488 -14.262025 16.851261
5.213233 -11.080283 18.247592
3.313262 -13.370852 17.759842
3.828182 -11.740596 18.434294
1.449239 -6.951390 20.763432
4.293675 -8.686293 19.595799
1.457216 -8.429526 20.358659
2.901786 -9.302629 19.752181
19.912501 -0.987848 13.904973
17.332474 -2.819458 15.274037
19.749396 -2.542821 13.177069
12.206783 -6.022780 17.289270
14.766301 -4.486828 16.385916
19.189756 -5.482403 11.652383
17.212514 -4.302794 14.567770
19.502803 -4.050075 12.421118
18.476202 -3.446906 13.910178
7.640452 -17.015960 12.362510
8.771771 -14.250251 14.193024
6.840795 -16.469105 13.576617
9.153379 -16.240112 11.860270
10.564939 -8.323915 17.094431
9.741976 -11.355406 15.762848
9.274551 -9.024036 17.436209
5.141428 -15.101275 15.812475
7.939509 -13.595524 15.304915
6.000524 -15.826797 14.735753
5.661394 -13.553955 16.626909
7.415040 -15.041214 14.478130
12.022162 -14.572629 10.803952
10.262685 -13.495118 13.692807
10.620734 -15.420185 11.337863
9.729596 -14.880188 12.814400
6.629341 -10.391872 18.006407
8.436183 -12.071317 16.092540
7.956217 -9.715794 17.742181
6.158950 -11.976692 17.359701
8.874073 -10.568411 16.791886
7.075762 -12.820664 16.371208
1.449305 -0.895720 21.648333
4.315903 -2.667375 21.133267
1.448916 -2.397543 21.538416
9.697303 -5.993263 18.602887
7.086491 -4.379692 20.112016
8.387714 -6.687013 18.903578
1.453297 -5.399649 21.103885
4.306515 -4.164134 20.870354
1.449263 -3.907876 21.356359
2.890432 -6.321358 20.665444
2.893547 -3.290753 21.267391
5.713810 -8.016595 19.398587
5.736455 -5.048126 20.327775
7.053979 -7.365468 19.169627
4.320161 -7.199441 20.092752
7.080481 -5.879103 19.678289
4.325728 -5.682719 20.519736
17.326364 -10.708282 8.436852
15.953762 -9.859967 11.492939
17.861493 -9.500765 9.244140
16.064793 -11.732233 9.054564
12.085407 -7.469192 16.634550
14.189896 -8.769838 14.247110
13.354986 -6.729122 16.200256
11.684411 -9.017656 15.999310
18.788381 -6.917237 10.843166
16.357244 -8.574949 12.269876
18.353635 -8.230414 10.050632
17.950789 -6.368658 12.384491
17.158675 -9.067912 10.799259
13.445729 -13.642695 10.225125
14.612450 -10.833474 12.055014
14.764449 -12.714729 9.653918
12.637250 -13.191555 11.740366
15.385580 -11.312420 10.596900
15.895139 -5.168307 15.180222
15.426787 -8.002731 13.703785
14.631375 -5.958021 15.714692
16.978372 -5.781066 13.840461
14.435980 -7.393453 14.997424
16.689307 -7.213247 13.069774
10.784826 -12.000880 14.546832
13.699187 -10.267466 13.501406
11.248662 -10.537175 15.298865
11.742430 -12.639472 13.193874
12.738019 -9.671602 14.791494
13.199951 -11.747839 12.645293
1.512674 11.646777 19.779765
4.598983 10.798948 20.315392
2.499928 12.954791 19.416252
1.495701 10.120998 20.291915
10.790005 8.353155 20.184279
7.717678 9.701607 20.467318
4.623559 15.653768 18.495672
5.699532 12.113871 19.949759
3.542614 14.296412 18.989219
4.097446 12.566397 19.730910
1.470337 7.052585 21.065696
4.539771 9.184155 20.718948
1.483207 8.579875 20.721777
3.019328 9.679446 20.552273
20.490614 1.016528 14.308672
18.670629 3.037135 16.453270
21.321467 2.745232 14.225977
19.165185 0.000000 15.052622
13.715677 6.767263 19.426416
16.380488 4.977308 18.177151
22.895918 6.541233 13.902835
19.358952 4.839362 16.384403
22.130709 4.595803 14.094802
20.404954 3.806732 15.362277
16.519334 -1.877391 16.324833
17.295219 1.965569 17.091584
17.832681 -0.967134 15.726624
18.284169 0.991620 16.124790
9.608438 21.398839 15.546779
10.909610 17.723294 17.652119
8.287303 19.951551 16.447437
12.023222 21.331846 15.578800
12.188880 9.603387 19.722021
11.752354 13.698736 19.015708
10.615608 10.328870 19.957405
5.819967 17.094263 17.899324
9.525490 16.311339 18.362194
7.016293 18.505959 17.230222
6.398040 15.317559 18.790358
8.961971 18.179123 17.498568
16.925508 20.516205 15.210439
13.158235 17.302679 17.556145
14.495683 21.046201 15.474455
12.661000 19.363401 16.675217
7.388016 11.581139 20.067097
9.997884 14.305952 19.071581
9.000675 10.991242 20.071299
6.923294 13.463036 19.514093
10.352602 12.329236 19.589618
8.206345 14.869180 18.987039
1.451973 0.897369 21.688183
4.387925 2.711887 21.485931
1.456087 2.409408 21.645005
2.907837 0.000000 21.582724
10.608241 6.556253 20.350390
7.419601 4.585566 21.057408
9.144277 7.290175 20.608662
1.469697 5.460583 21.342039
4.420059 4.273924 21.420615
1.461011 3.939554 21.529477
2.968138 6.491299 21.221008
2.933313 3.335977 21.559667
5.797996 -1.779699 20.977348
5.884495 1.806250 21.290303
4.369045 -0.899481 21.343992
4.393529 0.904522 21.463601
6.124243 8.592441 20.792022
5.986848 5.268474 21.215071
7.637374 7.974625 20.755040
4.523700 7.538633 21.039394
7.538088 6.259066 20.950087
4.484417 5.891189 21.272501
25.132382 15.532666 12.237893
21.412570 13.233696 15.425413
24.767783 13.174312 12.818461
23.509007 17.168796 13.250330
14.004520 8.655270 19.276049
17.626771 10.893944 17.697843
15.463936 7.791751 18.758517
13.945542 10.762725 19.095447
23.625365 8.698048 13.634689
21.058984 11.039740 15.796741
24.250801 10.874910 13.279979
21.821878 7.742060 15.055208
22.930085 12.117951 14.431646
19.382704 19.666641 14.740040
19.662462 14.577485 16.221185
21.557200 18.564456 14.095443
17.382662 18.145114 16.148989
21.591462 15.875364 14.871234
18.141721 5.898783 17.325759
19.122122 9.919707 16.986391
16.856033 6.863920 18.104064
19.975820 6.801685 16.283927
17.277181 8.848587 17.949126
20.550343 8.882017 16.093439
13.545099 15.072390 18.269954
17.653180 13.230962 17.398313
13.796255 12.923631 18.763747
15.415223 16.592841 17.320650
15.780395 11.981588 18.324326
17.616596 15.678613 16.876353
11.245295 -5.135242 18.195270
11.776455 -1.762930 19.054704
12.542384 -4.383057 17.807862
9.972914 -4.351902 19.067901
12.293928 5.614107 19.891993
12.138194 1.817082 19.640011
13.648148 4.769477 19.377842
10.647781 4.646395 20.358226
15.152196 -2.770394 16.890526
13.111307 -0.928362 18.658979
13.851665 -3.592304 17.371314
15.547255 -0.947437 17.317268
12.846388 -2.678370 18.267745
7.269508 -2.686081 20.454653
10.394030 -0.924715 19.810334
8.636438 -3.528023 19.827118
7.361128 -0.909885 20.743908
10.207004 -2.652188 19.474574
16.140549 2.951103 17.992268
13.342980 0.944766 18.988677
14.942951 3.875320 18.739892
15.881578 0.967811 17.689652
13.521085 2.819039 19.227172
14.478501 0.000000 18.212624
7.478949 2.763469 21.043968
10.538247 0.937545 20.085201
9.034467 3.690620 20.740894
7.431853 0.918628 20.943213
10.621701 2.759943 20.265800
8.949295 0.000000 20.446460
22.353117 0.000000 -11.761934
24.327301 0.000000 -8.769603
23.279757 1.715932 -11.611244
22.066620 -1.626513 -11.006168
26.497500 0.000000 -1.836474
25.749838 0.000000 -5.423551
25.087149 5.496896 -11.120462
25.318424 1.767167 -8.476356
24.201400 3.555420 -11.398065
24.370367 1.744363 -10.090578
21.278598 -4.662397 -9.432233
23.854153 -1.664964 -7.986132
21.704190 -3.188555 -10.221961
23.025502 -1.648101 -9.533735
22.353117 0.000000 11.761934
24.327301 0.000000 8.769603
23.279757 1.715932 11.611244
22.066620 -1.626513 11.006168
26.497500 0.000000 1.836474
25.749838 0.000000 5.423551
25.087149 5.496896 11.120462
25.318424 1.767167 8.476356
24.201400 3.555420 11.398065
24.370367 1.744363 10.090578
21.278598 -4.662397 9.432233
23.854153 -1.664964 7.986132
21.704190 -3.188555 10.221961
23.025502 -1.648101 9.533735
27.936107 14.562519 -9.000132
28.964597 10.205708 -6.307474
27.415686 12.164624 -9.698113
29.212889 15.278956 -6.667311
27.426877 1.836165 -1.134813
28.652764 5.851559 -3.616462
27.200142 1.829788 -3.027777
25.971922 7.649970 -10.733069
28.189185 7.954928 -7.000401
26.741965 9.840423 -10.274957
26.281898 5.650895 -9.417076
27.976299 10.066203 -8.358224
30.627643 16.069626 -1.429649
29.791712 10.587865 -3.912213
30.141293 15.797640 -4.104859
29.701167 12.937447 -5.285004
26.150973 1.800859 -6.690999
28.094588 5.797207 -5.605541
26.767768 1.816487 -4.898079
26.330161 3.682744 -8.054139
27.749513 3.775476 -4.293747
27.302675 5.755627 -7.561181
19.049841 -9.930291 -6.137257
21.376159 -7.531913 -4.654978
19.667143 -8.726516 -6.957119
19.422147 -10.158192 -4.432752
25.660331 -1.717899 -1.061720
23.598899 -4.819442 -2.978579
25.466798 -1.713183 -2.834830
20.781468 -6.121134 -8.588079
22.051134 -6.222784 -5.476099
20.248413 -7.450947 -7.779966
22.055077 -4.742083 -7.902562
20.872899 -7.510316 -6.236006
19.803326 -10.390354 -0.924388
21.658341 -7.697295 -2.844148
19.676021 -10.312586 -2.679623
20.560786 -8.956014 -3.658571
24.566122 -1.691720 -6.285498
23.246304 -4.796783 -4.638193
25.097693 -1.703154 -4.592482
23.325356 -3.262469 -7.134999
24.372658 -3.316036 -3.771238
22.717339 -4.789001 -6.291322
27.936107 14.562519 9.000132
28.964597 10.205708 6.307474
27.415686 12.164624 9.698113
29.212889 15.278956 6.667311
27.426877 1.836165 1.134813
28.652764 5.851559 3.616462
27.200142 1.829788 3.027777
28.293048 3.811918 0.000000
25.971922 7.649970 10.733069
28.189185 7.954928 7.000401
26.741965 9.840423 10.274957
26.281898 5.650895 9.417076
27.976299 10.066203 8.358224
30.627643 16.069626 1.429649
29.791712 10.587865 3.912213
30.141293 15.797640 4.104859
30.627547 13.405497 0.000000
29.701167 12.937447 5.285004
26.150973 1.800859 6.690999
28.094588 5.797207 5.605541
26.767768 1.816487 4.898079
26.330161 3.682744 8.054139
27.749513 3.775476 4.293747
27.302675 5.755627 7.561181
29.533028 8.162728 -2.505555
29.533028 8.162728 2.505555
29.017393 5.939765 -1.222855
30.227818 10.726563 -1.325876
29.017393 5.939765 1.222855
30.227818 10.726563 1.325876
19.049841 -9.930291 6.137257
21.376159 -7.531913 4.654978
19.667143 -8.726516 6.957119
19.422147 -10.158192 4.432752
25.660331 -1.717899 1.061720
23.598899 -4.819442 2.978579
25.466798 -1.713183 2.834830
24.766890 -3.336839 0.000000
20.781468 -6.121134 8.588079
22.051134 -6.222784 5.476099
20.248413 -7.450947 7.779966
22.055077 -4.742083 7.902562
20.872899 -7.510316 6.236006
19.803326 -10.390354 0.924388
21.658341 -7.697295 2.844148
19.676021 -10.312586 2.679623
20.833745 -9.118807 0.000000
20.560786 -8.956014 3.658571
24.566122 -1.691720 6.285498
23.246304 -4.796783 4.638193
25.097693 -1.703154 4.592482
23.325356 -3.262469 7.134999
24.372658 -3.316036 3.771238
22.717339 -4.789001 6.291322
22.773151 -6.294344 -1.932053
22.773151 -6.294344 1.932053
23.792345 -4.870215 -1.002660
21.832109 -7.747284 -0.957617
23.792345 -4.870215 1.002660
21.832109 -7.747284 0.957617
-12.549417 17.971287 -0.891545
-14.268411 16.191322 -2.633828
-12.136705 18.190129 -2.342059
-17.213913 12.153579 -5.996530
-15.819762 14.256107 -4.331802
-11.147273 18.357914 -5.244751
-13.809151 16.316169 -4.078726
-11.667404 18.319373 -3.804317
-12.999799 17.266991 -3.221316
-21.007744 1.606584 -12.369839
-20.386935 4.615179 -10.836977
-18.451002 9.863439 -7.635848
-19.518317 7.359835 -9.251776
-8.543916 17.546236 -10.844170
-11.423546 15.857434 -9.800433
-9.258411 17.889068 -9.515432
-16.630936 12.082781 -7.467569
-14.101431 14.044801 -8.680165
-15.999002 13.189078 -6.645527
-10.556712 18.292032 -6.734498
-12.083952 16.109383 -8.445013
-9.933541 18.139813 -8.134529
-11.956128 17.329895 -6.148375
-10.704994 17.008900 -8.988760
-14.600459 15.288073 -4.970919
-13.457930 15.150021 -7.859157
-15.318773 14.262750 -5.807913
-13.307605 16.324707 -5.558496
-14.742774 14.190862 -7.267914
-12.729203 16.254419 -7.025285
-20.852940 -29.862278 -1.481450
-24.235021 -27.501103 -4.473580
-19.802405 -29.679250 -3.821334
-26.938823 -19.019679 -9.384237
-26.287065 -23.688802 -7.197982
-17.175161 -28.284957 -8.080850
-22.926805 -27.089111 -6.771752
-18.552135 -29.129314 -6.049177
-21.512327 -28.573762 -5.330698
-22.088367 -1.689226 -13.006134
-23.797597 -5.387282 -12.649965
-26.485786 -14.158631 -10.961000
-25.330696 -9.551528 -12.006872
-11.257380 -23.118750 -14.288173
-16.358018 -22.707152 -14.033792
-12.698376 -24.535755 -13.050893
-25.312266 -18.389979 -11.365632
-21.261603 -21.176219 -13.087623
-25.195231 -20.770163 -10.465378
-15.669711 -27.151527 -9.996260
-18.024540 -24.028913 -12.596664
-14.185149 -25.903748 -11.616150
-18.581641 -26.933292 -9.555509
-15.370680 -24.422093 -12.906439
-24.044605 -25.176994 -8.186303
-20.683109 -23.283635 -12.078515
-24.782469 -23.074052 -9.395950
-21.430309 -26.288991 -8.951294
-23.071788 -22.208070 -11.373964
-19.763373 -25.236625 -10.907464
-1.512674 -11.646777 -19.779765
-4.598983 -10.798948 -20.315392
-2.499928 -12.954791 -19.416252
-1.495701 -10.120998 -20.291915
-10.790005 -8.353155 -20.184279
-7.717678 -9.701607 -20.467318
-4.623559 -15.653768 -18.495672
-5.699532 -12.113871 -19.949759
-3.542614 -14.296412 -18.989219
-4.097446 -12.566397 -19.730910
-1.470337 -7.052585 -21.065696
-4.539771 -9.184155 -20.718948
-1.483207 -8.579875 -20.721777
-3.019328 -9.679446 -20.552273
-20.490614 -1.016528 -14.308672
-18.670629 -3.037135 -16.453270
-21.321467 -2.745232 -14.225977
-13.715677 -6.767263 -19.426416
-16.380488 -4.977308 -18.177151
-22.895918 -6.541233 -13.902835
-19.358952 -4.839362 -16.384403
-22.130709 -4.595803 -14.094802
-20.404954 -3.806732 -15.362277
-9.608438 -21.398839 -15.546779
-10.909610 -17.723294 -17.652119
-8.287303 -19.951551 -16.447437
-12.023222 -21.331846 -15.578800
-12.188880 -9.603387 -19.722021
-11.752354 -13.698736 -19.015708
-10.615608 -10.328870 -19.957405
-5.819967 -17.094263 -17.899324
-9.525490 -16.311339 -18.362194
-7.016293 -18.505959 -17.230222
-6.398040 -15.317559 -18.790358
-8.961971 -18.179123 -17.498568
-16.925508 -20.516205 -15.210439
-13.158235 -17.302679 -17.556145
-14.495683 -21.046201 -15.474455
-12.661000 -19.363401 -16.675217
-7.388016 -11.581139 -20.067097
-9.997884 -14.305952 -19.071581
-9.000675 -10.991242 -20.071299
-6.923294 -13.463036 -19.514093
-10.352602 -12.329236 -19.589618
-8.206345 -14.869180 -18.987039
-1.451973 -0.897369 -21.688183
-4.387925 -2.711887 -21.485931
-1.456087 -2.409408 -21.645005
-10.608241 -6.556253 -20.350390
-7.419601 -4.585566 -21.057408
-9.144277 -7.290175 -20.608662
-1.469697 -5.460583 -21.342039
-4.420059 -4.273924 -21.420615
-1.461011 -3.939554 -21.529477
-2.968138 -6.491299 -21.221008
-2.933313 -3.335977 -21.559667
-6.124243 -8.592441 -20.792022
-5.986848 -5.268474 -21.215071
-7.637374 -7.974625 -20.755040
-4.523700 -7.538633 -21.039394
-7.538088 -6.259066 -20.950087
-4.484417 -5.891189 -21.272501
-25.132382 -15.532666 -12.237893
-21.412570 -13.233696 -15.425413
-24.767783 -13.174312 -12.818461
-23.509007 -17.168796 -13.250330
-14.004520 -8.655270 -19.276049
-17.626771 -10.893944 -17.697843
-15.463936 -7.791751 -18.758517
-13.945542 -10.762725 -19.095447
-23.625365 -8.698048 -13.634689
-21.058984 -11.039740 -15.796741
-24.250801 -10.874910 -13.279979
-21.821878 -7.742060 -15.055208
-22.930085 -12.117951 -14.431646
-19.382704 -19.666641 -14.740040
-19.662462 -14.577485 -16.221185
-21.557200 -18.564456 -14.095443
-17.382662 -18.145114 -16.148989
-21.591462 -15.875364 -14.871234
-18.141721 -5.898783 -17.325759
-19.122122 -9.919707 -16.986391
-16.856033 -6.863920 -18.104064
-19.975820 -6.801685 -16.283927
-17.277181 -8.848587 -17.949126
-20.550343 -8.882017 -16.093439
-13.545099 -15.072390 -18.269954
-17.653180 -13.230962 -17.398313
-13.796255 -12.923631 -18.763747
-15.415223 -16.592841 -17.320650
-15.780395 -11.981588 -18.324326
-17.616596 -15.678613 -16.876353
-1.476341 11.367034 -19.304677
-4.306478 10.112112 -19.023290
-2.392749 12.399385 -18.583826
-1.464676 9.911063 -19.871010
-9.632003 7.456681 -18.018068
-7.010990 8.813256 -18.593178
-4.212488 14.262025 -16.851261
-5.213233 11.080283 -18.247592
-3.313262 13.370852 -17.759842
-3.828182 11.740596 -18.434294
-1.449239 6.951390 -20.763432
-4.293675 8.686293 -19.595799
-1.457216 8.429526 -20.358659
-2.901786 9.302629 -19.752181
-19.912501 0.987848 -13.904973
-17.332474 2.819458 -15.274037
-19.749396 2.542821 -13.177069
-19.165185 0.000000 -15.052622
-12.206783 6.022780 -17.289270
-14.766301 4.486828 -16.385916
-19.189756 5.482403 -11.652383
-17.212514 4.302794 -14.567770
-19.502803 4.050075 -12.421118
-18.476202 3.446906 -13.910178
-17.295219 -1.965569 -17.091584
-16.519334 1.877391 -16.324833
-18.284169 -0.991620 -16.124790
-17.832681 0.967134 -15.726624
-7.640452 17.015960 -12.362510
-8.771771 14.250251 -14.193024
-6.840795 16.469105 -13.576617
-9.153379 16.240112 -11.860270
-10.564939 8.323915 -17.094431
-9.741976 11.355406 -15.762848
-9.274551 9.024036 -17.436209
-5.141428 15.101275 -15.812475
-7.939509 13.595524 -15.304915
-6.000524 15.826797 -14.735753
-5.661394 13.553955 -16.626909
-7.415040 15.041214 -14.478130
-12.022162 14.572629 -10.803952
-10.262685 13.495118 -13.692807
-10.620734 15.420185 -11.337863
-9.729596 14.880188 -12.814400
-6.629341 10.391872 -18.006407
-8.436183 12.071317 -16.092540
-7.956217 9.715794 -17.742181
-6.158950 11.976692 -17.359701
-8.874073 10.568411 -16.791886
-7.075762 12.820664 -16.371208
-1.449305 0.895720 -21.648333
-4.315903 2.667375 -21.133267
-1.448916 2.397543 -21.538416
-2.907837 0.000000 -21.582724
-9.697303 5.993263 -18.602887
-7.086491 4.379692 -20.112016
-8.387714 6.687013 -18.903578
-1.453297 5.399649 -21.103885
-4.306515 4.164134 -20.870354
-1.449263 3.907876 -21.356359
-2.890432 6.321358 -20.665444
-2.893547 3.290753 -21.267391
-5.884495 -1.806250 -21.290303
-5.797996 1.779699 -20.977348
-4.393529 -0.904522 -21.463601
-4.369045 0.899481 -21.343992
-5.713810 8.016595 -19.398587
-5.736455 5.048126 -20.327775
-7.053979 7.365468 -19.169627
-4.320161 7.199441 -20.092752
-7.080481 5.879103 -19.678289
-4.325728 5.682719 -20.519736
-17.326364 10.708282 -8.436852
-15.953762 9.859967 -11.492939
-17.861493 9.500765 -9.244140
-16.064793 11.732233 -9.054564
-12.085407 7.469192 -16.634550
-14.189896 8.769838 -14.247110
-13.354986 6.729122 -16.200256
-11.684411 9.017656 -15.999310
-18.788381 6.917237 -10.843166
-16.357244 8.574949 -12.269876
-18.353635 8.230414 -10.050632
-17.950789 6.368658 -12.384491
-17.158675 9.067912 -10.799259
-13.445729 13.642695 -10.225125
-14.612450 10.833474 -12.055014
-14.764449 12.714729 -9.653918
-12.637250 13.191555 -11.740366
-15.385580 11.312420 -10.596900
-15.895139 5.168307 -15.180222
-15.426787 8.002731 -13.703785
-14.631375 5.958021 -15.714692
-16.978372 5.781066 -13.840461
-14.435980 7.393453 -14.997424
-16.689307 7.213247 -13.069774
-10.784826 12.000880 -14.546832
-13.699187 10.267466 -13.501406
-11.248662 10.537175 -15.298865
-11.742430 12.639472 -13.193874
-12.738019 9.671602 -14.791494
-13.199951 11.747839 -12.645293
-12.293928 -5.614107 -19.891993
-12.138194 -1.817082 -19.640011
-13.648148 -4.769477 -19.377842
-10.647781 -4.646395 -20.358226
-11.245295 5.135242 -18.195270
-11.776455 1.762930 -19.054704
-12.542384 4.383057 -17.807862
-9.972914 4.351902 -19.067901
-16.140549 -2.951103 -17.992268
-13.342980 -0.944766 -18.988677
-14.942951 -3.875320 -18.739892
-15.881578 -0.967811 -17.689652
-13.521085 -2.819039 -19.227172
-7.478949 -2.763469 -21.043968
-10.538247 -0.937545 -20.085201
-9.034467 -3.690620 -20.740894
-7.431853 -0.918628 -20.943213
-10.621701 -2.759943 -20.265800
-15.152196 2.770394 -16.890526
-13.111307 0.928362 -18.658979
-13.851665 3.592304 -17.371314
-15.547255 0.947437 -17.317268
-12.846388 2.678370 -18.267745
-14.478501 0.000000 -18.212624
-7.269508 2.686081 -20.454653
-10.394030 0.924715 -19.810334
-8.636438 3.528023 -19.827118
-7.361128 0.909885 -20.743908
-10.207004 2.652188 -19.474574
-8.949295 0.000000 -20.446460
-12.549417 17.971287 0.891545
-14.268411 16.191322 2.633828
-12.136705 18.190129 2.342059
-13.475665 17.157383 0.000000
-17.213913 12.153579 5.996530
-15.819762 14.256107 4.331802
-11.147273 18.357914 5.244751
-13.809151 16.316169 4.078726
-11.667404 18.319373 3.804317
-12.999799 17.266991 3.221316
-15.212721 15.393971 -1.749495
-15.212721 15.393971 1.749495
-14.368486 16.292666 -0.883613
-14.368486 16.292666 0.883613
-21.007744 1.606584 12.369839
-20.386935 4.615179 10.836977
-18.451002 9.863439 7.635848
-19.518317 7.359835 9.251776
-8.543916 17.546236 10.844170
-11.423546 15.857434 9.800433
-9.258411 17.889068 9.515432
-16.630936 12.082781 7.467569
-14.101431 14.044801 8.680165
-15.999002 13.189078 6.645527
-10.556712 18.292032 6.734498
-12.083952 16.109383 8.445013
-9.933541 18.139813 8.134529
-11.956128 17.329895 6.148375
-10.704994 17.008900 8.988760
-14.600459 15.288073 4.970919
-13.457930 15.150021 7.859157
-15.318773 14.262750 5.807913
-13.307605 16.324707 5.558496
-14.742774 14.190862 7.267914
-12.729203 16.254419 7.025285
-18.266243 11.289159 -5.155273
-18.743872 11.584350 -1.734172
-17.568215 12.373597 -4.324073
-18.266243 11.289159 5.155273
-18.743872 11.584350 1.734172
-17.568215 12.373597 4.324073
-16.058865 14.406127 -2.633985
-17.928226 12.597821 -0.892004
-16.827644 13.418149 -3.479876
-16.159026 14.507398 -0.884069
-17.807839 12.522970 -2.610940
-16.058865 14.406127 2.633985
-17.928226 12.597821 0.892004
-16.827644 13.418149 3.479876
-16.159026 14.507398 0.884069
-17.807839 12.522970 2.610940
-17.070002 13.570151 0.000000
-20.852940 -29.862278 1.481450
-24.235021 -27.501103 4.473580
-19.802405 -29.679250 3.821334
-22.905614 -29.163711 0.000000
-26.938823 -19.019679 9.384237
-26.287065 -23.688802 7.197982
-17.175161 -28.284957 8.080850
-22.926805 -27.089111 6.771752
-18.552135 -29.129314 6.049177
-21.512327 -28.573762 5.330698
-26.178589 -26.490491 -3.010594
-26.178589 -26.490491 3.010594
-24.717188 -28.027233 -1.520023
-24.717188 -28.027233 1.520023
-22.088367 -1.689226 13.006134
-23.797597 -5.387282 12.649965
-26.485786 -14.158631 10.961000
-25.330696 -9.551528 12.006872
-11.257380 -23.118750 14.288173
-16.358018 -22.707152 14.033792
-12.698376 -24.535755 13.050893
-25.312266 -18.389979 11.365632
-21.261603 -21.176219 13.087623
-25.195231 -20.770163 10.465378
-15.669711 -27.151527 9.996260
-18.024540 -24.028913 12.596664
-14.185149 -25.903748 11.616150
-18.581641 -26.933292 9.555509
-15.370680 -24.422093 12.906439
-24.044605 -25.176994 8.186303
-20.683109 -23.283635 12.078515
-24.782469 -23.074052 9.395950
-21.430309 -26.288991 8.951294
-23.071788 -22.208070 11.373964
-19.763373 -25.236625 10.907464
-28.293208 -17.486164 -7.985178
-30.172909 -18.647883 -2.791580
-28.305971 -19.936383 -6.966961
-28.293208 -17.486164 7.985178
-30.172909 -18.647883 2.791580
-28.305971 -19.936383 6.966961
-27.311979 -24.501099 -4.479727
-29.828881 -20.960183 -1.484111
-27.991084 -22.319734 -5.788422
-27.835157 -24.990102 -1.522877
-29.303522 -20.607055 -4.296408
-27.311979 -24.501099 4.479727
-29.828881 -20.960183 1.484111
-27.991084 -22.319734 5.788422
-27.835157 -24.990102 1.522877
-29.303522 -20.607055 4.296408
-29.066931 -23.107357 0.000000
-1.512674 -11.646777 19.779765
-4.598983 -10.798948 20.315392
-2.499928 -12.954791 19.416252
-1.495701 -10.120998 20.291915
-10.790005 -8.353155 20.184279
-7.717678 -9.701607 20.467318
-4.623559 -15.653768 18.495672
-5.699532 -12.113871 19.949759
-3.542614 -14.296412 18.989219
-4.097446 -12.566397 19.730910
-1.470337 -7.052585 21.065696
-4.539771 -9.184155 20.718948
-1.483207 -8.579875 20.721777
-3.019328 -9.679446 20.552273
-20.490614 -1.016528 14.308672
-18.670629 -3.037135 16.453270
-21.321467 -2.745232 14.225977
-13.715677 -6.767263 19.426416
-16.380488 -4.977308 18.177151
-22.895918 -6.541233 13.902835
-19.358952 -4.839362 16.384403
-22.130709 -4.595803 14.094802
-20.404954 -3.806732 15.362277
-9.608438 -21.398839 15.546779
-10.909610 -17.723294 17.652119
-8.287303 -19.951551 16.447437
-12.023222 -21.331846 15.578800
-12.188880 -9.603387 19.722021
-11.752354 -13.698736 19.015708
-10.615608 -10.328870 19.957405
-5.819967 -17.094263 17.899324
-9.525490 -16.311339 18.362194
-7.016293 -18.505959 17.230222
-6.398040 -15.317559 18.790358
-8.961971 -18.179123 17.498568
-16.925508 -20.516205 15.210439
-13.158235 -17.302679 17.556145
-14.495683 -21.046201 15.474455
-12.661000 -19.363401 16.675217
-7.388016 -11.581139 20.067097
-9.997884 -14.305952 19.071581
-9.000675 -10.991242 20.071299
-6.923294 -13.463036 19.514093
-10.352602 -12.329236 19.589618
-8.206345 -14.869180 18.987039
-1.451973 -0.897369 21.688183
-4.387925 -2.711887 21.485931
-1.456087 -2.409408 21.645005
-10.608241 -6.556253 20.350390
-7.419601 -4.585566 21.057408
-9.144277 -7.290175 20.608662
-1.469697 -5.460583 21.342039
-4.420059 -4.273924 21.420615
-1.461011 -3.939554 21.529477
-2.968138 -6.491299 21.221008
-2.933313 -3.335977 21.559667
-6.124243 -8.592441 20.792022
-5.986848 -5.268474 21.215071
-7.637374 -7.974625 20.755040
-4.523700 -7.538633 21.039394
-7.538088 -6.259066 20.950087
-4.484417 -5.891189 21.272501
-25.132382 -15.532666 12.237893
-21.412570 -13.233696 15.425413
-24.767783 -13.174312 12.818461
-23.509007 -17.168796 13.250330
-14.004520 -8.655270 19.276049
-17.626771 -10.893944 17.697843
-15.463936 -7.791751 18.758517
-13.945542 -10.762725 19.095447
-23.625365 -8.698048 13.634689
-21.058984 -11.039740 15.796741
-24.250801 -10.874910 13.279979
-21.821878 -7.742060 15.055208
-22.930085 -12.117951 14.431646
-19.382704 -19.666641 14.740040
-19.662462 -14.577485 16.221185
-21.557200 -18.564456 14.095443
-17.382662 -18.145114 16.148989
-21.591462 -15.875364 14.871234
-18.141721 -5.898783 17.325759
-19.122122 -9.919707 16.986391
-16.856033 -6.863920 18.104064
-19.975820 -6.801685 16.283927
-17.277181 -8.848587 17.949126
-20.550343 -8.882017 16.093439
-13.545099 -15.072390 18.269954
-17.653180 -13.230962 17.398313
-13.796255 -12.923631 18.763747
-15.415223 -16.592841 17.320650
-15.780395 -11.981588 18.324326
-17.616596 -15.678613 16.876353
-1.476341 11.367034 19.304677
-4.306478 10.112112 19.023290
-2.392749 12.399385 18.583826
-1.464676 9.911063 19.871010
-9.632003 7.456681 18.018068
-7.010990 8.813256 18.593178
-4.212488 14.262025 16.851261
-5.213233 11.080283 18.247592
-3.313262 13.370852 17.759842
-3.828182 11.740596 18.434294
-1.449239 6.951390 20.763432
-4.293675 8.686293 19.595799
-1.457216 8.429526 20.358659
-2.901786 9.302629 19.752181
-19.912501 0.987848 13.904973
-17.332474 2.819458 15.274037
-19.749396 2.542821 13.177069
-19.165185 0.000000 15.052622
-12.206783 6.022780 17.289270
-14.766301 4.486828 16.385916
-19.189756 5.482403 11.652383
-17.212514 4.302794 14.567770
-19.502803 4.050075 12.421118
-18.476202 3.446906 13.910178
-17.295219 -1.965569 17.091584
-16.519334 1.877391 16.324833
-18.284169 -0.991620 16.124790
-17.832681 0.967134 15.726624
-7.640452 17.015960 12.362510
-8.771771 14.250251 14.193024
-6.840795 16.469105 13.576617
-9.153379 16.240112 11.860270
-10.564939 8.323915 17.094431
-9.741976 11.355406 15.762848
-9.274551 9.024036 17.436209
-5.141428 15.101275 15.812475
-7.939509 13.595524 15.304915
-6.000524 15.826797 14.735753
-5.661394 13.553955 16.626909
-7.415040 15.041214 14.478130
-12.022162 14.572629 10.803952
-10.262685 13.495118 13.692807
-10.620734 15.420185 11.337863
-9.729596 14.880188 12.814400
-6.629341 10.391872 18.006407
-8.436183 12.071317 16.092540
-7.956217 9.715794 17.742181
-6.158950 11.976692 17.359701
-8.874073 10.568411 16.791886
-7.075762 12.820664 16.371208
-1.449305 0.895720 21.648333
-4.315903 2.667375 21.133267
-1.448916 2.397543 21.538416
-2.907837 0.000000 21.582724
-9.697303 5.993263 18.602887
-7.086491 4.379692 20.112016
-8.387714 6.687013 18.903578
-1.453297 5.399649 21.103885
-4.306515 4.164134 20.870354
-1.449263 3.907876 21.356359
-2.890432 6.321358 20.665444
-2.893547 3.290753 21.267391
-5.884495 -1.806250 21.290303
-5.797996 1.779699 20.977348
-4.393529 -0.904522 21.463601
-4.369045 0.899481 21.343992
-5.713810 8.016595 19.398587
-5.736455 5.048126 20.327775
-7.053979 7.365468 19.169627
-4.320161 7.199441 20.092752
-7.080481 5.879103 19.678289
-4.325728 5.682719 20.519736
-17.326364 10.708282 8.436852
-15.953762 9.859967 11.492939
-17.861493 9.500765 9.244140
-16.064793 11.732233 9.054564
-12.085407 7.469192 16.634550
-14.189896 8.769838 14.247110
-13.354986 6.729122 16.200256
-11.684411 9.017656 15.999310
-18.788381 6.917237 10.843166
-16.357244 8.574949 12.269876
-18.353635 8.230414 10.050632
-17.950789 6.368658 12.384491
-17.158675 9.067912 10.799259
-13.445729 13.642695 10.225125
-14.612450 10.833474 12.055014
-14.764449 12.714729 9.653918
-12.637250 13.191555 11.740366
-15.385580 11.312420 10.596900
-15.895139 5.168307 15.180222
-15.426787 8.002731 13.703785
-14.631375 5.958021 15.714692
-16.978372 5.781066 13.840461
-14.435980 7.393453 14.997424
-16.689307 7.213247 13.069774
-10.784826 12.000880 14.546832
-13.699187 10.267466 13.501406
-11.248662 10.537175 15.298865
-11.742430 12.639472 13.193874
-12.738019 9.671602 14.791494
-13.199951 11.747839 12.645293
-12.293928 -5.614107 19.891993
-12.138194 -1.817082 19.640011
-13.648148 -4.769477 19.377842
-10.647781 -4.646395 20.358226
-11.245295 5.135242 18.195270
-11.776455 1.762930 19.054704
-12.542384 4.383057 17.807862
-9.972914 4.351902 19.067901
-16.140549 -2.951103 17.992268
-13.342980 -0.944766 18.988677
-14.942951 -3.875320 18.739892
-15.881578 -0.967811 17.689652
-13.521085 -2.819039 19.227172
-7.478949 -2.763469 21.043968
-10.538247 -0.937545 20.085201
-9.034467 -3.690620 20.740894
-7.431853 -0.918628 20.943213
-10.621701 -2.759943 20.265800
-15.152196 2.770394 16.890526
-13.111307 0.928362 18.658979
-13.851665 3.592304 17.371314
-15.547255 0.947437 17.317268
-12.846388 2.678370 18.267745
-14.478501 0.000000 18.212624
-7.269508 2.686081 20.454653
-10.394030 0.924715 19.810334
-8.636438 3.528023 19.827118
-7.361128 0.909885 20.743908
-10.207004 2.652188 19.474574
-8.949295 0.000000 20.446460
-22.353117 0.000000 -11.761934
-24.327301 0.000000 -8.769603
-22.066620 1.626513 -11.006168
-23.279757 -1.715932 -11.611244
-26.497500 0.000000 -1.836474
-25.749838 0.000000 -5.423551
-21.278598 4.662397 -9.432233
-23.854153 1.664964 -7.986132
-21.704190 3.188555 -10.221961
-23.025502 1.648101 -9.533735
-25.087149 -5.496896 -11.120462
-25.318424 -1.767167 -8.476356
-24.201400 -3.555420 -11.398065
-24.370367 -1.744363 -10.090578
-22.353117 0.000000 11.761934
-24.327301 0.000000 8.769603
-22.066620 1.626513 11.006168
-23.279757 -1.715932 11.611244
-26.497500 0.000000 1.836474
-25.749838 0.000000 5.423551
-21.278598 4.662397 9.432233
-23.854153 1.664964 7.986132
-21.704190 3.188555 10.221961
-23.025502 1.648101 9.533735
-25.087149 -5.496896 11.120462
-25.318424 -1.767167 8.476356
-24.201400 -3.555420 11.398065
-24.370367 -1.744363 10.090578
-19.049841 9.930291 -6.137257
-21.376159 7.531913 -4.654978
-19.667143 8.726516 -6.957119
-19.422147 10.158192 -4.432752
-25.660331 1.717899 -1.061720
-23.598899 4.819442 -2.978579
-25.466798 1.713183 -2.834830
-20.781468 6.121134 -8.588079
-22.051134 6.222784 -5.476099
-20.248413 7.450947 -7.779966
-22.055077 4.742083 -7.902562
-20.872899 7.510316 -6.236006
-19.803326 10.390354 -0.924388
-21.658341 7.697295 -2.844148
-19.676021 10.312586 -2.679623
-20.560786 8.956014 -3.658571
-24.566122 1.691720 -6.285498
-23.246304 4.796783 -4.638193
-25.097693 1.703154 -4.592482
-23.325356 3.262469 -7.134999
-24.372658 3.316036 -3.771238
-22.717339 4.789001 -6.291322
-27.936107 -14.562519 -9.000132
-28.964597 -10.205708 -6.307474
-27.415686 -12.164624 -9.698113
-29.212889 -15.278956 -6.667311
-27.426877 -1.836165 -1.134813
-28.652764 -5.851559 -3.616462
-27.200142 -1.829788 -3.027777
-25.971922 -7.649970 -10.733069
-28.189185 -7.954928 -7.000401
-26.741965 -9.840423 -10.274957
-26.281898 -5.650895 -9.417076
-27.976299 -10.066203 -8.358224
-30.627643 -16.069626 -1.429649
-29.791712 -10.587865 -3.912213
-30.141293 -15.797640 -4.104859
-29.701167 -12.937447 -5.285004
-26.150973 -1.800859 -6.690999
-28.094588 -5.797207 -5.605541
-26.767768 -1.816487 -4.898079
-26.330161 -3.682744 -8.054139
-27.749513 -3.775476 -4.293747
-27.302675 -5.755627 -7.561181
-19.049841 9.930291 6.137257
-21.376159 7.531913 4.654978
-19.667143 8.726516 6.957119
-19.422147 10.158192 4.432752
-25.660331 1.717899 1.061720
-23.598899 4.819442 2.978579
-25.466798 1.713183 2.834830
-24.766890 3.336839 0.000000
-20.781468 6.121134 8.588079
-22.051134 6.222784 5.476099
-20.248413 7.450947 7.779966
-22.055077 4.742083 7.902562
-20.872899 7.510316 6.236006
-19.803326 10.390354 0.924388
-21.658341 7.697295 2.844148
-19.676021 10.312586 2.679623
-20.833745 9.118807 0.000000
-20.560786 8.956014 3.658571
-24.566122 1.691720 6.285498
-23.246304 4.796783 4.638193
-25.097693 1.703154 4.592482
-23.325356 3.262469 7.134999
-24.372658 3.316036 3.771238
-22.717339 4.789001 6.291322
-22.773151 6.294344 -1.932053
