15.40492074 -9.520764613 35.54203322
5.27823764 -8.749215373 38.41218949
10.48035736 -11.95572488 36.36195989
30.71950823 -18.98570021 18.40046596
24.18413016 -14.94661443 28.4301501
32.68297011 -14.44033967 21.53085828
25.69471497 -22.42321237 20.40131257
29.0885187 -12.26002336 26.81473579
22.39968957 -20.37991082 25.66776024
5.781580155 21.34779037 38.11466345
18.03316651 17.63005951 39.67114534
10.15584 27.23435547 37.78945852
5.56777311 15.14967922 39.08931514
39.30481107 4.065968914 30.87058506
30.00115983 11.72144027 37.50742522
44.47224103 11.95182418 32.05054712
32.64795066 0 32.26355032
20.92778973 39.80702159 33.86187509
24.51652468 23.76080275 39.66857021
15.763211 34.47679712 37.40029235
29.25680402 36.847886 32.15633932
17.32570243 25.83299647 39.2134415
5.341490134 3.301222453 39.64592885
17.07841352 10.55504003 39.40309404
5.44027819 9.017814053 39.59143391
10.76151723 0 38.93553511
11.42973305 13.0387485 39.65585146
44.05120582 27.22514244 26.38592737
32.89024694 20.32729051 38.66480419
44.38867035 19.61227743 29.24232917
37.36911215 32.61120191 29.67065167
39.33684466 16.57941538 36.26197357
31.76156555 28.89762697 36.39551551
21.31348268 -6.421008663 34.48593939
23.4498362 7.064617438 37.94263201
26.61594711 -3.481988721 33.48041442
16.2679841 -3.351389035 37.16747394
28.33678188 3.707114178 35.64506635
16.86260022 3.473886691 38.52599377
47.61125696 0 -20.98726104
55.04716642 0 -7.667186909
51.94434099 7.398807166 -20.13184678
44.27773051 -6.306796535 -17.16053124
47.61125696 0 20.98726104
55.04716642 0 7.667186909
51.94434099 7.398807166 20.13184678
44.27773051 -6.306796535 17.16053124
53.05474332 22.99542378 -14.21195348
55.88205287 7.528980724 -4.653165988
52.47314113 15.12397221 -17.25304248
55.707222 24.38272247 -5.023117074
54.51890287 7.491468959 -12.41787124
37.84116513 -16.40142943 -10.13664085
49.1793056 -6.625920574 -4.095044122
40.96521728 -11.80712255 -13.46926483
38.87163415 -17.01388497 -3.505053064
47.4603398 -6.521548375 -10.81012929
53.05474332 22.99542378 14.21195348
55.88205287 7.528980724 4.653165988
52.47314113 15.12397221 17.25304248
55.707222 24.38272247 5.023117074
54.51890287 7.491468959 12.41787124
56.10491994 15.50701848 0
37.84116513 -16.40142943 10.13664085
49.1793056 -6.625920574 4.095044122
40.96521728 -11.80712255 13.46926483
38.87163415 -17.01388497 3.505053064
47.4603398 -6.521548375 10.81012929
43.9558279 -12.14909203 0
-24.5984565 31.31905934 -3.239866017
-30.27234374 24.21401675 -9.460405952
-22.94571874 31.83869313 -8.55658392
-40.13849592 6.088573542 -22.48132659
-35.40778678 16.0951873 -15.7354012
-18.4417472 30.78842712 -19.02829442
-28.13100301 23.92966045 -14.7893435
-20.85159485 31.65187577 -13.98477053
-25.70360788 27.88317157 -11.75200216
-43.09334604 -54.86698166 -5.675830408
-49.10654891 -39.27898046 -15.34628081
-36.8864936 -51.18243467 -13.75517505
-48.34042123 -7.332716459 -27.07517489
-49.07008581 -22.30560828 -21.80699664
-26.24824551 -43.82134648 -27.08308156
-43.00877503 -36.58544925 -22.61105113
-31.18102775 -47.3315362 -20.91252592
-40.99846048 -44.47496682 -18.74499481
-5.781580155 -21.34779037 -38.11466345
-18.03316651 -17.63005951 -39.67114534
-10.15584 -27.23435547 -37.78945852
-5.56777311 -15.14967922 -39.08931514
-39.30481107 -4.065968914 -30.87058506
-30.00115983 -11.72144027 -37.50742522
-44.47224103 -11.95182418 -32.05054712
-20.92778973 -39.80702159 -33.86187509
-24.51652468 -23.76080275 -39.66857021
-15.763211 -34.47679712 -37.40029235
-29.25680402 -36.847886 -32.15633932
-17.32570243 -25.83299647 -39.2134415
-5.341490134 -3.301222453 -39.64592885
-17.07841352 -10.55504003 -39.40309404
-5.44027819 -9.017814053 -39.59143391
-11.42973305 -13.0387485 -39.65585146
-44.05120582 -27.22514244 -26.38592737
-32.89024694 -20.32729051 -38.66480419
-44.38867035 -19.61227743 -29.24232917
-37.36911215 -32.61120191 -29.67065167
-39.33684466 -16.57941538 -36.26197357
-31.76156555 -28.89762697 -36.39551551
-5.375388429 19.84797621 -35.43687287
-15.21906875 14.87886709 -33.48041442
-8.735993106 23.42683045 -32.50626726
-5.291404891 14.39769278 -37.14903413
-35.83425663 3.706950105 -28.14475982
-24.94157752 9.744663633 -31.18193961
-34.47473884 9.265015835 -24.8454815
-32.64795066 0 -32.26355032
-15.18106282 28.87609744 -24.56347563
-18.58459709 18.01172685 -30.07050976
-12.12337721 26.51586765 -28.76430773
-20.457664 25.76568755 -22.48514858
-13.83291029 20.62516796 -31.30816893
-5.282632468 3.264846415 -39.20907195
-15.40492074 9.520764613 -35.54203322
-5.27823764 8.749215373 -38.41218949
-10.76151723 0 -38.93553511
-10.48035736 11.95572488 -36.36195989
-30.71950823 18.98570021 -18.40046596
-24.18413016 14.94661443 -28.4301501
-32.68297011 14.44033967 -21.53085828
-25.69471497 22.42321237 -20.40131257
-29.0885187 12.26002336 -26.81473579
-22.39968957 20.37991082 -25.66776024
-23.4498362 -7.064617438 -37.94263201
-21.31348268 6.421008663 -34.48593939
-28.33678188 -3.707114178 -35.64506635
-16.86260022 -3.473886691 -38.52599377
-26.61594711 3.481988721 -33.48041442
-16.2679841 3.351389035 -37.16747394
-24.5984565 31.31905934 3.239866017
-30.27234374 24.21401675 9.460405952
-22.94571874 31.83869313 8.55658392
-27.88633571 28.21858423 0
-40.13849592 6.088573542 22.48132659
-35.40778678 16.0951873 15.7354012
-18.4417472 30.78842712 19.02829442
-28.13100301 23.92966045 14.7893435
-20.85159485 31.65187577 13.98477053
-25.70360788 27.88317157 11.75200216
-34.22451466 21.15191331 -6.372333449
-34.22451466 21.15191331 6.372333449
-31.15232863 24.76518721 -3.239866017
-31.15232863 24.76518721 3.239866017
-43.09334604 -54.86698166 5.675830408
-49.10654891 -39.27898046 15.34628081
-36.8864936 -51.18243467 13.75517505
-55.44433483 -56.10491994 0
-48.34042123 -7.332716459 27.07517489
-49.07008581 -22.30560828 21.80699664
-26.24824551 -43.82134648 27.08308156
-43.00877503 -36.58544925 22.61105113
-31.18102775 -47.3315362 20.91252592
-40.99846048 -44.47496682 18.74499481
-53.8960934 -33.30961758 -10.03502554
-53.8960934 -33.30961758 10.03502554
-54.80873396 -43.57133535 -5.700150275
-54.80873396 -43.57133535 5.700150275
-5.781580155 -21.34779037 38.11466345
-18.03316651 -17.63005951 39.67114534
-10.15584 -27.23435547 37.78945852
-5.56777311 -15.14967922 39.08931514
-39.30481107 -4.065968914 30.87058506
-30.00115983 -11.72144027 37.50742522
-44.47224103 -11.95182418 32.05054712
-20.92778973 -39.80702159 33.86187509
-24.51652468 -23.76080275 39.66857021
-15.763211 -34.47679712 37.40029235
-29.25680402 -36.847886 32.15633932
-17.32570243 -25.83299647 39.2134415
-5.341490134 -3.301222453 39.64592885
-17.07841352 -10.55504003 39.40309404
-5.44027819 -9.017814053 39.59143391
-11.42973305 -13.0387485 39.65585146
-44.05120582 -27.22514244 26.38592737
-32.89024694 -20.32729051 38.66480419
-44.38867035 -19.61227743 29.24232917
-37.36911215 -32.61120191 29.67065167
-39.33684466 -16.57941538 36.26197357
-31.76156555 -28.89762697 36.39551551
-5.375388429 19.84797621 35.43687287
-15.21906875 14.87886709 33.48041442
-8.735993106 23.42683045 32.50626726
-5.291404891 14.39769278 37.14903413
-35.83425663 3.706950105 28.14475982
-24.94157752 9.744663633 31.18193961
-34.47473884 9.265015835 24.8454815
-32.64795066 0 32.26355032
-15.18106282 28.87609744 24.56347563
-18.58459709 18.01172685 30.07050976
-12.12337721 26.51586765 28.76430773
-20.457664 25.76568755 22.48514858
-13.83291029 20.62516796 31.30816893
-5.282632468 3.264846415 39.20907195
-15.40492074 9.520764613 35.54203322
-5.27823764 8.749215373 38.41218949
-10.76151723 0 38.93553511
-10.48035736 11.95572488 36.36195989
-30.71950823 18.98570021 18.40046596
-24.18413016 14.94661443 28.4301501
-32.68297011 14.44033967 21.53085828
-25.69471497 22.42321237 20.40131257
-29.0885187 12.26002336 26.81473579
-22.39968957 20.37991082 25.66776024
-23.4498362 -7.064617438 37.94263201
-21.31348268 6.421008663 34.48593939
-28.33678188 -3.707114178 35.64506635
-16.86260022 -3.473886691 38.52599377
-26.61594711 3.481988721 33.48041442
-16.2679841 3.351389035 37.16747394
-47.61125696 0 -20.98726104
-55.04716642 0 -7.667186909
-44.27773051 6.306796535 -17.16053124
-51.94434099 -7.398807166 -20.13184678
-47.61125696 0 20.98726104
-55.04716642 0 7.667186909
-44.27773051 6.306796535 17.16053124
-51.94434099 -7.398807166 20.13184678
-37.84116513 16.40142943 -10.13664085
-49.1793056 6.625920574 -4.095044122
-40.96521728 11.80712255 -13.46926483
-38.87163415 17.01388497 -3.505053064
-47.4603398 6.521548375 -10.81012929
-53.05474332 -22.99542378 -14.21195348
-55.88205287 -7.528980724 -4.653165988
-52.47314113 -15.12397221 -17.25304248
-55.707222 -24.38272247 -5.023117074
-54.51890287 -7.491468959 -12.41787124
-37.84116513 16.40142943 10.13664085
-49.1793056 6.625920574 4.095044122
-40.96521728 11.80712255 13.46926483
-38.87163415 17.01388497 3.505053064
-47.4603398 6.521548375 10.81012929
-43.9558279 12.14909203 0
-53.05474332 -22.99542378 14.21195348
-55.88205287 -7.528980724 4.653165988
-52.47314113 -15.12397221 17.25304248
-55.707222 -24.38272247 5.023117074
-54.51890287 -7.491468959 12.41787124
-56.10491994 -15.50701848 0
-19.34343736 36.76148257 0
-14.86597819 41.23894175 0
-3.636455448 52.46846449 0
-9.761141972 46.34377796 0
29.52171481 56.10491994 0
20.2249253 56.10491994 0
3.8884889 56.10491994 0
11.81707907 56.10491994 0
-29.52171481 -56.10491994 0
-20.2249253 -56.10491994 0
-3.8884889 -56.10491994 0
-11.81707907 -56.10491994 0
19.34343736 -36.76148257 0
14.86597819 -41.23894175 0
3.636455448 -52.46846449 0
9.761141972 -46.34377796 0
-32.80644142 -55.71530144 4.260872731
-28.41743957 -53.45997136 12.10222803
-27.83419366 -55.80567062 4.113391677
-19.59003072 -47.33668036 25.30499148
-23.92590051 -50.4760696 19.03317548
-18.71520943 -55.90133569 3.901783212
-23.90837135 -53.93596743 11.81801886
-23.12993009 -55.86249608 3.998480755
-25.91392841 -55.02279205 8.083379701
-1.788896706 -25.18056445 36.05961676
-5.753356257 -31.16803692 35.36846087
-15.38522726 -44.16554066 31.18229802
-10.47365674 -38.24984297 34.46915665
-2.315992564 -55.97438501 3.747354686
-6.920504361 -54.83026315 11.19761128
-6.229488368 -55.96283702 3.764690374
-15.55777301 -48.29080409 25.17300552
-11.39055179 -52.3066335 18.43029994
-17.60614438 -49.77097185 22.08389665
-14.30962553 -55.92746963 3.851386192
-10.91307958 -54.69560789 11.28622213
-10.23756149 -55.94778521 3.796670817
-16.92805046 -55.34027637 7.740328288
-8.588390914 -55.50482579 7.551740289
-21.74176101 -52.61079821 15.49639057
-13.27336273 -53.44912326 15.08322957
-19.68271337 -51.22692584 18.8503214
-19.43820258 -54.24962656 11.66426319
-15.48326693 -51.82494752 18.64722791
-15.09205915 -54.4959312 11.48818795
20.74465639 -35.23072707 2.694298342
19.06053008 -35.8573963 8.117370354
18.62594847 -37.34376349 2.75257916
14.48203955 -34.99390516 18.70685619
16.96586253 -35.79259462 13.49642989
14.03383024 -41.91830491 2.925800186
16.84760183 -38.00726072 8.327847733
16.38626185 -39.57545419 2.832699987
17.78686198 -37.76667097 5.548288811
1.739795577 -24.48941546 35.06986263
5.192122358 -28.12762744 31.91830442
0 -27.24008589 34.68241458
11.64878179 -33.43952852 23.60938705
8.525938497 -31.13676691 28.05915039
-3.834638353 -33.34406431 33.7413383
3.556571856 -30.92613952 31.29460543
-1.856933753 -30.19571046 34.23942009
1.794115911 -29.17422578 33.08114156
2.220003796 -53.65446726 3.592041596
6.090677005 -48.25564808 9.854922409
5.599264335 -50.30119633 3.383824689
0 -55.1134127 7.425421946
11.9402963 -37.06227804 19.31980524
9.285569277 -42.64032842 15.02436669
13.30116197 -37.60117741 16.68403258
11.39621826 -44.5407638 3.067252709
9.06778489 -45.44711719 9.377832695
8.649902083 -47.27130231 3.207876295
12.9937392 -42.47843663 5.941369762
7.415727105 -47.92616512 6.520621349
-4.576860193 -53.9475511 14.9107364
4.127871736 -48.65531435 13.44799814
-2.314856426 -54.92973886 11.24393744
2.186000248 -51.87208218 10.61804515
15.73655869 -38.07938618 11.21619631
10.63110494 -42.80929028 12.0806912
14.57718359 -37.93909348 13.96070707
14.44252762 -40.30731376 8.666513412
12.01671455 -40.22184749 14.47229555
11.84922926 -42.78639358 9.019721665
-13.12313144 -46.49808427 28.73739649
-4.119868307 -44.52977511 27.52091453
-11.05457584 -44.91348355 31.63334009
-11.14821271 -48.84600208 25.54748695
10.20401547 -36.15502696 22.34503553
3.71004768 -40.10021111 24.78329342
8.65615942 -35.16899058 24.77012584
8.931039423 -39.13143582 20.46656437
-6.056840252 -36.9273131 33.12684672
-2.030221937 -40.80505799 28.67293262
-8.415310289 -40.69393383 32.44882512
-1.939162654 -35.44403023 31.82126561
-6.277126675 -42.81295722 30.10726762
-6.902014552 -52.55921311 18.67935102
-2.167856695 -46.44239546 24.36726552
-9.054315013 -50.88429555 22.16454535
-2.278973449 -51.95688875 18.4372825
-6.712835928 -49.29123109 25.83449541
5.344741492 -32.58579297 29.23214495
1.931117954 -38.81318524 27.27328178
7.024551779 -33.96863995 27.08616134
1.859651077 -33.990717 30.51649677
5.419573466 -36.96404087 25.99414623
0 -37.28781104 29.64271571
5.951526531 -45.32119557 16.10698621
2.04121027 -43.72922565 22.94372721
7.510223703 -42.20666522 18.38468108
2.124722576 -48.44021967 17.18936672
5.632357076 -41.35745565 21.67624899
0 -47.70522547 20.88029579
-20.74465639 35.23072707 2.694298342
-19.06053008 35.8573963 8.117370354
-18.62594847 37.34376349 2.75257916
-14.48203955 34.99390516 18.70685619
-16.96586253 35.79259462 13.49642989
-14.03383024 41.91830491 2.925800186
-16.84760183 38.00726072 8.327847733
-16.38626185 39.57545419 2.832699987
-17.78686198 37.76667097 5.548288811
-1.739795577 24.48941546 35.06986263
-5.192122358 28.12762744 31.91830442
-11.64878179 33.43952852 23.60938705
-8.525938497 31.13676691 28.05915039
-2.220003796 53.65446726 3.592041596
-6.090677005 48.25564808 9.854922409
-5.599264335 50.30119633 3.383824689
-11.9402963 37.06227804 19.31980524
-9.285569277 42.64032842 15.02436669
-13.30116197 37.60117741 16.68403258
-11.39621826 44.5407638 3.067252709
-9.06778489 45.44711719 9.377832695
-8.649902083 47.27130231 3.207876295
-12.9937392 42.47843663 5.941369762
-7.415727105 47.92616512 6.520621349
-15.73655869 38.07938618 11.21619631
-10.63110494 42.80929028 12.0806912
-14.57718359 37.93909348 13.96070707
-14.44252762 40.30731376 8.666513412
-12.01671455 40.22184749 14.47229555
-11.84922926 42.78639358 9.019721665
32.80644142 55.71530144 4.260872731
28.41743957 53.45997136 12.10222803
27.83419366 55.80567062 4.113391677
19.59003072 47.33668036 25.30499148
23.92590051 50.4760696 19.03317548
18.71520943 55.90133569 3.901783212
23.90837135 53.93596743 11.81801886
23.12993009 55.86249608 3.998480755
25.91392841 55.02279205 8.083379701
1.788896706 25.18056445 36.05961676
5.753356257 31.16803692 35.36846087
0 27.24008589 34.68241458
15.38522726 44.16554066 31.18229802
10.47365674 38.24984297 34.46915665
-3.556571856 30.92613952 31.29460543
3.834638353 33.34406431 33.7413383
-1.794115911 29.17422578 33.08114156
1.856933753 30.19571046 34.23942009
2.315992564 55.97438501 3.747354686
6.920504361 54.83026315 11.19761128
6.229488368 55.96283702 3.764690374
0 55.1134127 7.425421946
15.55777301 48.29080409 25.17300552
11.39055179 52.3066335 18.43029994
17.60614438 49.77097185 22.08389665
14.30962553 55.92746963 3.851386192
10.91307958 54.69560789 11.28622213
10.23756149 55.94778521 3.796670817
16.92805046 55.34027637 7.740328288
8.588390914 55.50482579 7.551740289
-4.127871736 48.65531435 13.44799814
4.576860193 53.9475511 14.9107364
-2.186000248 51.87208218 10.61804515
2.314856426 54.92973886 11.24393744
21.74176101 52.61079821 15.49639057
13.27336273 53.44912326 15.08322957
19.68271337 51.22692584 18.8503214
19.43820258 54.24962656 11.66426319
15.48326693 51.82494752 18.64722791
15.09205915 54.4959312 11.48818795
-10.20401547 36.15502696 22.34503553
-3.71004768 40.10021111 24.78329342
-8.65615942 35.16899058 24.77012584
-8.931039423 39.13143582 20.46656437
13.12313144 46.49808427 28.73739649
4.119868307 44.52977511 27.52091453
11.05457584 44.91348355 31.63334009
11.14821271 48.84600208 25.54748695
-5.344741492 32.58579297 29.23214495
-1.931117954 38.81318524 27.27328178
-7.024551779 33.96863995 27.08616134
-1.859651077 33.990717 30.51649677
-5.419573466 36.96404087 25.99414623
-5.951526531 45.32119557 16.10698621
-2.04121027 43.72922565 22.94372721
-7.510223703 42.20666522 18.38468108
-2.124722576 48.44021967 17.18936672
-5.632357076 41.35745565 21.67624899
6.056840252 36.9273131 33.12684672
2.030221937 40.80505799 28.67293262
8.415310289 40.69393383 32.44882512
1.939162654 35.44403023 31.82126561
6.277126675 42.81295722 30.10726762
0 37.28781104 29.64271571
6.902014552 52.55921311 18.67935102
2.167856695 46.44239546 24.36726552
9.054315013 50.88429555 22.16454535
2.278973449 51.95688875 18.4372825
6.712835928 49.29123109 25.83449541
0 47.70522547 20.88029579
0 -19.56465242 37.18189355
0 -13.85805734 38.4429206
0 -2.746280892 39.62461345
0 -8.264777436 39.23936477
0 19.56465242 37.18189355
0 13.85805734 38.4429206
0 2.746280892 39.62461345
0 8.264777436 39.23936477
-32.80644142 -55.71530144 -4.260872731
-28.41743957 -53.45997136 -12.10222803
-27.83419366 -55.80567062 -4.113391677
-19.59003072 -47.33668036 -25.30499148
-23.92590051 -50.4760696 -19.03317548
-18.71520943 -55.90133569 -3.901783212
-23.90837135 -53.93596743 -11.81801886
-23.12993009 -55.86249608 -3.998480755
-25.91392841 -55.02279205 -8.083379701
-1.788896706 -25.18056445 -36.05961676
-5.753356257 -31.16803692 -35.36846087
-15.38522726 -44.16554066 -31.18229802
-10.47365674 -38.24984297 -34.46915665
-2.315992564 -55.97438501 -3.747354686
-6.920504361 -54.83026315 -11.19761128
-6.229488368 -55.96283702 -3.764690374
-15.55777301 -48.29080409 -25.17300552
-11.39055179 -52.3066335 -18.43029994
-17.60614438 -49.77097185 -22.08389665
-14.30962553 -55.92746963 -3.851386192
-10.91307958 -54.69560789 -11.28622213
-10.23756149 -55.94778521 -3.796670817
-16.92805046 -55.34027637 -7.740328288
-8.588390914 -55.50482579 -7.551740289
-21.74176101 -52.61079821 -15.49639057
-13.27336273 -53.44912326 -15.08322957
-19.68271337 -51.22692584 -18.8503214
-19.43820258 -54.24962656 -11.66426319
-15.48326693 -51.82494752 -18.64722791
-15.09205915 -54.4959312 -11.48818795
20.74465639 -35.23072707 -2.694298342
19.06053008 -35.8573963 -8.117370354
18.62594847 -37.34376349 -2.75257916
14.48203955 -34.99390516 -18.70685619
16.96586253 -35.79259462 -13.49642989
14.03383024 -41.91830491 -2.925800186
16.84760183 -38.00726072 -8.327847733
16.38626185 -39.57545419 -2.832699987
17.78686198 -37.76667097 -5.548288811
1.739795577 -24.48941546 -35.06986263
5.192122358 -28.12762744 -31.91830442
0 -27.24008589 -34.68241458
11.64878179 -33.43952852 -23.60938705
8.525938497 -31.13676691 -28.05915039
-3.834638353 -33.34406431 -33.7413383
3.556571856 -30.92613952 -31.29460543
-1.856933753 -30.19571046 -34.23942009
1.794115911 -29.17422578 -33.08114156
2.220003796 -53.65446726 -3.592041596
6.090677005 -48.25564808 -9.854922409
5.599264335 -50.30119633 -3.383824689
0 -55.1134127 -7.425421946
11.9402963 -37.06227804 -19.31980524
9.285569277 -42.64032842 -15.02436669
13.30116197 -37.60117741 -16.68403258
11.39621826 -44.5407638 -3.067252709
9.06778489 -45.44711719 -9.377832695
8.649902083 -47.27130231 -3.207876295
12.9937392 -42.47843663 -5.941369762
7.415727105 -47.92616512 -6.520621349
-4.576860193 -53.9475511 -14.9107364
4.127871736 -48.65531435 -13.44799814
-2.314856426 -54.92973886 -11.24393744
2.186000248 -51.87208218 -10.61804515
15.73655869 -38.07938618 -11.21619631
10.63110494 -42.80929028 -12.0806912
14.57718359 -37.93909348 -13.96070707
14.44252762 -40.30731376 -8.666513412
12.01671455 -40.22184749 -14.47229555
11.84922926 -42.78639358 -9.019721665
-13.12313144 -46.49808427 -28.73739649
-4.119868307 -44.52977511 -27.52091453
-11.05457584 -44.91348355 -31.63334009
-11.14821271 -48.84600208 -25.54748695
10.20401547 -36.15502696 -22.34503553
3.71004768 -40.10021111 -24.78329342
8.65615942 -35.16899058 -24.77012584
8.931039423 -39.13143582 -20.46656437
-6.056840252 -36.9273131 -33.12684672
-2.030221937 -40.80505799 -28.67293262
-8.415310289 -40.69393383 -32.44882512
-1.939162654 -35.44403023 -31.82126561
-6.277126675 -42.81295722 -30.10726762
-6.902014552 -52.55921311 -18.67935102
-2.167856695 -46.44239546 -24.36726552
-9.054315013 -50.88429555 -22.16454535
-2.278973449 -51.95688875 -18.4372825
-6.712835928 -49.29123109 -25.83449541
5.344741492 -32.58579297 -29.23214495
1.931117954 -38.81318524 -27.27328178
7.024551779 -33.96863995 -27.08616134
1.859651077 -33.990717 -30.51649677
5.419573466 -36.96404087 -25.99414623
0 -37.28781104 -29.64271571
5.951526531 -45.32119557 -16.10698621
2.04121027 -43.72922565 -22.94372721
7.510223703 -42.20666522 -18.38468108
2.124722576 -48.44021967 -17.18936672
5.632357076 -41.35745565 -21.67624899
0 -47.70522547 -20.88029579
-20.74465639 35.23072707 -2.694298342
-19.06053008 35.8573963 -8.117370354
-18.62594847 37.34376349 -2.75257916
-14.48203955 34.99390516 -18.70685619
-16.96586253 35.79259462 -13.49642989
-14.03383024 41.91830491 -2.925800186
-16.84760183 38.00726072 -8.327847733
-16.38626185 39.57545419 -2.832699987
-17.78686198 37.76667097 -5.548288811
-1.739795577 24.48941546 -35.06986263
-5.192122358 28.12762744 -31.91830442
-11.64878179 33.43952852 -23.60938705
-8.525938497 31.13676691 -28.05915039
-2.220003796 53.65446726 -3.592041596
-6.090677005 48.25564808 -9.854922409
-5.599264335 50.30119633 -3.383824689
-11.9402963 37.06227804 -19.31980524
-9.285569277 42.64032842 -15.02436669
-13.30116197 37.60117741 -16.68403258
-11.39621826 44.5407638 -3.067252709
-9.06778489 45.44711719 -9.377832695
-8.649902083 47.27130231 -3.207876295
-12.9937392 42.47843663 -5.941369762
-7.415727105 47.92616512 -6.520621349
-15.73655869 38.07938618 -11.21619631
-10.63110494 42.80929028 -12.0806912
-14.57718359 37.93909348 -13.96070707
-14.44252762 40.30731376 -8.666513412
-12.01671455 40.22184749 -14.47229555
-11.84922926 42.78639358 -9.019721665
32.80644142 55.71530144 -4.260872731
28.41743957 53.45997136 -12.10222803
27.83419366 55.80567062 -4.113391677
19.59003072 47.33668036 -25.30499148
23.92590051 50.4760696 -19.03317548
18.71520943 55.90133569 -3.901783212
23.90837135 53.93596743 -11.81801886
23.12993009 55.86249608 -3.998480755
25.91392841 55.02279205 -8.083379701
1.788896706 25.18056445 -36.05961676
5.753356257 31.16803692 -35.36846087
0 27.24008589 -34.68241458
15.38522726 44.16554066 -31.18229802
10.47365674 38.24984297 -34.46915665
-3.556571856 30.92613952 -31.29460543
3.834638353 33.34406431 -33.7413383
-1.794115911 29.17422578 -33.08114156
1.856933753 30.19571046 -34.23942009
2.315992564 55.97438501 -3.747354686
6.920504361 54.83026315 -11.19761128
6.229488368 55.96283702 -3.764690374
0 55.1134127 -7.425421946
15.55777301 48.29080409 -25.17300552
11.39055179 52.3066335 -18.43029994
17.60614438 49.77097185 -22.08389665
14.30962553 55.92746963 -3.851386192
10.91307958 54.69560789 -11.28622213
10.23756149 55.94778521 -3.796670817
16.92805046 55.34027637 -7.740328288
8.588390914 55.50482579 -7.551740289
-4.127871736 48.65531435 -13.44799814
4.576860193 53.9475511 -14.9107364
-2.186000248 51.87208218 -10.61804515
2.314856426 54.92973886 -11.24393744
21.74176101 52.61079821 -15.49639057
13.27336273 53.44912326 -15.08322957
19.68271337 51.22692584 -18.8503214
19.43820258 54.24962656 -11.66426319
15.48326693 51.82494752 -18.64722791
15.09205915 54.4959312 -11.48818795
-10.20401547 36.15502696 -22.34503553
-3.71004768 40.10021111 -24.78329342
-8.65615942 35.16899058 -24.77012584
-8.931039423 39.13143582 -20.46656437
13.12313144 46.49808427 -28.73739649
4.119868307 44.52977511 -27.52091453
11.05457584 44.91348355 -31.63334009
11.14821271 48.84600208 -25.54748695
-5.344741492 32.58579297 -29.23214495
-1.931117954 38.81318524 -27.27328178
-7.024551779 33.96863995 -27.08616134
-1.859651077 33.990717 -30.51649677
-5.419573466 36.96404087 -25.99414623
-5.951526531 45.32119557 -16.10698621
-2.04121027 43.72922565 -22.94372721
-7.510223703 42.20666522 -18.38468108
-2.124722576 48.44021967 -17.18936672
-5.632357076 41.35745565 -21.67624899
6.056840252 36.9273131 -33.12684672
2.030221937 40.80505799 -28.67293262
8.415310289 40.69393383 -32.44882512
1.939162654 35.44403023 -31.82126561
6.277126675 42.81295722 -30.10726762
0 37.28781104 -29.64271571
6.902014552 52.55921311 -18.67935102
2.167856695 46.44239546 -24.36726552
9.054315013 50.88429555 -22.16454535
2.278973449 51.95688875 -18.4372825
6.712835928 49.29123109 -25.83449541
0 47.70522547 -20.88029579
0 -19.56465242 -37.18189355
0 -13.85805734 -38.4429206
0 -2.746280892 -39.62461345
0 -8.264777436 -39.23936477
0 19.56465242 -37.18189355
0 13.85805734 -38.4429206
0 2.746280892 -39.62461345
0 8.264777436 -39.23936477
39.0212114 55.87999948 -2.772174416
46.20440096 52.43123112 -8.528942007
36.58237467 54.82856524 -7.059418154
49.2208875 34.75153615 -17.14627578
48.76957081 43.94909484 -13.35419193
31.38881521 51.6927494 -14.76832212
42.5520399 50.27726025 -12.56833901
33.96794666 53.33418354 -11.07571375
39.95489765 53.07011775 -9.900719456
45.11812452 3.450445057 -26.56658173
48.67921187 11.0199633 -25.87615606
49.16434771 26.2820162 -20.34640103
48.9535789 18.45908497 -23.20423257
21.85191093 44.87623627 -27.73503931
30.64182363 42.53501716 -26.28808632
24.08494707 46.53684557 -24.75356465
46.40768429 33.71631617 -20.83782937
39.1450324 38.98783103 -24.09580473
46.03506436 37.94987231 -19.12164782
28.80875057 49.91806026 -18.37811577
33.23660622 44.3084546 -23.22779671
26.41059594 48.22885022 -21.62750869
33.9578284 49.22041572 -17.46263124
28.66624171 45.54708142 -24.07044386
44.33628058 46.4243131 -15.09487136
37.89439388 42.6589273 -22.12955486
45.39861983 42.26899614 -17.21229516
39.24186395 48.13878328 -16.39105905
42.17226939 40.59350482 -20.79014796
36.13699843 46.14474957 -19.94411693
23.04940277 -33.00770449 -1.637493106
26.08719076 -29.60288414 -4.815474988
22.3202902 -33.45298107 -4.307217977
31.59526269 -22.30727582 -11.00632506
28.91714453 -26.05891966 -7.918156581
20.55723654 -33.85473679 -9.67210419
25.25908853 -29.84481521 -7.460624412
21.48649289 -33.73664493 -7.005964977
23.8290455 -31.65094456 -5.904775341
41.22437668 -3.152667543 -24.27385411
39.00382786 -8.82965716 -20.73306238
34.16047523 -18.26132564 -14.13712905
36.63240779 -13.81310097 -17.36393802
15.83932631 -32.52847553 -20.10370348
20.94512822 -29.0746856 -17.96914391
17.14347739 -33.12456355 -17.61939416
30.49847683 -22.15788836 -13.69432813
25.76505677 -25.66158765 -15.85973337
29.27301951 -24.13176495 -12.15917426
19.49570286 -33.78097456 -12.43699491
22.14237212 -29.51848584 -15.47445954
18.36977863 -33.54537339 -15.04292246
21.95767836 -31.82671295 -11.2916184
19.69819131 -31.29796828 -16.54015943
26.67905712 -27.93551657 -9.083236795
24.60174144 -27.69496467 -14.36691635
27.99479487 -26.06493063 -10.6138617
24.35384289 -29.87534859 -10.17243415
26.93830457 -25.92983996 -13.28008537
23.3090715 -29.76426692 -12.86434589
2.745344615 -21.13768539 -35.8982097
7.915764474 -18.58713602 -34.96682933
4.451341612 -23.06714846 -34.57234983
2.710542069 -18.341495 -36.77345358
17.61358854 -13.63567899 -32.94878844
12.8172986 -16.11215173 -33.9915353
7.837921988 -26.53648736 -31.35412272
9.583704591 -20.3693507 -33.54531651
6.164969676 -24.87907404 -33.04564563
7.073270018 -21.69290975 -34.06074678
2.662221939 -12.76955649 -38.14198642
7.871964626 -15.92533028 -35.92666695
2.685689223 -15.53585169 -37.52157705
5.340737468 -17.12148799 -36.35388885
38.93044601 -1.931316883 -27.18527519
32.9178004 -5.354709486 -29.00842143
38.13543278 -4.910104164 -25.44448654
22.45559566 -11.07950551 -31.80533784
27.49833616 -8.355531783 -30.5144408
36.28792044 -10.36725081 -22.03471168
32.41889276 -8.104093827 -27.43765295
37.24049955 -7.73359758 -23.71805882
35.19262744 -6.565508914 -26.49547216
14.18213019 -31.58485507 -22.94716868
16.11281082 -26.17619577 -26.07107557
12.70895884 -30.59661717 -25.22289761
16.8748161 -29.93964397 -21.86513629
19.32059712 -15.22233167 -31.26138282
17.80797913 -20.75727191 -28.8139155
16.94592845 -16.48820263 -31.85844409
9.563199673 -28.08879214 -29.41164356
14.58918713 -24.98235535 -28.12343389
11.15574184 -29.42404125 -27.39564971
10.45987381 -25.04200269 -30.71952805
13.68964773 -27.76909105 -26.72952506
21.99126379 -26.65664684 -19.76287975
18.78590971 -24.70289955 -25.0647712
19.48487943 -28.28998771 -20.80053017
17.86111435 -27.3163187 -23.5240471
12.14304197 -19.03491477 -32.98254883
15.45006997 -22.10747313 -29.47196122
14.54494467 -17.76166928 -32.43489429
11.32108913 -22.01498712 -31.90977955
16.22225345 -19.31958717 -30.69641353
13.0043718 -23.56278621 -30.08824518
2.64820218 -1.636678956 -39.5563006
7.889474674 -4.875963502 -38.63162972
2.647768891 -4.381302011 -39.35958716
17.76128703 -10.97707907 -34.07248417
12.96468841 -8.01261809 -36.79480027
15.33322151 -12.22424266 -34.55682429
2.662691189 -9.893090931 -38.66596938
7.868558543 -7.608410022 -38.13283025
2.650815193 -7.147810499 -39.06244344
5.292196777 -11.57400187 -37.83710734
5.287012036 -6.012776446 -38.85921269
10.44962952 -14.6610494 -35.47686461
10.48208416 -9.224317949 -37.14444613
12.88870404 -13.45784307 -35.02585828
7.905056615 -13.17357894 -36.76583444
12.94020717 -10.74458267 -35.96382051
7.906209278 -10.38640546 -37.50428167
31.90536117 -19.71859763 -15.53590872
29.34271444 -18.13479485 -21.13821366
33.04599964 -17.57760498 -17.10281697
29.45022289 -21.50770857 -16.59896477
22.16516502 -13.69882535 -30.50849255
26.06236402 -16.10742679 -26.16744909
24.59278406 -12.39146608 -29.8322584
21.37573742 -16.49711363 -29.26951652
35.21712763 -12.96573716 -20.32453666
30.21186422 -15.83794891 -22.6624883
34.15880895 -15.31800849 -18.70570202
33.6047882 -11.9224516 -23.18439644
31.72017564 -16.76328501 -19.96391851
24.56716225 -24.92704549 -18.68268504
26.76638685 -19.84423952 -22.08179737
26.99651347 -23.24863982 -17.65200573
23.09105855 -24.10389651 -21.4522523
28.19414197 -20.73005852 -19.41886516
29.65170809 -9.641256685 -28.31805926
28.46531457 -14.76653963 -25.28605172
27.0960415 -11.03373883 -29.10224986
31.73279926 -10.80488851 -25.86800302
26.61062423 -13.62875213 -27.64556593
30.98924339 -13.39379018 -24.26837831
19.71035112 -21.93281223 -26.58579496
25.08236078 -18.799093 -24.72023518
20.554523 -19.25443241 -27.95540297
21.45791053 -23.09714903 -24.11025414
23.31270099 -17.70064548 -27.07090183
24.12692246 -21.47274519 -23.11311696
2.852533686 21.96298392 -37.29981724
8.77886968 20.61380747 -38.77948097
4.773655355 24.73739973 -37.07567229
2.800444964 18.94984324 -37.99315054
21.13087802 16.35861248 -39.52839184
14.92429863 18.76078348 -39.57930915
9.138007529 30.93812641 -36.55486874
11.05207434 23.49024598 -38.68497077
6.87080168 27.7274979 -36.8290664
7.883473976 24.17771258 -37.96221694
2.721657984 13.05464614 -38.99353406
8.585467082 17.36877709 -39.18300337
2.759850839 15.96485287 -38.55768382
5.680988151 18.2122733 -38.66994268
40.93506932 2.030765084 -28.5851111
37.36771987 6.078573952 -32.92986022
43.68533407 5.624678287 -29.1474572
37.53905656 0 -29.48373512
27.15478917 13.39806972 -38.46111485
32.67989597 9.92997932 -36.2643305
46.70190442 13.34246632 -28.35827973
39.72048164 9.929349297 -33.61733537
46.61291397 9.679932413 -29.68724503
41.87269815 7.811737656 -31.52469676
31.39603247 -3.568098846 -31.02637235
33.90164268 3.852856638 -33.50248124
34.35559956 -1.863234607 -30.29816902
35.84437152 1.943976363 -31.61111552
19.26816099 42.91189434 -31.17653938
22.45765819 36.48376834 -36.33725426
17.13822184 41.25999773 -34.01345621
23.55618071 41.79385776 -30.52235347
24.4140762 19.23538714 -39.50280509
24.45478039 28.50489223 -39.56866585
21.10106351 20.5311035 -39.67012217
11.78350376 34.61021407 -36.24019411
19.91154715 34.09630312 -38.38329545
14.61194782 38.54002375 -35.88320793
12.80607252 30.65904124 -37.61006214
18.77960571 38.0939372 -36.66784941
32.05406987 38.85424815 -28.80601745
26.53990543 34.89916795 -35.41040427
27.85898363 40.44830288 -29.74006752
25.12684335 38.42833361 -33.09340252
14.44906245 22.64973412 -39.24608914
20.53698927 29.38633542 -39.17557347
17.74680844 21.67164946 -39.57497735
13.69576717 26.63278547 -38.60308018
20.91254481 24.90540131 -39.57157527
16.6419425 30.15374671 -38.50450096
2.655525237 1.641204854 -39.66568539
8.089679947 4.999697165 -39.61195557
2.667503376 4.413956954 -39.65294403
5.320933481 0 -39.49335202
20.47831723 12.65629608 -39.2847173
13.91565953 8.600350563 -39.49373072
17.56744099 14.00544963 -39.59213469
2.708407997 10.06294936 -39.32984085
8.186099822 7.915452823 -39.67170775
2.683315724 7.2354468 -39.54137165
5.511017378 12.05256118 -39.40158782
5.397148671 6.138031876 -39.66871017
10.62401515 -3.261048328 -38.4380479
10.86589542 3.335293634 -39.31317895
7.999821078 -1.646970852 -39.08133472
8.067643031 1.660933761 -39.41266368
11.64439632 16.33733229 -39.53314048
11.19219452 9.84922075 -39.6608022
14.5974753 15.2420702 -39.66955091
8.486494724 14.14253099 -39.47006014
14.26123237 11.84146344 -39.63525425
8.354088959 10.97478604 -39.62886567
46.6470637 28.82947084 -22.71419276
41.4659733 25.62738088 -29.87169456
46.74022067 24.86174256 -24.19020299
43.63109307 31.86409957 -24.59169764
28.28341343 17.48011082 -38.92974887
36.33234668 22.45462514 -36.47884097
31.4170286 15.82997043 -38.11040316
28.77371064 22.20663385 -39.3994641
46.74778316 17.2109286 -26.97911773
41.76241482 21.89308768 -31.32677383
46.76945259 20.97306358 -25.61141534
44.44811854 15.76949508 -30.66535624
44.25149003 23.38575762 -27.85082753
36.31126488 36.84318694 -27.61376825
38.21331904 28.33084122 -31.52531465
40.12888314 34.55786805 -26.23876879
33.41130295 34.8768155 -31.04005384
40.88319815 30.05982913 -28.15852006
37.15997914 12.08257198 -35.48862981
39.1788724 20.3242571 -34.80302286
34.40965345 14.01190389 -36.95736634
42.04744467 14.31698314 -34.27631508
36.24135165 18.56117294 -37.65085206
41.91977192 18.11804897 -32.82832275
27.88784554 31.03236854 -37.61579583
35.44636763 26.56685977 -34.93461209
29.06083124 27.22270961 -39.52450019
30.59782877 32.93529489 -34.3799284
32.81932326 24.91874306 -38.1100705
34.5341925 30.73512243 -33.08307686
20.68347438 -9.445252045 -33.46656455
21.90883644 -3.279742785 -35.44924201
23.19100137 -8.104319141 -32.92692633
18.32436119 -7.99624154 -35.03560983
23.85545728 10.89376004 -38.5989407
22.98324682 3.440581529 -37.18767453
26.5815006 9.289161803 -37.74080722
20.31277319 8.86392923 -38.83739186
28.46708709 -5.204859985 -31.7329641
24.61032374 -1.742563964 -35.02347321
25.79311092 -6.689210808 -32.3470309
29.54157754 -1.800240274 -32.90480586
23.913001 -4.985671178 -34.00462312
13.3318802 -4.9261257 -37.51271292
19.29952096 -1.717000034 -36.78360971
15.85312537 -6.476071977 -36.39484158
13.54972995 -1.67483873 -38.18359955
18.84048942 -4.895513238 -35.94693463
31.59661811 5.777056598 -35.22152953
25.30962018 1.792078501 -36.01865679
29.19088908 7.570393944 -36.60817007
30.5934208 1.864338767 -34.07639862
25.96022441 5.412501034 -36.91580356
27.49228837 0 -34.58277115
13.92562275 5.145513392 -39.18336204
19.71916328 1.754333907 -37.58342019
17.00085089 6.944922936 -39.02973452
13.74943173 1.699523227 -38.74636593
20.05221743 5.210368674 -38.25886542
16.58797455 0 -37.89855632
39.0212114 55.87999948 2.772174416
46.20440096 52.43123112 8.528942007
36.58237467 54.82856524 7.059418154
44.06564123 56.10491994 0
49.2208875 34.75153615 17.14627578
48.76957081 43.94909484 13.35419193
31.38881521 51.6927494 14.76832212
42.5520399 50.27726025 12.56833901
33.96794666 53.33418354 11.07571375
39.95489765 53.07011775 9.900719456
51.5910209 52.20569615 -5.933077192
51.5910209 52.20569615 5.933077192
48.92311493 55.4747366 -3.008605595
48.92311493 55.4747366 3.008605595
45.11812452 3.450445057 26.56658173
48.67921187 11.0199633 25.87615606
49.16434771 26.2820162 20.34640103
48.9535789 18.45908497 23.20423257
21.85191093 44.87623627 27.73503931
30.64182363 42.53501716 26.28808632
24.08494707 46.53684557 24.75356465
46.40768429 33.71631617 20.83782937
39.1450324 38.98783103 24.09580473
46.03506436 37.94987231 19.12164782
28.80875057 49.91806026 18.37811577
33.23660622 44.3084546 23.22779671
26.41059594 48.22885022 21.62750869
33.9578284 49.22041572 17.46263124
28.66624171 45.54708142 24.07044386
44.33628058 46.4243131 15.09487136
37.89439388 42.6589273 22.12955486
45.39861983 42.26899614 17.21229516
39.24186395 48.13878328 16.39105905
42.17226939 40.59350482 20.79014796
36.13699843 46.14474957 19.94411693
51.69798639 31.95111274 -14.59069726
55.50028564 34.30106291 -5.134853416
51.92418349 36.57109681 -12.78012256
51.69798639 31.95111274 14.59069726
55.50028564 34.30106291 5.134853416
51.92418349 36.57109681 12.78012256
52.1700175 46.80081025 -8.556957858
55.87547927 39.26262897 -2.780038293
52.11381691 41.5548946 -10.77688732
55.38539306 49.72440471 -3.030165733
54.33207204 38.20783098 -7.966029932
52.1700175 46.80081025 8.556957858
55.87547927 39.26262897 2.780038293
52.11381691 41.5548946 10.77688732
55.38539306 49.72440471 3.030165733
54.33207204 38.20783098 7.966029932
56.10491994 44.60176517 0
23.04940277 -33.00770449 1.637493106
26.08719076 -29.60288414 4.815474988
22.3202902 -33.45298107 4.307217977
24.68089671 -31.42402323 0
31.59526269 -22.30727582 11.00632506
28.91714453 -26.05891966 7.918156581
20.55723654 -33.85473679 9.67210419
25.25908853 -29.84481521 7.460624412
21.48649289 -33.73664493 7.005964977
23.8290455 -31.65094456 5.904775341
27.79566603 -28.12683427 -3.196560744
27.79566603 -28.12683427 3.196560744
26.27018298 -29.78819896 -1.615527131
26.27018298 -29.78819896 1.615527131
41.22437668 -3.152667543 24.27385411
39.00382786 -8.82965716 20.73306238
34.16047523 -18.26132564 14.13712905
36.63240779 -13.81310097 17.36393802
15.83932631 -32.52847553 20.10370348
20.94512822 -29.0746856 17.96914391
17.14347739 -33.12456355 17.61939416
30.49847683 -22.15788836 13.69432813
25.76505677 -25.66158765 15.85973337
29.27301951 -24.13176495 12.15917426
19.49570286 -33.78097456 12.43699491
22.14237212 -29.51848584 15.47445954
18.36977863 -33.54537339 15.04292246
21.95767836 -31.82671295 11.2916184
19.69819131 -31.29796828 16.54015943
26.67905712 -27.93551657 9.083236795
24.60174144 -27.69496467 14.36691635
27.99479487 -26.06493063 10.6138617
24.35384289 -29.87534859 10.17243415
26.93830457 -25.92983996 13.28008537
23.3090715 -29.76426692 12.86434589
33.66559898 -20.80648442 -9.501425436
34.56192901 -21.36044685 -3.197649115
32.25348924 -22.71668803 -7.938565767
33.66559898 -20.80648442 9.501425436
34.56192901 -21.36044685 3.197649115
32.25348924 -22.71668803 7.938565767
29.35569087 -26.33447685 -4.814938191
32.92283166 -23.13424316 -1.63804828
30.80953924 -24.56713463 -6.371264907
29.53876623 -26.5195837 -1.616082369
32.6989352 -22.99480477 -4.794234542
29.35569087 -26.33447685 4.814938191
32.92283166 -23.13424316 1.63804828
30.80953924 -24.56713463 6.371264907
29.53876623 -26.5195837 1.616082369
32.6989352 -22.99480477 4.794234542
31.25673373 -24.84818621 0
2.745344615 -21.13768539 35.8982097
7.915764474 -18.58713602 34.96682933
4.451341612 -23.06714846 34.57234983
2.710542069 -18.341495 36.77345358
17.61358854 -13.63567899 32.94878844
12.8172986 -16.11215173 33.9915353
7.837921988 -26.53648736 31.35412272
9.583704591 -20.3693507 33.54531651
6.164969676 -24.87907404 33.04564563
7.073270018 -21.69290975 34.06074678
2.662221939 -12.76955649 38.14198642
7.871964626 -15.92533028 35.92666695
2.685689223 -15.53585169 37.52157705
5.340737468 -17.12148799 36.35388885
38.93044601 -1.931316883 27.18527519
32.9178004 -5.354709486 29.00842143
38.13543278 -4.910104164 25.44448654
22.45559566 -11.07950551 31.80533784
27.49833616 -8.355531783 30.5144408
36.28792044 -10.36725081 22.03471168
32.41889276 -8.104093827 27.43765295
37.24049955 -7.73359758 23.71805882
35.19262744 -6.565508914 26.49547216
14.18213019 -31.58485507 22.94716868
16.11281082 -26.17619577 26.07107557
12.70895884 -30.59661717 25.22289761
16.8748161 -29.93964397 21.86513629
19.32059712 -15.22233167 31.26138282
17.80797913 -20.75727191 28.8139155
16.94592845 -16.48820263 31.85844409
9.563199673 -28.08879214 29.41164356
14.58918713 -24.98235535 28.12343389
11.15574184 -29.42404125 27.39564971
10.45987381 -25.04200269 30.71952805
13.68964773 -27.76909105 26.72952506
21.99126379 -26.65664684 19.76287975
18.78590971 -24.70289955 25.0647712
19.48487943 -28.28998771 20.80053017
17.86111435 -27.3163187 23.5240471
12.14304197 -19.03491477 32.98254883
15.45006997 -22.10747313 29.47196122
14.54494467 -17.76166928 32.43489429
11.32108913 -22.01498712 31.90977955
16.22225345 -19.31958717 30.69641353
13.0043718 -23.56278621 30.08824518
2.64820218 -1.636678956 39.5563006
7.889474674 -4.875963502 38.63162972
2.647768891 -4.381302011 39.35958716
17.76128703 -10.97707907 34.07248417
12.96468841 -8.01261809 36.79480027
15.33322151 -12.22424266 34.55682429
2.662691189 -9.893090931 38.66596938
7.868558543 -7.608410022 38.13283025
2.650815193 -7.147810499 39.06244344
5.292196777 -11.57400187 37.83710734
5.287012036 -6.012776446 38.85921269
10.44962952 -14.6610494 35.47686461
10.48208416 -9.224317949 37.14444613
12.88870404 -13.45784307 35.02585828
7.905056615 -13.17357894 36.76583444
12.94020717 -10.74458267 35.96382051
7.906209278 -10.38640546 37.50428167
31.90536117 -19.71859763 15.53590872
29.34271444 -18.13479485 21.13821366
33.04599964 -17.57760498 17.10281697
29.45022289 -21.50770857 16.59896477
22.16516502 -13.69882535 30.50849255
26.06236402 -16.10742679 26.16744909
24.59278406 -12.39146608 29.8322584
21.37573742 -16.49711363 29.26951652
35.21712763 -12.96573716 20.32453666
30.21186422 -15.83794891 22.6624883
34.15880895 -15.31800849 18.70570202
33.6047882 -11.9224516 23.18439644
31.72017564 -16.76328501 19.96391851
24.56716225 -24.92704549 18.68268504
26.76638685 -19.84423952 22.08179737
26.99651347 -23.24863982 17.65200573
23.09105855 -24.10389651 21.4522523
28.19414197 -20.73005852 19.41886516
29.65170809 -9.641256685 28.31805926
28.46531457 -14.76653963 25.28605172
27.0960415 -11.03373883 29.10224986
31.73279926 -10.80488851 25.86800302
26.61062423 -13.62875213 27.64556593
30.98924339 -13.39379018 24.26837831
19.71035112 -21.93281223 26.58579496
25.08236078 -18.799093 24.72023518
20.554523 -19.25443241 27.95540297
21.45791053 -23.09714903 24.11025414
23.31270099 -17.70064548 27.07090183
24.12692246 -21.47274519 23.11311696
2.852533686 21.96298392 37.29981724
8.77886968 20.61380747 38.77948097
4.773655355 24.73739973 37.07567229
2.800444964 18.94984324 37.99315054
21.13087802 16.35861248 39.52839184
14.92429863 18.76078348 39.57930915
9.138007529 30.93812641 36.55486874
11.05207434 23.49024598 38.68497077
6.87080168 27.7274979 36.8290664
7.883473976 24.17771258 37.96221694
2.721657984 13.05464614 38.99353406
8.585467082 17.36877709 39.18300337
2.759850839 15.96485287 38.55768382
5.680988151 18.2122733 38.66994268
40.93506932 2.030765084 28.5851111
37.36771987 6.078573952 32.92986022
43.68533407 5.624678287 29.1474572
37.53905656 0 29.48373512
27.15478917 13.39806972 38.46111485
32.67989597 9.92997932 36.2643305
46.70190442 13.34246632 28.35827973
39.72048164 9.929349297 33.61733537
46.61291397 9.679932413 29.68724503
41.87269815 7.811737656 31.52469676
31.39603247 -3.568098846 31.02637235
33.90164268 3.852856638 33.50248124
34.35559956 -1.863234607 30.29816902
35.84437152 1.943976363 31.61111552
19.26816099 42.91189434 31.17653938
22.45765819 36.48376834 36.33725426
17.13822184 41.25999773 34.01345621
23.55618071 41.79385776 30.52235347
24.4140762 19.23538714 39.50280509
24.45478039 28.50489223 39.56866585
21.10106351 20.5311035 39.67012217
11.78350376 34.61021407 36.24019411
19.91154715 34.09630312 38.38329545
14.61194782 38.54002375 35.88320793
12.80607252 30.65904124 37.61006214
18.77960571 38.0939372 36.66784941
32.05406987 38.85424815 28.80601745
26.53990543 34.89916795 35.41040427
27.85898363 40.44830288 29.74006752
25.12684335 38.42833361 33.09340252
14.44906245 22.64973412 39.24608914
20.53698927 29.38633542 39.17557347
17.74680844 21.67164946 39.57497735
13.69576717 26.63278547 38.60308018
20.91254481 24.90540131 39.57157527
16.6419425 30.15374671 38.50450096
2.655525237 1.641204854 39.66568539
8.089679947 4.999697165 39.61195557
2.667503376 4.413956954 39.65294403
5.320933481 0 39.49335202
20.47831723 12.65629608 39.2847173
13.91565953 8.600350563 39.49373072
17.56744099 14.00544963 39.59213469
2.708407997 10.06294936 39.32984085
8.186099822 7.915452823 39.67170775
2.683315724 7.2354468 39.54137165
5.511017378 12.05256118 39.40158782
5.397148671 6.138031876 39.66871017
10.62401515 -3.261048328 38.4380479
10.86589542 3.335293634 39.31317895
7.999821078 -1.646970852 39.08133472
8.067643031 1.660933761 39.41266368
11.64439632 16.33733229 39.53314048
11.19219452 9.84922075 39.6608022
14.5974753 15.2420702 39.66955091
8.486494724 14.14253099 39.47006014
14.26123237 11.84146344 39.63525425
8.354088959 10.97478604 39.62886567
46.6470637 28.82947084 22.71419276
41.4659733 25.62738088 29.87169456
46.74022067 24.86174256 24.19020299
43.63109307 31.86409957 24.59169764
28.28341343 17.48011082 38.92974887
36.33234668 22.45462514 36.47884097
31.4170286 15.82997043 38.11040316
28.77371064 22.20663385 39.3994641
46.74778316 17.2109286 26.97911773
41.76241482 21.89308768 31.32677383
46.76945259 20.97306358 25.61141534
44.44811854 15.76949508 30.66535624
44.25149003 23.38575762 27.85082753
36.31126488 36.84318694 27.61376825
38.21331904 28.33084122 31.52531465
40.12888314 34.55786805 26.23876879
33.41130295 34.8768155 31.04005384
40.88319815 30.05982913 28.15852006
37.15997914 12.08257198 35.48862981
39.1788724 20.3242571 34.80302286
34.40965345 14.01190389 36.95736634
42.04744467 14.31698314 34.27631508
36.24135165 18.56117294 37.65085206
41.91977192 18.11804897 32.82832275
27.88784554 31.03236854 37.61579583
35.44636763 26.56685977 34.93461209
29.06083124 27.22270961 39.52450019
30.59782877 32.93529489 34.3799284
32.81932326 24.91874306 38.1100705
34.5341925 30.73512243 33.08307686
20.68347438 -9.445252045 33.46656455
21.90883644 -3.279742785 35.44924201
23.19100137 -8.104319141 32.92692633
18.32436119 -7.99624154 35.03560983
23.85545728 10.89376004 38.5989407
22.98324682 3.440581529 37.18767453
26.5815006 9.289161803 37.74080722
20.31277319 8.86392923 38.83739186
28.46708709 -5.204859985 31.7329641
24.61032374 -1.742563964 35.02347321
25.79311092 -6.689210808 32.3470309
29.54157754 -1.800240274 32.90480586
23.913001 -4.985671178 34.00462312
13.3318802 -4.9261257 37.51271292
19.29952096 -1.717000034 36.78360971
15.85312537 -6.476071977 36.39484158
13.54972995 -1.67483873 38.18359955
18.84048942 -4.895513238 35.94693463
31.59661811 5.777056598 35.22152953
25.30962018 1.792078501 36.01865679
29.19088908 7.570393944 36.60817007
30.5934208 1.864338767 34.07639862
25.96022441 5.412501034 36.91580356
27.49228837 0 34.58277115
13.92562275 5.145513392 39.18336204
19.71916328 1.754333907 37.58342019
17.00085089 6.944922936 39.02973452
13.74943173 1.699523227 38.74636593
20.05221743 5.210368674 38.25886542
16.58797455 0 37.89855632
45.01018702 0 -23.6838036
49.98427015 0 -18.01852905
48.18833856 3.551924179 -24.03489705
43.67240092 -3.219058001 -21.78248288
55.83734511 0 -3.869943971
53.77021244 0 -11.32533213
50.53369951 11.07254106 -22.40023701
53.09038081 3.7055851 -17.77412979
50.3360495 7.394851943 -23.70662656
51.11345638 3.658557816 -21.1635848
40.92724797 -8.967652042 -18.14195406
47.95755151 -3.347325553 -16.05570975
42.30243066 -6.214635727 -19.92305586
45.9451468 -3.288624715 -19.02364033
45.01018702 0 23.6838036
49.98427015 0 18.01852905
48.18833856 3.551924179 24.03489705
43.67240092 -3.219058001 21.78248288
55.83734511 0 3.869943971
53.77021244 0 11.32533213
50.53369951 11.07254106 22.40023701
53.09038081 3.7055851 17.77412979
50.3360495 7.394851943 23.70662656
51.11345638 3.658557816 21.1635848
40.92724797 -8.967652042 18.14195406
47.95755151 -3.347325553 16.05570975
42.30243066 -6.214635727 19.92305586
45.9451468 -3.288624715 19.02364033
51.42153799 26.80499288 -16.56639667
54.22093695 19.10480687 -11.80741999
