5.5850745 -11.782738 4.4429552
4.5896116 -13.708926 0.95685114
5.5748531 -12.576561 2.7556757
5.4268298 -13.106666 0.93813835
5.9266129 -12.58392 1.8486994
0.52608206 -7.4051471 10.604479
1.5870675 -8.5977257 9.7564157
0 -8.1803831 10.415365
3.6848726 -10.577965 7.4683846
2.6467159 -9.6658188 8.7104311
-1.1319856 -9.8431708 9.9604461
1.0800144 -9.3912557 9.5031467
-0.55321511 -8.9958638 10.20056
0.54142955 -8.8042181 9.9832499
0.67979069 -16.429615 1.0999244
1.9007714 -15.059566 3.0755127
1.7480233 -15.703432 1.0563896
0 -16.638608 2.2417172
3.8043771 -11.808659 6.1556115
2.9343615 -13.474902 4.7478966
4.2814913 -12.103387 5.3703985
3.6739843 -14.359331 0.98884016
2.877006 -14.419357 2.9753772
2.7468065 -15.011166 1.0186723
4.2202878 -13.796739 1.9297209
2.3358871 -15.096309 2.0539368
-1.3984905 -16.484038 4.5560762
1.2710925 -14.982395 4.141032
-0.70218179 -16.662227 3.4107031
0.66724157 -15.833122 3.2409882
5.162777 -12.492908 3.6797575
3.3934159 -13.664594 3.8561194
4.738984 -12.333847 4.5385699
4.7181307 -13.167721 2.8312041
3.8536379 -12.898737 4.6411177
3.8170419 -13.78296 2.9055607
-3.9005393 -13.820452 8.5415089
-1.2065271 -13.040801 8.0596581
-3.137874 -12.748825 8.979217
-3.3602494 -14.722965 7.7004206
3.2116247 -11.379479 7.0329046
1.1296076 -12.209413 7.5458323
2.6973606 -10.959069 7.7186611
2.8001075 -12.268698 6.4167874
-1.7681862 -10.780269 9.6707906
-0.60095472 -12.078479 8.4873155
-2.4257098 -11.73001 9.3533609
-0.57547081 -10.51846 9.4433591
-1.8217961 -12.425506 8.7379633
-2.1112041 -16.076933 5.713683
-0.64114618 -13.735393 7.2066476
-2.7562533 -15.489853 6.747181
-0.67516803 -15.392733 5.4622241
-1.9381456 -14.231479 7.4589956
1.6356626 -9.9722995 8.9459755
0.58238111 -11.705171 8.2249994
2.1682571 -10.485046 8.360642
0.56061155 -10.246862 9.1995218
1.6620944 -11.336266 7.9719788
0 -11.145906 8.860668
1.8463574 -14.060111 4.9969117
0.61713802 -13.221062 6.9367897
2.3434049 -13.169688 5.736547
0.64532882 -14.712448 5.2208198
1.7352904 -12.741947 6.6783029
0 -14.290163 6.2547202
-7.026106 11.932462 0.91254468
-6.3795887 12.001526 2.7168963
-6.2413363 12.513456 0.92235691
-4.675104 11.296761 6.0389627
-5.5850745 11.782738 4.4429552
-4.5896116 13.708926 0.95685114
-5.5748531 12.576561 2.7556757
-5.4268298 13.106666 0.93813835
-5.9266129 12.58392 1.8486994
-0.52608206 7.4051471 10.604479
-1.5870675 8.5977257 9.7564157
-3.6848726 10.577965 7.4683846
-2.6467159 9.6658188 8.7104311
-0.67979069 16.429615 1.0999244
-1.9007714 15.059566 3.0755127
-1.7480233 15.703432 1.0563896
-3.8043771 11.808659 6.1556115
-2.9343615 13.474902 4.7478966
-4.2814913 12.103387 5.3703985
-3.6739843 14.359331 0.98884016
-2.877006 14.419357 2.9753772
-2.7468065 15.011166 1.0186723
-4.2202878 13.796739 1.9297209
-2.3358871 15.096309 2.0539368
-5.162777 12.492908 3.6797575
-3.3934159 13.664594 3.8561194
-4.738984 12.333847 4.5385699
-4.7181307 13.167721 2.8312041
-3.8536379 12.898737 4.6411177
-3.8170419 13.78296 2.9055607
12.094493 20.540123 1.5708225
10.356209 19.482496 4.4104328
10.363193 20.777498 1.5314929
6.3269608 15.288252 8.1727126
8.3369313 17.588284 6.6320713
6.8271571 20.392355 1.423339
8.690781 19.605923 4.2958933
8.5875264 20.740255 1.4845293
9.5743734 20.329174 2.986552
0.53537435 7.5359457 10.791788
1.6921123 9.1667916 10.402173
0 8.1803831 10.415365
4.5357154 13.020433 9.1928463
3.0059742 10.977832 9.8927622
-1.0800144 9.3912557 9.5031467
1.1319856 9.8431708 9.9604461
-0.54142955 8.8042181 9.9832499
0.55321511 8.9958638 10.20056
0.71779835 17.348208 1.1614221
2.2117015 17.523026 3.5786083
2.0212816 18.158257 1.2215288
0 16.638608 2.2417172
4.886963 15.168969 7.9072723
3.6523224 16.771856 5.9095818
5.7809142 16.34212 7.251168
5.0532896 19.750181 1.3600754
3.6387811 18.237322 3.7631992
3.4736947 18.983576 1.2882438
6.0455263 19.763711 2.7643088
2.8360262 18.328595 2.4937073
-1.2710925 14.982395 4.141032
1.3984905 16.484038 4.5560762
-0.66724157 15.833122 3.2409882
0.70218179 16.662227 3.4107031
7.6939376 18.61782 5.4838365
4.4340167 17.85488 5.0386095
6.7315073 17.519659 6.4468284
6.9436364 19.378833 4.1666611
5.1438674 17.217339 6.1950019
5.2298001 18.88429 3.9809628
-3.2116247 11.379479 7.0329046
-1.1296076 12.209413 7.5458323
-2.6973606 10.959069 7.7186611
-2.8001075 12.268698 6.4167874
3.9005393 13.820452 8.5415089
1.2065271 13.040801 8.0596581
3.137874 12.748825 8.979217
3.3602494 14.722965 7.7004206
-1.6356626 9.9722995 8.9459755
-0.58238111 11.705171 8.2249994
-2.1682571 10.485046 8.360642
-0.56061155 10.246862 9.1995218
-1.6620944 11.336266 7.9719788
-1.8463574 14.060111 4.9969117
-0.61713802 13.221062 6.9367897
-2.3434049 13.169688 5.736547
-0.64532882 14.712448 5.2208198
-1.7352904 12.741947 6.6783029
1.7681862 10.780269 9.6707906
0.60095472 12.078479 8.4873155
2.4257098 11.73001 9.3533609
0.57547081 10.51846 9.4433591
1.8217961 12.425506 8.7379633
0 11.145906 8.860668
2.1112041 16.076933 5.713683
0.64114618 13.735393 7.2066476
2.7562533 15.489853 6.747181
0.67516803 15.392733 5.4622241
1.9381456 14.231479 7.4589956
0 14.290163 6.2547202
0 -5.9085939 11.229063
0 -4.2024947 11.657923
0 -0.83690412 12.075241
0 -2.5142903 11.937303
0 5.9085939 11.229063
0 4.2024947 11.657923
0 0.83690412 12.075241
0 2.5142903 11.937303
-12.094493 -20.540123 -1.5708225
-10.356209 -19.482496 -4.4104328
-10.363193 -20.777498 -1.5314929
-6.3269608 -15.288252 -8.1727126
-8.3369313 -17.588284 -6.6320713
-6.8271571 -20.392355 -1.423339
-8.690781 -19.605923 -4.2958933
-8.5875264 -20.740255 -1.4845293
-9.5743734 -20.329174 -2.986552
-0.53537435 -7.5359457 -10.791788
-1.6921123 -9.1667916 -10.402173
-4.5357154 -13.020433 -9.1928463
-3.0059742 -10.977832 -9.8927622
-0.71779835 -17.348208 -1.1614221
-2.2117015 -17.523026 -3.5786083
-2.0212816 -18.158257 -1.2215288
-4.886963 -15.168969 -7.9072723
-3.6523224 -16.771856 -5.9095818
-5.7809142 -16.34212 -7.251168
-5.0532896 -19.750181 -1.3600754
-3.6387811 -18.237322 -3.7631992
-3.4736947 -18.983576 -1.2882438
-6.0455263 -19.763711 -2.7643088
-2.8360262 -18.328595 -2.4937073
-7.6939376 -18.61782 -5.4838365
-4.4340167 -17.85488 -5.0386095
-6.7315073 -17.519659 -6.4468284
-6.9436364 -19.378833 -4.1666611
-5.1438674 -17.217339 -6.1950019
-5.2298001 -18.88429 -3.9809628
7.026106 -11.932462 -0.91254468
6.3795887 -12.001526 -2.7168963
6.2413363 -12.513456 -0.92235691
4.675104 -11.296761 -6.0389627
5.5850745 -11.782738 -4.4429552
4.5896116 -13.708926 -0.95685114
5.5748531 -12.576561 -2.7556757
5.4268298 -13.106666 -0.93813835
5.9266129 -12.58392 -1.8486994
0.52608206 -7.4051471 -10.604479
1.5870675 -8.5977257 -9.7564157
0 -8.1803831 -10.415365
3.6848726 -10.577965 -7.4683846
2.6467159 -9.6658188 -8.7104311
-1.1319856 -9.8431708 -9.9604461
1.0800144 -9.3912557 -9.5031467
-0.55321511 -8.9958638 -10.20056
0.54142955 -8.8042181 -9.9832499
0.67979069 -16.429615 -1.0999244
1.9007714 -15.059566 -3.0755127
1.7480233 -15.703432 -1.0563896
0 -16.638608 -2.2417172
3.8043771 -11.808659 -6.1556115
2.9343615 -13.474902 -4.7478966
4.2814913 -12.103387 -5.3703985
3.6739843 -14.359331 -0.98884016
2.877006 -14.419357 -2.9753772
2.7468065 -15.011166 -1.0186723
4.2202878 -13.796739 -1.9297209
2.3358871 -15.096309 -2.0539368
-1.3984905 -16.484038 -4.5560762
1.2710925 -14.982395 -4.141032
-0.70218179 -16.662227 -3.4107031
0.66724157 -15.833122 -3.2409882
5.162777 -12.492908 -3.6797575
3.3934159 -13.664594 -3.8561194
4.738984 -12.333847 -4.5385699
4.7181307 -13.167721 -2.8312041
3.8536379 -12.898737 -4.6411177
3.8170419 -13.78296 -2.9055607
-3.9005393 -13.820452 -8.5415089
-1.2065271 -13.040801 -8.0596581
-3.137874 -12.748825 -8.979217
-3.3602494 -14.722965 -7.7004206
3.2116247 -11.379479 -7.0329046
1.1296076 -12.209413 -7.5458323
2.6973606 -10.959069 -7.7186611
2.8001075 -12.268698 -6.4167874
-1.7681862 -10.780269 -9.6707906
-0.60095472 -12.078479 -8.4873155
-2.4257098 -11.73001 -9.3533609
-0.57547081 -10.51846 -9.4433591
-1.8217961 -12.425506 -8.7379633
-2.1112041 -16.076933 -5.713683
-0.64114618 -13.735393 -7.2066476
-2.7562533 -15.489853 -6.747181
-0.67516803 -15.392733 -5.4622241
-1.9381456 -14.231479 -7.4589956
1.6356626 -9.9722995 -8.9459755
0.58238111 -11.705171 -8.2249994
2.1682571 -10.485046 -8.360642
0.56061155 -10.246862 -9.1995218
1.6620944 -11.336266 -7.9719788
0 -11.145906 -8.860668
1.8463574 -14.060111 -4.9969117
0.61713802 -13.221062 -6.9367897
2.3434049 -13.169688 -5.736547
0.64532882 -14.712448 -5.2208198
1.7352904 -12.741947 -6.6783029
0 -14.290163 -6.2547202
-7.026106 11.932462 -0.91254468
-6.3795887 12.001526 -2.7168963
-6.2413363 12.513456 -0.92235691
-4.675104 11.296761 -6.0389627
-5.5850745 11.782738 -4.4429552
-4.5896116 13.708926 -0.95685114
-5.5748531 12.576561 -2.7556757
-5.4268298 13.106666 -0.93813835
-5.9266129 12.58392 -1.8486994
-0.52608206 7.4051471 -10.604479
-1.5870675 8.5977257 -9.7564157
-3.6848726 10.577965 -7.4683846
-2.6467159 9.6658188 -8.7104311
-0.67979069 16.429615 -1.0999244
-1.9007714 15.059566 -3.0755127
-1.7480233 15.703432 -1.0563896
-3.8043771 11.808659 -6.1556115
-2.9343615 13.474902 -4.7478966
-4.2814913 12.103387 -5.3703985
-3.6739843 14.359331 -0.98884016
-2.877006 14.419357 -2.9753772
-2.7468065 15.011166 -1.0186723
-4.2202878 13.796739 -1.9297209
-2.3358871 15.096309 -2.0539368
-5.162777 12.492908 -3.6797575
-3.3934159 13.664594 -3.8561194
-4.738984 12.333847 -4.5385699
-4.7181307 13.167721 -2.8312041
-3.8536379 12.898737 -4.6411177
-3.8170419 13.78296 -2.9055607
12.094493 20.540123 -1.5708225
10.356209 19.482496 -4.4104328
10.363193 20.777498 -1.5314929
6.3269608 15.288252 -8.1727126
8.3369313 17.588284 -6.6320713
6.8271571 20.392355 -1.423339
8.690781 19.605923 -4.2958933
8.5875264 20.740255 -1.4845293
9.5743734 20.329174 -2.986552
0.53537435 7.5359457 -10.791788
1.6921123 9.1667916 -10.402173
0 8.1803831 -10.415365
4.5357154 13.020433 -9.1928463
3.0059742 10.977832 -9.8927622
-1.0800144 9.3912557 -9.5031467
1.1319856 9.8431708 -9.9604461
-0.54142955 8.8042181 -9.9832499
0.55321511 8.9958638 -10.20056
0.71779835 17.348208 -1.1614221
2.2117015 17.523026 -3.5786083
2.0212816 18.158257 -1.2215288
0 16.638608 -2.2417172
4.886963 15.168969 -7.9072723
3.6523224 16.771856 -5.9095818
5.7809142 16.34212 -7.251168
5.0532896 19.750181 -1.3600754
3.6387811 18.237322 -3.7631992
3.4736947 18.983576 -1.2882438
6.0455263 19.763711 -2.7643088
2.8360262 18.328595 -2.4937073
-1.2710925 14.982395 -4.141032
1.3984905 16.484038 -4.5560762
-0.66724157 15.833122 -3.2409882
0.70218179 16.662227 -3.4107031
7.6939376 18.61782 -5.4838365
4.4340167 17.85488 -5.0386095
6.7315073 17.519659 -6.4468284
6.9436364 19.378833 -4.1666611
5.1438674 17.217339 -6.1950019
5.2298001 18.88429 -3.9809628
-3.2116247 11.379479 -7.0329046
-1.1296076 12.209413 -7.5458323
-2.6973606 10.959069 -7.7186611
-2.8001075 12.268698 -6.4167874
3.9005393 13.820452 -8.5415089
1.2065271 13.040801 -8.0596581
3.137874 12.748825 -8.979217
3.3602494 14.722965 -7.7004206
-1.6356626 9.9722995 -8.9459755
-0.58238111 11.705171 -8.2249994
-2.1682571 10.485046 -8.360642
-0.56061155 10.246862 -9.1995218
-1.6620944 11.336266 -7.9719788
-1.8463574 14.060111 -4.9969117
-0.61713802 13.221062 -6.9367897
-2.3434049 13.169688 -5.736547
-0.64532882 14.712448 -5.2208198
-1.7352904 12.741947 -6.6783029
1.7681862 10.780269 -9.6707906
0.60095472 12.078479 -8.4873155
2.4257098 11.73001 -9.3533609
0.57547081 10.51846 -9.4433591
1.8217961 12.425506 -8.7379633
0 11.145906 -8.860668
2.1112041 16.076933 -5.713683
0.64114618 13.735393 -7.2066476
2.7562533 15.489853 -6.747181
0.67516803 15.392733 -5.4622241
1.9381456 14.231479 -7.4589956
0 14.290163 -6.2547202
0 -5.9085939 -11.229063
0 -4.2024947 -11.657923
0 -0.83690412 -12.075241
0 -2.5142903 -11.937303
0 5.9085939 -11.229063
0 4.2024947 -11.657923
0 0.83690412 -12.075241
0 2.5142903 -11.937303
14.084893 20.170153 -1.0006296
15.99125 18.146344 -2.9518497
13.259068 19.872293 -2.5586449
15.830776 11.177039 -5.5147086
16.316837 14.70405 -4.4679124
11.263417 18.549187 -5.2993963
14.794803 17.480764 -4.3698515
12.291566 19.29939 -4.0078333
14.187738 18.844871 -3.5156844
13.184418 1.008289 -7.763286
13.900522 3.1467896 -7.3890282
15.194042 8.1223505 -6.2879727
14.553412 5.4877025 -6.8983877
6.9744783 14.323156 -8.8521974
10.133624 14.066847 -8.6937898
8.0012696 15.460023 -8.2233913
14.821914 10.768483 -6.6552883
12.837831 12.786276 -7.9023533
15.013273 12.376475 -6.2360839
10.158849 17.602638 -6.480687
11.249364 14.996776 -7.8617514
9.0778513 16.577223 -7.4338083
11.940073 17.306624 -6.1401187
9.6773432 15.376091 -8.1258628
15.083394 15.793752 -5.1353405
12.719422 14.318659 -7.4278838
15.124028 14.08143 -5.7340782
13.602967 16.687033 -5.6818665
13.962251 13.439559 -6.8831314
12.419222 15.858591 -6.8542054
7.8948809 -11.305798 -0.5608741
9.0333164 -10.25071 -1.6674739
7.6114816 -11.40786 -1.468812
10.954278 -7.7340737 -3.8159626
10.059372 -9.0650849 -2.7544796
6.9197036 -11.395731 -3.2556951
8.6987733 -10.278015 -2.5693041
7.2842353 -11.437216 -2.3751246
8.1716822 -10.854042 -2.0249215
12.772194 -0.97676386 -7.5205594
12.606006 -2.8537381 -6.7009092
11.691302 -6.249874 -4.8383823
12.245966 -4.6176263 -5.8046471
5.1344478 -10.544373 -6.5167807
6.9696682 -9.674847 -5.9793843
5.6137135 -10.846797 -5.7695548
10.506734 -7.6333989 -4.7176999
8.7606479 -8.7254663 -5.3926347
10.112218 -8.3361975 -4.2003259
6.5064219 -11.273934 -4.1506755
7.4401176 -9.9185853 -5.1996145
6.0748153 -11.093326 -4.9746367
7.4233281 -10.759796 -3.8174067
6.5376289 -10.387477 -5.4895103
9.2134546 -9.6473654 -3.1368421
8.3615011 -9.4128084 -4.8829465
9.6780782 -9.010905 -3.6693172
8.3293347 -10.217762 -3.4791063
9.2411788 -8.8952252 -4.55573
7.9059009 -10.095355 -4.3632902
0.83386246 -6.420295 -10.903611
2.4411268 -5.7320499 -10.783351
1.3578996 -7.0367259 -10.546434
0.82424481 -5.5774387 -11.182386
5.5850476 -4.3237024 -10.447647
4.0103716 -5.0412897 -10.635524
2.4206092 -8.1953436 -9.6831885
2.973263 -6.3194182 -10.40715
1.8912229 -7.632134 -10.137387
2.1763339 -6.674567 -10.479956
0.81127155 -3.8913277 -11.623189
2.4260866 -4.9080797 -11.072357
0.81761816 -4.7296591 -11.422886
1.6351261 -5.2419338 -11.130147
12.070777 -0.59882426 -8.4290684
10.50873 -1.7094457 -9.2606933
12.058089 -1.5525318 -8.045323
7.1965422 -3.5507465 -10.192936
8.8515553 -2.6895973 -9.8224219
11.880949 -3.394319 -7.214337
10.487705 -2.6217226 -8.8762441
11.993526 -2.4906514 -7.6385429
11.288322 -2.1059406 -8.4986389
4.5419181 -10.115252 -7.3489778
5.1733413 -8.404393 -8.370642
4.0299319 -9.7019974 -7.9980242
5.4783189 -9.7197455 -7.0983997
6.1814805 -4.8702711 -10.001845
5.7167418 -6.6635278 -9.2498826
5.3840311 -5.2386032 -10.12201
2.9776852 -8.7459828 -9.1578779
4.6395814 -7.9447655 -8.9436758
3.5039148 -9.2418179 -8.604719
3.2637785 -7.813818 -9.5853676
4.3486197 -8.821061 -8.490835
7.3189971 -8.8717011 -6.57736
6.1045922 -8.0273529 -8.1449452
6.4082044 -9.3040362 -6.8408968
5.8033685 -8.8755192 -7.6433481
3.7992377 -5.955523 -10.31937
4.9156092 -7.033735 -9.3768277
4.586431 -5.600755 -10.227636
3.5382987 -6.8805748 -9.973098
5.1597766 -6.1449388 -9.763541
4.0984872 -7.4261009 -9.4826793
0.80782245 -0.49926173 -12.066476
2.4214971 -1.4965675 -11.857111
0.80795501 -1.336935 -12.010405
5.6096806 -3.4669733 -10.761368
4.0267879 -2.4886918 -11.428339
4.8163655 -3.8397946 -10.854751
0.81207715 -3.0172305 -11.792487
2.4186087 -2.3386452 -11.72113
0.80881518 -2.1809358 -11.91871
1.6206975 -3.5444555 -11.587344
1.6179908 -1.8400973 -11.892132
3.2422749 -4.5489797 -11.007639
3.2414646 -2.8525148 -11.486495
4.0242331 -4.2019351 -10.936105
2.4349316 -4.0577525 -11.324687
4.030491 -3.346619 -11.201664
2.4331738 -3.1964661 -11.542123
10.925139 -6.7521071 -5.319857
9.8686984 -6.099191 -7.1093169
11.230492 -5.9736475 -5.8122936
10.059466 -7.3464998 -5.6697947
7.1432762 -4.4147875 -9.8321212
8.583535 -5.3049164 -8.6181443
7.9632968 -4.012434 -9.6598712
6.9135544 -5.3356612 -9.4666392
11.705828 -4.3096839 -6.7556767
10.090771 -5.2898796 -7.5692777
11.493405 -5.1540459 -6.2939022
11.091339 -3.9350332 -7.6520646
10.691558 -5.6502096 -6.7290107
8.26752 -8.3886305 -6.287233
8.9589395 -6.6420373 -7.3909672
9.1645866 -7.8922848 -5.9923788
7.6810394 -8.0179511 -7.1359048
9.5367624 -7.0120113 -6.5684958
9.6300415 -3.1312092 -9.1969099
9.4111774 -4.8821004 -8.3600523
8.7989689 -3.5830151 -9.4504502
10.392341 -3.5385498 -8.4716484
8.7078849 -4.4597828 -9.0465524
10.258122 -4.4336397 -8.033368
6.4006115 -7.1223191 -8.6332985
8.2981735 -6.2194359 -8.1783689
6.6646334 -6.2430898 -9.0643072
7.0519219 -7.5906408 -7.9235874
7.6259463 -5.7901558 -8.8553121
8.0098658 -7.1287089 -7.6732938
0.85430215 6.5776697 -11.170881
2.6062363 6.119746 -11.5127
1.418973 7.3532125 -11.020774
0.84151851 5.694325 -11.416735
6.2490102 4.8377136 -11.689686
4.4132051 5.5476769 -11.70384
2.6633412 9.0171503 -10.654192
3.2516236 6.91105 -11.38148
2.0240497 8.1681637 -10.849369
2.3299587 7.1457166 -11.219723
0.82286223 3.9469233 -11.78925
2.5637784 5.1866363 -11.700765
0.83197705 4.8127207 -11.623493
1.7006521 5.4519987 -11.576176
12.312016 0.61079197 -8.5975264
11.15202 1.8140893 -9.8275858
12.702463 1.6354979 -8.4752587
11.563538 0 -9.0821754
8.04888 3.9712868 -11.400158
9.7143986 2.9517774 -10.779905
13.392112 3.8260495 -8.1319435
11.507794 2.876725 -9.7395939
13.062066 2.7125512 -8.3190841
12.141331 2.2650772 -9.1408437
9.9434598 -1.1300551 -9.8263845
10.336781 1.1747553 -10.215074
10.764883 -0.58382049 -9.4935398
10.980761 0.59552838 -9.6839225
5.8337255 12.992221 -9.4391662
6.4921869 10.546934 -10.504579
4.9526488 11.923423 -9.8292987
7.348942 13.038643 -9.5222145
7.1163447 5.6068329 -11.514488
6.9042646 8.0477238 -11.171335
6.1590006 5.9926401 -11.578957
3.387937 9.9509643 -10.419608
5.5993446 9.5882529 -10.793802
4.1339889 10.903682 -10.15202
3.6997297 8.8575295 -10.865709
5.3074773 10.766078 -10.363039
10.31748 12.506304 -9.2720058
7.8702526 10.349143 -10.500747
8.8773947 12.88904 -9.4768108
7.6466214 11.694542 -10.071011
4.2354951 6.6393815 -11.504319
5.84196 8.3592485 -11.143899
5.1892716 6.3369183 -11.571957
3.9831817 7.7456942 -11.227052
6.0237794 7.1739066 -11.398443
4.7690871 8.6411694 -11.034248
0.80927546 0.50015974 -12.088179
2.4611622 1.5210819 -12.051335
0.81186302 1.3434017 -12.068498
1.624301 0 -12.055984
6.1292484 3.7880838 -11.758085
4.2136913 2.6042044 -11.958786
5.2467878 4.182944 -11.824803
0.8210515 3.0505742 -11.922807
2.4812521 2.3992175 -12.024714
0.81522778 2.1982271 -12.013206
1.6634903 3.638043 -11.893295
1.6397685 1.8648646 -12.052198
3.2690294 -1.0034307 -11.827459
3.3170265 1.0181634 -12.001115
2.4500333 -0.50440295 -11.969089
2.4635065 0.50717676 -12.034909
3.4731832 4.8729489 -11.791581
3.3809679 2.9752788 -11.980841
4.3544152 4.5466973 -11.833395
2.5480876 4.2463242 -11.850967
4.2881574 3.560566 -11.917778
2.5209958 3.311838 -11.958719
14.539623 8.9859813 -7.0798841
12.552239 7.7577103 -9.0425141
14.277921 7.5946156 -7.3894777
13.769826 10.056202 -7.7610568
8.2318204 5.0875448 -11.330411
10.43371 6.4483875 -10.47578
9.1310354 4.6008176 -11.076396
8.2100723 6.3362724 -11.241944
13.708797 5.0471082 -7.9116316
12.352706 6.475652 -9.2659971
13.999553 6.2778908 -7.6662939
12.796819 4.5401106 -8.828698
13.33031 7.0447209 -8.3897777
11.682734 11.853874 -8.884414
11.632544 8.6242115 -9.5966435
12.810955 11.032435 -8.3766023
10.459168 10.917936 -9.7168654
12.706924 9.3429083 -8.7519616
10.769829 3.5018114 -10.285433
11.293397 5.8585124 -10.032049
9.9858326 4.0663161 -10.72519
11.812464 4.0220957 -9.6293066
10.22679 5.2376972 -10.624531
12.09439 5.2272886 -9.4713904
8.0397651 8.9462971 -10.844228
10.47159 7.8483998 -10.320407
8.1477288 7.6323782 -11.081407
9.227964 9.9329178 -10.368603
9.3441408 7.0947302 -10.850494
10.50421 9.3486529 -10.062826
6.5684937 -2.9995482 -10.628046
6.8709645 -1.0285802 -11.117454
7.3885755 -2.582009 -10.490409
5.7654401 -2.5158777 -11.023343
7.1645644 3.271748 -11.592509
7.0756194 1.059217 -11.448593
8.0101809 2.799235 -11.372973
6.1490799 2.6832874 -11.75685
9.0672558 -1.6578372 -10.107494
7.7116601 -0.54603349 -10.974627
8.2282336 -2.1339182 -10.318993
9.2862063 -0.56589403 -10.343416
7.5618288 -1.5765814 -10.753027
4.1285668 -1.5255042 -11.616797
6.0039329 -0.53414553 -11.443099
4.9456103 -2.0203037 -11.353894
4.178393 -0.51647778 -11.774854
5.8979575 -1.5325254 -11.253078
9.5932666 1.7540119 -10.693851
7.8413558 0.55521675 -11.1592
8.8286889 2.2896409 -11.072021
9.463585 0.57670336 -10.540988
7.9400288 1.6554331 -11.290832
8.57836 0 -10.790788
4.2459164 1.5688648 -11.94699
6.0856886 0.54141901 -11.59892
5.1705581 2.1121959 -11.870318
4.2179862 0.52137177 -11.886429
6.1332478 1.5936633 -11.702003
5.1215239 0 -11.701149
14.084893 20.170153 1.0006296
15.99125 18.146344 2.9518497
13.259068 19.872293 2.5586449
15.538223 19.783458 0
15.830776 11.177039 5.5147086
16.316837 14.70405 4.4679124
11.263417 18.549187 5.2993963
14.794803 17.480764 4.3698515
12.291566 19.29939 4.0078333
14.187738 18.844871 3.5156844
17.430408 17.638081 -2.0045341
17.430408 17.638081 2.0045341
16.749713 18.992779 -1.0300505
16.749713 18.992779 1.0300505
13.184418 1.008289 7.763286
13.900522 3.1467896 7.3890282
15.194042 8.1223505 6.2879727
14.553412 5.4877025 6.8983877
6.9744783 14.323156 8.8521974
10.133624 14.066847 8.6937898
8.0012696 15.460023 8.2233913
14.821914 10.768483 6.6552883
12.837831 12.786276 7.9023533
15.013273 12.376475 6.2360839
10.158849 17.602638 6.480687
11.249364 14.996776 7.8617514
9.0778513 16.577223 7.4338083
11.940073 17.306624 6.1401187
9.6773432 15.376091 8.1258628
15.083394 15.793752 5.1353405
12.719422 14.318659 7.4278838
15.124028 14.08143 5.7340782
13.602967 16.687033 5.6818665
13.962251 13.439559 6.8831314
12.419222 15.858591 6.8542054
16.480803 10.185696 -4.6513689
18.085555 11.177488 -1.6732648
16.89201 11.897333 -4.1576379
16.480803 10.185696 4.6513689
18.085555 11.177488 1.6732648
16.89201 11.897333 4.1576379
17.5393 15.7342 -2.8768067
18.545852 13.031815 -0.92273356
17.280981 13.779635 -3.573624
18.470838 16.582918 -1.0105498
17.883031 12.575847 -2.6219644
17.5393 15.7342 2.8768067
18.545852 13.031815 0.92273356
17.280981 13.779635 3.573624
18.470838 16.582918 1.0105498
17.883031 12.575847 2.6219644
18.793552 14.940322 0
7.8948809 -11.305798 0.5608741
9.0333164 -10.25071 1.6674739
7.6114816 -11.40786 1.468812
8.5152845 -10.841766 0
10.954278 -7.7340737 3.8159626
10.059372 -9.0650849 2.7544796
6.9197036 -11.395731 3.2556951
8.6987733 -10.278015 2.5693041
7.2842353 -11.437216 2.3751246
8.1716822 -10.854042 2.0249215
9.6875085 -9.8029292 -1.1140841
9.6875085 -9.8029292 1.1140841
9.1172374 -10.338188 -0.56067917
9.1172374 -10.338188 0.56067917
12.772194 -0.97676386 7.5205594
12.606006 -2.8537381 6.7009092
11.691302 -6.249874 4.8383823
12.245966 -4.6176263 5.8046471
5.1344478 -10.544373 6.5167807
6.9696682 -9.674847 5.9793843
5.6137135 -10.846797 5.7695548
10.506734 -7.6333989 4.7176999
8.7606479 -8.7254663 5.3926347
10.112218 -8.3361975 4.2003259
6.5064219 -11.273934 4.1506755
7.4401176 -9.9185853 5.1996145
6.0748153 -11.093326 4.9746367
7.4233281 -10.759796 3.8174067
6.5376289 -10.387477 5.4895103
9.2134546 -9.6473654 3.1368421
8.3615011 -9.4128084 4.8829465
9.6780782 -9.010905 3.6693172
8.3293347 -10.217762 3.4791063
9.2411788 -8.8952252 4.55573
7.9059009 -10.095355 4.3632902
11.679487 -7.21832 -3.2962959
12.072944 -7.4614896 -1.1169816
11.245119 -7.9201311 -2.7677662
11.679487 -7.21832 3.2962959
12.072944 -7.4614896 1.1169816
11.245119 -7.9201311 2.7677662
10.25649 -9.2009174 -1.6822756
11.545372 -8.1127115 -0.57443043
10.766177 -8.5848123 -2.2263937
10.343244 -9.2860525 -0.56588467
11.444448 -8.0480559 -1.6779559
10.25649 -9.2009174 1.6822756
11.545372 -8.1127115 0.57443043
10.766177 -8.5848123 2.2263937
10.343244 -9.2860525 0.56588467
11.444448 -8.0480559 1.6779559
10.968992 -8.7200266 0
0.83386246 -6.420295 10.903611
2.4411268 -5.7320499 10.783351
1.3578996 -7.0367259 10.546434
0.82424481 -5.5774387 11.182386
5.5850476 -4.3237024 10.447647
4.0103716 -5.0412897 10.635524
2.4206092 -8.1953436 9.6831885
2.973263 -6.3194182 10.40715
1.8912229 -7.632134 10.137387
2.1763339 -6.674567 10.479956
0.81127155 -3.8913277 11.623189
2.4260866 -4.9080797 11.072357
0.81761816 -4.7296591 11.422886
1.6351261 -5.2419338 11.130147
12.070777 -0.59882426 8.4290684
10.50873 -1.7094457 9.2606933
12.058089 -1.5525318 8.045323
7.1965422 -3.5507465 10.192936
8.8515553 -2.6895973 9.8224219
11.880949 -3.394319 7.214337
10.487705 -2.6217226 8.8762441
11.993526 -2.4906514 7.6385429
11.288322 -2.1059406 8.4986389
4.5419181 -10.115252 7.3489778
5.1733413 -8.404393 8.370642
4.0299319 -9.7019974 7.9980242
5.4783189 -9.7197455 7.0983997
6.1814805 -4.8702711 10.001845
5.7167418 -6.6635278 9.2498826
5.3840311 -5.2386032 10.12201
2.9776852 -8.7459828 9.1578779
4.6395814 -7.9447655 8.9436758
3.5039148 -9.2418179 8.604719
3.2637785 -7.813818 9.5853676
4.3486197 -8.821061 8.490835
7.3189971 -8.8717011 6.57736
6.1045922 -8.0273529 8.1449452
6.4082044 -9.3040362 6.8408968
5.8033685 -8.8755192 7.6433481
3.7992377 -5.955523 10.31937
4.9156092 -7.033735 9.3768277
4.586431 -5.600755 10.227636
3.5382987 -6.8805748 9.973098
5.1597766 -6.1449388 9.763541
4.0984872 -7.4261009 9.4826793
0.80782245 -0.49926173 12.066476
2.4214971 -1.4965675 11.857111
0.80795501 -1.336935 12.010405
5.6096806 -3.4669733 10.761368
4.0267879 -2.4886918 11.428339
4.8163655 -3.8397946 10.854751
0.81207715 -3.0172305 11.792487
2.4186087 -2.3386452 11.72113
0.80881518 -2.1809358 11.91871
1.6206975 -3.5444555 11.587344
1.6179908 -1.8400973 11.892132
3.2422749 -4.5489797 11.007639
3.2414646 -2.8525148 11.486495
4.0242331 -4.2019351 10.936105
2.4349316 -4.0577525 11.324687
4.030491 -3.346619 11.201664
2.4331738 -3.1964661 11.542123
10.925139 -6.7521071 5.319857
9.8686984 -6.099191 7.1093169
11.230492 -5.9736475 5.8122936
10.059466 -7.3464998 5.6697947
7.1432762 -4.4147875 9.8321212
8.583535 -5.3049164 8.6181443
7.9632968 -4.012434 9.6598712
6.9135544 -5.3356612 9.4666392
11.705828 -4.3096839 6.7556767
10.090771 -5.2898796 7.5692777
11.493405 -5.1540459 6.2939022
11.091339 -3.9350332 7.6520646
10.691558 -5.6502096 6.7290107
8.26752 -8.3886305 6.287233
8.9589395 -6.6420373 7.3909672
9.1645866 -7.8922848 5.9923788
7.6810394 -8.0179511 7.1359048
9.5367624 -7.0120113 6.5684958
9.6300415 -3.1312092 9.1969099
9.4111774 -4.8821004 8.3600523
8.7989689 -3.5830151 9.4504502
10.392341 -3.5385498 8.4716484
8.7078849 -4.4597828 9.0465524
10.258122 -4.4336397 8.033368
6.4006115 -7.1223191 8.6332985
8.2981735 -6.2194359 8.1783689
6.6646334 -6.2430898 9.0643072
7.0519219 -7.5906408 7.9235874
7.6259463 -5.7901558 8.8553121
8.0098658 -7.1287089 7.6732938
0.85430215 6.5776697 11.170881
2.6062363 6.119746 11.5127
1.418973 7.3532125 11.020774
0.84151851 5.694325 11.416735
6.2490102 4.8377136 11.689686
4.4132051 5.5476769 11.70384
2.6633412 9.0171503 10.654192
3.2516236 6.91105 11.38148
2.0240497 8.1681637 10.849369
2.3299587 7.1457166 11.219723
0.82286223 3.9469233 11.78925
2.5637784 5.1866363 11.700765
0.83197705 4.8127207 11.623493
1.7006521 5.4519987 11.576176
12.312016 0.61079197 8.5975264
11.15202 1.8140893 9.8275858
12.702463 1.6354979 8.4752587
11.563538 0 9.0821754
8.04888 3.9712868 11.400158
9.7143986 2.9517774 10.779905
13.392112 3.8260495 8.1319435
11.507794 2.876725 9.7395939
13.062066 2.7125512 8.3190841
12.141331 2.2650772 9.1408437
9.9434598 -1.1300551 9.8263845
10.336781 1.1747553 10.215074
10.764883 -0.58382049 9.4935398
10.980761 0.59552838 9.6839225
5.8337255 12.992221 9.4391662
6.4921869 10.546934 10.504579
4.9526488 11.923423 9.8292987
7.348942 13.038643 9.5222145
7.1163447 5.6068329 11.514488
6.9042646 8.0477238 11.171335
6.1590006 5.9926401 11.578957
3.387937 9.9509643 10.419608
5.5993446 9.5882529 10.793802
4.1339889 10.903682 10.15202
3.6997297 8.8575295 10.865709
5.3074773 10.766078 10.363039
10.31748 12.506304 9.2720058
7.8702526 10.349143 10.500747
8.8773947 12.88904 9.4768108
7.6466214 11.694542 10.071011
4.2354951 6.6393815 11.504319
5.84196 8.3592485 11.143899
5.1892716 6.3369183 11.571957
3.9831817 7.7456942 11.227052
6.0237794 7.1739066 11.398443
4.7690871 8.6411694 11.034248
0.80927546 0.50015974 12.088179
2.4611622 1.5210819 12.051335
0.81186302 1.3434017 12.068498
1.624301 0 12.055984
6.1292484 3.7880838 11.758085
4.2136913 2.6042044 11.958786
5.2467878 4.182944 11.824803
0.8210515 3.0505742 11.922807
2.4812521 2.3992175 12.024714
0.81522778 2.1982271 12.013206
1.6634903 3.638043 11.893295
1.6397685 1.8648646 12.052198
3.2690294 -1.0034307 11.827459
3.3170265 1.0181634 12.001115
2.4500333 -0.50440295 11.969089
2.4635065 0.50717676 12.034909
3.4731832 4.8729489 11.791581
3.3809679 2.9752788 11.980841
4.3544152 4.5466973 11.833395
2.5480876 4.2463242 11.850967
4.2881574 3.560566 11.917778
2.5209958 3.311838 11.958719
14.539623 8.9859813 7.0798841
12.552239 7.7577103 9.0425141
14.277921 7.5946156 7.3894777
13.769826 10.056202 7.7610568
8.2318204 5.0875448 11.330411
10.43371 6.4483875 10.47578
9.1310354 4.6008176 11.076396
8.2100723 6.3362724 11.241944
13.708797 5.0471082 7.9116316
12.352706 6.475652 9.2659971
13.999553 6.2778908 7.6662939
12.796819 4.5401106 8.828698
13.33031 7.0447209 8.3897777
11.682734 11.853874 8.884414
11.632544 8.6242115 9.5966435
12.810955 11.032435 8.3766023
10.459168 10.917936 9.7168654
12.706924 9.3429083 8.7519616
10.769829 3.5018114 10.285433
11.293397 5.8585124 10.032049
9.9858326 4.0663161 10.72519
11.812464 4.0220957 9.6293066
10.22679 5.2376972 10.624531
12.09439 5.2272886 9.4713904
8.0397651 8.9462971 10.844228
10.47159 7.8483998 10.320407
8.1477288 7.6323782 11.081407
9.227964 9.9329178 10.368603
9.3441408 7.0947302 10.850494
10.50421 9.3486529 10.062826
6.5684937 -2.9995482 10.628046
6.8709645 -1.0285802 11.117454
7.3885755 -2.582009 10.490409
5.7654401 -2.5158777 11.023343
7.1645644 3.271748 11.592509
7.0756194 1.059217 11.448593
8.0101809 2.799235 11.372973
6.1490799 2.6832874 11.75685
9.0672558 -1.6578372 10.107494
7.7116601 -0.54603349 10.974627
8.2282336 -2.1339182 10.318993
9.2862063 -0.56589403 10.343416
7.5618288 -1.5765814 10.753027
4.1285668 -1.5255042 11.616797
6.0039329 -0.53414553 11.443099
4.9456103 -2.0203037 11.353894
4.178393 -0.51647778 11.774854
5.8979575 -1.5325254 11.253078
9.5932666 1.7540119 10.693851
7.8413558 0.55521675 11.1592
8.8286889 2.2896409 11.072021
9.463585 0.57670336 10.540988
7.9400288 1.6554331 11.290832
8.57836 0 10.790788
4.2459164 1.5688648 11.94699
6.0856886 0.54141901 11.59892
5.1705581 2.1121959 11.870318
4.2179862 0.52137177 11.886429
6.1332478 1.5936633 11.702003
5.1215239 0 11.701149
13.440467 0 -7.0722073
14.519686 0 -5.2341141
13.830408 1.0194284 -6.8981922
13.398224 -0.98757244 -6.6826319
15.667566 0 -1.0858791
15.273449 0 -3.2169649
14.551121 3.1883255 -6.4501225
14.896629 1.03975 -4.9872426
14.200207 2.0861476 -6.6878313
14.405148 1.0310801 -5.9644681
13.177935 -2.8874439 -5.8414259
14.413401 -1.0060219 -4.8254628
13.311412 -1.955575 -6.2692379
13.94887 -0.99842096 -5.7755454
13.440467 0 7.0722073
14.519686 0 5.2341141
13.830408 1.0194284 6.8981922
13.398224 -0.98757244 6.6826319
15.667566 0 1.0858791
15.273449 0 3.2169649
14.551121 3.1883255 6.4501225
14.896629 1.03975 4.9872426
14.200207 2.0861476 6.6878313
14.405148 1.0310801 5.9644681
13.177935 -2.8874439 5.8414259
14.413401 -1.0060219 4.8254628
13.311412 -1.955575 6.2692379
13.94887 -0.99842096 5.7755454
16.006446 8.3438319 -5.1567717
16.445654 5.7946444 -3.5812872
15.628854 6.9346848 -5.5286014
16.824827 8.7997383 -3.8399611
15.985352 1.0701821 -0.6614089
16.366169 3.3423513 -2.0656867
15.867083 1.0673986 -1.7662401
14.915551 4.3933416 -6.1639504
16.046024 4.5281542 -3.9848119
15.264668 5.6170441 -5.8650814
15.147332 3.256842 -5.4274457
15.906789 5.7234504 -4.7523262
17.916919 9.4005987 -0.83633311
16.926306 6.0155467 -2.2227427
17.510614 9.1776544 -2.3847219
16.956636 7.3860927 -3.0172516
15.324538 1.0553081 -3.9209426
16.072149 3.3164243 -3.2067774
15.642871 1.0615403 -2.8623984
15.280614 2.1372674 -4.6741907
16.006238 2.1777378 -2.4766825
15.66262 3.3018084 -4.3375933
12.138718 -6.3276646 -3.9107118
13.532557 -4.7682112 -2.9469166
12.472398 -5.5341326 -4.4120265
12.436364 -6.5044803 -2.8383743
15.403191 -1.0312077 -0.63732144
14.609377 -2.9835737 -1.8439499
15.298163 -1.0291267 -1.702911
12.991441 -3.8265992 -5.368799
13.82504 -3.9013969 -3.4332605
12.758113 -4.6946897 -4.9019977
13.669266 -2.9390417 -4.8978394
13.190511 -4.7461017 -3.9408088
12.744111 -6.6865444 -0.59487471
13.741061 -4.8835226 -1.8044601
12.640955 -6.625371 -1.7215366
13.132105 -5.7201763 -2.3367174
14.807136 -1.0196778 -3.7885599
14.397329 -2.9708319 -2.8726109
15.097374 -1.0245224 -2.762581
14.274363 -1.9965252 -4.3663884
14.876781 -2.0240688 -2.301919
14.078694 -2.9679038 -3.8989421
16.006446 8.3438319 5.1567717
16.445654 5.7946444 3.5812872
15.628854 6.9346848 5.5286014
16.824827 8.7997383 3.8399611
15.985352 1.0701821 0.6614089
16.366169 3.3423513 2.0656867
15.867083 1.0673986 1.7662401
16.290263 2.1947848 0
14.915551 4.3933416 6.1639504
16.046024 4.5281542 3.9848119
15.264668 5.6170441 5.8650814
15.147332 3.256842 5.4274457
15.906789 5.7234504 4.7523262
17.916919 9.4005987 0.83633311
16.926306 6.0155467 2.2227427
17.510614 9.1776544 2.3847219
17.593112 7.7004014 0
16.956636 7.3860927 3.0172516
15.324538 1.0553081 3.9209426
16.072149 3.3164243 3.2067774
15.642871 1.0615403 2.8623984
15.280614 2.1372674 4.6741907
16.006238 2.1777378 2.4766825
15.66262 3.3018084 4.3375933
16.77666 4.6369548 -1.4233163
16.77666 4.6369548 1.4233163
16.559666 3.3897093 -0.69785966
17.193212 6.1011371 -0.75414201
16.559666 3.3897093 0.69785966
17.193212 6.1011371 0.75414201
12.138718 -6.3276646 3.9107118
13.532557 -4.7682112 2.9469166
12.472398 -5.5341326 4.4120265
12.436364 -6.5044803 2.8383743
15.403191 -1.0312077 0.63732144
14.609377 -2.9835737 1.8439499
15.298163 -1.0291267 1.702911
15.100608 -2.0345027 0
12.991441 -3.8265992 5.368799
13.82504 -3.9013969 3.4332605
12.758113 -4.6946897 4.9019977
13.669266 -2.9390417 4.8978394
13.190511 -4.7461017 3.9408088
12.744111 -6.6865444 0.59487471
13.741061 -4.8835226 1.8044601
12.640955 -6.625371 1.7215366
13.344421 -5.8407745 0
13.132105 -5.7201763 2.3367174
14.807136 -1.0196778 3.7885599
14.397329 -2.9708319 2.8726109
15.097374 -1.0245224 2.762581
14.274363 -1.9965252 4.3663884
14.876781 -2.0240688 2.301919
14.078694 -2.9679038 3.8989421
14.289676 -3.9495694 -1.2123229
14.289676 -3.9495694 1.2123229
14.729785 -3.0151386 -0.62074457
13.863253 -4.9194768 -0.60808078
14.729785 -3.0151386 0.62074457
13.863253 -4.9194768 0.60808078
-7.8948809 11.305798 -0.5608741
-9.0333164 10.25071 -1.6674739
-7.6114816 11.40786 -1.468812
-10.954278 7.7340737 -3.8159626
-10.059372 9.0650849 -2.7544796
-6.9197036 11.395731 -3.2556951
-8.6987733 10.278015 -2.5693041
-7.2842353 11.437216 -2.3751246
-8.1716822 10.854042 -2.0249215
-12.772194 0.97676386 -7.5205594
-12.606006 2.8537381 -6.7009092
-11.691302 6.249874 -4.8383823
-12.245966 4.6176263 -5.8046471
-5.1344478 10.544373 -6.5167807
-6.9696682 9.674847 -5.9793843
-5.6137135 10.846797 -5.7695548
-10.506734 7.6333989 -4.7176999
-8.7606479 8.7254663 -5.3926347
-10.112218 8.3361975 -4.2003259
-6.5064219 11.273934 -4.1506755
-7.4401176 9.9185853 -5.1996145
-6.0748153 11.093326 -4.9746367
-7.4233281 10.759796 -3.8174067
-6.5376289 10.387477 -5.4895103
-9.2134546 9.6473654 -3.1368421
-8.3615011 9.4128084 -4.8829465
-9.6780782 9.010905 -3.6693172
-8.3293347 10.217762 -3.4791063
-9.2411788 8.8952252 -4.55573
-7.9059009 10.095355 -4.3632902
-14.084893 -20.170153 -1.0006296
-15.99125 -18.146344 -2.9518497
-13.259068 -19.872293 -2.5586449
-15.830776 -11.177039 -5.5147086
-16.316837 -14.70405 -4.4679124
-11.263417 -18.549187 -5.2993963
-14.794803 -17.480764 -4.3698515
-12.291566 -19.29939 -4.0078333
-14.187738 -18.844871 -3.5156844
-13.184418 -1.008289 -7.763286
-13.900522 -3.1467896 -7.3890282
-15.194042 -8.1223505 -6.2879727
-14.553412 -5.4877025 -6.8983877
-6.9744783 -14.323156 -8.8521974
-10.133624 -14.066847 -8.6937898
-8.0012696 -15.460023 -8.2233913
-14.821914 -10.768483 -6.6552883
-12.837831 -12.786276 -7.9023533
-15.013273 -12.376475 -6.2360839
-10.158849 -17.602638 -6.480687
-11.249364 -14.996776 -7.8617514
-9.0778513 -16.577223 -7.4338083
-11.940073 -17.306624 -6.1401187
-9.6773432 -15.376091 -8.1258628
-15.083394 -15.793752 -5.1353405
-12.719422 -14.318659 -7.4278838
-15.124028 -14.08143 -5.7340782
-13.602967 -16.687033 -5.6818665
-13.962251 -13.439559 -6.8831314
-12.419222 -15.858591 -6.8542054
-0.85430215 -6.5776697 -11.170881
-2.6062363 -6.119746 -11.5127
-1.418973 -7.3532125 -11.020774
-0.84151851 -5.694325 -11.416735
-6.2490102 -4.8377136 -11.689686
-4.4132051 -5.5476769 -11.70384
-2.6633412 -9.0171503 -10.654192
-3.2516236 -6.91105 -11.38148
-2.0240497 -8.1681637 -10.849369
-2.3299587 -7.1457166 -11.219723
-0.82286223 -3.9469233 -11.78925
-2.5637784 -5.1866363 -11.700765
-0.83197705 -4.8127207 -11.623493
-1.7006521 -5.4519987 -11.576176
-12.312016 -0.61079197 -8.5975264
-11.15202 -1.8140893 -9.8275858
-12.702463 -1.6354979 -8.4752587
-8.04888 -3.9712868 -11.400158
-9.7143986 -2.9517774 -10.779905
-13.392112 -3.8260495 -8.1319435
-11.507794 -2.876725 -9.7395939
-13.062066 -2.7125512 -8.3190841
-12.141331 -2.2650772 -9.1408437
-5.8337255 -12.992221 -9.4391662
-6.4921869 -10.546934 -10.504579
-4.9526488 -11.923423 -9.8292987
-7.348942 -13.038643 -9.5222145
-7.1163447 -5.6068329 -11.514488
-6.9042646 -8.0477238 -11.171335
-6.1590006 -5.9926401 -11.578957
-3.387937 -9.9509643 -10.419608
-5.5993446 -9.5882529 -10.793802
-4.1339889 -10.903682 -10.15202
-3.6997297 -8.8575295 -10.865709
-5.3074773 -10.766078 -10.363039
-10.31748 -12.506304 -9.2720058
-7.8702526 -10.349143 -10.500747
-8.8773947 -12.88904 -9.4768108
-7.6466214 -11.694542 -10.071011
-4.2354951 -6.6393815 -11.504319
-5.84196 -8.3592485 -11.143899
-5.1892716 -6.3369183 -11.571957
-3.9831817 -7.7456942 -11.227052
-6.0237794 -7.1739066 -11.398443
-4.7690871 -8.6411694 -11.034248
-0.80927546 -0.50015974 -12.088179
-2.4611622 -1.5210819 -12.051335
-0.81186302 -1.3434017 -12.068498
-6.1292484 -3.7880838 -11.758085
-4.2136913 -2.6042044 -11.958786
-5.2467878 -4.182944 -11.824803
-0.8210515 -3.0505742 -11.922807
-2.4812521 -2.3992175 -12.024714
-0.81522778 -2.1982271 -12.013206
-1.6634903 -3.638043 -11.893295
-1.6397685 -1.8648646 -12.052198
-3.4731832 -4.8729489 -11.791581
-3.3809679 -2.9752788 -11.980841
-4.3544152 -4.5466973 -11.833395
-2.5480876 -4.2463242 -11.850967
-4.2881574 -3.560566 -11.917778
-2.5209958 -3.311838 -11.958719
-14.539623 -8.9859813 -7.0798841
-12.552239 -7.7577103 -9.0425141
-14.277921 -7.5946156 -7.3894777
-13.769826 -10.056202 -7.7610568
-8.2318204 -5.0875448 -11.330411
-10.43371 -6.4483875 -10.47578
-9.1310354 -4.6008176 -11.076396
-8.2100723 -6.3362724 -11.241944
-13.708797 -5.0471082 -7.9116316
-12.352706 -6.475652 -9.2659971
-13.999553 -6.2778908 -7.6662939
-12.796819 -4.5401106 -8.828698
-13.33031 -7.0447209 -8.3897777
-11.682734 -11.853874 -8.884414
-11.632544 -8.6242115 -9.5966435
-12.810955 -11.032435 -8.3766023
-10.459168 -10.917936 -9.7168654
-12.706924 -9.3429083 -8.7519616
-10.769829 -3.5018114 -10.285433
-11.293397 -5.8585124 -10.032049
-9.9858326 -4.0663161 -10.72519
-11.812464 -4.0220957 -9.6293066
-10.22679 -5.2376972 -10.624531
-12.09439 -5.2272886 -9.4713904
-8.0397651 -8.9462971 -10.844228
-10.47159 -7.8483998 -10.320407
-8.1477288 -7.6323782 -11.081407
-9.227964 -9.9329178 -10.368603
-9.3441408 -7.0947302 -10.850494
-10.50421 -9.3486529 -10.062826
-0.83386246 6.420295 -10.903611
-2.4411268 5.7320499 -10.783351
-1.3578996 7.0367259 -10.546434
-0.82424481 5.5774387 -11.182386
-5.5850476 4.3237024 -10.447647
-4.0103716 5.0412897 -10.635524
-2.4206092 8.1953436 -9.6831885
-2.973263 6.3194182 -10.40715
-1.8912229 7.632134 -10.137387
-2.1763339 6.674567 -10.479956
-0.81127155 3.8913277 -11.623189
-2.4260866 4.9080797 -11.072357
-0.81761816 4.7296591 -11.422886
-1.6351261 5.2419338 -11.130147
-12.070777 0.59882426 -8.4290684
-10.50873 1.7094457 -9.2606933
-12.058089 1.5525318 -8.045323
-11.563538 0 -9.0821754
-7.1965422 3.5507465 -10.192936
-8.8515553 2.6895973 -9.8224219
-11.880949 3.394319 -7.214337
-10.487705 2.6217226 -8.8762441
-11.993526 2.4906514 -7.6385429
-11.288322 2.1059406 -8.4986389
-10.336781 -1.1747553 -10.215074
-9.9434598 1.1300551 -9.8263845
-10.980761 -0.59552838 -9.6839225
-10.764883 0.58382049 -9.4935398
-4.5419181 10.115252 -7.3489778
-5.1733413 8.404393 -8.370642
-4.0299319 9.7019974 -7.9980242
-5.4783189 9.7197455 -7.0983997
-6.1814805 4.8702711 -10.001845
-5.7167418 6.6635278 -9.2498826
-5.3840311 5.2386032 -10.12201
-2.9776852 8.7459828 -9.1578779
-4.6395814 7.9447655 -8.9436758
-3.5039148 9.2418179 -8.604719
-3.2637785 7.813818 -9.5853676
-4.3486197 8.821061 -8.490835
-7.3189971 8.8717011 -6.57736
-6.1045922 8.0273529 -8.1449452
-6.4082044 9.3040362 -6.8408968
-5.8033685 8.8755192 -7.6433481
-3.7992377 5.955523 -10.31937
-4.9156092 7.033735 -9.3768277
-4.586431 5.600755 -10.227636
-3.5382987 6.8805748 -9.973098
-5.1597766 6.1449388 -9.763541
-4.0984872 7.4261009 -9.4826793
-0.80782245 0.49926173 -12.066476
-2.4214971 1.4965675 -11.857111
-0.80795501 1.336935 -12.010405
-1.624301 0 -12.055984
-5.6096806 3.4669733 -10.761368
-4.0267879 2.4886918 -11.428339
-4.8163655 3.8397946 -10.854751
-0.81207715 3.0172305 -11.792487
-2.4186087 2.3386452 -11.72113
-0.80881518 2.1809358 -11.91871
-1.6206975 3.5444555 -11.587344
-1.6179908 1.8400973 -11.892132
-3.3170265 -1.0181634 -12.001115
-3.2690294 1.0034307 -11.827459
-2.4635065 -0.50717676 -12.034909
-2.4500333 0.50440295 -11.969089
-3.2422749 4.5489797 -11.007639
-3.2414646 2.8525148 -11.486495
-4.0242331 4.2019351 -10.936105
-2.4349316 4.0577525 -11.324687
-4.030491 3.346619 -11.201664
-2.4331738 3.1964661 -11.542123
-10.925139 6.7521071 -5.319857
-9.8686984 6.099191 -7.1093169
-11.230492 5.9736475 -5.8122936
-10.059466 7.3464998 -5.6697947
-7.1432762 4.4147875 -9.8321212
-8.583535 5.3049164 -8.6181443
-7.9632968 4.012434 -9.6598712
-6.9135544 5.3356612 -9.4666392
-11.705828 4.3096839 -6.7556767
-10.090771 5.2898796 -7.5692777
-11.493405 5.1540459 -6.2939022
-11.091339 3.9350332 -7.6520646
-10.691558 5.6502096 -6.7290107
-8.26752 8.3886305 -6.287233
-8.9589395 6.6420373 -7.3909672
-9.1645866 7.8922848 -5.9923788
-7.6810394 8.0179511 -7.1359048
-9.5367624 7.0120113 -6.5684958
-9.6300415 3.1312092 -9.1969099
-9.4111774 4.8821004 -8.3600523
-8.7989689 3.5830151 -9.4504502
-10.392341 3.5385498 -8.4716484
-8.7078849 4.4597828 -9.0465524
-10.258122 4.4336397 -8.033368
-6.4006115 7.1223191 -8.6332985
-8.2981735 6.2194359 -8.1783689
-6.6646334 6.2430898 -9.0643072
-7.0519219 7.5906408 -7.9235874
-7.6259463 5.7901558 -8.8553121
-8.0098658 7.1287089 -7.6732938
-7.1645644 -3.271748 -11.592509
-7.0756194 -1.059217 -11.448593
-8.0101809 -2.799235 -11.372973
-6.1490799 -2.6832874 -11.75685
-6.5684937 2.9995482 -10.628046
-6.8709645 1.0285802 -11.117454
-7.3885755 2.582009 -10.490409
-5.7654401 2.5158777 -11.023343
-9.5932666 -1.7540119 -10.693851
-7.8413558 -0.55521675 -11.1592
-8.8286889 -2.2896409 -11.072021
-9.463585 -0.57670336 -10.540988
-7.9400288 -1.6554331 -11.290832
-4.2459164 -1.5688648 -11.94699
-6.0856886 -0.54141901 -11.59892
-5.1705581 -2.1121959 -11.870318
-4.2179862 -0.52137177 -11.886429
-6.1332478 -1.5936633 -11.702003
-9.0672558 1.6578372 -10.107494
-7.7116601 0.54603349 -10.974627
-8.2282336 2.1339182 -10.318993
-9.2862063 0.56589403 -10.343416
-7.5618288 1.5765814 -10.753027
-8.57836 0 -10.790788
-4.1285668 1.5255042 -11.616797
-6.0039329 0.53414553 -11.443099
-4.9456103 2.0203037 -11.353894
-4.178393 0.51647778 -11.774854
-5.8979575 1.5325254 -11.253078
-5.1215239 0 -11.701149
-7.8948809 11.305798 0.5608741
-9.0333164 10.25071 1.6674739
-7.6114816 11.40786 1.468812
-8.5152845 10.841766 0
-10.954278 7.7340737 3.8159626
-10.059372 9.0650849 2.7544796
-6.9197036 11.395731 3.2556951
-8.6987733 10.278015 2.5693041
-7.2842353 11.437216 2.3751246
-8.1716822 10.854042 2.0249215
-9.6875085 9.8029292 -1.1140841
-9.6875085 9.8029292 1.1140841
-9.1172374 10.338188 -0.56067917
-9.1172374 10.338188 0.56067917
-12.772194 0.97676386 7.5205594
-12.606006 2.8537381 6.7009092
-11.691302 6.249874 4.8383823
-12.245966 4.6176263 5.8046471
-5.1344478 10.544373 6.5167807
-6.9696682 9.674847 5.9793843
-5.6137135 10.846797 5.7695548
-10.506734 7.6333989 4.7176999
-8.7606479 8.7254663 5.3926347
-10.112218 8.3361975 4.2003259
-6.5064219 11.273934 4.1506755
-7.4401176 9.9185853 5.1996145
-6.0748153 11.093326 4.9746367
-7.4233281 10.759796 3.8174067
-6.5376289 10.387477 5.4895103
-9.2134546 9.6473654 3.1368421
-8.3615011 9.4128084 4.8829465
-9.6780782 9.010905 3.6693172
-8.3293347 10.217762 3.4791063
-9.2411788 8.8952252 4.55573
-7.9059009 10.095355 4.3632902
-11.679487 7.21832 -3.2962959
-12.072944 7.4614896 -1.1169816
-11.245119 7.9201311 -2.7677662
-11.679487 7.21832 3.2962959
-12.072944 7.4614896 1.1169816
-11.245119 7.9201311 2.7677662
-10.25649 9.2009174 -1.6822756
-11.545372 8.1127115 -0.57443043
-10.766177 8.5848123 -2.2263937
-10.343244 9.2860525 -0.56588467
-11.444448 8.0480559 -1.6779559
-10.25649 9.2009174 1.6822756
-11.545372 8.1127115 0.57443043
-10.766177 8.5848123 2.2263937
-10.343244 9.2860525 0.56588467
-11.444448 8.0480559 1.6779559
-10.968992 8.7200266 0
-14.084893 -20.170153 1.0006296
-15.99125 -18.146344 2.9518497
-13.259068 -19.872293 2.5586449
-15.538223 -19.783458 0
-15.830776 -11.177039 5.5147086
-16.316837 -14.70405 4.4679124
-11.263417 -18.549187 5.2993963
-14.794803 -17.480764 4.3698515
-12.291566 -19.29939 4.0078333
-14.187738 -18.844871 3.5156844
-17.430408 -17.638081 -2.0045341
-17.430408 -17.638081 2.0045341
-16.749713 -18.992779 -1.0300505
-16.749713 -18.992779 1.0300505
-13.184418 -1.008289 7.763286
-13.900522 -3.1467896 7.3890282
-15.194042 -8.1223505 6.2879727
-14.553412 -5.4877025 6.8983877
-6.9744783 -14.323156 8.8521974
-10.133624 -14.066847 8.6937898
-8.0012696 -15.460023 8.2233913
-14.821914 -10.768483 6.6552883
-12.837831 -12.786276 7.9023533
-15.013273 -12.376475 6.2360839
-10.158849 -17.602638 6.480687
-11.249364 -14.996776 7.8617514
-9.0778513 -16.577223 7.4338083
-11.940073 -17.306624 6.1401187
-9.6773432 -15.376091 8.1258628
-15.083394 -15.793752 5.1353405
-12.719422 -14.318659 7.4278838
-15.124028 -14.08143 5.7340782
-13.602967 -16.687033 5.6818665
-13.962251 -13.439559 6.8831314
-12.419222 -15.858591 6.8542054
-16.480803 -10.185696 -4.6513689
-18.085555 -11.177488 -1.6732648
-16.89201 -11.897333 -4.1576379
-16.480803 -10.185696 4.6513689
-18.085555 -11.177488 1.6732648
-16.89201 -11.897333 4.1576379
-17.5393 -15.7342 -2.8768067
-18.545852 -13.031815 -0.92273356
-17.280981 -13.779635 -3.573624
-18.470838 -16.582918 -1.0105498
-17.883031 -12.575847 -2.6219644
-17.5393 -15.7342 2.8768067
-18.545852 -13.031815 0.92273356
-17.280981 -13.779635 3.573624
-18.470838 -16.582918 1.0105498
-17.883031 -12.575847 2.6219644
-18.793552 -14.940322 0
-0.85430215 -6.5776697 11.170881
-2.6062363 -6.119746 11.5127
-1.418973 -7.3532125 11.020774
-0.84151851 -5.694325 11.416735
-6.2490102 -4.8377136 11.689686
-4.4132051 -5.5476769 11.70384
-2.6633412 -9.0171503 10.654192
-3.2516236 -6.91105 11.38148
-2.0240497 -8.1681637 10.849369
-2.3299587 -7.1457166 11.219723
-0.82286223 -3.9469233 11.78925
-2.5637784 -5.1866363 11.700765
-0.83197705 -4.8127207 11.623493
-1.7006521 -5.4519987 11.576176
-12.312016 -0.61079197 8.5975264
-11.15202 -1.8140893 9.8275858
-12.702463 -1.6354979 8.4752587
-8.04888 -3.9712868 11.400158
-9.7143986 -2.9517774 10.779905
-13.392112 -3.8260495 8.1319435
-11.507794 -2.876725 9.7395939
-13.062066 -2.7125512 8.3190841
-12.141331 -2.2650772 9.1408437
-5.8337255 -12.992221 9.4391662
-6.4921869 -10.546934 10.504579
-4.9526488 -11.923423 9.8292987
-7.348942 -13.038643 9.5222145
-7.1163447 -5.6068329 11.514488
-6.9042646 -8.0477238 11.171335
-6.1590006 -5.9926401 11.578957
-3.387937 -9.9509643 10.419608
-5.5993446 -9.5882529 10.793802
-4.1339889 -10.903682 10.15202
-3.6997297 -8.8575295 10.865709
-5.3074773 -10.766078 10.363039
-10.31748 -12.506304 9.2720058
-7.8702526 -10.349143 10.500747
-8.8773947 -12.88904 9.4768108
