14.5286931 56.78366917 3.91034747
10.73965616 53.82642155 11.10686897
10.3034167 56.30768083 3.821093682
17.07643513 55.8253676 7.808176979
8.524869549 55.0943016 7.495886189
-4.139484738 48.79219706 13.48583159
4.336476359 51.1141416 14.12760128
-2.157368387 51.19267044 10.47897179
2.212173089 52.4931433 10.74517432
21.27975453 51.49283312 15.1670965
12.87491382 51.84465079 14.63045083
18.87620903 49.12788913 18.07792454
19.34710327 53.99537963 11.60959732
14.76965929 49.43638969 17.78779661
14.95419024 53.9981002 11.38324111
-10.36878986 36.73885816 22.70586305
-3.59912289 38.9012757 24.04231059
-8.630466028 35.06460126 24.69660264
-9.100215579 39.87268279 20.85425213
11.58937099 41.06364027 25.37872539
3.733110729 40.34948907 24.93735567
9.446790719 38.38123557 27.03256532
10.03443852 43.96598967 22.99513777
-5.127117443 31.25898377 28.04188762
-1.83472591 36.87581922 25.9119318
-6.867222453 33.20784219 26.47951089
-1.744634605 31.88844501 28.6290998
-5.285793863 36.05160104 25.35249305
-6.031907373 45.93330001 16.32452588
-1.967245512 42.14466493 22.11234435
-7.648353315 42.98293908 18.72281599
-2.076681056 47.34495113 16.80070266
-5.600397957 41.12278519 21.55325363
5.397182959 32.90551784 29.51896453
1.86884209 37.56151407 26.39375643
7.36829207 35.63086561 28.41159893
1.774873341 32.44114887 29.12531132
5.579775287 38.05669267 26.7625295
0 34.72612073 27.60624708
6.443014815 49.06390536 17.4371315
2.006631373 42.98843553 22.55505153
8.305885852 46.67820259 20.3324253
2.122477612 48.38903814 17.17120458
5.934749403 43.57787192 22.84001246
0 45.3485071 19.84877406
0 -17.70240657 33.64276463
0 -12.45793723 34.55891979
0 -2.452539614 35.38637815
0 -7.397148531 35.12005154
0 17.70240657 33.64276463
0 12.45793723 34.55891979
0 2.452539614 35.38637815
0 7.397148531 35.12005154
-33.81121904 -57.42171901 -4.391372395
-28.41395303 -53.45341235 -12.10074321
-28.63899052 -57.41923373 -4.232326133
-18.08213802 -43.69306002 -23.35720425
-23.05250988 -48.63349208 -18.33838879
-19.1236535 -57.1213364 -3.986936425
-23.86663634 -53.84181554 -11.79738905
-23.73249486 -57.31778678 -4.10264638
-26.31306115 -55.8702667 -8.207881913
-1.619034273 -22.78957567 -32.63562127
-5.134409983 -27.81497838 -31.56352057
-13.41936073 -38.52223381 -27.19794113
-9.073744975 -33.13735871 -29.86199993
-2.26282058 -54.6892906 -3.661320608
-6.738758621 -53.3903151 -10.90354049
-6.191589571 -55.62237179 -3.74178685
-14.22680368 -44.15952007 -23.01945191
-10.78904389 -49.54444483 -17.45703972
-16.50952907 -46.67093993 -20.70838032
-14.5286931 -56.78366917 -3.91034747
-10.73965616 -53.82642155 -11.10686897
-10.3034167 -56.30768083 -3.821093682
-17.07643513 -55.8253676 -7.808176979
-8.524869549 -55.0943016 -7.495886189
-21.27975453 -51.49283312 -15.1670965
-12.87491382 -51.84465079 -14.63045083
-18.87620903 -49.12788913 -18.07792454
-19.34710327 -53.99537963 -11.60959732
-14.76965929 -49.43638969 -17.78779661
-14.95419024 -53.9981002 -11.38324111
21.82749472 -37.06971544 -2.834936464
20.19848783 -37.99816582 -8.601996146
19.77273515 -39.64299301 -2.922053542
15.13850192 -36.58015838 -19.55482702
17.99031339 -37.95386136 -14.31138576
14.99745411 -44.79659816 -3.126698361
17.95358165 -40.50229021 -8.874538689
17.49356344 -42.24976537 -3.024119679
18.92903442 -40.1918346 -5.904568776
1.597615544 -22.48808499 -32.20387406
4.903022868 -26.56146968 -30.14108021
0 -24.92634284 -31.73652828
11.81776064 -33.92460697 -23.95186811
8.336505859 -30.44495804 -27.4357212
-3.460674712 -30.09226673 -30.45079756
3.350224068 -29.13184412 -29.47893211
-1.689839571 -27.478582 -31.15842277
1.663951007 -27.05760652 -30.68107165
2.200478578 -53.18256934 -3.56044913
6.244000659 -49.4704116 -10.10300529
5.73827807 -51.55003131 -3.467835388
0 -53.20179725 -7.16787028
12.37852232 -38.4225169 -20.02886985
9.64925141 -44.31039572 -15.61281675
13.97139197 -39.49585677 -17.52472147
12.1117086 -47.3371727 -3.259824457
9.50008094 -47.61375541 -9.824909912
9.071108078 -49.57317298 -3.364083465
13.85731943 -45.30160689 -6.336240659
7.702201318 -49.7775831 -6.772517063
-4.336476359 -51.1141416 -14.12760128
4.139484738 -48.79219706 -13.48583159
-2.212173089 -52.4931433 -10.74517432
2.157368387 -51.19267044 -10.47897179
16.75278051 -40.53844372 -11.9405061
11.18821048 -45.05264062 -12.71375992
15.44848133 -40.20676381 -14.79515719
15.40773687 -43.00109375 -9.245705579
12.6537582 -42.3541335 -15.23951722
12.57602859 -45.41079396 -9.572966727
-11.58937099 -41.06364027 -25.37872539
-3.733110729 -40.34948907 -24.93735567
-9.446790719 -38.38123557 -27.03256532
-10.03443852 -43.96598967 -22.99513777
10.36878986 -36.73885816 -22.70586305
3.59912289 -38.9012757 -24.04231059
8.630466028 -35.06460126 -24.69660264
9.100215579 -39.87268279 -20.85425213
-5.397182959 -32.90551784 -29.51896453
-1.86884209 -37.56151407 -26.39375643
-7.36829207 -35.63086561 -28.41159893
-1.774873341 -32.44114887 -29.12531132
-5.579775287 -38.05669267 -26.7625295
-6.443014815 -49.06390536 -17.4371315
-2.006631373 -42.98843553 -22.55505153
-8.305885852 -46.67820259 -20.3324253
-2.122477612 -48.38903814 -17.17120458
-5.934749403 -43.57787192 -22.84001246
5.127117443 -31.25898377 -28.04188762
1.83472591 -36.87581922 -25.9119318
6.867222453 -33.20784219 -26.47951089
1.744634605 -31.88844501 -28.6290998
5.285793863 -36.05160104 -25.35249305
0 -34.72612073 -27.60624708
6.031907373 -45.93330001 -16.32452588
1.967245512 -42.14466493 -22.11234435
7.648353315 -42.98293908 -18.72281599
2.076681056 -47.34495113 -16.80070266
5.600397957 -41.12278519 -21.55325363
0 -45.3485071 -19.84877406
-21.82749472 37.06971544 -2.834936464
-20.19848783 37.99816582 -8.601996146
-19.77273515 39.64299301 -2.922053542
-15.13850192 36.58015838 -19.55482702
-17.99031339 37.95386136 -14.31138576
-14.99745411 44.79659816 -3.126698361
-17.95358165 40.50229021 -8.874538689
-17.49356344 42.24976537 -3.024119679
-18.92903442 40.1918346 -5.904568776
-1.597615544 22.48808499 -32.20387406
-4.903022868 26.56146968 -30.14108021
-11.81776064 33.92460697 -23.95186811
-8.336505859 30.44495804 -27.4357212
-2.200478578 53.18256934 -3.56044913
-6.244000659 49.4704116 -10.10300529
-5.73827807 51.55003131 -3.467835388
-12.37852232 38.4225169 -20.02886985
-9.64925141 44.31039572 -15.61281675
-13.97139197 39.49585677 -17.52472147
-12.1117086 47.3371727 -3.259824457
-9.50008094 47.61375541 -9.824909912
-9.071108078 49.57317298 -3.364083465
-13.85731943 45.30160689 -6.336240659
-7.702201318 49.7775831 -6.772517063
-16.75278051 40.53844372 -11.9405061
-11.18821048 45.05264062 -12.71375992
-15.44848133 40.20676381 -14.79515719
-15.40773687 43.00109375 -9.245705579
-12.6537582 42.3541335 -15.23951722
-12.57602859 45.41079396 -9.572966727
33.81121904 57.42171901 -4.391372395
28.41395303 53.45341235 -12.10074321
28.63899052 57.41923373 -4.232326133
18.08213802 43.69306002 -23.35720425
23.05250988 48.63349208 -18.33838879
19.1236535 57.1213364 -3.986936425
23.86663634 53.84181554 -11.79738905
23.73249486 57.31778678 -4.10264638
26.31306115 55.8702667 -8.207881913
1.619034273 22.78957567 -32.63562127
5.134409983 27.81497838 -31.56352057
0 24.92634284 -31.73652828
13.41936073 38.52223381 -27.19794113
9.073744975 33.13735871 -29.86199993
-3.350224068 29.13184412 -29.47893211
3.460674712 30.09226673 -30.45079756
-1.663951007 27.05760652 -30.68107165
1.689839571 27.478582 -31.15842277
2.26282058 54.6892906 -3.661320608
6.738758621 53.3903151 -10.90354049
6.191589571 55.62237179 -3.74178685
0 53.20179725 -7.16787028
14.22680368 44.15952007 -23.01945191
10.78904389 49.54444483 -17.45703972
16.50952907 46.67093993 -20.70838032
14.5286931 56.78366917 -3.91034747
10.73965616 53.82642155 -11.10686897
10.3034167 56.30768083 -3.821093682
17.07643513 55.8253676 -7.808176979
8.524869549 55.0943016 -7.495886189
-4.139484738 48.79219706 -13.48583159
4.336476359 51.1141416 -14.12760128
-2.157368387 51.19267044 -10.47897179
2.212173089 52.4931433 -10.74517432
21.27975453 51.49283312 -15.1670965
12.87491382 51.84465079 -14.63045083
18.87620903 49.12788913 -18.07792454
19.34710327 53.99537963 -11.60959732
14.76965929 49.43638969 -17.78779661
14.95419024 53.9981002 -11.38324111
-10.36878986 36.73885816 -22.70586305
-3.59912289 38.9012757 -24.04231059
-8.630466028 35.06460126 -24.69660264
-9.100215579 39.87268279 -20.85425213
11.58937099 41.06364027 -25.37872539
3.733110729 40.34948907 -24.93735567
9.446790719 38.38123557 -27.03256532
10.03443852 43.96598967 -22.99513777
-5.127117443 31.25898377 -28.04188762
-1.83472591 36.87581922 -25.9119318
-6.867222453 33.20784219 -26.47951089
-1.744634605 31.88844501 -28.6290998
-5.285793863 36.05160104 -25.35249305
-6.031907373 45.93330001 -16.32452588
-1.967245512 42.14466493 -22.11234435
-7.648353315 42.98293908 -18.72281599
-2.076681056 47.34495113 -16.80070266
-5.600397957 41.12278519 -21.55325363
5.397182959 32.90551784 -29.51896453
1.86884209 37.56151407 -26.39375643
7.36829207 35.63086561 -28.41159893
1.774873341 32.44114887 -29.12531132
5.579775287 38.05669267 -26.7625295
0 34.72612073 -27.60624708
6.443014815 49.06390536 -17.4371315
2.006631373 42.98843553 -22.55505153
8.305885852 46.67820259 -20.3324253
2.122477612 48.38903814 -17.17120458
5.934749403 43.57787192 -22.84001246
0 45.3485071 -19.84877406
0 -17.70240657 -33.64276463
0 -12.45793723 -34.55891979
0 -2.452539614 -35.38637815
0 -7.397148531 -35.12005154
0 17.70240657 -33.64276463
0 12.45793723 -34.55891979
0 2.452539614 -35.38637815
0 7.397148531 -35.12005154
40.36671788 57.80682079 -2.867762905
47.69084159 54.11799495 -8.803326388
37.45207107 56.13204011 -7.227246258
53.39525915 37.69877734 -18.60043338
52.00037199 46.86055756 -14.23885706
31.10081736 51.21845943 -14.63282019
43.31910096 51.1835794 -12.7949012
34.23562226 53.75446975 -11.16299304
40.65675809 54.00236432 -10.07463864
40.46760422 3.094792756 -23.8282492
44.19900884 10.00573831 -23.49463778
51.70537598 27.64038561 -21.39799192
48.13028003 18.14864099 -22.81398494
19.98594181 41.04418373 -25.36670059
29.04686166 40.3209931 -24.91974419
22.54299586 43.55749314 -23.16880763
49.05636561 35.64064784 -22.02713175
38.94632357 38.78992019 -23.9734891
48.41952606 39.91554822 -20.11208494
28.0259989 48.56175552 -17.87877094
32.12189225 42.82240476 -22.44876562
25.2261292 46.06587483 -20.65755463
33.4406258 48.47075274 -17.19666258
27.23134076 43.26720284 -22.86558753
45.53061391 47.67489397 -15.50149789
37.4604848 42.17046202 -21.87616079
47.21233876 43.95768357 -17.89994306
39.29511126 48.20410282 -16.41330009
42.88038989 41.27511606 -21.13923826
35.56347622 45.41239659 -19.62758831
23.9426796 -34.28691411 -1.700953954
26.56943455 -30.15011849 -4.904493117
23.29418132 -34.91261986 -4.495152871
30.96373038 -21.86139361 -10.78632847
28.87690424 -26.02265679 -7.907137895
21.65191571 -35.65751194 -10.18714671
25.90045258 -30.60261736 -7.650060236
22.53433703 -35.38189926 -7.347628894
24.65212466 -32.74419998 -6.108732212
38.00167488 -2.906208816 -22.37625371
36.42741156 -8.24640998 -19.36353014
32.89610303 -17.58542426 -13.61387541
34.71372586 -13.08961734 -16.45447353
16.4867322 -33.8580224 -20.92540863
21.82984653 -30.3027949 -18.7281572
18.0073096 -34.79365694 -18.50720705
30.20998104 -21.94828912 -13.56478867
26.36144746 -26.25558331 -16.22684288
29.23386981 -24.09949116 -12.14291259
20.58623162 -35.67057682 -13.13268158
23.07930088 -30.76752628 -16.12924333
19.38610247 -35.4013001 -15.87518512
22.96998736 -33.29401144 -11.81219288
20.66568064 -32.83518811 -17.35254
27.1064794 -28.38306845 -9.228758347
25.35439066 -28.5422459 -14.80644818
28.196741 -26.25295529 -10.69042694
25.13998882 -30.83972961 -10.50080195
27.3656355 -26.3411733 -13.49075161
24.20513895 -30.90849058 -13.35888819
2.515520582 -19.36816325 -32.89302365
7.369134652 -17.3035856 -32.5521653
4.12751504 -21.38905762 -32.05727763
2.470358005 -16.71623529 -33.51491809
16.85671102 -13.04973712 -31.53293856
12.10686133 -15.21908732 -32.10745236
7.486456323 -25.34654643 -29.94815088
9.044358152 -19.22301562 -31.6574717
5.797107376 -23.39454551 -31.07381968
6.618849574 -20.29925425 -31.87252272
2.404887633 -11.53523229 -34.45512566
7.273804027 -14.71522511 -33.19673642
2.436079682 -14.09194046 -34.03429954
4.901722213 -15.7140804 -33.36555402
36.48633682 -1.810066041 -25.47854465
31.7186836 -5.159650216 -27.95171396
35.95368909 -4.629195098 -23.98879706
21.7149677 -10.71408249 -30.75633772
26.70693198 -8.11505895 -29.6362329
34.62719165 -9.892790114 -21.02628574
31.47292022 -7.867619056 -26.63703134
35.32076997 -7.334934398 -22.49540446
33.76098132 -6.29842214 -25.4176288
14.52824143 -32.35567533 -23.50718843
16.23722301 -26.37831059 -26.27237872
12.80734001 -30.83346829 -25.41815029
17.43112339 -30.92665575 -22.58595806
18.76927519 -14.78795559 -30.3693252
17.62359082 -20.54234588 -28.51556896
16.36224567 -15.92028568 -30.76111706
9.298902239 -27.3125043 -28.59879616
14.46780923 -24.77450924 -27.8894549
11.04283057 -29.12622997 -27.1183685
10.09985813 -24.18008852 -29.66220062
13.68901875 -27.76781518 -26.72829696
22.74358672 -27.56857291 -20.43896949
19.07031026 -25.07687762 -25.44422765
20.1918735 -29.31646847 -21.55526164
18.29388236 -27.97818272 -24.09402583
11.5566102 -18.11564933 -31.38970129
15.18505392 -21.72826221 -28.96642676
13.94647088 -17.03083849 -31.10031142
10.8524116 -21.10359692 -30.58875854
15.80403111 -18.82151315 -29.90503605
12.67801951 -22.97146435 -29.33316313
2.367338233 -1.463095491 -35.36102472
7.125274703 -4.403661946 -34.88964542
2.370965686 -3.923271689 -35.24485498
16.83072951 -10.40196289 -32.28734291
11.94567476 -7.382833023 -33.9027598
14.44527891 -11.51634016 -32.55564818
2.396669182 -8.904699972 -34.80296086
7.138935763 -6.902909867 -34.59691176
2.379140352 -6.415250837 -35.05903983
4.803822413 -10.50593014 -34.3454244
4.759509587 -5.412862112 -34.98210219
9.721343454 -13.63924877 -33.00430746
9.611529542 -8.45822292 -34.05953778
12.06721321 -12.60007687 -32.79340564
7.255840211 -12.09167605 -33.7463769
12.01506195 -9.976411094 -33.39262855
7.212533878 -9.475122479 -34.21372906
31.3112957 -19.35144497 -15.24663611
29.29358491 -18.10443113 -21.10282121
32.19069787 -17.12265864 -16.66015917
29.43304196 -21.49516121 -16.58928112
21.65702982 -13.38478053 -29.80908702
26.01436787 -16.07776354 -26.11925942
24.10098981 -12.14366771 -29.23568775
21.08624843 -16.27369525 -28.87312305
33.83377163 -12.45643298 -19.52617315
29.95923545 -15.70551347 -22.47298671
33.03782234 -14.81531876 -18.09183865
32.65095751 -11.58404744 -22.52633579
31.22659651 -16.50244132 -19.65327164
25.22104172 -25.59050361 -19.17994329
27.02695719 -20.03742287 -22.2967633
27.3981519 -23.59451957 -17.91462201
23.68022627 -24.71890676 -21.99960592
28.37900691 -20.86598254 -19.54619187
28.9966414 -9.428261668 -27.69245559
28.28636015 -14.67370603 -25.12708454
26.56910171 -10.81916446 -28.53629511
31.03585604 -10.56758219 -25.29986753
26.33304013 -13.48658617 -27.35718601
30.52403134 -13.19272194 -23.90406022
19.81608541 -22.05046871 -26.72841191
25.2640586 -18.93527453 -24.89930975
20.47154638 -19.17670413 -27.84254972
21.84689346 -23.51584761 -24.547318
23.29203193 -17.68495207 -27.04690075
24.52382342 -21.82598349 -23.49334026
2.563637467 19.73863753 -33.5222015
7.76541004 18.23408631 -34.30265875
4.269571467 22.12520348 -33.16059095
2.511494375 16.99459383 -34.07300807
18.63267145 14.42460893 -34.85513178
13.11045466 16.48066736 -34.76898654
8.029655121 27.18562929 -32.12111481
9.709535461 20.63679353 -33.98575542
6.100976673 24.62082676 -32.70262852
6.980353838 21.40794646 -33.61331661
2.432772727 11.66898534 -34.85463889
7.60726265 15.38982655 -34.71860007
2.470508386 14.29109949 -34.51530057
5.058837014 16.2177635 -34.43501943
37.82586887 1.876519451 -26.41394487
34.68351543 5.641936789 -30.56443687
39.60131627 5.09884309 -26.42254421
35.33874847 0 -27.75558032
24.29981766 11.98943763 -34.41743082
29.87608362 9.078024386 -33.15298713
43.26670558 12.36104971 -26.27236202
36.28221982 9.069850592 -30.70737065
41.43075174 8.603771843 -26.38678371
38.21628028 7.129599212 -28.77188957
30.11702467 -3.422742063 -29.76242372
31.75193246 3.608546196 -31.37808193
32.73906537 -1.77556382 -28.87254913
33.74058972 1.829880288 -29.75579245
17.05161143 37.97544292 -27.59008685
19.23385176 31.2465078 -31.12102588
14.67347694 35.3261634 -29.12178812
21.27986912 37.75517916 -27.57287758
21.35722934 16.82695554 -34.55672298
20.6758801 24.10014422 -33.45427676
18.39340825 17.89658461 -34.57971454
10.19038274 29.93093864 -31.34054658
16.68506469 28.57131185 -32.16363664
12.36592963 32.61599532 -30.36756151
11.09488902 26.56229375 -32.58449966
15.76911868 31.98724329 -30.7897662
30.28614931 36.71126835 -27.21724102
23.36758789 30.72766693 -31.17779512
25.71466069 37.33497238 -27.45095641
22.42360545 34.29407264 -29.53309299
12.62235883 19.78627144 -34.28445421
17.44532438 24.96247854 -33.27803205
15.4632226 18.88303132 -34.48263309
11.90816855 23.15662162 -33.56452978
18.00099566 21.43794671 -34.06222252
14.25178857 25.82299647 -32.97439625
2.370835518 1.465256932 -35.41326381
7.222000627 4.463441854 -35.36327393
2.380375375 3.938842039 -35.38473179
4.760947034 0 -35.33698699
18.2257628 11.26414088 -34.96351438
12.41623335 7.673654225 -35.2382419
15.55688092 12.40255268 -35.0608905
2.418286909 8.985019512 -35.11688023
7.291749152 7.050670974 -35.33748031
2.394587155 6.456902486 -35.28666411
4.907298693 10.73223212 -35.08523875
4.812197788 5.472782985 -35.36935722
9.622535593 -2.95364353 -34.81466084
9.741116771 2.9900421 -35.24369156
7.192652459 -1.480794237 -35.13809315
7.225502084 1.487557185 -35.29857264
10.28904028 14.43573933 -34.93165841
9.956305398 8.761628433 -35.28128987
12.89578005 13.46523155 -35.04508778
7.531278483 12.55068704 -35.02741995
12.6635969 10.51490613 -35.19505677
7.426737444 9.7565222 -35.22983558
48.94944875 30.25242306 -23.83530979
40.95667578 25.3126177 -29.50480144
48.13183227 25.60195921 -24.91042567
44.93807827 32.81860021 -25.32835085
24.94525603 15.41701608 -34.33505489
32.69631145 20.20743178 -32.82814502
27.97401623 14.09515379 -33.93385957
24.88217062 19.20326715 -34.07082945
45.13158296 16.61589918 -26.04637499
40.33812459 21.1464328 -30.25838691
46.78517003 20.98011183 -25.62002237
41.65335094 14.77795538 -28.73720839
44.33491261 23.42984428 -27.9033317
35.27565663 35.79240811 -26.82621524
36.8514249 27.32115121 -30.40177599
40.14852833 34.57478594 -26.25161404
31.47570542 32.85631729 -29.2418285
40.87514266 30.05390624 -28.1529718
33.75388774 10.97508093 -32.23573463
36.05353639 18.70297173 -32.02675254
30.96630594 12.60974346 -33.25907117
37.78314876 12.8650078 -30.80013831
31.93696765 16.35666312 -33.17906176
39.18414911 16.93569168 -30.68599457
24.12885901 26.84953357 -32.54558451
32.62589085 24.45292777 -32.15485584
24.61840093 23.0612667 -33.48252443
27.73020365 29.8486027 -31.15784532
28.68189359 21.77731488 -33.30565284
32.28773128 28.73579205 -30.93101122
19.72322827 -9.006748997 -31.9128537
20.50420623 -3.069470287 -33.1765026
22.21071839 -7.761749797 -31.53510608
17.21399776 -7.511709824 -32.91262942
21.42824124 9.785355001 -34.67162265
21.09557643 3.157998135 -34.13335968
24.11777868 8.428190412 -34.24277845
18.25168707 7.964528573 -34.89665916
27.37005498 -5.004281032 -30.51007535
23.10613448 -1.636058011 -32.8828296
24.77734702 -6.425781596 -31.0731657
28.10087921 -1.712445261 -31.30008794
22.67767103 -4.728114671 -32.24796657
12.20054088 -4.508096164 -34.32939546
17.81771142 -1.585169454 -33.95937878
14.68466665 -5.998751411 -33.71235034
12.31382523 -1.522072504 -34.70077802
17.54481469 -4.558845085 -33.47483672
29.31807848 5.360453391 -32.6815852
23.50747239 1.664475231 -33.45398209
26.78744701 6.947082909 -33.59402357
28.76182755 1.752722929 -32.03628346
23.845065 4.971507062 -33.90801719
25.85556037 0 -32.52391782
12.49656342 4.617476404 -35.16233188
18.04004366 1.604949451 -34.38312932
15.26868705 6.237326332 -35.05311623
12.41370938 1.534418864 -34.98225495
18.18367652 4.724846958 -34.69376069
15.12648144 0 -34.55948205
40.36671788 57.80682079 2.867762905
47.69084159 54.11799495 8.803326388
37.45207107 56.13204011 7.227246258
45.59539309 58.05261894 0
53.39525915 37.69877734 18.60043338
52.00037199 46.86055756 14.23885706
31.10081736 51.21845943 14.63282019
43.31910096 51.1835794 12.7949012
34.23562226 53.75446975 11.16299304
40.65675809 54.00236432 10.07463864
54.30369247 54.95068753 -6.245040195
54.30369247 54.95068753 6.245040195
50.48253277 57.24298652 -3.104504502
50.48253277 57.24298652 3.104504502
40.46760422 3.094792756 23.8282492
44.19900884 10.00573831 23.49463778
51.70537598 27.64038561 21.39799192
48.13028003 18.14864099 22.81398494
19.98594181 41.04418373 25.36670059
29.04686166 40.3209931 24.91974419
22.54299586 43.55749314 23.16880763
49.05636561 35.64064784 22.02713175
38.94632357 38.78992019 23.9734891
48.41952606 39.91554822 20.11208494
28.0259989 48.56175552 17.87877094
32.12189225 42.82240476 22.44876562
25.2261292 46.06587483 20.65755463
33.4406258 48.47075274 17.19666258
27.23134076 43.26720284 22.86558753
45.53061391 47.67489397 15.50149789
37.4604848 42.17046202 21.87616079
47.21233876 43.95768357 17.89994306
39.29511126 48.20410282 16.41330009
42.88038989 41.27511606 21.13923826
35.56347622 45.41239659 19.62758831
56.91347959 35.1744648 -16.06266334
64.18843543 39.67063478 -5.938675867
57.99792845 40.84894 -14.27505613
56.91347959 35.1744648 16.06266334
64.18843543 39.67063478 5.938675867
57.99792845 40.84894 14.27505613
56.90939564 51.05242349 -9.33431353
66.55828869 46.76923452 -3.311552647
58.04471138 46.28411441 -12.00336785
61.1188528 54.87184263 -3.343846512
62.79312434 44.15787933 -9.206567855
56.90939564 51.05242349 9.33431353
66.55828869 46.76923452 3.311552647
58.04471138 46.28411441 12.00336785
61.1188528 54.87184263 3.343846512
62.79312434 44.15787933 9.206567855
65.99072053 52.46068658 0
23.9426796 -34.28691411 1.700953954
26.56943455 -30.15011849 4.904493117
23.29418132 -34.91261986 4.495152871
25.36554257 -32.29572282 0
30.96373038 -21.86139361 10.78632847
28.87690424 -26.02265679 7.907137895
21.65191571 -35.65751194 10.18714671
25.90045258 -30.60261736 7.650060236
22.53433703 -35.38189926 7.347628894
24.65212466 -32.74419998 6.108732212
27.9378387 -28.27070085 -3.212910903
27.9378387 -28.27070085 3.212910903
26.69982619 -30.27537857 -1.641948731
26.69982619 -30.27537857 1.641948731
38.00167488 -2.906208816 22.37625371
36.42741156 -8.24640998 19.36353014
32.89610303 -17.58542426 13.61387541
34.71372586 -13.08961734 16.45447353
16.4867322 -33.8580224 20.92540863
21.82984653 -30.3027949 18.7281572
18.0073096 -34.79365694 18.50720705
30.20998104 -21.94828912 13.56478867
26.36144746 -26.25558331 16.22684288
29.23386981 -24.09949116 12.14291259
20.58623162 -35.67057682 13.13268158
23.07930088 -30.76752628 16.12924333
19.38610247 -35.4013001 15.87518512
22.96998736 -33.29401144 11.81219288
20.66568064 -32.83518811 17.35254
27.1064794 -28.38306845 9.228758347
25.35439066 -28.5422459 14.80644818
28.196741 -26.25295529 10.69042694
25.13998882 -30.83972961 10.50080195
27.3656355 -26.3411733 13.49075161
24.20513895 -30.90849058 13.35888819
32.39652196 -20.02215169 -9.143254452
32.86916233 -20.3142595 -3.041035348
31.3604072 -22.08767497 -7.718751086
32.39652196 -20.02215169 9.143254452
32.86916233 -20.3142595 3.041035348
31.3604072 -22.08767497 7.718751086
29.16549182 -26.16385261 -4.783741627
31.7333099 -22.298389 -1.578864608
30.27940913 -24.14441562 -6.261636544
29.27586203 -26.28355115 -1.601698733
31.61176953 -22.2302795 -4.634837083
29.16549182 -26.16385261 4.783741627
31.7333099 -22.298389 1.578864608
30.27940913 -24.14441562 6.261636544
29.27586203 -26.28355115 1.601698733
31.61176953 -22.2302795 4.634837083
30.54407098 -24.28164023 0
2.515520582 -19.36816325 32.89302365
7.369134652 -17.3035856 32.5521653
4.12751504 -21.38905762 32.05727763
2.470358005 -16.71623529 33.51491809
16.85671102 -13.04973712 31.53293856
12.10686133 -15.21908732 32.10745236
7.486456323 -25.34654643 29.94815088
9.044358152 -19.22301562 31.6574717
5.797107376 -23.39454551 31.07381968
6.618849574 -20.29925425 31.87252272
2.404887633 -11.53523229 34.45512566
7.273804027 -14.71522511 33.19673642
2.436079682 -14.09194046 34.03429954
4.901722213 -15.7140804 33.36555402
36.48633682 -1.810066041 25.47854465
31.7186836 -5.159650216 27.95171396
35.95368909 -4.629195098 23.98879706
21.7149677 -10.71408249 30.75633772
26.70693198 -8.11505895 29.6362329
34.62719165 -9.892790114 21.02628574
31.47292022 -7.867619056 26.63703134
35.32076997 -7.334934398 22.49540446
33.76098132 -6.29842214 25.4176288
14.52824143 -32.35567533 23.50718843
16.23722301 -26.37831059 26.27237872
12.80734001 -30.83346829 25.41815029
17.43112339 -30.92665575 22.58595806
18.76927519 -14.78795559 30.3693252
17.62359082 -20.54234588 28.51556896
16.36224567 -15.92028568 30.76111706
9.298902239 -27.3125043 28.59879616
14.46780923 -24.77450924 27.8894549
11.04283057 -29.12622997 27.1183685
10.09985813 -24.18008852 29.66220062
13.68901875 -27.76781518 26.72829696
22.74358672 -27.56857291 20.43896949
19.07031026 -25.07687762 25.44422765
20.1918735 -29.31646847 21.55526164
18.29388236 -27.97818272 24.09402583
11.5566102 -18.11564933 31.38970129
15.18505392 -21.72826221 28.96642676
13.94647088 -17.03083849 31.10031142
10.8524116 -21.10359692 30.58875854
15.80403111 -18.82151315 29.90503605
12.67801951 -22.97146435 29.33316313
2.367338233 -1.463095491 35.36102472
7.125274703 -4.403661946 34.88964542
2.370965686 -3.923271689 35.24485498
16.83072951 -10.40196289 32.28734291
11.94567476 -7.382833023 33.9027598
14.44527891 -11.51634016 32.55564818
2.396669182 -8.904699972 34.80296086
7.138935763 -6.902909867 34.59691176
2.379140352 -6.415250837 35.05903983
4.803822413 -10.50593014 34.3454244
4.759509587 -5.412862112 34.98210219
9.721343454 -13.63924877 33.00430746
9.611529542 -8.45822292 34.05953778
12.06721321 -12.60007687 32.79340564
7.255840211 -12.09167605 33.7463769
12.01506195 -9.976411094 33.39262855
7.212533878 -9.475122479 34.21372906
31.3112957 -19.35144497 15.24663611
29.29358491 -18.10443113 21.10282121
32.19069787 -17.12265864 16.66015917
29.43304196 -21.49516121 16.58928112
21.65702982 -13.38478053 29.80908702
26.01436787 -16.07776354 26.11925942
24.10098981 -12.14366771 29.23568775
21.08624843 -16.27369525 28.87312305
33.83377163 -12.45643298 19.52617315
29.95923545 -15.70551347 22.47298671
33.03782234 -14.81531876 18.09183865
32.65095751 -11.58404744 22.52633579
31.22659651 -16.50244132 19.65327164
25.22104172 -25.59050361 19.17994329
27.02695719 -20.03742287 22.2967633
27.3981519 -23.59451957 17.91462201
23.68022627 -24.71890676 21.99960592
28.37900691 -20.86598254 19.54619187
28.9966414 -9.428261668 27.69245559
28.28636015 -14.67370603 25.12708454
26.56910171 -10.81916446 28.53629511
31.03585604 -10.56758219 25.29986753
26.33304013 -13.48658617 27.35718601
30.52403134 -13.19272194 23.90406022
19.81608541 -22.05046871 26.72841191
25.2640586 -18.93527453 24.89930975
20.47154638 -19.17670413 27.84254972
21.84689346 -23.51584761 24.547318
23.29203193 -17.68495207 27.04690075
24.52382342 -21.82598349 23.49334026
2.563637467 19.73863753 33.5222015
7.76541004 18.23408631 34.30265875
4.269571467 22.12520348 33.16059095
2.511494375 16.99459383 34.07300807
18.63267145 14.42460893 34.85513178
13.11045466 16.48066736 34.76898654
8.029655121 27.18562929 32.12111481
9.709535461 20.63679353 33.98575542
6.100976673 24.62082676 32.70262852
6.980353838 21.40794646 33.61331661
2.432772727 11.66898534 34.85463889
7.60726265 15.38982655 34.71860007
2.470508386 14.29109949 34.51530057
5.058837014 16.2177635 34.43501943
37.82586887 1.876519451 26.41394487
34.68351543 5.641936789 30.56443687
39.60131627 5.09884309 26.42254421
35.33874847 0 27.75558032
24.29981766 11.98943763 34.41743082
29.87608362 9.078024386 33.15298713
43.26670558 12.36104971 26.27236202
36.28221982 9.069850592 30.70737065
41.43075174 8.603771843 26.38678371
38.21628028 7.129599212 28.77188957
30.11702467 -3.422742063 29.76242372
31.75193246 3.608546196 31.37808193
32.73906537 -1.77556382 28.87254913
33.74058972 1.829880288 29.75579245
17.05161143 37.97544292 27.59008685
19.23385176 31.2465078 31.12102588
14.67347694 35.3261634 29.12178812
21.27986912 37.75517916 27.57287758
21.35722934 16.82695554 34.55672298
20.6758801 24.10014422 33.45427676
18.39340825 17.89658461 34.57971454
10.19038274 29.93093864 31.34054658
16.68506469 28.57131185 32.16363664
12.36592963 32.61599532 30.36756151
11.09488902 26.56229375 32.58449966
15.76911868 31.98724329 30.7897662
30.28614931 36.71126835 27.21724102
23.36758789 30.72766693 31.17779512
25.71466069 37.33497238 27.45095641
22.42360545 34.29407264 29.53309299
12.62235883 19.78627144 34.28445421
17.44532438 24.96247854 33.27803205
15.4632226 18.88303132 34.48263309
11.90816855 23.15662162 33.56452978
18.00099566 21.43794671 34.06222252
14.25178857 25.82299647 32.97439625
2.370835518 1.465256932 35.41326381
7.222000627 4.463441854 35.36327393
2.380375375 3.938842039 35.38473179
4.760947034 0 35.33698699
18.2257628 11.26414088 34.96351438
12.41623335 7.673654225 35.2382419
15.55688092 12.40255268 35.0608905
2.418286909 8.985019512 35.11688023
7.291749152 7.050670974 35.33748031
2.394587155 6.456902486 35.28666411
4.907298693 10.73223212 35.08523875
4.812197788 5.472782985 35.36935722
9.622535593 -2.95364353 34.81466084
9.741116771 2.9900421 35.24369156
7.192652459 -1.480794237 35.13809315
7.225502084 1.487557185 35.29857264
10.28904028 14.43573933 34.93165841
9.956305398 8.761628433 35.28128987
12.89578005 13.46523155 35.04508778
7.531278483 12.55068704 35.02741995
12.6635969 10.51490613 35.19505677
7.426737444 9.7565222 35.22983558
48.94944875 30.25242306 23.83530979
40.95667578 25.3126177 29.50480144
48.13183227 25.60195921 24.91042567
44.93807827 32.81860021 25.32835085
24.94525603 15.41701608 34.33505489
32.69631145 20.20743178 32.82814502
27.97401623 14.09515379 33.93385957
24.88217062 19.20326715 34.07082945
45.13158296 16.61589918 26.04637499
40.33812459 21.1464328 30.25838691
46.78517003 20.98011183 25.62002237
41.65335094 14.77795538 28.73720839
44.33491261 23.42984428 27.9033317
35.27565663 35.79240811 26.82621524
36.8514249 27.32115121 30.40177599
40.14852833 34.57478594 26.25161404
31.47570542 32.85631729 29.2418285
40.87514266 30.05390624 28.1529718
33.75388774 10.97508093 32.23573463
36.05353639 18.70297173 32.02675254
30.96630594 12.60974346 33.25907117
37.78314876 12.8650078 30.80013831
31.93696765 16.35666312 33.17906176
39.18414911 16.93569168 30.68599457
24.12885901 26.84953357 32.54558451
32.62589085 24.45292777 32.15485584
24.61840093 23.0612667 33.48252443
27.73020365 29.8486027 31.15784532
28.68189359 21.77731488 33.30565284
32.28773128 28.73579205 30.93101122
19.72322827 -9.006748997 31.9128537
20.50420623 -3.069470287 33.1765026
22.21071839 -7.761749797 31.53510608
17.21399776 -7.511709824 32.91262942
21.42824124 9.785355001 34.67162265
21.09557643 3.157998135 34.13335968
24.11777868 8.428190412 34.24277845
18.25168707 7.964528573 34.89665916
27.37005498 -5.004281032 30.51007535
23.10613448 -1.636058011 32.8828296
24.77734702 -6.425781596 31.0731657
28.10087921 -1.712445261 31.30008794
22.67767103 -4.728114671 32.24796657
12.20054088 -4.508096164 34.32939546
17.81771142 -1.585169454 33.95937878
14.68466665 -5.998751411 33.71235034
12.31382523 -1.522072504 34.70077802
17.54481469 -4.558845085 33.47483672
29.31807848 5.360453391 32.6815852
23.50747239 1.664475231 33.45398209
26.78744701 6.947082909 33.59402357
28.76182755 1.752722929 32.03628346
23.845065 4.971507062 33.90801719
25.85556037 0 32.52391782
12.49656342 4.617476404 35.16233188
18.04004366 1.604949451 34.38312932
15.26868705 6.237326332 35.05311623
12.41370938 1.534418864 34.98225495
18.18367652 4.724846958 34.69376069
15.12648144 0 34.55948205
40.26255142 0 -21.18565648
42.47810277 0 -15.3126759
42.04192517 3.098876927 -20.96925051
39.36573663 -2.901617195 -19.63444799
44.48708329 0 -3.083286275
43.82799292 0 -9.231255629
45.89325234 10.0557633 -20.34325093
44.28623352 3.091076096 -14.82658912
43.92575815 6.453118217 -20.68758981
43.30060822 3.099336062 -17.92866612
37.49888014 -8.216455435 -16.62225032
41.2978141 -2.882491371 -13.82609611
38.43711638 -5.646783719 -18.10261975
40.45074698 -2.89535099 -16.74867783
40.26255142 0 21.18565648
42.47810277 0 15.3126759
42.04192517 3.098876927 20.96925051
39.36573663 -2.901617195 19.63444799
44.48708329 0 3.083286275
43.82799292 0 9.231255629
45.89325234 10.0557633 20.34325093
44.28623352 3.091076096 14.82658912
43.92575815 6.453118217 20.68758981
43.30060822 3.099336062 17.92866612
37.49888014 -8.216455435 16.62225032
41.2978141 -2.882491371 13.82609611
38.43711638 -5.646783719 18.10261975
40.45074698 -2.89535099 16.74867783
54.71915834 28.52397472 -17.62878587
53.32932093 18.79064498 -11.61325727
52.52798711 23.30721293 -18.58141986
57.79677785 30.22893103 -13.19106469
46.26542945 3.097362727 -1.914275441
49.83282897 10.17701932 -6.289743846
46.06279326 3.098701989 -5.127467621
48.07164528 14.15939343 -19.86592598
50.7934558 14.33380582 -12.61386384
50.25858379 18.49399397 -19.31065124
47.32039783 10.17440321 -16.95538822
51.99794096 18.70947299 -15.5349506
61.94929368 32.5033813 -2.891693887
54.67262882 19.43045119 -7.179545837
60.39253561 31.65290559 -8.224691773
56.64986016 24.67595122 -10.08023544
45.09917123 3.105706847 -11.53909262
49.25437768 10.16344582 -9.827424253
45.67075696 3.09926174 -8.357027552
46.27441792 6.472305696 -14.15489283
47.6703101 6.48581085 -7.376138061
48.44202987 10.21197605 -13.41549661
33.59469481 -17.51222524 -10.82315042
36.72988407 -12.94181511 -7.998481617
34.57964065 -15.34334537 -12.2323138
33.95548993 -17.75943576 -7.749723792
42.93276284 -2.874248462 -1.776383241
39.79356607 -8.126769022 -5.022619475
42.76716851 -2.877001171 -4.760616026
36.51660435 -10.75588249 -15.09072874
37.8247322 -10.67405945 -9.39325774
35.55744547 -13.0843158 -13.66209266
38.32478336 -8.240247687 -13.73216647
36.22162149 -13.03296701 -10.82160351
34.29779496 -17.99527067 -1.600966179
36.95322677 -13.13304088 -4.85265463
34.18639863 -17.91775817 -4.655750726
35.47765154 -15.45360917 -6.31286784
41.96762942 -2.890056524 -10.73785504
39.47887845 -8.146310261 -7.876978775
42.44618417 -2.880439112 -7.766981636
40.14128158 -5.614476791 -12.27882628
41.09717916 -5.591499824 -6.359062209
38.977631 -8.216803367 -10.79443363
54.71915834 28.52397472 17.62878587
53.32932093 18.79064498 11.61325727
52.52798711 23.30721293 18.58141986
57.79677785 30.22893103 13.19106469
46.26542945 3.097362727 1.914275441
49.83282897 10.17701932 6.289743846
46.06279326 3.098701989 5.127467621
48.18738589 6.492279378 0
48.07164528 14.15939343 19.86592598
50.7934558 14.33380582 12.61386384
50.25858379 18.49399397 19.31065124
47.32039783 10.17440321 16.95538822
51.99794096 18.70947299 15.5349506
61.94929368 32.5033813 2.891693887
54.67262882 19.43045119 7.179545837
60.39253561 31.65290559 8.224691773
58.64777943 25.66978711 0
56.64986016 24.67595122 10.08023544
45.09917123 3.105706847 11.53909262
49.25437768 10.16344582 9.827424253
45.67075696 3.09926174 8.357027552
46.27441792 6.472305696 14.15489283
47.6703101 6.48581085 7.376138061
48.44202987 10.21197605 13.41549661
52.38674194 14.47933936 -4.444442592
52.38674194 14.47933936 4.444442592
50.24477773 10.28494126 -2.117422165
55.35004517 19.64136891 -2.427806714
50.24477773 10.28494126 2.117422165
55.35004517 19.64136891 2.427806714
33.59469481 -17.51222524 10.82315042
36.72988407 -12.94181511 7.998481617
34.57964065 -15.34334537 12.2323138
33.95548993 -17.75943576 7.749723792
42.93276284 -2.874248462 1.776383241
39.79356607 -8.126769022 5.022619475
42.76716851 -2.877001171 4.760616026
41.43604996 -5.582672887 0
36.51660435 -10.75588249 15.09072874
37.8247322 -10.67405945 9.39325774
35.55744547 -13.0843158 13.66209266
38.32478336 -8.240247687 13.73216647
36.22162149 -13.03296701 10.82160351
34.29779496 -17.99527067 1.600966179
36.95322677 -13.13304088 4.85265463
34.18639863 -17.91775817 4.655750726
35.70226151 -15.62666926 0
35.47765154 -15.45360917 6.31286784
41.96762942 -2.890056524 10.73785504
39.47887845 -8.146310261 7.876978775
42.44618417 -2.880439112 7.766981636
40.14128158 -5.614476791 12.27882628
41.09717916 -5.591499824 6.359062209
38.977631 -8.216803367 10.79443363
38.4860484 -10.63728216 -3.265120646
38.4860484 -10.63728216 3.265120646
39.94710233 -8.17704087 -1.683456147
37.10267071 -13.16615444 -1.627426189
39.94710233 -8.17704087 1.683456147
37.10267071 -13.16615444 1.627426189
-23.9426796 34.28691411 -1.700953954
-26.56943455 30.15011849 -4.904493117
-23.29418132 34.91261986 -4.495152871
-30.96373038 21.86139361 -10.78632847
-28.87690424 26.02265679 -7.907137895
-21.65191571 35.65751194 -10.18714671
-25.90045258 30.60261736 -7.650060236
-22.53433703 35.38189926 -7.347628894
-24.65212466 32.74419998 -6.108732212
-38.00167488 2.906208816 -22.37625371
-36.42741156 8.24640998 -19.36353014
-32.89610303 17.58542426 -13.61387541
-34.71372586 13.08961734 -16.45447353
-16.4867322 33.8580224 -20.92540863
-21.82984653 30.3027949 -18.7281572
-18.0073096 34.79365694 -18.50720705
-30.20998104 21.94828912 -13.56478867
-26.36144746 26.25558331 -16.22684288
-29.23386981 24.09949116 -12.14291259
-20.58623162 35.67057682 -13.13268158
-23.07930088 30.76752628 -16.12924333
-19.38610247 35.4013001 -15.87518512
-22.96998736 33.29401144 -11.81219288
-20.66568064 32.83518811 -17.35254
-27.1064794 28.38306845 -9.228758347
-25.35439066 28.5422459 -14.80644818
-28.196741 26.25295529 -10.69042694
-25.13998882 30.83972961 -10.50080195
-27.3656355 26.3411733 -13.49075161
-24.20513895 30.90849058 -13.35888819
-40.36671788 -57.80682079 -2.867762905
-47.69084159 -54.11799495 -8.803326388
-37.45207107 -56.13204011 -7.227246258
-53.39525915 -37.69877734 -18.60043338
-52.00037199 -46.86055756 -14.23885706
-31.10081736 -51.21845943 -14.63282019
-43.31910096 -51.1835794 -12.7949012
-34.23562226 -53.75446975 -11.16299304
-40.65675809 -54.00236432 -10.07463864
-40.46760422 -3.094792756 -23.8282492
-44.19900884 -10.00573831 -23.49463778
-51.70537598 -27.64038561 -21.39799192
-48.13028003 -18.14864099 -22.81398494
-19.98594181 -41.04418373 -25.36670059
-29.04686166 -40.3209931 -24.91974419
-22.54299586 -43.55749314 -23.16880763
-49.05636561 -35.64064784 -22.02713175
-38.94632357 -38.78992019 -23.9734891
-48.41952606 -39.91554822 -20.11208494
-28.0259989 -48.56175552 -17.87877094
-32.12189225 -42.82240476 -22.44876562
-25.2261292 -46.06587483 -20.65755463
-33.4406258 -48.47075274 -17.19666258
-27.23134076 -43.26720284 -22.86558753
-45.53061391 -47.67489397 -15.50149789
-37.4604848 -42.17046202 -21.87616079
-47.21233876 -43.95768357 -17.89994306
-39.29511126 -48.20410282 -16.41330009
-42.88038989 -41.27511606 -21.13923826
-35.56347622 -45.41239659 -19.62758831
-2.563637467 -19.73863753 -33.5222015
-7.76541004 -18.23408631 -34.30265875
-4.269571467 -22.12520348 -33.16059095
-2.511494375 -16.99459383 -34.07300807
-18.63267145 -14.42460893 -34.85513178
-13.11045466 -16.48066736 -34.76898654
-8.029655121 -27.18562929 -32.12111481
-9.709535461 -20.63679353 -33.98575542
-6.100976673 -24.62082676 -32.70262852
-6.980353838 -21.40794646 -33.61331661
-2.432772727 -11.66898534 -34.85463889
-7.60726265 -15.38982655 -34.71860007
-2.470508386 -14.29109949 -34.51530057
-5.058837014 -16.2177635 -34.43501943
-37.82586887 -1.876519451 -26.41394487
-34.68351543 -5.641936789 -30.56443687
-39.60131627 -5.09884309 -26.42254421
-24.29981766 -11.98943763 -34.41743082
-29.87608362 -9.078024386 -33.15298713
-43.26670558 -12.36104971 -26.27236202
-36.28221982 -9.069850592 -30.70737065
-41.43075174 -8.603771843 -26.38678371
-38.21628028 -7.129599212 -28.77188957
-17.05161143 -37.97544292 -27.59008685
-19.23385176 -31.2465078 -31.12102588
-14.67347694 -35.3261634 -29.12178812
-21.27986912 -37.75517916 -27.57287758
-21.35722934 -16.82695554 -34.55672298
-20.6758801 -24.10014422 -33.45427676
-18.39340825 -17.89658461 -34.57971454
-10.19038274 -29.93093864 -31.34054658
-16.68506469 -28.57131185 -32.16363664
-12.36592963 -32.61599532 -30.36756151
-11.09488902 -26.56229375 -32.58449966
-15.76911868 -31.98724329 -30.7897662
-30.28614931 -36.71126835 -27.21724102
-23.36758789 -30.72766693 -31.17779512
-25.71466069 -37.33497238 -27.45095641
-22.42360545 -34.29407264 -29.53309299
-12.62235883 -19.78627144 -34.28445421
-17.44532438 -24.96247854 -33.27803205
-15.4632226 -18.88303132 -34.48263309
-11.90816855 -23.15662162 -33.56452978
-18.00099566 -21.43794671 -34.06222252
-14.25178857 -25.82299647 -32.97439625
-2.370835518 -1.465256932 -35.41326381
-7.222000627 -4.463441854 -35.36327393
-2.380375375 -3.938842039 -35.38473179
-18.2257628 -11.26414088 -34.96351438
-12.41623335 -7.673654225 -35.2382419
-15.55688092 -12.40255268 -35.0608905
-2.418286909 -8.985019512 -35.11688023
-7.291749152 -7.050670974 -35.33748031
-2.394587155 -6.456902486 -35.28666411
-4.907298693 -10.73223212 -35.08523875
-4.812197788 -5.472782985 -35.36935722
-10.28904028 -14.43573933 -34.93165841
-9.956305398 -8.761628433 -35.28128987
-12.89578005 -13.46523155 -35.04508778
-7.531278483 -12.55068704 -35.02741995
-12.6635969 -10.51490613 -35.19505677
-7.426737444 -9.7565222 -35.22983558
-48.94944875 -30.25242306 -23.83530979
-40.95667578 -25.3126177 -29.50480144
-48.13183227 -25.60195921 -24.91042567
-44.93807827 -32.81860021 -25.32835085
-24.94525603 -15.41701608 -34.33505489
-32.69631145 -20.20743178 -32.82814502
-27.97401623 -14.09515379 -33.93385957
-24.88217062 -19.20326715 -34.07082945
-45.13158296 -16.61589918 -26.04637499
-40.33812459 -21.1464328 -30.25838691
-46.78517003 -20.98011183 -25.62002237
-41.65335094 -14.77795538 -28.73720839
-44.33491261 -23.42984428 -27.9033317
-35.27565663 -35.79240811 -26.82621524
-36.8514249 -27.32115121 -30.40177599
-40.14852833 -34.57478594 -26.25161404
-31.47570542 -32.85631729 -29.2418285
-40.87514266 -30.05390624 -28.1529718
-33.75388774 -10.97508093 -32.23573463
-36.05353639 -18.70297173 -32.02675254
-30.96630594 -12.60974346 -33.25907117
-37.78314876 -12.8650078 -30.80013831
-31.93696765 -16.35666312 -33.17906176
-39.18414911 -16.93569168 -30.68599457
-24.12885901 -26.84953357 -32.54558451
-32.62589085 -24.45292777 -32.15485584
-24.61840093 -23.0612667 -33.48252443
-27.73020365 -29.8486027 -31.15784532
-28.68189359 -21.77731488 -33.30565284
-32.28773128 -28.73579205 -30.93101122
-2.515520582 19.36816325 -32.89302365
-7.369134652 17.3035856 -32.5521653
-4.12751504 21.38905762 -32.05727763
-2.470358005 16.71623529 -33.51491809
-16.85671102 13.04973712 -31.53293856
-12.10686133 15.21908732 -32.10745236
-7.486456323 25.34654643 -29.94815088
-9.044358152 19.22301562 -31.6574717
-5.797107376 23.39454551 -31.07381968
-6.618849574 20.29925425 -31.87252272
-2.404887633 11.53523229 -34.45512566
-7.273804027 14.71522511 -33.19673642
-2.436079682 14.09194046 -34.03429954
-4.901722213 15.7140804 -33.36555402
-36.48633682 1.810066041 -25.47854465
-31.7186836 5.159650216 -27.95171396
-35.95368909 4.629195098 -23.98879706
-35.33874847 0 -27.75558032
-21.7149677 10.71408249 -30.75633772
-26.70693198 8.11505895 -29.6362329
-34.62719165 9.892790114 -21.02628574
-31.47292022 7.867619056 -26.63703134
-35.32076997 7.334934398 -22.49540446
-33.76098132 6.29842214 -25.4176288
-31.75193246 -3.608546196 -31.37808193
-30.11702467 3.422742063 -29.76242372
-33.74058972 -1.829880288 -29.75579245
-32.73906537 1.77556382 -28.87254913
-14.52824143 32.35567533 -23.50718843
-16.23722301 26.37831059 -26.27237872
-12.80734001 30.83346829 -25.41815029
-17.43112339 30.92665575 -22.58595806
-18.76927519 14.78795559 -30.3693252
-17.62359082 20.54234588 -28.51556896
-16.36224567 15.92028568 -30.76111706
-9.298902239 27.3125043 -28.59879616
-14.46780923 24.77450924 -27.8894549
-11.04283057 29.12622997 -27.1183685
-10.09985813 24.18008852 -29.66220062
-13.68901875 27.76781518 -26.72829696
-22.74358672 27.56857291 -20.43896949
-19.07031026 25.07687762 -25.44422765
-20.1918735 29.31646847 -21.55526164
-18.29388236 27.97818272 -24.09402583
-11.5566102 18.11564933 -31.38970129
-15.18505392 21.72826221 -28.96642676
-13.94647088 17.03083849 -31.10031142
-10.8524116 21.10359692 -30.58875854
-15.80403111 18.82151315 -29.90503605
-12.67801951 22.97146435 -29.33316313
-2.367338233 1.463095491 -35.36102472
-7.125274703 4.403661946 -34.88964542
-2.370965686 3.923271689 -35.24485498
-4.760947034 0 -35.33698699
-16.83072951 10.40196289 -32.28734291
-11.94567476 7.382833023 -33.9027598
-14.44527891 11.51634016 -32.55564818
-2.396669182 8.904699972 -34.80296086
-7.138935763 6.902909867 -34.59691176
-2.379140352 6.415250837 -35.05903983
-4.803822413 10.50593014 -34.3454244
-4.759509587 5.412862112 -34.98210219
-9.741116771 -2.9900421 -35.24369156
-9.622535593 2.95364353 -34.81466084
-7.225502084 -1.487557185 -35.29857264
-7.192652459 1.480794237 -35.13809315
-9.721343454 13.63924877 -33.00430746
-9.611529542 8.45822292 -34.05953778
-12.06721321 12.60007687 -32.79340564
-7.255840211 12.09167605 -33.7463769
-12.01506195 9.976411094 -33.39262855
-7.212533878 9.475122479 -34.21372906
-31.3112957 19.35144497 -15.24663611
-29.29358491 18.10443113 -21.10282121
-32.19069787 17.12265864 -16.66015917
-29.43304196 21.49516121 -16.58928112
-21.65702982 13.38478053 -29.80908702
-26.01436787 16.07776354 -26.11925942
-24.10098981 12.14366771 -29.23568775
-21.08624843 16.27369525 -28.87312305
-33.83377163 12.45643298 -19.52617315
-29.95923545 15.70551347 -22.47298671
-33.03782234 14.81531876 -18.09183865
-32.65095751 11.58404744 -22.52633579
-31.22659651 16.50244132 -19.65327164
-25.22104172 25.59050361 -19.17994329
-27.02695719 20.03742287 -22.2967633
-27.3981519 23.59451957 -17.91462201
-23.68022627 24.71890676 -21.99960592
-28.37900691 20.86598254 -19.54619187
-28.9966414 9.428261668 -27.69245559
-28.28636015 14.67370603 -25.12708454
-26.56910171 10.81916446 -28.53629511
-31.03585604 10.56758219 -25.29986753
-26.33304013 13.48658617 -27.35718601
-30.52403134 13.19272194 -23.90406022
-19.81608541 22.05046871 -26.72841191
-25.2640586 18.93527453 -24.89930975
-20.47154638 19.17670413 -27.84254972
-21.84689346 23.51584761 -24.547318
-23.29203193 17.68495207 -27.04690075
-24.52382342 21.82598349 -23.49334026
-21.42824124 -9.785355001 -34.67162265
-21.09557643 -3.157998135 -34.13335968
-24.11777868 -8.428190412 -34.24277845
-18.25168707 -7.964528573 -34.89665916
-19.72322827 9.006748997 -31.9128537
-20.50420623 3.069470287 -33.1765026
-22.21071839 7.761749797 -31.53510608
-17.21399776 7.511709824 -32.91262942
-29.31807848 -5.360453391 -32.6815852
-23.50747239 -1.664475231 -33.45398209
-26.78744701 -6.947082909 -33.59402357
-28.76182755 -1.752722929 -32.03628346
-23.845065 -4.971507062 -33.90801719
-12.49656342 -4.617476404 -35.16233188
-18.04004366 -1.604949451 -34.38312932
-15.26868705 -6.237326332 -35.05311623
-12.41370938 -1.534418864 -34.98225495
-18.18367652 -4.724846958 -34.69376069
-27.37005498 5.004281032 -30.51007535
-23.10613448 1.636058011 -32.8828296
-24.77734702 6.425781596 -31.0731657
-28.10087921 1.712445261 -31.30008794
-22.67767103 4.728114671 -32.24796657
-25.85556037 0 -32.52391782
-12.20054088 4.508096164 -34.32939546
-17.81771142 1.585169454 -33.95937878
-14.68466665 5.998751411 -33.71235034
-12.31382523 1.522072504 -34.70077802
-17.54481469 4.558845085 -33.47483672
-15.12648144 0 -34.55948205
-23.9426796 34.28691411 1.700953954
-26.56943455 30.15011849 4.904493117
-23.29418132 34.91261986 4.495152871
-25.36554257 32.29572282 0
-30.96373038 21.86139361 10.78632847
-28.87690424 26.02265679 7.907137895
-21.65191571 35.65751194 10.18714671
-25.90045258 30.60261736 7.650060236
-22.53433703 35.38189926 7.347628894
-24.65212466 32.74419998 6.108732212
-27.9378387 28.27070085 -3.212910903
-27.9378387 28.27070085 3.212910903
-26.69982619 30.27537857 -1.641948731
-26.69982619 30.27537857 1.641948731
-38.00167488 2.906208816 22.37625371
-36.42741156 8.24640998 19.36353014
-32.89610303 17.58542426 13.61387541
-34.71372586 13.08961734 16.45447353
-16.4867322 33.8580224 20.92540863
