23.52861853 3.078093896 -29.59683891
14.22151112 2.929792414 -32.49189577
42.36739746 53.94269494 5.580215623
43.49766734 34.79259006 13.59345
36.12735083 50.12907416 13.47208656
48.70790993 49.28823469 0
37.86087725 5.743083546 21.20564627
40.91590598 18.59899278 18.18323749
23.87888672 39.86571094 24.63836435
36.87469259 31.36748706 19.38617315
29.69071618 45.06930365 19.91300213
37.11614674 40.26344831 16.96995374
49.43513254 30.55259215 -9.204429976
49.43513254 30.55259215 9.204429976
50.65271988 40.26742609 -5.26792163
50.65271988 40.26742609 5.26792163
32.55533954 -41.44986132 4.287868153
38.03872643 -30.42613308 11.88747713
29.34264111 -40.71484342 10.94203123
37.3103992 -37.75492964 0
37.37534901 -5.669434189 20.93370486
38.9071256 -17.68586887 17.29052524
20.91505962 -34.91761283 21.58027153
33.36066708 -28.37827842 17.53874061
25.21440167 -38.27443967 16.91082259
31.98481287 -34.69699774 14.62384548
42.98206534 -26.56437729 -8.002919995
42.98206534 -26.56437729 8.002919995
40.95245096 -32.55599692 -4.259086239
40.95245096 -32.55599692 4.259086239
4.851723345 -17.91440578 31.98464737
14.05169715 -13.7375905 30.91231479
8.209033759 -22.01371266 30.54547343
4.673660178 -12.71683509 32.81207261
31.80822896 -3.290469199 24.98265762
23.00013156 -8.986141527 28.75474547
32.85861908 -8.830686941 23.68076568
15.94646444 -30.33197784 25.80192147
17.95142016 -17.3980676 29.04600797
12.00260735 -26.25172363 28.47776535
22.12510848 -27.86577353 24.31784741
13.218024 -19.70835922 29.91649043
4.536853202 -2.803929481 33.67370429
13.76518834 -8.507354257 31.7588639
4.585092424 -7.600256726 33.36784947
9.337570463 -10.65206267 32.39702149
33.83534664 -20.91139424 20.26680047
23.4765055 -14.50927834 27.59828742
33.56586277 -14.83042875 22.11248952
28.27736806 -24.6770369 22.45190987
28.12188519 -11.8526135 25.92366181
22.94228507 -20.87358052 26.28951935
4.952110184 18.28507212 32.64644059
14.60961644 14.28303826 32.13968089
8.557351596 22.94777738 31.84154962
4.73954695 12.89611026 33.27463974
32.07216043 3.317772145 25.18995334
23.66247441 9.244918594 29.58280595
33.59363577 9.028221179 24.21048234
27.80122648 0 27.47389197
17.59314583 33.46415198 28.46630793
18.98465804 18.39945592 30.71782198
12.85999407 28.12697277 30.51202816
24.43818463 30.77900925 26.86016412
13.95989711 20.81450804 31.59557949
4.550396231 2.812299533 33.77422417
14.09252116 8.709657063 32.51408193
4.622806909 7.662772318 33.64231531
9.200111231 0 33.28631513
9.546870026 10.89082629 33.12319351
35.96743396 22.22909667 21.54388472
24.59843232 15.20266724 28.91719149
34.90294197 15.42119139 22.99332938
30.68662218 26.77953996 24.36483035
29.10734597 12.26795855 26.83209138
24.6097419 22.39068286 28.20025486
18.94107493 -5.706284987 30.64730302
19.28324645 5.809369328 31.20094818
23.30719416 -3.049126407 29.31830741
14.10761537 -2.906328599 32.23167807
23.52861853 3.078093896 29.59683891
14.22151112 2.929792414 32.49189577
41.31295815 0 -18.21094196
50.93442659 0 -7.094348251
43.21638283 6.155621131 -16.74918925
42.53525013 -6.058602487 -16.48520555
41.31295815 0 18.21094196
50.93442659 0 7.094348251
43.21638283 6.155621131 16.74918925
42.53525013 -6.058602487 16.48520555
47.14144999 20.43243549 -12.62793961
53.07959562 7.151406073 -4.41981202
45.19700847 13.02682259 -14.86066758
53.59662682 23.45892741 -4.832804826
48.7729004 6.701907966 -11.10909364
43.7563738 -18.96524789 -11.7211678
50.971049 -6.867321897 -4.244238344
43.45321685 -12.52422153 -14.28731309
47.13030652 -20.62865715 -4.249737088
47.52541661 -6.530490611 -10.82495195
47.14144999 20.43243549 12.62793961
53.07959562 7.151406073 4.41981202
45.19700847 13.02682259 14.86066758
53.59662682 23.45892741 4.832804826
48.7729004 6.701907966 11.10909364
54.72123578 15.12457759 0
43.7563738 -18.96524789 11.7211678
50.971049 -6.867321897 4.244238344
43.45321685 -12.52422153 14.28731309
47.13030652 -20.62865715 4.249737088
47.52541661 -6.530490611 10.82495195
49.94806629 -13.80530599 0
-32.55533954 41.44986132 -4.287868153
-38.03872643 30.42613308 -11.88747713
-29.34264111 40.71484342 -10.94203123
-37.37534901 5.669434189 -20.93370486
-38.9071256 17.68586887 -17.29052524
-20.91505962 34.91761283 -21.58027153
-33.36066708 28.37827842 -17.53874061
-25.21440167 38.27443967 -16.91082259
-31.98481287 34.69699774 -14.62384548
-42.36739746 -53.94269494 -5.580215623
-43.49766734 -34.79259006 -13.59345
-36.12735083 -50.12907416 -13.47208656
-37.86087725 -5.743083546 -21.20564627
-40.91590598 -18.59899278 -18.18323749
-23.87888672 -39.86571094 -24.63836435
-36.87469259 -31.36748706 -19.38617315
-29.69071618 -45.06930365 -19.91300213
-37.11614674 -40.26344831 -16.96995374
-4.952110184 -18.28507212 -32.64644059
-14.60961644 -14.28303826 -32.13968089
-8.557351596 -22.94777738 -31.84154962
-4.73954695 -12.89611026 -33.27463974
-32.07216043 -3.317772145 -25.18995334
-23.66247441 -9.244918594 -29.58280595
-33.59363577 -9.028221179 -24.21048234
-17.59314583 -33.46415198 -28.46630793
-18.98465804 -18.39945592 -30.71782198
-12.85999407 -28.12697277 -30.51202816
-24.43818463 -30.77900925 -26.86016412
-13.95989711 -20.81450804 -31.59557949
-4.550396231 -2.812299533 -33.77422417
-14.09252116 -8.709657063 -32.51408193
-4.622806909 -7.662772318 -33.64231531
-9.546870026 -10.89082629 -33.12319351
-35.96743396 -22.22909667 -21.54388472
-24.59843232 -15.20266724 -28.91719149
-34.90294197 -15.42119139 -22.99332938
-30.68662218 -26.77953996 -24.36483035
-29.10734597 -12.26795855 -26.83209138
-24.6097419 -22.39068286 -28.20025486
-4.851723345 17.91440578 -31.98464737
-14.05169715 13.7375905 -30.91231479
-8.209033759 22.01371266 -30.54547343
-4.673660178 12.71683509 -32.81207261
-31.80822896 3.290469199 -24.98265762
-23.00013156 8.986141527 -28.75474547
-32.85861908 8.830686941 -23.68076568
-27.80122648 0 -27.47389197
-15.94646444 30.33197784 -25.80192147
-17.95142016 17.3980676 -29.04600797
-12.00260735 26.25172363 -28.47776535
-22.12510848 27.86577353 -24.31784741
-13.218024 19.70835922 -29.91649043
-4.536853202 2.803929481 -33.67370429
-13.76518834 8.507354257 -31.7588639
-4.585092424 7.600256726 -33.36784947
-9.200111231 0 -33.28631513
-9.337570463 10.65206267 -32.39702149
-33.83534664 20.91139424 -20.26680047
-23.4765055 14.50927834 -27.59828742
-33.56586277 14.83042875 -22.11248952
-28.27736806 24.6770369 -22.45190987
-28.12188519 11.8526135 -25.92366181
-22.94228507 20.87358052 -26.28951935
-19.28324645 -5.809369328 -31.20094818
-18.94107493 5.706284987 -30.64730302
-23.52861853 -3.078093896 -29.59683891
-14.22151112 -2.929792414 -32.49189577
-23.30719416 3.049126407 -29.31830741
-14.10761537 2.906328599 -32.23167807
-32.55533954 41.44986132 4.287868153
-38.03872643 30.42613308 11.88747713
-29.34264111 40.71484342 10.94203123
-37.3103992 37.75492964 0
-37.37534901 5.669434189 20.93370486
-38.9071256 17.68586887 17.29052524
-20.91505962 34.91761283 21.58027153
-33.36066708 28.37827842 17.53874061
-25.21440167 38.27443967 16.91082259
-31.98481287 34.69699774 14.62384548
-42.98206534 26.56437729 -8.002919995
-42.98206534 26.56437729 8.002919995
-40.95245096 32.55599692 -4.259086239
-40.95245096 32.55599692 4.259086239
-42.36739746 -53.94269494 5.580215623
-43.49766734 -34.79259006 13.59345
-36.12735083 -50.12907416 13.47208656
-48.70790993 -49.28823469 0
-37.86087725 -5.743083546 21.20564627
-40.91590598 -18.59899278 18.18323749
-23.87888672 -39.86571094 24.63836435
-36.87469259 -31.36748706 19.38617315
-29.69071618 -45.06930365 19.91300213
-37.11614674 -40.26344831 16.96995374
-49.43513254 -30.55259215 -9.204429976
-49.43513254 -30.55259215 9.204429976
-50.65271988 -40.26742609 -5.26792163
-50.65271988 -40.26742609 5.26792163
-4.952110184 -18.28507212 32.64644059
-14.60961644 -14.28303826 32.13968089
-8.557351596 -22.94777738 31.84154962
-4.73954695 -12.89611026 33.27463974
-32.07216043 -3.317772145 25.18995334
-23.66247441 -9.244918594 29.58280595
-33.59363577 -9.028221179 24.21048234
-17.59314583 -33.46415198 28.46630793
-18.98465804 -18.39945592 30.71782198
-12.85999407 -28.12697277 30.51202816
-24.43818463 -30.77900925 26.86016412
-13.95989711 -20.81450804 31.59557949
-4.550396231 -2.812299533 33.77422417
-14.09252116 -8.709657063 32.51408193
-4.622806909 -7.662772318 33.64231531
-9.546870026 -10.89082629 33.12319351
-35.96743396 -22.22909667 21.54388472
-24.59843232 -15.20266724 28.91719149
-34.90294197 -15.42119139 22.99332938
-30.68662218 -26.77953996 24.36483035
-29.10734597 -12.26795855 26.83209138
-24.6097419 -22.39068286 28.20025486
-4.851723345 17.91440578 31.98464737
-14.05169715 13.7375905 30.91231479
-8.209033759 22.01371266 30.54547343
-4.673660178 12.71683509 32.81207261
-31.80822896 3.290469199 24.98265762
-23.00013156 8.986141527 28.75474547
-32.85861908 8.830686941 23.68076568
-27.80122648 0 27.47389197
-15.94646444 30.33197784 25.80192147
-17.95142016 17.3980676 29.04600797
-12.00260735 26.25172363 28.47776535
-22.12510848 27.86577353 24.31784741
-13.218024 19.70835922 29.91649043
-4.536853202 2.803929481 33.67370429
-13.76518834 8.507354257 31.7588639
-4.585092424 7.600256726 33.36784947
-9.200111231 0 33.28631513
-9.337570463 10.65206267 32.39702149
-33.83534664 20.91139424 20.26680047
-23.4765055 14.50927834 27.59828742
-33.56586277 14.83042875 22.11248952
-28.27736806 24.6770369 22.45190987
-28.12188519 11.8526135 25.92366181
-22.94228507 20.87358052 26.28951935
-19.28324645 -5.809369328 31.20094818
-18.94107493 5.706284987 30.64730302
-23.52861853 -3.078093896 29.59683891
-14.22151112 -2.929792414 32.49189577
-23.30719416 3.049126407 29.31830741
-14.10761537 2.906328599 32.23167807
-41.31295815 0 -18.21094196
-50.93442659 0 -7.094348251
-42.53525013 6.058602487 -16.48520555
-43.21638283 -6.155621131 -16.74918925
-41.31295815 0 18.21094196
-50.93442659 0 7.094348251
-42.53525013 6.058602487 16.48520555
-43.21638283 -6.155621131 16.74918925
-43.7563738 18.96524789 -11.7211678
-50.971049 6.867321897 -4.244238344
-43.45321685 12.52422153 -14.28731309
-47.13030652 20.62865715 -4.249737088
-47.52541661 6.530490611 -10.82495195
-47.14144999 -20.43243549 -12.62793961
-53.07959562 -7.151406073 -4.41981202
-45.19700847 -13.02682259 -14.86066758
-53.59662682 -23.45892741 -4.832804826
-48.7729004 -6.701907966 -11.10909364
-43.7563738 18.96524789 11.7211678
-50.971049 6.867321897 4.244238344
-43.45321685 12.52422153 14.28731309
-47.13030652 20.62865715 4.249737088
-47.52541661 6.530490611 10.82495195
-49.94806629 13.80530599 0
-47.14144999 -20.43243549 12.62793961
-53.07959562 -7.151406073 4.41981202
-45.19700847 -13.02682259 14.86066758
-53.59662682 -23.45892741 4.832804826
-48.7729004 -6.701907966 11.10909364
-54.72123578 -15.12457759 0
-24.78968008 47.1118641 0
-18.152519 50.35596475 0
-3.845914823 55.49064142 0
-11.18429612 53.10060418 0
31.80516124 60.44452487 0
21.8881175 60.71869547 0
3.99323084 57.61618518 0
12.52369995 59.45980211 0
-31.80516124 -60.44452487 0
-21.8881175 -60.71869547 0
-3.99323084 -57.61618518 0
-12.52369995 -59.45980211 0
24.78968008 -47.1118641 0
18.152519 -50.35596475 0
3.845914823 -55.49064142 0
11.18429612 -53.10060418 0
-34.76398339 -59.03980224 4.515116618
-29.66690399 -55.81051149 12.63434154
-29.9938495 -60.1356341 4.432549848
-18.63477536 -45.02843398 24.07106138
-24.10652041 -50.85712035 19.17685953
-20.17599357 -60.26462027 4.206330327
-25.32436316 -57.13036686 12.51795018
-25.03894276 -60.47306829 4.328492579
-27.75657169 -58.93525859 8.658158832
-1.580718316 -22.2502391 31.86326884
-5.038643536 -27.29617648 30.97480128
-13.53214701 -38.84600329 27.42653284
-8.992229726 -32.83966464 29.59373051
-2.358340717 -56.99788218 3.815875437
-7.108421892 -56.3191095 11.50166823
-6.454851234 -57.98739258 3.900884771
-14.84589505 -46.08115884 24.02116278
-11.50435371 -52.82922415 18.61443533
-17.4042548 -49.20024836 21.83066072
-15.26820993 -59.67398276 4.109385867
-11.38581201 -57.06491045 11.77511833
-10.77758093 -58.89896572 3.99694078
-18.10315145 -59.18185363 8.277641634
-8.950973536 -57.84811518 7.870557844
-22.63732783 -54.7778943 16.13470377
-13.75288412 -55.38005805 15.62813528
-20.03527907 -52.14452581 19.18797692
-20.64737303 -57.62427218 12.38984892
-15.76321342 -52.76197276 18.98438066
-15.93432992 -57.53728753 12.12933074
26.85731114 -45.61187136 3.488204746
23.90571158 -44.97233656 10.18080366
23.65865816 -47.43400511 3.496322859
16.28396026 -39.34800477 21.03444766
20.26058843 -42.74342239 16.11740109
16.94865769 -50.62473956 3.533489075
20.72497171 -46.75439336 10.24444965
20.33261642 -49.10653428 3.514907962
22.28091545 -47.30885098 6.950127236
1.567856066 -22.06918967 31.60399852
4.887488851 -26.47731622 30.04558565
0 -24.53746412 31.24140308
12.28883263 -35.27688789 24.9066221
8.464813296 -30.91353739 27.85798529
-3.435047665 -29.86942697 30.2253028
3.356845647 -29.189422 29.53719599
-1.669615737 -27.14972103 30.78552184
1.652300754 -26.86816105 30.46625628
2.305943922 -55.73152303 3.731095642
6.642983802 -52.63150357 10.74857358
6.077226073 -54.59498312 3.672673123
0 -55.73371264 7.508994866
13.18111258 -40.91373005 21.32748816
10.35015666 -47.52902769 16.74690527
15.13762711 -42.79269764 18.98756398
13.32528122 -52.08027695 3.586453327
10.24797618 -51.36215514 10.59837736
9.766768102 -53.37492183 3.622073819
15.45007839 -50.50856921 7.064527549
8.235521226 -53.2243089 7.24146328
-4.586680718 -54.06330585 14.94273023
4.384982238 -51.68588146 14.28562629
-2.326551218 -55.20724717 11.30074248
2.274092533 -53.96244345 11.04593524
18.913029 -45.76582144 13.48021828
12.14290521 -48.8970015 13.79863043
17.0745293 -44.43877375 16.35243877
17.33968376 -48.3929193 10.40500706
13.75408114 -46.03708873 16.56468799
13.8279698 -49.9314297 10.52595371
-11.92424742 -42.25017966 26.11204706
-3.861206996 -41.73402312 25.79304477
-9.608537619 -39.03839482 27.49541389
-10.50926747 -46.04645729 24.08326611
10.85049266 -38.44563505 23.76070918
3.730873542 -40.32530834 24.92241116
8.920051492 -36.24115404 25.52526903
9.594426406 -42.03807232 21.98679643
-5.391691002 -32.8720345 29.48892722
-1.914345129 -38.47607129 27.03639827
-7.419580988 -35.87888353 28.60936527
-1.782368298 -32.57814174 29.24830204
-5.701367759 -38.88601054 27.345729
-6.839517361 -52.08329363 18.51021099
-2.098238132 -44.95094409 23.58473501
-8.793030872 -49.41590623 21.52493383
-2.244140206 -51.16274745 18.15547564
-6.213887473 -45.62753607 23.9142814
5.188267683 -31.63180424 28.37633834
1.883357126 -37.85324911 26.59875306
7.019383883 -33.94364954 27.06623431
1.759060987 -32.15213054 28.86583381
5.440553253 -37.10713289 26.09477254
0 -35.27098793 28.03940051
6.402766981 -48.75741593 17.32820629
2.056685368 -44.06075154 23.11767129
8.104659947 -45.54733423 19.83983357
2.194341373 -50.02741503 17.75259462
5.869347732 -43.0976384 22.5883127
0 -47.7447163 20.89758069
-26.85731114 45.61187136 3.488204746
-23.90571158 44.97233656 10.18080366
-23.65865816 47.43400511 3.496322859
-16.28396026 39.34800477 21.03444766
-20.26058843 42.74342239 16.11740109
-16.94865769 50.62473956 3.533489075
-20.72497171 46.75439336 10.24444965
-20.33261642 49.10653428 3.514907962
-22.28091545 47.30885098 6.950127236
-1.567856066 22.06918967 31.60399852
-4.887488851 26.47731622 30.04558565
-12.28883263 35.27688789 24.9066221
-8.464813296 30.91353739 27.85798529
-2.305943922 55.73152303 3.731095642
-6.642983802 52.63150357 10.74857358
-6.077226073 54.59498312 3.672673123
-13.18111258 40.91373005 21.32748816
-10.35015666 47.52902769 16.74690527
-15.13762711 42.79269764 18.98756398
-13.32528122 52.08027695 3.586453327
-10.24797618 51.36215514 10.59837736
-9.766768102 53.37492183 3.622073819
-15.45007839 50.50856921 7.064527549
-8.235521226 53.2243089 7.24146328
-18.913029 45.76582144 13.48021828
-12.14290521 48.8970015 13.79863043
-17.0745293 44.43877375 16.35243877
-17.33968376 48.3929193 10.40500706
-13.75408114 46.03708873 16.56468799
-13.8279698 49.9314297 10.52595371
34.76398339 59.03980224 4.515116618
29.66690399 55.81051149 12.63434154
29.9938495 60.1356341 4.432549848
18.63477536 45.02843398 24.07106138
24.10652041 50.85712035 19.17685953
20.17599357 60.26462027 4.206330327
25.32436316 57.13036686 12.51795018
25.03894276 60.47306829 4.328492579
27.75657169 58.93525859 8.658158832
1.580718316 22.2502391 31.86326884
5.038643536 27.29617648 30.97480128
0 24.53746412 31.24140308
13.53214701 38.84600329 27.42653284
8.992229726 32.83966464 29.59373051
-3.356845647 29.189422 29.53719599
3.435047665 29.86942697 30.2253028
-1.652300754 26.86816105 30.46625628
1.669615737 27.14972103 30.78552184
2.358340717 56.99788218 3.815875437
7.108421892 56.3191095 11.50166823
6.454851234 57.98739258 3.900884771
0 55.73371264 7.508994866
14.84589505 46.08115884 24.02116278
11.50435371 52.82922415 18.61443533
17.4042548 49.20024836 21.83066072
15.26820993 59.67398276 4.109385867
11.38581201 57.06491045 11.77511833
10.77758093 58.89896572 3.99694078
18.10315145 59.18185363 8.277641634
8.950973536 57.84811518 7.870557844
-4.384982238 51.68588146 14.28562629
4.586680718 54.06330585 14.94273023
-2.274092533 53.96244345 11.04593524
2.326551218 55.20724717 11.30074248
22.63732783 54.7778943 16.13470377
13.75288412 55.38005805 15.62813528
20.03527907 52.14452581 19.18797692
20.64737303 57.62427218 12.38984892
15.76321342 52.76197276 18.98438066
15.93432992 57.53728753 12.12933074
-10.85049266 38.44563505 23.76070918
-3.730873542 40.32530834 24.92241116
-8.920051492 36.24115404 25.52526903
-9.594426406 42.03807232 21.98679643
11.92424742 42.25017966 26.11204706
3.861206996 41.73402312 25.79304477
9.608537619 39.03839482 27.49541389
10.50926747 46.04645729 24.08326611
-5.188267683 31.63180424 28.37633834
-1.883357126 37.85324911 26.59875306
-7.019383883 33.94364954 27.06623431
-1.759060987 32.15213054 28.86583381
-5.440553253 37.10713289 26.09477254
-6.402766981 48.75741593 17.32820629
-2.056685368 44.06075154 23.11767129
-8.104659947 45.54733423 19.83983357
-2.194341373 50.02741503 17.75259462
-5.869347732 43.0976384 22.5883127
5.391691002 32.8720345 29.48892722
1.914345129 38.47607129 27.03639827
7.419580988 35.87888353 28.60936527
1.782368298 32.57814174 29.24830204
5.701367759 38.88601054 27.345729
0 35.27098793 28.03940051
6.839517361 52.08329363 18.51021099
2.098238132 44.95094409 23.58473501
8.793030872 49.41590623 21.52493383
2.244140206 51.16274745 18.15547564
6.213887473 45.62753607 23.9142814
0 47.7447163 20.89758069
0 -17.16875482 32.62857937
0 -11.99958546 33.28742983
0 -2.348340714 33.88294814
0 -7.096154814 33.69099887
0 17.16875482 32.62857937
0 11.99958546 33.28742983
0 2.348340714 33.88294814
0 7.096154814 33.69099887
-34.76398339 -59.03980224 -4.515116618
-29.66690399 -55.81051149 -12.63434154
-29.9938495 -60.1356341 -4.432549848
-18.63477536 -45.02843398 -24.07106138
-24.10652041 -50.85712035 -19.17685953
-20.17599357 -60.26462027 -4.206330327
-25.32436316 -57.13036686 -12.51795018
-25.03894276 -60.47306829 -4.328492579
-27.75657169 -58.93525859 -8.658158832
-1.580718316 -22.2502391 -31.86326884
-5.038643536 -27.29617648 -30.97480128
-13.53214701 -38.84600329 -27.42653284
-8.992229726 -32.83966464 -29.59373051
-2.358340717 -56.99788218 -3.815875437
-7.108421892 -56.3191095 -11.50166823
-6.454851234 -57.98739258 -3.900884771
-14.84589505 -46.08115884 -24.02116278
-11.50435371 -52.82922415 -18.61443533
-17.4042548 -49.20024836 -21.83066072
-15.26820993 -59.67398276 -4.109385867
-11.38581201 -57.06491045 -11.77511833
-10.77758093 -58.89896572 -3.99694078
-18.10315145 -59.18185363 -8.277641634
-8.950973536 -57.84811518 -7.870557844
-22.63732783 -54.7778943 -16.13470377
-13.75288412 -55.38005805 -15.62813528
-20.03527907 -52.14452581 -19.18797692
-20.64737303 -57.62427218 -12.38984892
-15.76321342 -52.76197276 -18.98438066
-15.93432992 -57.53728753 -12.12933074
26.85731114 -45.61187136 -3.488204746
23.90571158 -44.97233656 -10.18080366
23.65865816 -47.43400511 -3.496322859
16.28396026 -39.34800477 -21.03444766
20.26058843 -42.74342239 -16.11740109
16.94865769 -50.62473956 -3.533489075
20.72497171 -46.75439336 -10.24444965
20.33261642 -49.10653428 -3.514907962
22.28091545 -47.30885098 -6.950127236
1.567856066 -22.06918967 -31.60399852
4.887488851 -26.47731622 -30.04558565
0 -24.53746412 -31.24140308
12.28883263 -35.27688789 -24.9066221
8.464813296 -30.91353739 -27.85798529
-3.435047665 -29.86942697 -30.2253028
3.356845647 -29.189422 -29.53719599
-1.669615737 -27.14972103 -30.78552184
1.652300754 -26.86816105 -30.46625628
2.305943922 -55.73152303 -3.731095642
6.642983802 -52.63150357 -10.74857358
6.077226073 -54.59498312 -3.672673123
0 -55.73371264 -7.508994866
13.18111258 -40.91373005 -21.32748816
10.35015666 -47.52902769 -16.74690527
15.13762711 -42.79269764 -18.98756398
13.32528122 -52.08027695 -3.586453327
10.24797618 -51.36215514 -10.59837736
9.766768102 -53.37492183 -3.622073819
15.45007839 -50.50856921 -7.064527549
8.235521226 -53.2243089 -7.24146328
-4.586680718 -54.06330585 -14.94273023
4.384982238 -51.68588146 -14.28562629
-2.326551218 -55.20724717 -11.30074248
2.274092533 -53.96244345 -11.04593524
18.913029 -45.76582144 -13.48021828
12.14290521 -48.8970015 -13.79863043
17.0745293 -44.43877375 -16.35243877
17.33968376 -48.3929193 -10.40500706
13.75408114 -46.03708873 -16.56468799
13.8279698 -49.9314297 -10.52595371
-11.92424742 -42.25017966 -26.11204706
-3.861206996 -41.73402312 -25.79304477
-9.608537619 -39.03839482 -27.49541389
-10.50926747 -46.04645729 -24.08326611
10.85049266 -38.44563505 -23.76070918
3.730873542 -40.32530834 -24.92241116
8.920051492 -36.24115404 -25.52526903
9.594426406 -42.03807232 -21.98679643
-5.391691002 -32.8720345 -29.48892722
-1.914345129 -38.47607129 -27.03639827
-7.419580988 -35.87888353 -28.60936527
-1.782368298 -32.57814174 -29.24830204
-5.701367759 -38.88601054 -27.345729
-6.839517361 -52.08329363 -18.51021099
-2.098238132 -44.95094409 -23.58473501
-8.793030872 -49.41590623 -21.52493383
-2.244140206 -51.16274745 -18.15547564
-6.213887473 -45.62753607 -23.9142814
5.188267683 -31.63180424 -28.37633834
1.883357126 -37.85324911 -26.59875306
7.019383883 -33.94364954 -27.06623431
1.759060987 -32.15213054 -28.86583381
5.440553253 -37.10713289 -26.09477254
0 -35.27098793 -28.03940051
6.402766981 -48.75741593 -17.32820629
2.056685368 -44.06075154 -23.11767129
8.104659947 -45.54733423 -19.83983357
2.194341373 -50.02741503 -17.75259462
5.869347732 -43.0976384 -22.5883127
0 -47.7447163 -20.89758069
-26.85731114 45.61187136 -3.488204746
-23.90571158 44.97233656 -10.18080366
-23.65865816 47.43400511 -3.496322859
-16.28396026 39.34800477 -21.03444766
-20.26058843 42.74342239 -16.11740109
-16.94865769 50.62473956 -3.533489075
-20.72497171 46.75439336 -10.24444965
-20.33261642 49.10653428 -3.514907962
-22.28091545 47.30885098 -6.950127236
-1.567856066 22.06918967 -31.60399852
-4.887488851 26.47731622 -30.04558565
-12.28883263 35.27688789 -24.9066221
-8.464813296 30.91353739 -27.85798529
-2.305943922 55.73152303 -3.731095642
-6.642983802 52.63150357 -10.74857358
-6.077226073 54.59498312 -3.672673123
-13.18111258 40.91373005 -21.32748816
-10.35015666 47.52902769 -16.74690527
-15.13762711 42.79269764 -18.98756398
-13.32528122 52.08027695 -3.586453327
-10.24797618 51.36215514 -10.59837736
-9.766768102 53.37492183 -3.622073819
-15.45007839 50.50856921 -7.064527549
-8.235521226 53.2243089 -7.24146328
-18.913029 45.76582144 -13.48021828
-12.14290521 48.8970015 -13.79863043
-17.0745293 44.43877375 -16.35243877
-17.33968376 48.3929193 -10.40500706
-13.75408114 46.03708873 -16.56468799
-13.8279698 49.9314297 -10.52595371
34.76398339 59.03980224 -4.515116618
29.66690399 55.81051149 -12.63434154
29.9938495 60.1356341 -4.432549848
18.63477536 45.02843398 -24.07106138
24.10652041 50.85712035 -19.17685953
20.17599357 60.26462027 -4.206330327
25.32436316 57.13036686 -12.51795018
25.03894276 60.47306829 -4.328492579
27.75657169 58.93525859 -8.658158832
1.580718316 22.2502391 -31.86326884
5.038643536 27.29617648 -30.97480128
0 24.53746412 -31.24140308
13.53214701 38.84600329 -27.42653284
8.992229726 32.83966464 -29.59373051
-3.356845647 29.189422 -29.53719599
3.435047665 29.86942697 -30.2253028
-1.652300754 26.86816105 -30.46625628
1.669615737 27.14972103 -30.78552184
2.358340717 56.99788218 -3.815875437
7.108421892 56.3191095 -11.50166823
6.454851234 57.98739258 -3.900884771
0 55.73371264 -7.508994866
14.84589505 46.08115884 -24.02116278
11.50435371 52.82922415 -18.61443533
17.4042548 49.20024836 -21.83066072
15.26820993 59.67398276 -4.109385867
11.38581201 57.06491045 -11.77511833
10.77758093 58.89896572 -3.99694078
18.10315145 59.18185363 -8.277641634
8.950973536 57.84811518 -7.870557844
-4.384982238 51.68588146 -14.28562629
4.586680718 54.06330585 -14.94273023
-2.274092533 53.96244345 -11.04593524
2.326551218 55.20724717 -11.30074248
22.63732783 54.7778943 -16.13470377
13.75288412 55.38005805 -15.62813528
20.03527907 52.14452581 -19.18797692
20.64737303 57.62427218 -12.38984892
15.76321342 52.76197276 -18.98438066
15.93432992 57.53728753 -12.12933074
-10.85049266 38.44563505 -23.76070918
-3.730873542 40.32530834 -24.92241116
-8.920051492 36.24115404 -25.52526903
-9.594426406 42.03807232 -21.98679643
11.92424742 42.25017966 -26.11204706
3.861206996 41.73402312 -25.79304477
9.608537619 39.03839482 -27.49541389
10.50926747 46.04645729 -24.08326611
-5.188267683 31.63180424 -28.37633834
-1.883357126 37.85324911 -26.59875306
-7.019383883 33.94364954 -27.06623431
-1.759060987 32.15213054 -28.86583381
-5.440553253 37.10713289 -26.09477254
-6.402766981 48.75741593 -17.32820629
-2.056685368 44.06075154 -23.11767129
-8.104659947 45.54733423 -19.83983357
-2.194341373 50.02741503 -17.75259462
-5.869347732 43.0976384 -22.5883127
5.391691002 32.8720345 -29.48892722
1.914345129 38.47607129 -27.03639827
7.419580988 35.87888353 -28.60936527
1.782368298 32.57814174 -29.24830204
5.701367759 38.88601054 -27.345729
0 35.27098793 -28.03940051
6.839517361 52.08329363 -18.51021099
2.098238132 44.95094409 -23.58473501
8.793030872 49.41590623 -21.52493383
2.244140206 51.16274745 -18.15547564
6.213887473 45.62753607 -23.9142814
0 47.7447163 -20.89758069
0 -17.16875482 -32.62857937
0 -11.99958546 -33.28742983
0 -2.348340714 -33.88294814
0 -7.096154814 -33.69099887
0 17.16875482 -32.62857937
0 11.99958546 -33.28742983
0 2.348340714 -33.88294814
0 7.096154814 -33.69099887
39.99211907 57.2703797 -2.841150373
43.63779047 49.51872614 -8.055167398
37.5629912 56.29828387 -7.248650871
42.93595356 30.31416981 -14.95689611
43.91298657 39.57254451 -12.02435127
31.66510324 52.14775504 -14.89831462
40.25234384 47.56005991 -11.88909167
34.66096446 54.42231344 -11.30168168
39.36181723 52.28235831 -9.753755673
37.01883672 2.831045473 -21.79753617
38.66608928 8.753200154 -20.55353244
41.62073997 22.24939439 -17.22451951
40.1893331 15.15432234 -19.04993778
20.03946294 41.15409754 -25.43463106
27.47745961 38.14244968 -23.57333032
22.78967388 44.03412351 -23.42233363
39.65383883 28.80948247 -17.80523937
33.94280009 33.80649021 -20.89355999
40.08623629 33.04584385 -16.65067494
28.57423115 49.51169918 -18.22850758
30.39585045 40.52138028 -21.24250083
25.65570206 46.85032534 -21.00932976
32.86297767 47.63347655 -16.89961012
26.74304459 42.49136115 -22.45557545
40.50513016 42.41273332 -13.79050568
33.90099961 38.16343607 -19.79749388
40.40225529 37.61706367 -15.31798864
36.85089755 45.20573674 -15.39236869
37.06986827 35.68211761 -18.27475869
33.54741272 42.83800609 -18.51491687
30.38250188 -43.50900775 -2.158456679
34.43201866 -39.07231975 -6.355859707
29.10587293 -43.62300882 -5.616653638
38.60175168 -27.25408331 -13.44706107
37.17413556 -33.49977418 -10.17910416
25.79607049 -42.48232368 -12.1369563
32.75211769 -38.69818576 -9.673795174
27.55306909 -43.26197455 -8.984055147
31.09275153 -41.29896664 -7.704702756
36.7858902 -2.813230699 -21.66037194
37.89494424 -8.578628922 -20.14361887
38.99399888 -20.84520507 -16.13745683
38.67836184 -14.5845755 -18.33373011
17.62568137 -36.19702846 -22.37099388
24.14339388 -33.51431316 -20.71298464
19.70381926 -38.07164662 -20.25081319
36.20973927 -26.30726002 -16.25878084
30.38382161 -30.26180413 -18.70282351
35.78859806 -29.50300484 -14.86555906
23.81097153 -41.25821106 -15.18985665
26.37081594 -35.15551778 -18.42955769
21.79041011 -39.79184823 -17.84406096
27.35899396 -39.65568823 -14.069216
23.08257637 -36.67533386 -19.38195681
34.11352443 -35.7201127 -11.61439922
29.68831163 -33.4210789 -17.33736983
35.10018359 -32.68049844 -13.30777725
30.82197663 -37.80993826 -12.87412952
32.79330508 -31.56565219 -16.16649222
28.65561574 -36.59147881 -15.81511957
2.455867239 -18.9088644 -32.11299472
7.198964796 -16.90400697 -31.80046276
4.055433966 -21.0155287 -31.49744369
2.400141128 -16.24109694 -32.56229792
16.30017631 -12.618892 -30.49185915
11.78994315 -14.8207012 -31.26698387
7.465969233 -25.27718424 -29.86619616
8.886192717 -18.88684841 -31.10385389
5.736345409 -23.14933725 -30.74812166
6.505760241 -19.9524222 -31.32795039
2.319445464 -11.12540222 -33.23098502
7.067994992 -14.29886439 -32.25744959
2.357281735 -13.63611959 -32.93341891
4.765321375 -15.27680272 -32.43708656
33.97619763 -1.685539489 -23.72570512
29.62601094 -4.819237005 -26.10757099
34.58797686 -4.453353662 -23.07757504
20.77304863 -10.2493432 -29.42223576
25.21969645 -7.663153654 -27.98587266
35.59924403 -10.17049991 -21.61653434
30.1328542 -7.532628566 -25.50286964
35.13159681 -7.295649504 -22.37492219
32.35974396 -6.037008399 -24.36267928
15.18542245 -33.81927543 -24.57052965
16.58372662 -26.9412258 -26.83303333
13.18631087 -31.74583463 -26.17027667
18.40884599 -32.66135119 -23.85281855
18.27181882 -14.39601916 -29.56442388
17.57071844 -20.48071697 -28.43001965
15.98209148 -15.55039983 -30.04642498
9.359214613 -27.4896523 -28.78428702
14.58610972 -24.97708564 -28.1175016
11.22933559 -29.61814987 -27.57637715
10.07607773 -24.1231558 -29.59236011
13.94731953 -28.29177155 -27.23263844
24.70855225 -29.9504002 -22.20482423
19.58961595 -25.7597488 -26.13710218
21.60433605 -31.36721496 -23.06309596
19.05913118 -29.14853414 -25.10189962
11.34096623 -17.77761503 -30.8039759
15.14334055 -21.66857463 -28.88685593
13.65941679 -16.68030021 -30.46018735
10.73582121 -20.87687527 -30.26013524
15.59718939 -18.57517891 -29.51364167
12.64807435 -22.91720635 -29.26387895
2.266073513 -1.400510452 -33.84842961
6.817124463 -4.213214624 -33.38075586
2.272056734 -3.759605595 -33.77455463
16.13464041 -9.971756172 -30.95199572
11.42606735 -7.06169798 -32.42807329
13.91933794 -11.0970395 -31.37032327
2.305147249 -8.56465498 -33.47393545
6.850634652 -6.624140503 -33.19973879
2.283522377 -6.157421033 -33.65001225
4.632731343 -10.13175501 -33.12219112
4.564171612 -5.190709492 -33.54638011
9.430279861 -13.23088045 -32.01613619
9.231273019 -8.123594137 -32.71205595
11.67393689 -12.18943427 -31.72465267
7.016996734 -11.69364938 -32.63553353
11.5538866 -9.593485485 -32.11091587
6.945958782 -9.124922157 -32.94919037
36.42661107 -22.51288374 -17.7374737
31.2097897 -19.28871081 -22.483237
36.41402051 -19.3690999 -18.84592189
33.71040029 -24.61894662 -19.00011924
20.98580751 -12.96994232 -28.88520575
26.01367256 -16.07733382 -26.11856131
23.25913457 -11.71948554 -28.21447588
20.72638059 -15.99596071 -28.38036075
35.97863845 -13.2460993 -20.76402039
31.10195199 -16.30455913 -23.3301599
36.25706563 -16.25894041 -19.85472815
33.24951911 -11.7964077 -22.93929151
33.7516034 -17.83684156 -21.24245047
27.89198046 -28.30056881 -21.21112242
28.50106101 -21.13030363 -23.51287297
30.83931929 -26.55795635 -20.16467206
25.23316191 -26.33995848 -23.44232745
31.1016496 -22.86783606 -21.4214265
27.79984883 -9.03912441 -26.54949132
28.38970112 -14.72731473 -25.21888346
25.54390768 -10.40169672 -27.43519505
30.50553195 -10.38700901 -24.86755694
25.80980193 -13.21860735 -26.81359801
30.83109129 -13.32543562 -24.14452582
20.05066403 -22.31149748 -27.04481719
25.79248103 -19.33132427 -25.4201031
20.41677297 -19.12539518 -27.76805455
22.59423995 -24.32028629 -25.3870416
23.24937099 -17.65256089 -26.99736252
25.58654391 -22.77179523 -24.51140558
2.483042164 19.11809679 -32.46833486
7.404495937 17.38661801 -32.70836904
4.137931675 21.44303731 -32.13818077
2.422445481 16.39202438 -32.86489719
16.94019867 13.11436965 -31.68911439
12.23944825 15.38575743 -32.45907349
7.800417961 26.40951172 -31.20409496
9.231571263 19.6209212 -32.3127635
5.917966607 23.88227958 -31.72165277
6.705794394 20.56590406 -32.29119831
2.333714229 11.19384347 -33.4354154
7.235010483 14.63674406 -33.01968751
2.375348643 13.74063086 -33.18583043
4.84776047 15.54108831 -32.9982416
34.111184 1.692236085 -23.81996661
30.01353557 4.882275293 -26.44907247
34.95009785 4.499978327 -23.31918715
31.97679966 0 -25.11505556
21.46742115 10.59194396 -30.40572126
25.81498576 7.844035827 -28.6464552
36.48223024 10.422764 -22.15270027
30.74819223 7.686451128 -26.02365952
35.74080403 7.422161327 -22.76291947
32.85091226 6.128640371 -24.73246513
27.64695304 -3.142023163 -27.32143497
27.89514059 3.170229201 -27.56670033
29.80872995 -1.616640604 -26.28828924
29.93742875 1.623620429 -26.40178858
16.91703264 37.6757241 -27.37233381
18.10316103 29.40963513 -29.29152985
14.44238932 34.76982361 -28.66315894
20.66298302 36.66068722 -26.77356228
19.132143 15.07385225 -30.95645766
18.77444381 21.88379896 -30.37768821
16.75920385 16.30652164 -31.50740076
9.925574092 29.15314927 -30.52612695
15.72227366 26.92263963 -30.30767375
12.09582935 31.90358713 -29.70426428
10.64284924 25.48006451 -31.25690729
15.16198944 30.75569757 -29.60432473
27.57605376 33.42623387 -24.7817606
21.40514776 28.14711788 -28.55944373
24.25135733 35.21041038 -25.88884842
21.10294403 32.27428778 -27.79371095
11.84950372 18.57477672 -32.18524946
16.17213382 23.14067281 -30.84934255
14.3143062 17.48002337 -31.92057577
11.28213865 21.93924405 -31.79999321
16.50573208 19.65719071 -31.23282343
13.45857973 24.38577132 -31.13914713
2.267781203 1.401565862 -33.87393743
6.862144652 4.241038631 -33.60120188
2.276672082 3.767242679 -33.84316265
4.548106779 0 -33.75723126
16.627148 10.2761426 -31.89680095
11.62356326 7.183757168 -32.98858215
14.35845587 11.44712145 -32.35997315
2.315991162 8.604944974 -33.6314041
6.9224387 6.693570581 -33.54771759
2.29116666 6.178033516 -33.76265849
4.684188 10.24429041 -33.49008581
4.589622664 5.219654289 -33.73344377
9.165020735 -2.813209049 -33.15935653
9.217296156 2.829255023 -33.34849078
6.86108314 -1.412532084 -33.51828548
6.876271715 1.415659047 -33.59248587
9.696894415 13.60494626 -32.9213021
9.386486623 8.260183351 -33.26207284
12.03399688 12.56539378 -32.70313819
7.15104804 11.91704252 -33.25899625
11.82976039 9.822550496 -32.87763276
7.048034437 9.259019182 -33.43340145
39.0413428 24.12887682 -19.01068396
33.02146675 20.40838881 -23.78835199
38.46880988 20.46206959 -19.90936942
36.46075989 26.62755392 -20.55029841
21.88648183 13.52658966 -30.12490848
27.35627567 16.90710817 -27.46657788
24.14323238 12.16495231 -29.28693007
21.84339772 16.85803897 -29.90987764
37.19310916 13.69322571 -21.46491669
32.56271509 17.07033417 -24.42590581
37.84979902 16.97317795 -20.72692473
34.26535535 12.15681046 -23.64013063
35.45193734 18.73542367 -22.31259991
30.82215676 31.27366913 -23.43944494
30.45847422 22.58150348 -25.12770436
33.71130063 29.03122609 -22.04255274
27.66220292 28.87554397 -25.69897586
33.3930758 24.55263282 -22.99965847
28.53446333 9.277984411 -27.25106497
29.64933559 15.38075709 -26.3378306
26.36925269 10.73778423 -28.32164914
31.37320392 10.68244777 -25.57486742
26.88402111 13.76877358 -27.92959577
31.97871155 13.82144595 -25.04325324
21.6222331 24.06027046 -29.1645873
27.45087989 20.5742852 -27.0545589
21.75914042 20.38285678 -29.59375603
24.57629163 26.45375325 -27.61408834
24.63628123 18.70560088 -28.60785419
27.60867774 24.57147624 -26.44857
18.76146092 -8.567551266 -30.35668144
19.08174138 -2.856527949 -30.87490611
20.96316662 -7.325780797 -29.76381365
16.3501533 -7.134752126 -31.26098561
19.27563747 8.802353555 -31.18863658
19.25262389 2.882108983 -31.15139982
21.4571627 7.498412492 -30.46519657
16.70503414 7.289612256 -31.93950677
25.36618227 -4.637897326 -28.27630902
21.24828938 -1.504511025 -30.23889087
23.17926811 -6.011334237 -29.06902173
25.554222 -1.557253994 -28.46350073
21.12184763 -4.403737823 -30.03556385
11.60293634 -4.287281467 -32.64787963
16.63371616 -1.479834203 -31.70276219
13.95051279 -5.698846307 -32.02691527
11.65006937 -1.440027768 -32.83029144
16.51602523 -4.291524407 -31.5119457
25.72285778 4.703111097 -28.67390401
21.3488007 1.511627851 -30.38193066
23.61893248 6.125357228 -29.62040295
25.67322269 1.564505802 -28.59604933
21.41741257 4.465360771 -30.45586135
23.44258682 0 -29.48861894
11.72496234 4.332370038 -32.99123153
16.70748655 1.486397255 -31.84336366
14.17217858 5.789397762 -32.5358049
11.69095696 1.445081752 -32.94551407
16.73010618 4.347151205 -31.92040398
14.1788723 0 -32.39447884
39.99211907 57.2703797 2.841150373
43.63779047 49.51872614 8.055167398
37.5629912 56.29828387 7.248650871
43.4751339 55.35307869 0
42.93595356 30.31416981 14.95689611
43.91298657 39.57254451 12.02435127
31.66510324 52.14775504 14.89831462
40.25234384 47.56005991 11.88909167
34.66096446 54.42231344 11.30168168
39.36181723 52.28235831 9.753755673
47.24570002 47.80860345 -5.433356044
47.24570002 47.80860345 5.433356044
45.97448139 52.13123181 -2.827274636
45.97448139 52.13123181 2.827274636
37.01883672 2.831045473 21.79753617
38.66608928 8.753200154 20.55353244
41.62073997 22.24939439 17.22451951
40.1893331 15.15432234 19.04993778
20.03946294 41.15409754 25.43463106
27.47745961 38.14244968 23.57333032
22.78967388 44.03412351 23.42233363
39.65383883 28.80948247 17.80523937
33.94280009 33.80649021 20.89355999
40.08623629 33.04584385 16.65067494
28.57423115 49.51169918 18.22850758
30.39585045 40.52138028 21.24250083
25.65570206 46.85032534 21.00932976
32.86297767 47.63347655 16.89961012
26.74304459 42.49136115 22.45557545
40.50513016 42.41273332 13.79050568
33.90099961 38.16343607 19.79749388
40.40225529 37.61706367 15.31798864
36.85089755 45.20573674 15.39236869
37.06986827 35.68211761 18.27475869
33.54741272 42.83800609 18.51491687
45.78566241 28.29709557 -12.92206497
52.72623857 32.58660753 -4.878200231
46.55782878 32.79148075 -11.45929927
45.78566241 28.29709557 12.92206497
52.72623857 32.58660753 4.878200231
46.55782878 32.79148075 11.45929927
47.54795521 42.65443901 -7.798844402
52.98535016 37.2317906 -2.636242307
47.20284653 37.63894931 -9.76132221
50.2968465 45.15596284 -2.751768513
50.24606934 35.33443973 -7.36695063
47.54795521 42.65443901 7.798844402
52.98535016 37.2317906 2.636242307
47.20284653 37.63894931 9.76132221
50.2968465 45.15596284 2.751768513
50.24606934 35.33443973 7.36695063
52.293253 41.57160179 0
30.38250188 -43.50900775 2.158456679
34.43201866 -39.07231975 6.355859707
29.10587293 -43.62300882 5.616653638
32.83837406 -41.81022438 0
38.60175168 -27.25408331 13.44706107
37.17413556 -33.49977418 10.17910416
25.79607049 -42.48232368 12.1369563
32.75211769 -38.69818576 9.673795174
27.55306909 -43.26197455 8.984055147
31.09275153 -41.29896664 7.704702756
36.966565 -37.40699886 -4.251233642
36.966565 -37.40699886 4.251233642
35.06615525 -39.76209873 -2.156449585
35.06615525 -39.76209873 2.156449585
36.7858902 -2.813230699 21.66037194
37.89494424 -8.578628922 20.14361887
38.99399888 -20.84520507 16.13745683
38.67836184 -14.5845755 18.33373011
17.62568137 -36.19702846 22.37099388
24.14339388 -33.51431316 20.71298464
19.70381926 -38.07164662 20.25081319
36.20973927 -26.30726002 16.25878084
30.38382161 -30.26180413 18.70282351
35.78859806 -29.50300484 14.86555906
23.81097153 -41.25821106 15.18985665
26.37081594 -35.15551778 18.42955769
21.79041011 -39.79184823 17.84406096
27.35899396 -39.65568823 14.069216
23.08257637 -36.67533386 19.38195681
34.11352443 -35.7201127 11.61439922
29.68831163 -33.4210789 17.33736983
35.10018359 -32.68049844 13.30777725
30.82197663 -37.80993826 12.87412952
32.79330508 -31.56565219 16.16649222
28.65561574 -36.59147881 15.81511957
41.14854105 -25.43119695 -11.61333249
44.2022439 -27.31848911 -4.089565314
40.62572221 -28.61339592 -9.999227222
41.14854105 -25.43119695 11.61333249
44.2022439 -27.31848911 4.089565314
40.62572221 -28.61339592 9.999227222
38.5977627 -34.62537784 -6.330828407
42.98017594 -30.20134634 -2.138443133
39.78042809 -31.72040727 -8.226401685
39.32790504 -35.30816626 -2.151651611
42.15401691 -29.64388238 -6.180514525
38.5977627 -34.62537784 6.330828407
42.98017594 -30.20134634 2.138443133
39.78042809 -31.72040727 8.226401685
39.32790504 -35.30816626 2.151651611
42.15401691 -29.64388238 6.180514525
41.36274799 -32.88217102 0
2.455867239 -18.9088644 32.11299472
7.198964796 -16.90400697 31.80046276
4.055433966 -21.0155287 31.49744369
2.400141128 -16.24109694 32.56229792
16.30017631 -12.618892 30.49185915
11.78994315 -14.8207012 31.26698387
7.465969233 -25.27718424 29.86619616
8.886192717 -18.88684841 31.10385389
5.736345409 -23.14933725 30.74812166
6.505760241 -19.9524222 31.32795039
2.319445464 -11.12540222 33.23098502
7.067994992 -14.29886439 32.25744959
2.357281735 -13.63611959 32.93341891
4.765321375 -15.27680272 32.43708656
33.97619763 -1.685539489 23.72570512
29.62601094 -4.819237005 26.10757099
34.58797686 -4.453353662 23.07757504
20.77304863 -10.2493432 29.42223576
25.21969645 -7.663153654 27.98587266
35.59924403 -10.17049991 21.61653434
30.1328542 -7.532628566 25.50286964
35.13159681 -7.295649504 22.37492219
32.35974396 -6.037008399 24.36267928
15.18542245 -33.81927543 24.57052965
16.58372662 -26.9412258 26.83303333
13.18631087 -31.74583463 26.17027667
18.40884599 -32.66135119 23.85281855
18.27181882 -14.39601916 29.56442388
17.57071844 -20.48071697 28.43001965
15.98209148 -15.55039983 30.04642498
9.359214613 -27.4896523 28.78428702
14.58610972 -24.97708564 28.1175016
11.22933559 -29.61814987 27.57637715
10.07607773 -24.1231558 29.59236011
13.94731953 -28.29177155 27.23263844
24.70855225 -29.9504002 22.20482423
19.58961595 -25.7597488 26.13710218
21.60433605 -31.36721496 23.06309596
19.05913118 -29.14853414 25.10189962
11.34096623 -17.77761503 30.8039759
15.14334055 -21.66857463 28.88685593
13.65941679 -16.68030021 30.46018735
10.73582121 -20.87687527 30.26013524
15.59718939 -18.57517891 29.51364167
12.64807435 -22.91720635 29.26387895
2.266073513 -1.400510452 33.84842961
6.817124463 -4.213214624 33.38075586
2.272056734 -3.759605595 33.77455463
16.13464041 -9.971756172 30.95199572
11.42606735 -7.06169798 32.42807329
13.91933794 -11.0970395 31.37032327
2.305147249 -8.56465498 33.47393545
6.850634652 -6.624140503 33.19973879
2.283522377 -6.157421033 33.65001225
4.632731343 -10.13175501 33.12219112
4.564171612 -5.190709492 33.54638011
9.430279861 -13.23088045 32.01613619
9.231273019 -8.123594137 32.71205595
11.67393689 -12.18943427 31.72465267
7.016996734 -11.69364938 32.63553353
11.5538866 -9.593485485 32.11091587
6.945958782 -9.124922157 32.94919037
36.42661107 -22.51288374 17.7374737
31.2097897 -19.28871081 22.483237
36.41402051 -19.3690999 18.84592189
33.71040029 -24.61894662 19.00011924
20.98580751 -12.96994232 28.88520575
26.01367256 -16.07733382 26.11856131
23.25913457 -11.71948554 28.21447588
20.72638059 -15.99596071 28.38036075
35.97863845 -13.2460993 20.76402039
31.10195199 -16.30455913 23.3301599
36.25706563 -16.25894041 19.85472815
33.24951911 -11.7964077 22.93929151
33.7516034 -17.83684156 21.24245047
27.89198046 -28.30056881 21.21112242
28.50106101 -21.13030363 23.51287297
30.83931929 -26.55795635 20.16467206
25.23316191 -26.33995848 23.44232745
31.1016496 -22.86783606 21.4214265
27.79984883 -9.03912441 26.54949132
28.38970112 -14.72731473 25.21888346
25.54390768 -10.40169672 27.43519505
30.50553195 -10.38700901 24.86755694
25.80980193 -13.21860735 26.81359801
30.83109129 -13.32543562 24.14452582
20.05066403 -22.31149748 27.04481719
25.79248103 -19.33132427 25.4201031
20.41677297 -19.12539518 27.76805455
22.59423995 -24.32028629 25.3870416
23.24937099 -17.65256089 26.99736252
25.58654391 -22.77179523 24.51140558
2.483042164 19.11809679 32.46833486
7.404495937 17.38661801 32.70836904
4.137931675 21.44303731 32.13818077
2.422445481 16.39202438 32.86489719
16.94019867 13.11436965 31.68911439
12.23944825 15.38575743 32.45907349
7.800417961 26.40951172 31.20409496
9.231571263 19.6209212 32.3127635
5.917966607 23.88227958 31.72165277
6.705794394 20.56590406 32.29119831
2.333714229 11.19384347 33.4354154
7.235010483 14.63674406 33.01968751
2.375348643 13.74063086 33.18583043
4.84776047 15.54108831 32.9982416
34.111184 1.692236085 23.81996661
30.01353557 4.882275293 26.44907247
34.95009785 4.499978327 23.31918715
31.97679966 0 25.11505556
21.46742115 10.59194396 30.40572126
25.81498576 7.844035827 28.6464552
36.48223024 10.422764 22.15270027
30.74819223 7.686451128 26.02365952
35.74080403 7.422161327 22.76291947
32.85091226 6.128640371 24.73246513
27.64695304 -3.142023163 27.32143497
27.89514059 3.170229201 27.56670033
29.80872995 -1.616640604 26.28828924
29.93742875 1.623620429 26.40178858
16.91703264 37.6757241 27.37233381
18.10316103 29.40963513 29.29152985
14.44238932 34.76982361 28.66315894
20.66298302 36.66068722 26.77356228
19.132143 15.07385225 30.95645766
18.77444381 21.88379896 30.37768821
16.75920385 16.30652164 31.50740076
9.925574092 29.15314927 30.52612695
15.72227366 26.92263963 30.30767375
12.09582935 31.90358713 29.70426428
10.64284924 25.48006451 31.25690729
15.16198944 30.75569757 29.60432473
27.57605376 33.42623387 24.7817606
21.40514776 28.14711788 28.55944373
24.25135733 35.21041038 25.88884842
21.10294403 32.27428778 27.79371095
11.84950372 18.57477672 32.18524946
16.17213382 23.14067281 30.84934255
14.3143062 17.48002337 31.92057577
11.28213865 21.93924405 31.79999321
16.50573208 19.65719071 31.23282343
13.45857973 24.38577132 31.13914713
2.267781203 1.401565862 33.87393743
6.862144652 4.241038631 33.60120188
2.276672082 3.767242679 33.84316265
4.548106779 0 33.75723126
16.627148 10.2761426 31.89680095
11.62356326 7.183757168 32.98858215
14.35845587 11.44712145 32.35997315
2.315991162 8.604944974 33.6314041
6.9224387 6.693570581 33.54771759
2.29116666 6.178033516 33.76265849
4.684188 10.24429041 33.49008581
4.589622664 5.219654289 33.73344377
9.165020735 -2.813209049 33.15935653
9.217296156 2.829255023 33.34849078
6.86108314 -1.412532084 33.51828548
6.876271715 1.415659047 33.59248587
9.696894415 13.60494626 32.9213021
9.386486623 8.260183351 33.26207284
12.03399688 12.56539378 32.70313819
7.15104804 11.91704252 33.25899625
11.82976039 9.822550496 32.87763276
7.048034437 9.259019182 33.43340145
39.0413428 24.12887682 19.01068396
33.02146675 20.40838881 23.78835199
38.46880988 20.46206959 19.90936942
36.46075989 26.62755392 20.55029841
21.88648183 13.52658966 30.12490848
27.35627567 16.90710817 27.46657788
24.14323238 12.16495231 29.28693007
21.84339772 16.85803897 29.90987764
37.19310916 13.69322571 21.46491669
32.56271509 17.07033417 24.42590581
37.84979902 16.97317795 20.72692473
34.26535535 12.15681046 23.64013063
35.45193734 18.73542367 22.31259991
30.82215676 31.27366913 23.43944494
30.45847422 22.58150348 25.12770436
33.71130063 29.03122609 22.04255274
27.66220292 28.87554397 25.69897586
33.3930758 24.55263282 22.99965847
28.53446333 9.277984411 27.25106497
29.64933559 15.38075709 26.3378306
26.36925269 10.73778423 28.32164914
31.37320392 10.68244777 25.57486742
26.88402111 13.76877358 27.92959577
31.97871155 13.82144595 25.04325324
21.6222331 24.06027046 29.1645873
27.45087989 20.5742852 27.0545589
21.75914042 20.38285678 29.59375603
24.57629163 26.45375325 27.61408834
24.63628123 18.70560088 28.60785419
27.60867774 24.57147624 26.44857
18.76146092 -8.567551266 30.35668144
19.08174138 -2.856527949 30.87490611
20.96316662 -7.325780797 29.76381365
16.3501533 -7.134752126 31.26098561
19.27563747 8.802353555 31.18863658
19.25262389 2.882108983 31.15139982
21.4571627 7.498412492 30.46519657
16.70503414 7.289612256 31.93950677
25.36618227 -4.637897326 28.27630902
21.24828938 -1.504511025 30.23889087
23.17926811 -6.011334237 29.06902173
25.554222 -1.557253994 28.46350073
21.12184763 -4.403737823 30.03556385
11.60293634 -4.287281467 32.64787963
