-6.217740 -7.831019 -6.833958
-3.429899 -5.114054 -7.762927
-1.162355 -0.718375 -8.627300
-3.680357 -2.274586 -8.491273
-1.167923 -1.935951 -8.499519
-2.417507 -2.757831 -8.387624
-11.294290 -6.980255 -6.765089
-6.868119 -4.244731 -8.073958
-11.242502 -4.967283 -7.406326
-8.688703 -7.582440 -6.898732
-8.742999 -3.684937 -8.059579
-6.594478 -5.999855 -7.556600
-1.158362 4.277111 -7.636417
-3.488678 3.410693 -7.674739
-1.920401 5.149834 -7.145734
-1.147618 3.122621 -8.057010
-9.639180 0.997145 -7.570756
-6.142098 2.399715 -7.678846
-9.599702 2.579900 -6.918376
-8.190434 0.000000 -8.093999
-3.614811 6.875778 -5.848886
-4.414182 4.278115 -7.142296
-2.758018 6.032249 -6.543760
-5.170109 6.511566 -5.682500
-3.159683 4.711156 -7.151344
-1.156430 0.714713 -8.583326
-3.515023 2.172403 -8.109814
-1.152531 1.910437 -8.387501
-2.376880 0.000000 -8.599634
-2.330501 2.658576 -8.085752
-8.865362 5.479095 -5.310202
-6.043942 3.735362 -7.105081
-9.305790 4.111584 -6.130460
-6.929516 6.047236 -5.501957
-7.636977 3.218779 -7.040012
-5.626607 5.119256 -6.447518
-5.260568 -1.584825 -8.511777
-5.025726 1.514076 -8.131795
-6.675480 -0.873309 -8.397140
-3.755558 -0.773688 -8.580326
-6.467047 0.846041 -8.134951
-3.691755 0.760543 -8.434554
-7.382454 9.399431 0.972344
-9.434575 7.546457 2.948398
-6.597414 9.154346 2.460212
-8.760841 8.865221 0.000000
-11.928779 1.809466 6.681236
-11.027911 5.012917 4.900860
-4.693983 7.836586 4.843277
-8.177634 6.956311 4.299236
-5.646486 8.571137 3.786991
-7.461713 8.094436 3.411586
-11.454789 7.079449 -2.132791
-11.454789 7.079449 2.132791
-10.162267 8.078704 -1.056884
-10.162267 8.078704 1.056884
-11.764109 -14.978209 1.549452
-13.645525 -10.914681 4.264361
-9.729841 -13.500793 3.628311
-14.141191 -14.309675 0.000000
-13.059692 -1.981013 7.314654
-13.923605 -6.329202 6.187721
-5.769807 -9.632671 5.953318
-11.065621 -9.412980 5.817541
-7.538520 -11.443168 5.055943
-10.597890 -11.496548 4.845484
-16.494723 -10.194300 -3.071187
-16.494723 -10.194300 3.071187
-15.784394 -12.548130 -1.641589
-15.784394 -12.548130 1.641589
-1.190032 -4.394051 7.845205
-3.737443 -3.653897 8.221997
-2.024400 -5.428721 7.532708
-1.171466 -3.187509 8.224436
-10.120052 -1.046890 7.948440
-6.693350 -2.615089 8.368021
-10.875162 -2.922678 7.837583
-4.130692 -7.857043 6.683600
-4.909840 -4.758494 7.944288
-3.012231 -6.588257 7.146915
-6.217740 -7.831019 6.833958
-3.429899 -5.114054 7.762927
-1.162355 -0.718375 8.627300
-3.680357 -2.274586 8.491273
-1.167923 -1.935951 8.499519
-2.417507 -2.757831 8.387624
-11.294290 -6.980255 6.765089
-6.868119 -4.244731 8.073958
-11.242502 -4.967283 7.406326
-8.688703 -7.582440 6.898732
-8.742999 -3.684937 8.059579
-6.594478 -5.999855 7.556600
-1.158362 4.277111 7.636417
-3.488678 3.410693 7.674739
-1.920401 5.149834 7.145734
-1.147618 3.122621 8.057010
-9.639180 0.997145 7.570756
-6.142098 2.399715 7.678846
-9.599702 2.579900 6.918376
-8.190434 0.000000 8.093999
-3.614811 6.875778 5.848886
-4.414182 4.278115 7.142296
-2.758018 6.032249 6.543760
-5.170109 6.511566 5.682500
-3.159683 4.711156 7.151344
-1.156430 0.714713 8.583326
-3.515023 2.172403 8.109814
-1.152531 1.910437 8.387501
-2.376880 0.000000 8.599634
-2.330501 2.658576 8.085752
-8.865362 5.479095 5.310202
-6.043942 3.735362 7.105081
-9.305790 4.111584 6.130460
-6.929516 6.047236 5.501957
-7.636977 3.218779 7.040012
-5.626607 5.119256 6.447518
-5.260568 -1.584825 8.511777
-5.025726 1.514076 8.131795
-6.675480 -0.873309 8.397140
-3.755558 -0.773688 8.580326
-6.467047 0.846041 8.134951
-3.691755 0.760543 8.434554
-14.661522 0.000000 -6.462866
-20.238070 0.000000 -2.818838
-14.544520 2.071681 -5.636958
-15.916489 -2.267100 -6.168686
-14.661522 0.000000 6.462866
-20.238070 0.000000 2.818838
-14.544520 2.071681 5.636958
-15.916489 -2.267100 6.168686
-12.856284 5.572276 -3.443856
-19.427295 2.617437 -1.617665
-13.860732 3.994983 -4.557375
-14.047999 6.148726 -1.266707
-17.353812 2.384596 -3.952710
-16.632938 -7.209185 -4.455521
-21.088979 -2.841315 -1.756029
-16.471605 -4.747497 -5.415824
-19.249657 -8.425462 -1.735740
-18.805050 -2.584011 -4.283261
-12.856284 5.572276 3.443856
-19.427295 2.617437 1.617665
-13.860732 3.994983 4.557375
-14.047999 6.148726 1.266707
-17.353812 2.384596 3.952710
-17.047636 4.711851 0.000000
-16.632938 -7.209185 4.455521
-21.088979 -2.841315 1.756029
-16.471605 -4.747497 5.415824
-19.249657 -8.425462 1.735740
-18.805050 -2.584011 4.283261
-21.026368 -5.811545 0.000000
-5.472760 10.400777 0.000000
-3.996224 11.085717 0.000000
-0.867654 12.518910 0.000000
-2.481927 11.783651 0.000000
8.264587 15.706539 0.000000
5.430734 15.065119 0.000000
0.922797 13.314542 0.000000
2.986838 14.180858 0.000000
-8.264587 -15.706539 0.000000
-5.430734 -15.065119 0.000000
-0.922797 -13.314542 0.000000
-2.986838 -14.180858 0.000000
5.472760 -10.400777 0.000000
3.996224 -11.085717 0.000000
0.867654 -12.518910 0.000000
2.481927 -11.783651 0.000000
-9.147110 -15.534570 1.188019
-7.428314 -13.974427 3.163520
-7.689586 -15.417098 1.136382
-4.222705 -10.203601 5.454587
-5.685434 -11.994464 4.522792
-4.937157 -14.747027 1.029308
-6.140371 -13.852337 3.035214
-6.263836 -15.128171 1.082832
-6.941526 -14.738874 2.165283
-0.369368 -5.199239 7.445527
-1.152523 -6.243641 7.085078
-3.025839 -8.686112 6.132675
-2.022995 -7.387987 6.657744
-0.539721 -13.044328 0.873287
-1.600471 -12.680326 2.589616
-1.497230 -13.450420 0.904827
-3.280112 -10.181359 5.307334
-2.529045 -11.613644 4.092080
-3.894377 -11.009051 4.884830
-3.659922 -14.304369 0.985055
-2.594838 -13.005148 2.683561
-2.538938 -13.875174 0.941583
-4.318182 -14.116770 1.974483
-2.064827 -13.344510 1.815595
-5.311562 -12.852939 3.785804
-3.092040 -12.451016 3.513650
-4.575629 -11.908695 4.382124
-4.875040 -13.605635 2.925360
-3.517981 -11.775241 4.236871
-3.686804 -13.312683 2.806423
5.950987 -10.106583 0.772909
5.257483 -9.890577 2.239021
5.212109 -10.449926 0.770256
3.560635 -8.603796 4.599372
4.429259 -9.344332 3.523498
3.727808 -11.134765 0.777181
4.530559 -10.220691 2.239476
4.469051 -10.793475 0.772567
4.891635 -10.386361 1.525857
0.365794 -5.148922 7.373471
1.113666 -6.033135 6.846203
0.000000 -5.653849 7.198551
2.707688 -7.772815 5.487858
1.891687 -6.908450 6.225606
-0.773251 -6.723799 6.803909
0.754370 -6.559619 6.637773
-0.380077 -6.180458 7.008124
0.375742 -6.109956 6.928181
0.520584 -12.581812 0.842323
1.455552 -11.532147 2.355132
1.359045 -12.209027 0.821317
0.000000 -12.528423 1.687953
2.856853 -8.867577 4.622486
2.226988 -10.226569 3.603343
3.278834 -9.268967 4.112737
2.940829 -11.493882 0.791514
2.236828 -11.210831 2.313311
2.167496 -11.845263 0.803831
3.385551 -11.067861 1.548038
1.819282 -11.757609 1.599688
-1.007548 -11.875992 3.282443
0.951584 -11.216336 3.100119
-0.517651 -12.283465 2.514385
0.501449 -11.898989 2.435684
4.116054 -9.960044 2.933708
2.627362 -10.579850 2.985611
3.703960 -9.640056 3.547317
3.778545 -10.545452 2.267388
2.968058 -9.934560 3.574572
3.012009 -10.876067 2.292764
-2.618721 -9.278693 5.734548
-0.831633 -8.988743 5.555348
-2.112347 -8.582226 6.044610
-2.280738 -9.993074 5.226588
2.360241 -8.362842 5.168521
0.803360 -8.683156 5.366486
1.950687 -7.925418 5.582008
2.066019 -9.052280 4.734533
-1.201056 -7.322594 6.568971
-0.415121 -8.343431 5.862769
-1.639618 -7.928706 6.322249
-0.395328 -7.225809 6.487253
-1.241346 -8.466566 5.953926
-1.485419 -11.311549 4.020083
-0.448857 -9.615945 5.045267
-1.900955 -10.683167 4.653450
-0.484073 -11.036079 3.916234
-1.335041 -9.802979 5.137932
1.153166 -7.030620 6.307046
0.408405 -8.208455 5.767924
1.546286 -7.477381 5.962368
0.389986 -7.128166 6.399590
1.183341 -8.070945 5.675714
0.000000 -7.724608 6.140837
1.375362 -10.473455 3.722227
0.439789 -9.421677 4.943339
1.737062 -9.762105 4.252248
0.471720 -10.754451 3.816296
1.258083 -9.237897 4.841762
0.000000 -10.207812 4.467899
-5.950987 10.106583 0.772909
-5.257483 9.890577 2.239021
-5.212109 10.449926 0.770256
-3.560635 8.603796 4.599372
-4.429259 9.344332 3.523498
-3.727808 11.134765 0.777181
-4.530559 10.220691 2.239476
-4.469051 10.793475 0.772567
-4.891635 10.386361 1.525857
-0.365794 5.148922 7.373471
-1.113666 6.033135 6.846203
-2.707688 7.772815 5.487858
-1.891687 6.908450 6.225606
-0.520584 12.581812 0.842323
-1.455552 11.532147 2.355132
-1.359045 12.209027 0.821317
-2.856853 8.867577 4.622486
-2.226988 10.226569 3.603343
-3.278834 9.268967 4.112737
-2.940829 11.493882 0.791514
-2.236828 11.210831 2.313311
-2.167496 11.845263 0.803831
-3.385551 11.067861 1.548038
-1.819282 11.757609 1.599688
-4.116054 9.960044 2.933708
-2.627362 10.579850 2.985611
-3.703960 9.640056 3.547317
-3.778545 10.545452 2.267388
-2.968058 9.934560 3.574572
-3.012009 10.876067 2.292764
9.147110 15.534570 1.188019
7.428314 13.974427 3.163520
7.689586 15.417098 1.136382
4.222705 10.203601 5.454587
5.685434 11.994464 4.522792
4.937157 14.747027 1.029308
6.140371 13.852337 3.035214
6.263836 15.128171 1.082832
6.941526 14.738874 2.165283
0.369368 5.199239 7.445527
1.152523 6.243641 7.085078
0.000000 5.653849 7.198551
3.025839 8.686112 6.132675
2.022995 7.387987 6.657744
-0.754370 6.559619 6.637773
0.773251 6.723799 6.803909
-0.375742 6.109956 6.928181
0.380077 6.180458 7.008124
0.539721 13.044328 0.873287
1.600471 12.680326 2.589616
1.497230 13.450420 0.904827
0.000000 12.528423 1.687953
3.280112 10.181359 5.307334
2.529045 11.613644 4.092080
3.894377 11.009051 4.884830
3.659922 14.304369 0.985055
2.594838 13.005148 2.683561
2.538938 13.875174 0.941583
4.318182 14.116770 1.974483
2.064827 13.344510 1.815595
-0.951584 11.216336 3.100119
1.007548 11.875992 3.282443
-0.501449 11.898989 2.435684
0.517651 12.283465 2.514385
5.311562 12.852939 3.785804
3.092040 12.451016 3.513650
4.575629 11.908695 4.382124
4.875040 13.605635 2.925360
3.517981 11.775241 4.236871
3.686804 13.312683 2.806423
-2.360241 8.362842 5.168521
-0.803360 8.683156 5.366486
-1.950687 7.925418 5.582008
-2.066019 9.052280 4.734533
2.618721 9.278693 5.734548
0.831633 8.988743 5.555348
2.112347 8.582226 6.044610
2.280738 9.993074 5.226588
-1.153166 7.030620 6.307046
-0.408405 8.208455 5.767924
-1.546286 7.477381 5.962368
-0.389986 7.128166 6.399590
-1.183341 8.070945 5.675714
-1.375362 10.473455 3.722227
-0.439789 9.421677 4.943339
-1.737062 9.762105 4.252248
-0.471720 10.754451 3.816296
-1.258083 9.237897 4.841762
1.201056 7.322594 6.568971
0.415121 8.343431 5.862769
1.639618 7.928706 6.322249
0.395328 7.225809 6.487253
1.241346 8.466566 5.953926
0.000000 7.724608 6.140837
1.485419 11.311549 4.020083
0.448857 9.615945 5.045267
1.900955 10.683167 4.653450
0.484073 11.036079 3.916234
1.335041 9.802979 5.137932
0.000000 10.207812 4.467899
0.000000 -4.119591 7.829128
0.000000 -2.958210 8.206219
0.000000 -0.597660 8.623322
0.000000 -1.785774 8.478465
0.000000 4.119591 7.829128
0.000000 2.958210 8.206219
0.000000 0.597660 8.623322
0.000000 1.785774 8.478465
-9.147110 -15.534570 -1.188019
-7.428314 -13.974427 -3.163520
-7.689586 -15.417098 -1.136382
-4.222705 -10.203601 -5.454587
-5.685434 -11.994464 -4.522792
-4.937157 -14.747027 -1.029308
-6.140371 -13.852337 -3.035214
-6.263836 -15.128171 -1.082832
-6.941526 -14.738874 -2.165283
-0.369368 -5.199239 -7.445527
-1.152523 -6.243641 -7.085078
-3.025839 -8.686112 -6.132675
-2.022995 -7.387987 -6.657744
-0.539721 -13.044328 -0.873287
-1.600471 -12.680326 -2.589616
-1.497230 -13.450420 -0.904827
-3.280112 -10.181359 -5.307334
-2.529045 -11.613644 -4.092080
-3.894377 -11.009051 -4.884830
-3.659922 -14.304369 -0.985055
-2.594838 -13.005148 -2.683561
-2.538938 -13.875174 -0.941583
-4.318182 -14.116770 -1.974483
-2.064827 -13.344510 -1.815595
-5.311562 -12.852939 -3.785804
-3.092040 -12.451016 -3.513650
-4.575629 -11.908695 -4.382124
-4.875040 -13.605635 -2.925360
-3.517981 -11.775241 -4.236871
-3.686804 -13.312683 -2.806423
5.950987 -10.106583 -0.772909
5.257483 -9.890577 -2.239021
5.212109 -10.449926 -0.770256
3.560635 -8.603796 -4.599372
4.429259 -9.344332 -3.523498
3.727808 -11.134765 -0.777181
4.530559 -10.220691 -2.239476
4.469051 -10.793475 -0.772567
4.891635 -10.386361 -1.525857
0.365794 -5.148922 -7.373471
1.113666 -6.033135 -6.846203
0.000000 -5.653849 -7.198551
2.707688 -7.772815 -5.487858
1.891687 -6.908450 -6.225606
-0.773251 -6.723799 -6.803909
0.754370 -6.559619 -6.637773
-0.380077 -6.180458 -7.008124
0.375742 -6.109956 -6.928181
0.520584 -12.581812 -0.842323
1.455552 -11.532147 -2.355132
1.359045 -12.209027 -0.821317
0.000000 -12.528423 -1.687953
2.856853 -8.867577 -4.622486
2.226988 -10.226569 -3.603343
3.278834 -9.268967 -4.112737
2.940829 -11.493882 -0.791514
2.236828 -11.210831 -2.313311
2.167496 -11.845263 -0.803831
3.385551 -11.067861 -1.548038
1.819282 -11.757609 -1.599688
-1.007548 -11.875992 -3.282443
0.951584 -11.216336 -3.100119
-0.517651 -12.283465 -2.514385
0.501449 -11.898989 -2.435684
4.116054 -9.960044 -2.933708
2.627362 -10.579850 -2.985611
3.703960 -9.640056 -3.547317
3.778545 -10.545452 -2.267388
2.968058 -9.934560 -3.574572
3.012009 -10.876067 -2.292764
-2.618721 -9.278693 -5.734548
-0.831633 -8.988743 -5.555348
-2.112347 -8.582226 -6.044610
-2.280738 -9.993074 -5.226588
2.360241 -8.362842 -5.168521
0.803360 -8.683156 -5.366486
1.950687 -7.925418 -5.582008
2.066019 -9.052280 -4.734533
-1.201056 -7.322594 -6.568971
-0.415121 -8.343431 -5.862769
-1.639618 -7.928706 -6.322249
-0.395328 -7.225809 -6.487253
-1.241346 -8.466566 -5.953926
-1.485419 -11.311549 -4.020083
-0.448857 -9.615945 -5.045267
-1.900955 -10.683167 -4.653450
-0.484073 -11.036079 -3.916234
-1.335041 -9.802979 -5.137932
1.153166 -7.030620 -6.307046
0.408405 -8.208455 -5.767924
1.546286 -7.477381 -5.962368
0.389986 -7.128166 -6.399590
1.183341 -8.070945 -5.675714
0.000000 -7.724608 -6.140837
1.375362 -10.473455 -3.722227
0.439789 -9.421677 -4.943339
1.737062 -9.762105 -4.252248
0.471720 -10.754451 -3.816296
1.258083 -9.237897 -4.841762
0.000000 -10.207812 -4.467899
-5.950987 10.106583 -0.772909
-5.257483 9.890577 -2.239021
-5.212109 10.449926 -0.770256
-3.560635 8.603796 -4.599372
-4.429259 9.344332 -3.523498
-3.727808 11.134765 -0.777181
-4.530559 10.220691 -2.239476
-4.469051 10.793475 -0.772567
-4.891635 10.386361 -1.525857
-0.365794 5.148922 -7.373471
-1.113666 6.033135 -6.846203
-2.707688 7.772815 -5.487858
-1.891687 6.908450 -6.225606
-0.520584 12.581812 -0.842323
-1.455552 11.532147 -2.355132
-1.359045 12.209027 -0.821317
-2.856853 8.867577 -4.622486
-2.226988 10.226569 -3.603343
-3.278834 9.268967 -4.112737
-2.940829 11.493882 -0.791514
-2.236828 11.210831 -2.313311
-2.167496 11.845263 -0.803831
-3.385551 11.067861 -1.548038
-1.819282 11.757609 -1.599688
-4.116054 9.960044 -2.933708
-2.627362 10.579850 -2.985611
-3.703960 9.640056 -3.547317
-3.778545 10.545452 -2.267388
-2.968058 9.934560 -3.574572
-3.012009 10.876067 -2.292764
9.147110 15.534570 -1.188019
7.428314 13.974427 -3.163520
7.689586 15.417098 -1.136382
4.222705 10.203601 -5.454587
5.685434 11.994464 -4.522792
4.937157 14.747027 -1.029308
6.140371 13.852337 -3.035214
6.263836 15.128171 -1.082832
6.941526 14.738874 -2.165283
0.369368 5.199239 -7.445527
1.152523 6.243641 -7.085078
0.000000 5.653849 -7.198551
3.025839 8.686112 -6.132675
2.022995 7.387987 -6.657744
-0.754370 6.559619 -6.637773
0.773251 6.723799 -6.803909
-0.375742 6.109956 -6.928181
0.380077 6.180458 -7.008124
0.539721 13.044328 -0.873287
1.600471 12.680326 -2.589616
1.497230 13.450420 -0.904827
0.000000 12.528423 -1.687953
3.280112 10.181359 -5.307334
2.529045 11.613644 -4.092080
3.894377 11.009051 -4.884830
3.659922 14.304369 -0.985055
2.594838 13.005148 -2.683561
2.538938 13.875174 -0.941583
4.318182 14.116770 -1.974483
2.064827 13.344510 -1.815595
-0.951584 11.216336 -3.100119
1.007548 11.875992 -3.282443
-0.501449 11.898989 -2.435684
0.517651 12.283465 -2.514385
5.311562 12.852939 -3.785804
3.092040 12.451016 -3.513650
4.575629 11.908695 -4.382124
4.875040 13.605635 -2.925360
3.517981 11.775241 -4.236871
3.686804 13.312683 -2.806423
-2.360241 8.362842 -5.168521
-0.803360 8.683156 -5.366486
-1.950687 7.925418 -5.582008
-2.066019 9.052280 -4.734533
2.618721 9.278693 -5.734548
0.831633 8.988743 -5.555348
2.112347 8.582226 -6.044610
2.280738 9.993074 -5.226588
-1.153166 7.030620 -6.307046
-0.408405 8.208455 -5.767924
-1.546286 7.477381 -5.962368
-0.389986 7.128166 -6.399590
-1.183341 8.070945 -5.675714
-1.375362 10.473455 -3.722227
-0.439789 9.421677 -4.943339
-1.737062 9.762105 -4.252248
-0.471720 10.754451 -3.816296
-1.258083 9.237897 -4.841762
1.201056 7.322594 -6.568971
0.415121 8.343431 -5.862769
1.639618 7.928706 -6.322249
0.395328 7.225809 -6.487253
1.241346 8.466566 -5.953926
0.000000 7.724608 -6.140837
1.485419 11.311549 -4.020083
0.448857 9.615945 -5.045267
1.900955 10.683167 -4.653450
0.484073 11.036079 -3.916234
1.335041 9.802979 -5.137932
0.000000 10.207812 -4.467899
0.000000 -4.119591 -7.829128
0.000000 -2.958210 -8.206219
0.000000 -0.597660 -8.623322
0.000000 -1.785774 -8.478465
0.000000 4.119591 -7.829128
0.000000 2.958210 -8.206219
0.000000 0.597660 -8.623322
0.000000 1.785774 -8.478465
10.850768 15.538751 -0.770868
12.477828 14.159428 -2.303302
10.070573 15.093473 -1.943351
13.808189 9.749027 -4.810133
13.389056 12.065656 -3.666221
8.084414 13.313838 -3.803687
11.393729 13.462233 -3.365297
9.099826 14.287934 -2.967123
10.819431 14.370915 -2.681027
12.533479 0.958508 -7.379998
13.449314 3.044646 -7.149182
13.936935 7.450333 -5.767726
13.853187 5.223666 -6.566478
4.642561 9.534209 -5.892465
6.983410 9.693923 -5.991174
5.364456 10.365182 -5.513377
12.490891 9.074938 -5.608620
9.651472 9.612713 -5.940984
12.349874 10.180851 -5.129784
7.071693 12.253401 -4.511281
7.938524 10.583021 -5.547931
6.176601 11.279199 -5.057989
8.604418 12.471735 -4.424776
6.608543 10.500151 -5.549056
11.829171 12.386270 -4.027397
9.399201 10.580980 -5.488942
12.135617 11.299030 -4.601061
10.218651 12.535424 -4.268261
10.863421 10.456737 -5.355466
9.038637 11.541790 -4.988451
6.808932 -9.750674 -0.483725
7.933327 -9.002478 -1.464425
6.496558 -9.736847 -1.253662
9.880061 -6.975642 -3.441755
8.960758 -8.075060 -2.453654
5.715313 -9.412278 -2.689034
7.508970 -8.872206 -2.217879
6.125648 -9.618080 -1.997351
7.018592 -9.322449 -1.739189
11.967485 -0.915223 -7.046728
11.799608 -2.671186 -6.272256
10.679366 -5.708919 -4.419598
11.336388 -4.274648 -5.373502
3.905362 -8.020257 -4.956791
5.504997 -7.641685 -4.722821
4.354871 -8.414465 -4.475765
9.191944 -6.678171 -4.127337
7.234797 -7.205743 -4.453394
8.820901 -7.271676 -3.663950
5.262840 -9.119131 -3.357351
6.007379 -8.008570 -4.198328
4.812035 -8.787342 -3.940552
6.134867 -8.892227 -3.154823
5.171080 -8.216201 -4.342048
7.985721 -8.361812 -2.718844
6.910199 -7.779032 -4.035416
8.416800 -7.836575 -3.191120
7.043203 -8.640039 -2.941898
7.831552 -7.538369 -3.860810
6.534001 -8.343522 -3.606135
0.582933 -4.488274 -7.622453
1.731467 -4.065685 -7.648522
0.951429 -4.930367 -7.389486
0.578163 -3.912271 -7.843838
4.105478 -3.178284 -7.679896
2.891279 -3.634520 -7.667686
1.714551 -5.804875 -6.858736
2.117612 -4.500804 -7.412161
1.330902 -5.370928 -7.133938
1.537165 -4.714311 -7.402093
0.573693 -2.751762 -8.219367
1.724479 -3.488696 -7.870306
0.575799 -3.330814 -8.044450
1.154387 -3.700768 -7.857804
10.723465 -0.531985 -7.488236
8.648243 -1.406802 -7.621161
10.757988 -1.385138 -7.177878
5.424288 -2.676323 -7.682776
6.911291 -2.100036 -7.669343
10.585491 -3.024214 -6.427710
8.650991 -2.162580 -7.321746
10.705653 -2.223204 -6.818311
9.648628 -1.800040 -7.264162
3.381671 -7.531279 -5.471658
3.832641 -6.226348 -6.201344
2.953545 -7.110612 -5.861767
4.148832 -7.360942 -5.375749
4.586922 -3.613949 -7.421796
4.231049 -4.931780 -6.845980
3.948715 -3.842056 -7.423607
2.128766 -6.252560 -6.547026
3.392164 -5.808702 -6.539041
2.533191 -6.681467 -6.220870
2.335249 -5.590823 -6.858375
3.181735 -6.454066 -6.212451
5.755923 -6.977025 -5.172673
4.596616 -6.044411 -6.132955
4.942263 -7.175644 -5.275972
4.379990 -6.698641 -5.768682
2.731029 -4.281044 -7.417934
3.594773 -5.143753 -6.857252
3.328457 -4.064570 -7.422383
2.536476 -4.932430 -7.149346
3.777407 -4.498631 -7.147764
2.963898 -5.370324 -6.857577
0.577576 -0.356962 -8.627277
1.737933 -1.074101 -8.509967
0.577015 -0.954795 -8.577436
4.125135 -2.549474 -7.913480
2.915303 -1.801756 -8.273858
3.507452 -2.796278 -7.904823
0.576637 -2.142466 -8.373573
1.733031 -1.675734 -8.398663
0.576240 -1.553807 -8.491481
1.152036 -2.519495 -8.236598
1.156764 -1.315557 -8.502147
2.322194 -3.258087 -7.883932
2.331349 -2.051606 -8.261399
2.905061 -3.033343 -7.894685
1.735674 -2.892457 -8.072490
2.914097 -2.419649 -8.098948
1.739343 -2.284979 -8.250832
9.593452 -5.929080 -4.671409
8.135992 -5.028320 -5.861092
9.895529 -5.263563 -5.121389
8.537861 -6.235261 -4.812176
5.386974 -3.329333 -7.414718
6.721102 -4.153869 -6.748202
6.103281 -3.075236 -7.403581
5.204174 -4.016416 -7.126008
10.391525 -3.825803 -5.997165
8.320932 -4.362077 -6.241688
10.165344 -4.558497 -5.566643
9.472984 -3.360866 -6.535539
9.099170 -4.808674 -5.726800
6.651182 -6.748615 -5.058050
7.185265 -5.327059 -5.927717
7.556572 -6.507508 -4.940958
6.024324 -6.288568 -5.596769
7.858186 -5.777819 -5.412367
7.706568 -2.505792 -7.359949
7.539834 -3.911331 -6.697718
6.877019 -2.800381 -7.386198
8.571378 -2.918519 -6.987233
6.811100 -3.488336 -7.075997
8.457904 -3.655571 -6.623576
4.813522 -5.356276 -6.492595
6.489908 -4.864151 -6.396210
5.011840 -4.694837 -6.816408
5.406573 -5.819598 -6.074862
5.842202 -4.435812 -6.784014
6.270258 -5.580473 -6.006783
0.591129 4.551374 -7.729615
1.800396 4.227539 -7.953007
0.975265 5.053890 -7.574619
0.585376 3.961081 -7.941699
4.430580 3.429963 -8.288046
3.070395 3.859679 -8.142701
1.805769 6.113708 -7.223637
2.231113 4.742041 -7.809443
1.381615 5.575584 -7.405773
1.598288 4.901765 -7.696421
0.578964 2.777047 -8.294892
1.784499 3.610120 -8.144231
0.582059 3.367026 -8.131908
1.182282 3.790194 -8.047681
11.013074 0.546352 -7.690471
9.232284 1.501807 -8.135841
11.537017 1.485442 -7.697657
9.930043 0.000000 -7.799203
5.906762 2.914374 -8.366136
7.512118 2.282602 -8.336071
12.271610 3.505929 -7.451554
9.563406 2.390666 -8.093966
11.963083 2.484329 -7.619154
10.537592 1.965885 -7.933437
7.992305 -0.908310 -7.898203
8.318106 0.945337 -8.220168
8.916318 -0.483566 -7.863292
9.119413 0.494580 -8.042401
3.877461 8.635448 -6.273864
4.358923 7.081323 -7.052886
3.300359 7.945562 -6.550074
4.902313 8.697784 -6.352054
5.046002 3.975649 -8.164604
4.748492 5.534920 -7.683222
4.306031 4.189721 -8.095364
2.281569 6.701367 -7.016970
3.771509 6.458289 -7.270301
2.767786 7.300228 -6.796975
2.502724 5.991775 -7.350231
3.549015 7.199083 -6.929578
7.190931 8.716466 -6.462271
5.348042 7.032512 -7.135531
6.012367 8.729322 -6.418332
5.137946 7.857840 -6.766951
2.914785 4.569093 -7.917048
3.977410 5.691268 -7.587155
3.592688 4.387238 -8.011611
2.714696 5.278997 -7.651680
4.153236 4.946218 -7.858924
3.229588 5.851731 -7.472305
0.578315 0.357418 -8.638309
1.758024 1.086519 -8.608348
0.578975 0.958039 -8.606576
1.162969 0.000000 -8.631857
4.391556 2.714131 -8.424572
3.009849 1.860189 -8.542187
3.716878 2.963240 -8.376810
0.580889 2.158262 -8.435310
1.763928 1.705610 -8.548400
0.579379 1.562272 -8.537742
1.171905 2.562949 -8.378654
1.167597 1.327876 -8.581764
2.357012 -0.723486 -8.527748
2.381923 0.731133 -8.617879
1.759363 -0.362211 -8.594974
1.766308 0.363640 -8.628901
2.425981 3.403703 -8.236294
2.399625 2.111690 -8.503343
3.058847 3.193920 -8.312609
1.787270 2.978441 -8.312462
3.039561 2.523825 -8.447641
1.781128 2.339872 -8.449046
12.583582 7.777081 -6.127415
10.061250 6.218194 -7.248029
12.605022 6.704778 -6.523676
11.209611 8.186459 -6.318049
5.974782 3.692618 -8.223787
7.843203 4.847366 -7.874827
6.799380 3.425976 -8.247983
5.858904 4.521715 -8.022520
12.467373 4.590059 -7.195180
10.050233 5.268628 -7.538869
12.571507 5.637505 -6.884282
11.102068 3.938839 -7.659466
11.294183 5.968681 -7.108288
8.510099 8.634763 -6.471708
8.821932 6.540462 -7.277939
9.832799 8.467731 -6.429298
7.412640 7.737778 -6.886554
9.969608 7.330266 -6.866621
8.580916 2.790086 -8.194971
8.849435 4.590693 -7.861050
7.673242 3.124610 -8.241374
9.790317 3.333563 -7.980889
7.782167 3.985672 -8.084831
9.949468 4.300237 -7.791654
5.546278 6.171655 -7.480953
7.714652 5.782090 -7.603272
5.713823 5.352419 -7.771147
6.423036 6.913712 -7.216966
6.750511 5.125464 -7.838749
7.588177 6.753409 -7.269324
4.895749 -2.235678 -7.921489
5.132985 -0.768405 -8.305344
5.581940 -1.950663 -7.925322
4.248670 -1.854002 -8.123325
5.225778 2.386388 -8.455486
5.255390 0.786729 -8.503399
5.954173 2.080743 -8.453823
4.455513 1.944262 -8.518803
7.103201 -1.298734 -7.918114
5.835958 -0.413222 -8.305276
6.319158 -1.638817 -7.924829
7.293387 -0.444453 -8.123719
5.722229 -1.193039 -8.137090
2.993697 -1.106170 -8.423545
4.427427 -0.393890 -8.438382
3.611528 -1.475325 -8.291172
3.028883 -0.374391 -8.535495
4.351426 -1.130675 -8.302355
7.487822 1.369057 -8.346860
5.918833 0.419090 -8.423217
6.713857 1.741178 -8.419820
7.426972 0.452594 -8.272513
5.958493 1.242299 -8.473061
6.596851 0.000000 -8.298232
3.055141 1.128874 -8.596434
4.474134 0.398046 -8.527403
3.730693 1.524005 -8.564745
3.050001 0.377001 -8.595007
4.483164 1.164905 -8.553706
3.736245 0.000000 -8.536202
10.850768 15.538751 0.770868
12.477828 14.159428 2.303302
10.070573 15.093473 1.943351
12.038895 15.328070 0.000000
13.808189 9.749027 4.810133
13.389056 12.065656 3.666221
8.084414 13.313838 3.803687
11.393729 13.462233 3.365297
9.099826 14.287934 2.967123
10.819431 14.370915 2.681027
13.824604 13.989316 -1.589859
13.824604 13.989316 1.589859
13.040956 14.787358 -0.801975
13.040956 14.787358 0.801975
12.533479 0.958508 7.379998
13.449314 3.044646 7.149182
13.936935 7.450333 5.767726
13.853187 5.223666 6.566478
4.642561 9.534209 5.892465
6.983410 9.693923 5.991174
5.364456 10.365182 5.513377
12.490891 9.074938 5.608620
9.651472 9.612713 5.940984
12.349874 10.180851 5.129784
7.071693 12.253401 4.511281
7.938524 10.583021 5.547931
6.176601 11.279199 5.057989
8.604418 12.471735 4.424776
6.608543 10.500151 5.549056
11.829171 12.386270 4.027397
9.399201 10.580980 5.488942
12.135617 11.299030 4.601061
10.218651 12.535424 4.268261
10.863421 10.456737 5.355466
9.038637 11.541790 4.988451
15.218221 9.405378 -4.295031
17.566647 10.856785 -1.625256
15.081294 10.622015 -3.711965
15.218221 9.405378 4.295031
17.566647 10.856785 1.625256
15.081294 10.622015 3.711965
14.436675 12.950888 -2.367912
17.012824 11.954585 -0.846459
14.830868 11.825945 -3.066952
15.083990 13.542242 -0.825253
16.240549 11.420808 -2.381148
14.436675 12.950888 2.367912
17.012824 11.954585 0.846459
14.830868 11.825945 3.066952
15.083990 13.542242 0.825253
16.240549 11.420808 2.381148
16.178769 12.861647 0.000000
6.808932 -9.750674 0.483725
7.933327 -9.002478 1.464425
6.496558 -9.736847 1.253662
7.446323 -9.480750 0.000000
9.880061 -6.975642 3.441755
8.960758 -8.075060 2.453654
5.715313 -9.412278 2.689034
7.508970 -8.872206 2.217879
6.125648 -9.618080 1.997351
7.018592 -9.322449 1.739189
8.683036 -8.786489 -0.998568
8.683036 -8.786489 0.998568
8.075990 -9.157500 -0.496646
8.075990 -9.157500 0.496646
11.967485 -0.915223 7.046728
11.799608 -2.671186 6.272256
10.679366 -5.708919 4.419598
11.336388 -4.274648 5.373502
3.905362 -8.020257 4.956791
5.504997 -7.641685 4.722821
4.354871 -8.414465 4.475765
9.191944 -6.678171 4.127337
7.234797 -7.205743 4.453394
8.820901 -7.271676 3.663950
5.262840 -9.119131 3.357351
6.007379 -8.008570 4.198328
4.812035 -8.787342 3.940552
6.134867 -8.892227 3.154823
5.171080 -8.216201 4.342048
7.985721 -8.361812 2.718844
6.910199 -7.779032 4.035416
8.416800 -7.836575 3.191120
7.043203 -8.640039 2.941898
7.831552 -7.538369 3.860810
6.534001 -8.343522 3.606135
10.933579 -6.757324 -3.085779
11.800559 -7.293147 -1.091781
10.416692 -7.336656 -2.563865
10.933579 -6.757324 3.085779
11.800559 -7.293147 1.091781
10.416692 -7.336656 2.563865
9.301342 -8.344071 -1.525612
11.038429 -7.756492 -0.549208
9.868004 -7.868621 -2.040656
9.469425 -8.501547 -0.518078
10.820672 -7.609399 -1.586499
9.301342 -8.344071 1.525612
11.038429 -7.756492 0.549208
9.868004 -7.868621 2.040656
9.469425 -8.501547 0.518078
10.820672 -7.609399 1.586499
10.262384 -8.158294 0.000000
0.582933 -4.488274 7.622453
1.731467 -4.065685 7.648522
0.951429 -4.930367 7.389486
0.578163 -3.912271 7.843838
4.105478 -3.178284 7.679896
2.891279 -3.634520 7.667686
1.714551 -5.804875 6.858736
2.117612 -4.500804 7.412161
1.330902 -5.370928 7.133938
1.537165 -4.714311 7.402093
0.573693 -2.751762 8.219367
1.724479 -3.488696 7.870306
0.575799 -3.330814 8.044450
1.154387 -3.700768 7.857804
10.723465 -0.531985 7.488236
8.648243 -1.406802 7.621161
10.757988 -1.385138 7.177878
5.424288 -2.676323 7.682776
6.911291 -2.100036 7.669343
10.585491 -3.024214 6.427710
8.650991 -2.162580 7.321746
10.705653 -2.223204 6.818311
9.648628 -1.800040 7.264162
3.381671 -7.531279 5.471658
3.832641 -6.226348 6.201344
2.953545 -7.110612 5.861767
4.148832 -7.360942 5.375749
4.586922 -3.613949 7.421796
4.231049 -4.931780 6.845980
3.948715 -3.842056 7.423607
2.128766 -6.252560 6.547026
3.392164 -5.808702 6.539041
2.533191 -6.681467 6.220870
2.335249 -5.590823 6.858375
3.181735 -6.454066 6.212451
5.755923 -6.977025 5.172673
4.596616 -6.044411 6.132955
4.942263 -7.175644 5.275972
4.379990 -6.698641 5.768682
2.731029 -4.281044 7.417934
3.594773 -5.143753 6.857252
3.328457 -4.064570 7.422383
2.536476 -4.932430 7.149346
3.777407 -4.498631 7.147764
2.963898 -5.370324 6.857577
0.577576 -0.356962 8.627277
1.737933 -1.074101 8.509967
0.577015 -0.954795 8.577436
4.125135 -2.549474 7.913480
2.915303 -1.801756 8.273858
3.507452 -2.796278 7.904823
0.576637 -2.142466 8.373573
1.733031 -1.675734 8.398663
0.576240 -1.553807 8.491481
1.152036 -2.519495 8.236598
1.156764 -1.315557 8.502147
2.322194 -3.258087 7.883932
2.331349 -2.051606 8.261399
2.905061 -3.033343 7.894685
1.735674 -2.892457 8.072490
2.914097 -2.419649 8.098948
1.739343 -2.284979 8.250832
9.593452 -5.929080 4.671409
8.135992 -5.028320 5.861092
9.895529 -5.263563 5.121389
8.537861 -6.235261 4.812176
5.386974 -3.329333 7.414718
6.721102 -4.153869 6.748202
6.103281 -3.075236 7.403581
5.204174 -4.016416 7.126008
10.391525 -3.825803 5.997165
8.320932 -4.362077 6.241688
10.165344 -4.558497 5.566643
9.472984 -3.360866 6.535539
9.099170 -4.808674 5.726800
6.651182 -6.748615 5.058050
7.185265 -5.327059 5.927717
7.556572 -6.507508 4.940958
6.024324 -6.288568 5.596769
7.858186 -5.777819 5.412367
7.706568 -2.505792 7.359949
7.539834 -3.911331 6.697718
6.877019 -2.800381 7.386198
8.571378 -2.918519 6.987233
6.811100 -3.488336 7.075997
8.457904 -3.655571 6.623576
4.813522 -5.356276 6.492595
6.489908 -4.864151 6.396210
5.011840 -4.694837 6.816408
5.406573 -5.819598 6.074862
5.842202 -4.435812 6.784014
6.270258 -5.580473 6.006783
0.591129 4.551374 7.729615
1.800396 4.227539 7.953007
0.975265 5.053890 7.574619
0.585376 3.961081 7.941699
4.430580 3.429963 8.288046
3.070395 3.859679 8.142701
1.805769 6.113708 7.223637
2.231113 4.742041 7.809443
1.381615 5.575584 7.405773
1.598288 4.901765 7.696421
0.578964 2.777047 8.294892
1.784499 3.610120 8.144231
0.582059 3.367026 8.131908
1.182282 3.790194 8.047681
11.013074 0.546352 7.690471
9.232284 1.501807 8.135841
11.537017 1.485442 7.697657
9.930043 0.000000 7.799203
5.906762 2.914374 8.366136
7.512118 2.282602 8.336071
12.271610 3.505929 7.451554
9.563406 2.390666 8.093966
11.963083 2.484329 7.619154
10.537592 1.965885 7.933437
7.992305 -0.908310 7.898203
8.318106 0.945337 8.220168
8.916318 -0.483566 7.863292
9.119413 0.494580 8.042401
3.877461 8.635448 6.273864
4.358923 7.081323 7.052886
3.300359 7.945562 6.550074
4.902313 8.697784 6.352054
5.046002 3.975649 8.164604
4.748492 5.534920 7.683222
4.306031 4.189721 8.095364
2.281569 6.701367 7.016970
3.771509 6.458289 7.270301
2.767786 7.300228 6.796975
2.502724 5.991775 7.350231
3.549015 7.199083 6.929578
7.190931 8.716466 6.462271
5.348042 7.032512 7.135531
6.012367 8.729322 6.418332
5.137946 7.857840 6.766951
2.914785 4.569093 7.917048
3.977410 5.691268 7.587155
3.592688 4.387238 8.011611
2.714696 5.278997 7.651680
4.153236 4.946218 7.858924
3.229588 5.851731 7.472305
0.578315 0.357418 8.638309
1.758024 1.086519 8.608348
0.578975 0.958039 8.606576
1.162969 0.000000 8.631857
4.391556 2.714131 8.424572
3.009849 1.860189 8.542187
3.716878 2.963240 8.376810
0.580889 2.158262 8.435310
1.763928 1.705610 8.548400
0.579379 1.562272 8.537742
1.171905 2.562949 8.378654
1.167597 1.327876 8.581764
2.357012 -0.723486 8.527748
2.381923 0.731133 8.617879
1.759363 -0.362211 8.594974
1.766308 0.363640 8.628901
2.425981 3.403703 8.236294
2.399625 2.111690 8.503343
3.058847 3.193920 8.312609
1.787270 2.978441 8.312462
3.039561 2.523825 8.447641
1.781128 2.339872 8.449046
12.583582 7.777081 6.127415
10.061250 6.218194 7.248029
12.605022 6.704778 6.523676
11.209611 8.186459 6.318049
5.974782 3.692618 8.223787
7.843203 4.847366 7.874827
6.799380 3.425976 8.247983
5.858904 4.521715 8.022520
12.467373 4.590059 7.195180
10.050233 5.268628 7.538869
12.571507 5.637505 6.884282
11.102068 3.938839 7.659466
11.294183 5.968681 7.108288
8.510099 8.634763 6.471708
8.821932 6.540462 7.277939
9.832799 8.467731 6.429298
7.412640 7.737778 6.886554
9.969608 7.330266 6.866621
8.580916 2.790086 8.194971
8.849435 4.590693 7.861050
7.673242 3.124610 8.241374
9.790317 3.333563 7.980889
7.782167 3.985672 8.084831
9.949468 4.300237 7.791654
5.546278 6.171655 7.480953
7.714652 5.782090 7.603272
5.713823 5.352419 7.771147
6.423036 6.913712 7.216966
6.750511 5.125464 7.838749
7.588177 6.753409 7.269324
4.895749 -2.235678 7.921489
5.132985 -0.768405 8.305344
5.581940 -1.950663 7.925322
4.248670 -1.854002 8.123325
5.225778 2.386388 8.455486
5.255390 0.786729 8.503399
5.954173 2.080743 8.453823
4.455513 1.944262 8.518803
7.103201 -1.298734 7.918114
5.835958 -0.413222 8.305276
6.319158 -1.638817 7.924829
7.293387 -0.444453 8.123719
5.722229 -1.193039 8.137090
2.993697 -1.106170 8.423545
4.427427 -0.393890 8.438382
3.611528 -1.475325 8.291172
3.028883 -0.374391 8.535495
4.351426 -1.130675 8.302355
7.487822 1.369057 8.346860
5.918833 0.419090 8.423217
6.713857 1.741178 8.419820
7.426972 0.452594 8.272513
5.958493 1.242299 8.473061
6.596851 0.000000 8.298232
3.055141 1.128874 8.596434
4.474134 0.398046 8.527403
3.730693 1.524005 8.564745
3.050001 0.377001 8.595007
4.483164 1.164905 8.553706
3.736245 0.000000 8.536202
13.239838 0.000000 -6.966639
16.133187 0.000000 -5.815756
13.930726 1.026823 -6.948228
13.283520 -0.979118 -6.625421
21.120172 0.000000 -1.463785
19.010167 0.000000 -4.004010
14.849048 3.253605 -6.582186
16.860621 1.176832 -5.644768
14.478063 2.126967 -6.818692
15.395398 1.101959 -6.374482
13.002748 -2.849058 -5.763770
16.140276 -1.126554 -5.403604
13.198688 -1.939015 -6.216149
14.692118 -1.051621 -6.083288
13.239838 0.000000 6.966639
16.133187 0.000000 5.815756
13.930726 1.026823 6.948228
13.283520 -0.979118 6.625421
21.120172 0.000000 1.463785
19.010167 0.000000 4.004010
14.849048 3.253605 6.582186
16.860621 1.176832 5.644768
14.478063 2.126967 6.818692
15.395398 1.101959 6.374482
13.002748 -2.849058 5.763770
16.140276 -1.126554 5.403604
13.198688 -1.939015 6.216149
14.692118 -1.051621 6.083288
15.281625 7.965998 -4.923257
17.944827 6.322880 -3.907755
15.274476 6.777444 -5.403243
16.632428 8.699110 -3.796050
21.526347 1.441139 -0.890673
20.265923 4.138771 -2.557901
20.819720 1.400569 -2.317542
15.092814 4.445554 -6.237205
17.840286 5.034491 -4.430392
15.215250 5.598859 -5.846094
16.273860 3.499058 -5.831093
16.585271 5.967576 -4.955030
18.848992 9.889636 -0.879841
19.316273 6.864932 -2.536590
17.931281 9.398134 -2.442011
18.024531 7.851254 -3.207272
18.354459 1.263960 -4.696179
19.053318 3.931577 -3.801592
19.686870 1.335970 -3.602386
17.386199 2.431771 -5.318269
20.070925 2.730761 -3.105621
17.688219 3.728821 -4.898561
11.509672 -5.999756 -3.708053
14.354427 -5.057798 -3.125891
11.955801 -5.304913 -4.229284
12.182613 -6.371763 -2.780460
20.741640 -1.388605 -0.858205
17.751414 -3.625250 -2.240528
20.083587 -1.351048 -2.235599
12.715187 -3.745229 -5.254635
14.984814 -4.228683 -3.721275
12.362629 -4.549161 -4.750043
14.267657 -3.067702 -5.112249
13.392561 -4.818802 -4.001173
12.985156 -6.813015 -0.606126
15.074670 -5.357482 -1.979588
12.701808 -6.657265 -1.729824
13.569865 -5.910859 -2.414612
17.641197 -1.214842 -4.513684
16.780599 -3.462610 -3.348130
18.980792 -1.288055 -3.473185
15.963518 -2.232784 -4.883084
18.541481 -2.522672 -2.868967
15.559567 -3.280084 -4.309054
15.281625 7.965998 4.923257
17.944827 6.322880 3.907755
15.274476 6.777444 5.403243
16.632428 8.699110 3.796050
21.526347 1.441139 0.890673
20.265923 4.138771 2.557901
20.819720 1.400569 2.317542
21.595076 2.909501 0.000000
15.092814 4.445554 6.237205
17.840286 5.034491 4.430392
15.215250 5.598859 5.846094
16.273860 3.499058 5.831093
16.585271 5.967576 4.955030
18.848992 9.889636 0.879841
19.316273 6.864932 2.536590
17.931281 9.398134 2.442011
19.832819 8.680708 0.000000
18.024531 7.851254 3.207272
18.354459 1.263960 4.696179
19.053318 3.931577 3.801592
19.686870 1.335970 3.602386
17.386199 2.431771 5.318269
20.070925 2.730761 3.105621
17.688219 3.728821 4.898561
20.465386 5.656493 -1.736264
20.465386 5.656493 1.736264
21.231349 4.345988 -0.894734
20.355093 7.223154 -0.892831
21.231349 4.345988 0.894734
20.355093 7.223154 0.892831
11.509672 -5.999756 3.708053
14.354427 -5.057798 3.125891
11.955801 -5.304913 4.229284
12.182613 -6.371763 2.780460
20.741640 -1.388605 0.858205
17.751414 -3.625250 2.240528
20.083587 -1.351048 2.235599
19.824725 -2.670982 0.000000
12.715187 -3.745229 5.254635
14.984814 -4.228683 3.721275
12.362629 -4.549161 4.750043
14.267657 -3.067702 5.112249
13.392561 -4.818802 4.001173
12.985156 -6.813015 0.606126
15.074670 -5.357482 1.979588
12.701808 -6.657265 1.729824
14.238837 -6.232255 0.000000
13.569865 -5.910859 2.414612
17.641197 -1.214842 4.513684
16.780599 -3.462610 3.348130
18.980792 -1.288055 3.473185
15.963518 -2.232784 4.883084
18.541481 -2.522672 2.868967
15.559567 -3.280084 4.309054
16.768183 -4.634612 -1.422597
16.768183 -4.634612 1.422597
18.392798 -3.764945 -0.775112
15.529818 -5.510870 -0.681181
18.392798 -3.764945 0.775112
15.529818 -5.510870 0.681181
-6.808932 9.750674 -0.483725
-7.933327 9.002478 -1.464425
-6.496558 9.736847 -1.253662
-9.880061 6.975642 -3.441755
-8.960758 8.075060 -2.453654
-5.715313 9.412278 -2.689034
-7.508970 8.872206 -2.217879
-6.125648 9.618080 -1.997351
-7.018592 9.322449 -1.739189
-11.967485 0.915223 -7.046728
-11.799608 2.671186 -6.272256
-10.679366 5.708919 -4.419598
-11.336388 4.274648 -5.373502
-3.905362 8.020257 -4.956791
-5.504997 7.641685 -4.722821
-4.354871 8.414465 -4.475765
-9.191944 6.678171 -4.127337
-7.234797 7.205743 -4.453394
-8.820901 7.271676 -3.663950
-5.262840 9.119131 -3.357351
-6.007379 8.008570 -4.198328
-4.812035 8.787342 -3.940552
-6.134867 8.892227 -3.154823
-5.171080 8.216201 -4.342048
-7.985721 8.361812 -2.718844
-6.910199 7.779032 -4.035416
-8.416800 7.836575 -3.191120
-7.043203 8.640039 -2.941898
-7.831552 7.538369 -3.860810
-6.534001 8.343522 -3.606135
-10.850768 -15.538751 -0.770868
-12.477828 -14.159428 -2.303302
-10.070573 -15.093473 -1.943351
-13.808189 -9.749027 -4.810133
-13.389056 -12.065656 -3.666221
-8.084414 -13.313838 -3.803687
-11.393729 -13.462233 -3.365297
-9.099826 -14.287934 -2.967123
-10.819431 -14.370915 -2.681027
-12.533479 -0.958508 -7.379998
-13.449314 -3.044646 -7.149182
-13.936935 -7.450333 -5.767726
-13.853187 -5.223666 -6.566478
-4.642561 -9.534209 -5.892465
-6.983410 -9.693923 -5.991174
-5.364456 -10.365182 -5.513377
-12.490891 -9.074938 -5.608620
-9.651472 -9.612713 -5.940984
-12.349874 -10.180851 -5.129784
-7.071693 -12.253401 -4.511281
-7.938524 -10.583021 -5.547931
-6.176601 -11.279199 -5.057989
-8.604418 -12.471735 -4.424776
-6.608543 -10.500151 -5.549056
-11.829171 -12.386270 -4.027397
-9.399201 -10.580980 -5.488942
-12.135617 -11.299030 -4.601061
-10.218651 -12.535424 -4.268261
-10.863421 -10.456737 -5.355466
-9.038637 -11.541790 -4.988451
-0.591129 -4.551374 -7.729615
-1.800396 -4.227539 -7.953007
-0.975265 -5.053890 -7.574619
-0.585376 -3.961081 -7.941699
-4.430580 -3.429963 -8.288046
-3.070395 -3.859679 -8.142701
-1.805769 -6.113708 -7.223637
-2.231113 -4.742041 -7.809443
-1.381615 -5.575584 -7.405773
-1.598288 -4.901765 -7.696421
-0.578964 -2.777047 -8.294892
-1.784499 -3.610120 -8.144231
-0.582059 -3.367026 -8.131908
-1.182282 -3.790194 -8.047681
-11.013074 -0.546352 -7.690471
-9.232284 -1.501807 -8.135841
-11.537017 -1.485442 -7.697657
-5.906762 -2.914374 -8.366136
-7.512118 -2.282602 -8.336071
-12.271610 -3.505929 -7.451554
-9.563406 -2.390666 -8.093966
-11.963083 -2.484329 -7.619154
-10.537592 -1.965885 -7.933437
-3.877461 -8.635448 -6.273864
-4.358923 -7.081323 -7.052886
-3.300359 -7.945562 -6.550074
-4.902313 -8.697784 -6.352054
-5.046002 -3.975649 -8.164604
-4.748492 -5.534920 -7.683222
-4.306031 -4.189721 -8.095364
-2.281569 -6.701367 -7.016970
-3.771509 -6.458289 -7.270301
-2.767786 -7.300228 -6.796975
-2.502724 -5.991775 -7.350231
-3.549015 -7.199083 -6.929578
-7.190931 -8.716466 -6.462271
-5.348042 -7.032512 -7.135531
-6.012367 -8.729322 -6.418332
-5.137946 -7.857840 -6.766951
-2.914785 -4.569093 -7.917048
-3.977410 -5.691268 -7.587155
-3.592688 -4.387238 -8.011611
-2.714696 -5.278997 -7.651680
-4.153236 -4.946218 -7.858924
-3.229588 -5.851731 -7.472305
-0.578315 -0.357418 -8.638309
-1.758024 -1.086519 -8.608348
-0.578975 -0.958039 -8.606576
-4.391556 -2.714131 -8.424572
-3.009849 -1.860189 -8.542187
-3.716878 -2.963240 -8.376810
-0.580889 -2.158262 -8.435310
-1.763928 -1.705610 -8.548400
-0.579379 -1.562272 -8.537742
-1.171905 -2.562949 -8.378654
-1.167597 -1.327876 -8.581764
-2.425981 -3.403703 -8.236294
-2.399625 -2.111690 -8.503343
-3.058847 -3.193920 -8.312609
-1.787270 -2.978441 -8.312462
-3.039561 -2.523825 -8.447641
-1.781128 -2.339872 -8.449046
-12.583582 -7.777081 -6.127415
-10.061250 -6.218194 -7.248029
-12.605022 -6.704778 -6.523676
-11.209611 -8.186459 -6.318049
-5.974782 -3.692618 -8.223787
-7.843203 -4.847366 -7.874827
-6.799380 -3.425976 -8.247983
-5.858904 -4.521715 -8.022520
-12.467373 -4.590059 -7.195180
-10.050233 -5.268628 -7.538869
-12.571507 -5.637505 -6.884282
-11.102068 -3.938839 -7.659466
-11.294183 -5.968681 -7.108288
-8.510099 -8.634763 -6.471708
-8.821932 -6.540462 -7.277939
-9.832799 -8.467731 -6.429298
-7.412640 -7.737778 -6.886554
-9.969608 -7.330266 -6.866621
-8.580916 -2.790086 -8.194971
-8.849435 -4.590693 -7.861050
-7.673242 -3.124610 -8.241374
-9.790317 -3.333563 -7.980889
-7.782167 -3.985672 -8.084831
-9.949468 -4.300237 -7.791654
-5.546278 -6.171655 -7.480953
-7.714652 -5.782090 -7.603272
-5.713823 -5.352419 -7.771147
-6.423036 -6.913712 -7.216966
-6.750511 -5.125464 -7.838749
-7.588177 -6.753409 -7.269324
-0.582933 4.488274 -7.622453
-1.731467 4.065685 -7.648522
-0.951429 4.930367 -7.389486
-0.578163 3.912271 -7.843838
-4.105478 3.178284 -7.679896
-2.891279 3.634520 -7.667686
-1.714551 5.804875 -6.858736
-2.117612 4.500804 -7.412161
-1.330902 5.370928 -7.133938
-1.537165 4.714311 -7.402093
-0.573693 2.751762 -8.219367
-1.724479 3.488696 -7.870306
-0.575799 3.330814 -8.044450
-1.154387 3.700768 -7.857804
-10.723465 0.531985 -7.488236
-8.648243 1.406802 -7.621161
-10.757988 1.385138 -7.177878
-9.930043 0.000000 -7.799203
-5.424288 2.676323 -7.682776
-6.911291 2.100036 -7.669343
-10.585491 3.024214 -6.427710
-8.650991 2.162580 -7.321746
-10.705653 2.223204 -6.818311
-9.648628 1.800040 -7.264162
-8.318106 -0.945337 -8.220168
-7.992305 0.908310 -7.898203
-9.119413 -0.494580 -8.042401
-8.916318 0.483566 -7.863292
-3.381671 7.531279 -5.471658
-3.832641 6.226348 -6.201344
-2.953545 7.110612 -5.861767
-4.148832 7.360942 -5.375749
-4.586922 3.613949 -7.421796
-4.231049 4.931780 -6.845980
-3.948715 3.842056 -7.423607
-2.128766 6.252560 -6.547026
-3.392164 5.808702 -6.539041
-2.533191 6.681467 -6.220870
-2.335249 5.590823 -6.858375
-3.181735 6.454066 -6.212451
-5.755923 6.977025 -5.172673
-4.596616 6.044411 -6.132955
-4.942263 7.175644 -5.275972
-4.379990 6.698641 -5.768682
-2.731029 4.281044 -7.417934
-3.594773 5.143753 -6.857252
-3.328457 4.064570 -7.422383
-2.536476 4.932430 -7.149346
-3.777407 4.498631 -7.147764
-2.963898 5.370324 -6.857577
-0.577576 0.356962 -8.627277
-1.737933 1.074101 -8.509967
-0.577015 0.954795 -8.577436
-1.162969 0.000000 -8.631857
-4.125135 2.549474 -7.913480
-2.915303 1.801756 -8.273858
-3.507452 2.796278 -7.904823
-0.576637 2.142466 -8.373573
-1.733031 1.675734 -8.398663
-0.576240 1.553807 -8.491481
-1.152036 2.519495 -8.236598
-1.156764 1.315557 -8.502147
-2.381923 -0.731133 -8.617879
-2.357012 0.723486 -8.527748
-1.766308 -0.363640 -8.628901
-1.759363 0.362211 -8.594974
-2.322194 3.258087 -7.883932
-2.331349 2.051606 -8.261399
-2.905061 3.033343 -7.894685
-1.735674 2.892457 -8.072490
-2.914097 2.419649 -8.098948
-1.739343 2.284979 -8.250832
-9.593452 5.929080 -4.671409
-8.135992 5.028320 -5.861092
-9.895529 5.263563 -5.121389
-8.537861 6.235261 -4.812176
-5.386974 3.329333 -7.414718
-6.721102 4.153869 -6.748202
-6.103281 3.075236 -7.403581
-5.204174 4.016416 -7.126008
-10.391525 3.825803 -5.997165
-8.320932 4.362077 -6.241688
-10.165344 4.558497 -5.566643
-9.472984 3.360866 -6.535539
-9.099170 4.808674 -5.726800
-6.651182 6.748615 -5.058050
-7.185265 5.327059 -5.927717
-7.556572 6.507508 -4.940958
-6.024324 6.288568 -5.596769
-7.858186 5.777819 -5.412367
-7.706568 2.505792 -7.359949
-7.539834 3.911331 -6.697718
-6.877019 2.800381 -7.386198
-8.571378 2.918519 -6.987233
-6.811100 3.488336 -7.075997
-8.457904 3.655571 -6.623576
-4.813522 5.356276 -6.492595
-6.489908 4.864151 -6.396210
-5.011840 4.694837 -6.816408
-5.406573 5.819598 -6.074862
-5.842202 4.435812 -6.784014
-6.270258 5.580473 -6.006783
-5.225778 -2.386388 -8.455486
-5.255390 -0.786729 -8.503399
-5.954173 -2.080743 -8.453823
-4.455513 -1.944262 -8.518803
-4.895749 2.235678 -7.921489
-5.132985 0.768405 -8.305344
-5.581940 1.950663 -7.925322
-4.248670 1.854002 -8.123325
-7.487822 -1.369057 -8.346860
-5.918833 -0.419090 -8.423217
-6.713857 -1.741178 -8.419820
-7.426972 -0.452594 -8.272513
-5.958493 -1.242299 -8.473061
-3.055141 -1.128874 -8.596434
-4.474134 -0.398046 -8.527403
-3.730693 -1.524005 -8.564745
-3.050001 -0.377001 -8.595007
-4.483164 -1.164905 -8.553706
-7.103201 1.298734 -7.918114
-5.835958 0.413222 -8.305276
-6.319158 1.638817 -7.924829
-7.293387 0.444453 -8.123719
-5.722229 1.193039 -8.137090
-6.596851 0.000000 -8.298232
-2.993697 1.106170 -8.423545
-4.427427 0.393890 -8.438382
-3.611528 1.475325 -8.291172
-3.028883 0.374391 -8.535495
-4.351426 1.130675 -8.302355
-3.736245 0.000000 -8.536202
-6.808932 9.750674 0.483725
-7.933327 9.002478 1.464425
-6.496558 9.736847 1.253662
-7.446323 9.480750 0.000000
-9.880061 6.975642 3.441755
-8.960758 8.075060 2.453654
-5.715313 9.412278 2.689034
-7.508970 8.872206 2.217879
-6.125648 9.618080 1.997351
-7.018592 9.322449 1.739189
-8.683036 8.786489 -0.998568
-8.683036 8.786489 0.998568
-8.075990 9.157500 -0.496646
-8.075990 9.157500 0.496646
-11.967485 0.915223 7.046728
-11.799608 2.671186 6.272256
-10.679366 5.708919 4.419598
-11.336388 4.274648 5.373502
-3.905362 8.020257 4.956791
-5.504997 7.641685 4.722821
-4.354871 8.414465 4.475765
-9.191944 6.678171 4.127337
-7.234797 7.205743 4.453394
-8.820901 7.271676 3.663950
-5.262840 9.119131 3.357351
-6.007379 8.008570 4.198328
-4.812035 8.787342 3.940552
-6.134867 8.892227 3.154823
-5.171080 8.216201 4.342048
-7.985721 8.361812 2.718844
-6.910199 7.779032 4.035416
-8.416800 7.836575 3.191120
-7.043203 8.640039 2.941898
-7.831552 7.538369 3.860810
-6.534001 8.343522 3.606135
-10.933579 6.757324 -3.085779
-11.800559 7.293147 -1.091781
-10.416692 7.336656 -2.563865
-10.933579 6.757324 3.085779
-11.800559 7.293147 1.091781
-10.416692 7.336656 2.563865
-9.301342 8.344071 -1.525612
-11.038429 7.756492 -0.549208
-9.868004 7.868621 -2.040656
-9.469425 8.501547 -0.518078
-10.820672 7.609399 -1.586499
-9.301342 8.344071 1.525612
-11.038429 7.756492 0.549208
-9.868004 7.868621 2.040656
-9.469425 8.501547 0.518078
-10.820672 7.609399 1.586499
