0.000000 -8.861794 14.338685
0.000000 8.861794 14.338685
0.000000 -8.861794 -14.338685
0.000000 8.861794 -14.338685
11.623868 0.000000 -7.183945
11.623868 0.000000 7.183945
-11.623868 0.000000 -7.183945
-11.623868 0.000000 7.183945
0.000000 13.901324 0.000000
0.000000 -13.901324 0.000000
-5.366925 -14.050791 8.683867
3.954907 -10.354081 6.399174
-3.954907 10.354081 6.399174
5.366925 14.050791 8.683867
0.000000 0.000000 18.610352
-5.366925 -14.050791 -8.683867
3.954907 -10.354081 -6.399174
-3.954907 10.354081 -6.399174
5.366925 14.050791 -8.683867
0.000000 0.000000 -18.610352
13.804393 8.531584 -5.272809
9.074211 -5.608171 -3.466040
7.201451 -4.450741 -11.652192
8.985543 5.553371 -14.538914
13.804393 8.531584 5.272809
9.074211 -5.608171 3.466040
7.201451 -4.450741 11.652192
8.985543 5.553371 14.538914
12.600522 0.000000 0.000000
-9.074211 5.608171 -3.466040
-13.804393 -8.531584 -5.272809
-8.985543 -5.553371 -14.538914
-7.201451 4.450741 -11.652192
-9.074211 5.608171 3.466040
-13.804393 -8.531584 5.272809
-8.985543 -5.553371 14.538914
-7.201451 4.450741 11.652192
-12.600522 0.000000 0.000000
-3.332185 11.729780 0.000000
4.437692 15.621329 0.000000
-4.437692 -15.621329 0.000000
3.332185 -11.729780 0.000000
-7.739072 -15.387024 4.635574
-2.732819 -11.803964 11.944601
-2.511535 -14.702782 4.063749
5.071253 -10.082796 3.037595
2.343388 -10.121881 10.242477
2.113536 -12.372854 3.419773
0.000000 -12.621296 7.800390
-5.071253 10.082796 3.037595
-2.343388 10.121881 10.242477
-2.113536 12.372854 3.419773
7.739072 15.387024 4.635574
2.732819 11.803964 11.944601
2.511535 14.702782 4.063749
0.000000 12.621296 7.800390
0.000000 -4.941516 17.394861
0.000000 4.941516 17.394861
-7.739072 -15.387024 -4.635574
-2.732819 -11.803964 -11.944601
-2.511535 -14.702782 -4.063749
5.071253 -10.082796 -3.037595
2.343388 -10.121881 -10.242477
2.113536 -12.372854 -3.419773
0.000000 -12.621296 -7.800390
-5.071253 10.082796 -3.037595
-2.343388 10.121881 -10.242477
-2.113536 12.372854 -3.419773
7.739072 15.387024 -4.635574
2.732819 11.803964 -11.944601
2.511535 14.702782 -4.063749
0.000000 12.621296 -7.800390
0.000000 -4.941516 -17.394861
0.000000 4.941516 -17.394861
12.797791 12.950269 -2.962907
13.111017 3.949892 -6.594330
10.929862 12.796905 -7.908922
7.581410 -7.671738 -1.755226
10.437453 -3.144440 -5.249631
6.830025 -7.996732 -4.942252
4.021000 -6.713045 -13.347049
9.683006 -2.215386 -9.568997
5.638734 -7.792539 -9.123664
4.493827 -2.777338 -16.258820
8.503458 -5.255426 -7.262821
4.810238 8.030674 -15.966793
11.102700 2.540200 -10.971975
7.898492 10.915448 -12.780029
4.843790 2.993627 -17.524998
12.010197 7.422710 -10.257933
8.494940 0.000000 -13.745102
12.797791 12.950269 2.962907
13.111017 3.949892 6.594330
10.929862 12.796905 7.908922
14.394218 8.896116 0.000000
7.581410 -7.671738 1.755226
10.437453 -3.144440 5.249631
6.830025 -7.996732 4.942252
9.235803 -5.708040 0.000000
4.021000 -6.713045 13.347049
9.683006 -2.215386 9.568997
5.638734 -7.792539 9.123664
4.493827 -2.777338 16.258820
8.503458 -5.255426 7.262821
4.810238 8.030674 15.966793
11.102700 2.540200 10.971975
7.898492 10.915448 12.780029
4.843790 2.993627 17.524998
12.010197 7.422710 10.257933
8.494940 0.000000 13.745102
12.373716 0.000000 -3.515114
12.373716 0.000000 3.515114
13.820198 3.819809 -2.360772
10.963189 -3.030151 -1.872736
13.820198 3.819809 2.360772
10.963189 -3.030151 1.872736
-7.581410 7.671738 -1.755226
-10.437453 3.144440 -5.249631
-6.830025 7.996732 -4.942252
-12.797791 -12.950269 -2.962907
-13.111017 -3.949892 -6.594330
-10.929862 -12.796905 -7.908922
-4.810238 -8.030674 -15.966793
-11.102700 -2.540200 -10.971975
-7.898492 -10.915448 -12.780029
-4.843790 -2.993627 -17.524998
-12.010197 -7.422710 -10.257933
-4.021000 6.713045 -13.347049
-9.683006 2.215386 -9.568997
-5.638734 7.792539 -9.123664
-4.493827 2.777338 -16.258820
-8.503458 5.255426 -7.262821
-8.494940 0.000000 -13.745102
-7.581410 7.671738 1.755226
-10.437453 3.144440 5.249631
-6.830025 7.996732 4.942252
-9.235803 5.708040 0.000000
-12.797791 -12.950269 2.962907
-13.111017 -3.949892 6.594330
-10.929862 -12.796905 7.908922
-14.394218 -8.896116 0.000000
-4.810238 -8.030674 15.966793
-11.102700 -2.540200 10.971975
-7.898492 -10.915448 12.780029
-4.843790 -2.993627 17.524998
-12.010197 -7.422710 10.257933
-4.021000 6.713045 13.347049
-9.683006 2.215386 9.568997
-5.638734 7.792539 9.123664
-4.493827 2.777338 16.258820
-8.503458 5.255426 7.262821
-8.494940 0.000000 13.745102
-12.373716 0.000000 -3.515114
-12.373716 0.000000 3.515114
-10.963189 3.030151 -1.872736
-13.820198 -3.819809 -2.360772
-10.963189 3.030151 1.872736
-13.820198 -3.819809 2.360772
-4.683554 10.625013 0.000000
-1.787149 12.830975 0.000000
7.023515 15.933397 0.000000
2.071781 14.874513 0.000000
-7.023515 -15.933397 0.000000
-2.071781 -14.874513 0.000000
4.683554 -10.625013 0.000000
1.787149 -12.830975 0.000000
-8.755954 -15.633010 2.371358
-6.598777 -14.848563 6.749657
-6.115088 -15.778195 2.247402
-1.370970 -10.408997 13.252864
-4.070811 -13.026183 10.419286
-1.201089 -14.424445 1.943403
-3.918012 -14.626358 6.339476
-3.479522 -15.276350 2.099131
-5.037082 -15.319703 4.415493
5.507514 -9.833198 1.491589
4.560730 -10.262551 4.665010
4.243398 -10.948847 1.559523
1.273326 -9.667637 12.308955
3.226584 -10.324744 8.258479
0.000000 -11.089751 11.221879
1.099496 -13.204361 1.779022
3.059914 -11.422988 4.951045
2.756691 -12.102861 1.663060
0.000000 -13.614203 3.762873
3.692240 -11.229521 3.236608
-2.520480 -13.536990 8.366320
2.144987 -11.520291 7.119931
-1.291236 -12.415643 9.870072
-1.241399 -13.767326 6.025877
1.189232 -11.434842 9.090364
1.137643 -12.616654 5.522235
-5.507514 9.833198 1.491589
-4.560730 10.262551 4.665010
-4.243398 10.948847 1.559523
-1.273326 9.667637 12.308955
-3.226584 10.324744 8.258479
-1.099496 13.204361 1.779022
-3.059914 11.422988 4.951045
-2.756691 12.102861 1.663060
-3.692240 11.229521 3.236608
8.755954 15.633010 2.371358
6.598777 14.848563 6.749657
6.115088 15.778195 2.247402
1.370970 10.408997 13.252864
4.070811 13.026183 10.419286
0.000000 11.089751 11.221879
1.201089 14.424445 1.943403
3.918012 14.626358 6.339476
3.479522 15.276350 2.099131
0.000000 13.614203 3.762873
5.037082 15.319703 4.415493
-2.144987 11.520291 7.119931
2.520480 13.536990 8.366320
-1.189232 11.434842 9.090364
-1.137643 12.616654 5.522235
1.291236 12.415643 9.870072
1.241399 13.767326 6.025877
0.000000 -7.065059 16.027642
0.000000 -2.548202 18.295015
0.000000 7.065059 16.027642
0.000000 2.548202 18.295015
-8.755954 -15.633010 -2.371358
-6.598777 -14.848563 -6.749657
-6.115088 -15.778195 -2.247402
-1.370970 -10.408997 -13.252864
-4.070811 -13.026183 -10.419286
-1.201089 -14.424445 -1.943403
-3.918012 -14.626358 -6.339476
-3.479522 -15.276350 -2.099131
-5.037082 -15.319703 -4.415493
5.507514 -9.833198 -1.491589
4.560730 -10.262551 -4.665010
4.243398 -10.948847 -1.559523
1.273326 -9.667637 -12.308955
3.226584 -10.324744 -8.258479
0.000000 -11.089751 -11.221879
1.099496 -13.204361 -1.779022
3.059914 -11.422988 -4.951045
2.756691 -12.102861 -1.663060
0.000000 -13.614203 -3.762873
3.692240 -11.229521 -3.236608
-2.520480 -13.536990 -8.366320
2.144987 -11.520291 -7.119931
-1.291236 -12.415643 -9.870072
-1.241399 -13.767326 -6.025877
1.189232 -11.434842 -9.090364
1.137643 -12.616654 -5.522235
-5.507514 9.833198 -1.491589
-4.560730 10.262551 -4.665010
-4.243398 10.948847 -1.559523
-1.273326 9.667637 -12.308955
-3.226584 10.324744 -8.258479
-1.099496 13.204361 -1.779022
-3.059914 11.422988 -4.951045
-2.756691 12.102861 -1.663060
-3.692240 11.229521 -3.236608
8.755954 15.633010 -2.371358
6.598777 14.848563 -6.749657
6.115088 15.778195 -2.247402
1.370970 10.408997 -13.252864
4.070811 13.026183 -10.419286
0.000000 11.089751 -11.221879
1.201089 14.424445 -1.943403
3.918012 14.626358 -6.339476
3.479522 15.276350 -2.099131
0.000000 13.614203 -3.762873
5.037082 15.319703 -4.415493
-2.144987 11.520291 -7.119931
2.520480 13.536990 -8.366320
-1.189232 11.434842 -9.090364
-1.137643 12.616654 -5.522235
1.291236 12.415643 -9.870072
1.241399 13.767326 -6.025877
0.000000 -7.065059 -16.027642
0.000000 -2.548202 -18.295015
0.000000 7.065059 -16.027642
0.000000 2.548202 -18.295015
11.446109 14.573327 -1.507569
13.573159 10.856798 -4.241746
10.587690 14.691116 -3.948208
12.425728 1.884848 -6.959575
13.606481 6.185048 -6.046790
8.310298 13.874011 -8.574610
12.809574 10.896474 -6.734392
9.512660 14.439832 -6.379961
12.005112 13.023098 -5.488883
6.766471 -8.615155 -0.891213
8.346643 -6.676250 -2.608408
6.401170 -8.882045 -2.387031
11.063745 -1.678250 -6.196736
9.771044 -4.441587 -4.342302
5.495618 -9.174913 -5.670408
8.009698 -6.813456 -4.210947
5.977163 -9.073091 -4.008770
7.246328 -7.860788 -3.313109
2.117934 -7.820216 -13.962331
5.709862 -5.582226 -12.561120
3.187076 -8.546607 -11.858979
2.224393 -6.052481 -15.616656
10.713752 -1.108307 -8.414741
8.518424 -3.328145 -10.649727
10.168564 -2.732781 -7.328348
4.811646 -9.152294 -7.785406
6.438138 -6.239682 -10.417125
4.099251 -8.965752 -9.726012
6.321760 -7.962028 -6.948287
4.943937 -7.371517 -11.189663
2.419782 -1.495508 -17.960252
6.075385 -3.754795 -14.017050
2.339664 -3.878230 -17.026820
4.297192 -4.902127 -14.909255
8.852946 -5.471421 -5.302765
7.977449 -4.930335 -9.378054
9.523022 -4.207563 -6.273568
7.685785 -6.707215 -6.102426
9.120057 -3.843857 -8.407163
7.170395 -6.523841 -8.216542
2.345786 8.661534 -15.464433
7.113434 6.954423 -15.648836
3.820130 10.244231 -14.214543
2.413035 6.565767 -16.941040
11.502944 1.189946 -9.034584
10.302692 4.025257 -12.880417
12.242433 3.290129 -8.822957
10.472498 0.000000 -10.349194
6.747152 12.833845 -10.917121
8.667770 8.400586 -14.024746
5.337411 11.673817 -12.663710
9.548875 12.026463 -10.495229
6.418523 9.570157 -14.527110
2.470174 1.526651 -18.334271
7.036709 4.348925 -16.235004
2.467948 4.090874 -17.960402
4.762259 0.000000 -17.230014
4.913333 5.605005 -17.046977
13.060673 8.071940 -7.823123
10.650028 6.582079 -12.519859
12.807638 5.658807 -8.437404
11.793227 10.291689 -9.363688
11.688613 4.926434 -10.774941
10.371446 9.436253 -11.884620
7.903728 -2.381117 -12.788500
8.892487 2.678996 -14.388346
9.250748 -1.210214 -11.636590
6.631589 -1.366183 -15.151197
9.889094 1.293725 -12.439571
6.994601 1.440967 -15.980569
11.446109 14.573327 1.507569
13.573159 10.856798 4.241746
10.587690 14.691116 3.948208
12.963134 13.117582 0.000000
12.425728 1.884848 6.959575
13.606481 6.185048 6.046790
8.310298 13.874011 8.574610
12.809574 10.896474 6.734392
9.512660 14.439832 6.379961
12.005112 13.023098 5.488883
14.247239 8.805278 -2.652723
14.247239 8.805278 2.652723
13.915591 11.062487 -1.447232
13.915591 11.062487 1.447232
6.766471 -8.615155 0.891213
8.346643 -6.676250 2.608408
6.401170 -8.882045 2.387031
7.615356 -7.706088 0.000000
11.063745 -1.678250 6.196736
9.771044 -4.441587 4.342302
5.495618 -9.174913 5.670408
8.009698 -6.813456 4.210947
5.977163 -9.073091 4.008770
7.246328 -7.860788 3.313109
9.196625 -5.683827 -1.712339
9.196625 -5.683827 1.712339
8.440831 -6.710213 -0.877853
8.440831 -6.710213 0.877853
2.117934 -7.820216 13.962331
5.709862 -5.582226 12.561120
3.187076 -8.546607 11.858979
2.224393 -6.052481 15.616656
10.713752 -1.108307 8.414741
8.518424 -3.328145 10.649727
10.168564 -2.732781 7.328348
4.811646 -9.152294 7.785406
6.438138 -6.239682 10.417125
4.099251 -8.965752 9.726012
6.321760 -7.962028 6.948287
4.943937 -7.371517 11.189663
2.419782 -1.495508 17.960252
6.075385 -3.754795 14.017050
2.339664 -3.878230 17.026820
4.297192 -4.902127 14.909255
8.852946 -5.471421 5.302765
7.977449 -4.930335 9.378054
9.523022 -4.207563 6.273568
7.685785 -6.707215 6.102426
9.120057 -3.843857 8.407163
7.170395 -6.523841 8.216542
2.345786 8.661534 15.464433
7.113434 6.954423 15.648836
3.820130 10.244231 14.214543
2.413035 6.565767 16.941040
11.502944 1.189946 9.034584
10.302692 4.025257 12.880417
12.242433 3.290129 8.822957
10.472498 0.000000 10.349194
6.747152 12.833845 10.917121
8.667770 8.400586 14.024746
5.337411 11.673817 12.663710
9.548875 12.026463 10.495229
6.418523 9.570157 14.527110
2.470174 1.526651 18.334271
7.036709 4.348925 16.235004
2.467948 4.090874 17.960402
4.762259 0.000000 17.230014
4.913333 5.605005 17.046977
13.060673 8.071940 7.823123
10.650028 6.582079 12.519859
12.807638 5.658807 8.437404
11.793227 10.291689 9.363688
11.688613 4.926434 10.774941
10.371446 9.436253 11.884620
7.903728 -2.381117 12.788500
8.892487 2.678996 14.388346
9.250748 -1.210214 11.636590
6.631589 -1.366183 15.151197
9.889094 1.293725 12.439571
6.994601 1.440967 15.980569
12.074231 0.000000 -5.322376
12.544862 0.000000 -1.747298
12.864769 1.832422 -4.985944
11.446914 -1.630467 -4.436432
12.074231 0.000000 5.322376
12.544862 0.000000 1.747298
12.864769 1.832422 4.985944
11.446914 -1.630467 4.436432
14.059164 6.093639 -3.766076
13.291469 1.790758 -1.106749
13.568002 3.910612 -4.461126
14.328306 6.271415 -1.291983
13.154386 1.807551 -2.996199
10.052405 -4.356996 -2.692772
11.814687 -1.591791 -0.983781
10.752989 -3.099260 -3.535557
10.124624 -4.431488 -0.912937
11.694102 -1.606892 -2.663587
14.059164 6.093639 3.766076
13.291469 1.790758 1.106749
13.568002 3.910612 4.461126
14.328306 6.271415 1.291983
13.154386 1.807551 2.996199
13.932753 3.850918 0.000000
10.052405 -4.356996 2.692772
11.814687 -1.591791 0.983781
10.752989 -3.099260 3.535557
10.124624 -4.431488 0.912937
11.694102 -1.606892 2.663587
11.019121 -3.045610 0.000000
-6.766471 8.615155 -0.891213
-8.346643 6.676250 -2.608408
-6.401170 8.882045 -2.387031
-11.063745 1.678250 -6.196736
-9.771044 4.441587 -4.342302
-5.495618 9.174913 -5.670408
-8.009698 6.813456 -4.210947
-5.977163 9.073091 -4.008770
-7.246328 7.860788 -3.313109
-11.446109 -14.573327 -1.507569
-13.573159 -10.856798 -4.241746
-10.587690 -14.691116 -3.948208
-12.425728 -1.884848 -6.959575
-13.606481 -6.185048 -6.046790
-8.310298 -13.874011 -8.574610
-12.809574 -10.896474 -6.734392
-9.512660 -14.439832 -6.379961
-12.005112 -13.023098 -5.488883
-2.345786 -8.661534 -15.464433
-7.113434 -6.954423 -15.648836
-3.820130 -10.244231 -14.214543
-2.413035 -6.565767 -16.941040
-11.502944 -1.189946 -9.034584
-10.302692 -4.025257 -12.880417
-12.242433 -3.290129 -8.822957
-6.747152 -12.833845 -10.917121
-8.667770 -8.400586 -14.024746
-5.337411 -11.673817 -12.663710
-9.548875 -12.026463 -10.495229
-6.418523 -9.570157 -14.527110
-2.470174 -1.526651 -18.334271
-7.036709 -4.348925 -16.235004
-2.467948 -4.090874 -17.960402
-4.913333 -5.605005 -17.046977
-13.060673 -8.071940 -7.823123
-10.650028 -6.582079 -12.519859
-12.807638 -5.658807 -8.437404
-11.793227 -10.291689 -9.363688
-11.688613 -4.926434 -10.774941
-10.371446 -9.436253 -11.884620
-2.117934 7.820216 -13.962331
-5.709862 5.582226 -12.561120
-3.187076 8.546607 -11.858979
-2.224393 6.052481 -15.616656
-10.713752 1.108307 -8.414741
-8.518424 3.328145 -10.649727
-10.168564 2.732781 -7.328348
-10.472498 0.000000 -10.349194
-4.811646 9.152294 -7.785406
-6.438138 6.239682 -10.417125
-4.099251 8.965752 -9.726012
-6.321760 7.962028 -6.948287
-4.943937 7.371517 -11.189663
-2.419782 1.495508 -17.960252
-6.075385 3.754795 -14.017050
-2.339664 3.878230 -17.026820
-4.762259 0.000000 -17.230014
-4.297192 4.902127 -14.909255
-8.852946 5.471421 -5.302765
-7.977449 4.930335 -9.378054
-9.523022 4.207563 -6.273568
-7.685785 6.707215 -6.102426
-9.120057 3.843857 -8.407163
-7.170395 6.523841 -8.216542
-8.892487 -2.678996 -14.388346
-7.903728 2.381117 -12.788500
-9.889094 -1.293725 -12.439571
-6.994601 -1.440967 -15.980569
-9.250748 1.210214 -11.636590
-6.631589 1.366183 -15.151197
-6.766471 8.615155 0.891213
-8.346643 6.676250 2.608408
-6.401170 8.882045 2.387031
-7.615356 7.706088 0.000000
-11.063745 1.678250 6.196736
-9.771044 4.441587 4.342302
-5.495618 9.174913 5.670408
-8.009698 6.813456 4.210947
-5.977163 9.073091 4.008770
-7.246328 7.860788 3.313109
-9.196625 5.683827 -1.712339
-9.196625 5.683827 1.712339
-8.440831 6.710213 -0.877853
-8.440831 6.710213 0.877853
-11.446109 -14.573327 1.507569
-13.573159 -10.856798 4.241746
-10.587690 -14.691116 3.948208
-12.963134 -13.117582 0.000000
-12.425728 -1.884848 6.959575
-13.606481 -6.185048 6.046790
-8.310298 -13.874011 8.574610
-12.809574 -10.896474 6.734392
-9.512660 -14.439832 6.379961
-12.005112 -13.023098 5.488883
-14.247239 -8.805278 -2.652723
-14.247239 -8.805278 2.652723
-13.915591 -11.062487 -1.447232
-13.915591 -11.062487 1.447232
-2.345786 -8.661534 15.464433
-7.113434 -6.954423 15.648836
-3.820130 -10.244231 14.214543
-2.413035 -6.565767 16.941040
-11.502944 -1.189946 9.034584
-10.302692 -4.025257 12.880417
-12.242433 -3.290129 8.822957
-6.747152 -12.833845 10.917121
-8.667770 -8.400586 14.024746
-5.337411 -11.673817 12.663710
-9.548875 -12.026463 10.495229
-6.418523 -9.570157 14.527110
-2.470174 -1.526651 18.334271
-7.036709 -4.348925 16.235004
-2.467948 -4.090874 17.960402
-4.913333 -5.605005 17.046977
-13.060673 -8.071940 7.823123
-10.650028 -6.582079 12.519859
-12.807638 -5.658807 8.437404
-11.793227 -10.291689 9.363688
-11.688613 -4.926434 10.774941
-10.371446 -9.436253 11.884620
-2.117934 7.820216 13.962331
-5.709862 5.582226 12.561120
-3.187076 8.546607 11.858979
-2.224393 6.052481 15.616656
-10.713752 1.108307 8.414741
-8.518424 3.328145 10.649727
-10.168564 2.732781 7.328348
-10.472498 0.000000 10.349194
-4.811646 9.152294 7.785406
-6.438138 6.239682 10.417125
-4.099251 8.965752 9.726012
-6.321760 7.962028 6.948287
-4.943937 7.371517 11.189663
-2.419782 1.495508 17.960252
-6.075385 3.754795 14.017050
-2.339664 3.878230 17.026820
-4.762259 0.000000 17.230014
-4.297192 4.902127 14.909255
-8.852946 5.471421 5.302765
-7.977449 4.930335 9.378054
-9.523022 4.207563 6.273568
-7.685785 6.707215 6.102426
-9.120057 3.843857 8.407163
-7.170395 6.523841 8.216542
-8.892487 -2.678996 14.388346
-7.903728 2.381117 12.788500
-9.889094 -1.293725 12.439571
-6.994601 -1.440967 15.980569
-9.250748 1.210214 11.636590
-6.631589 1.366183 15.151197
-12.074231 0.000000 -5.322376
-12.544862 0.000000 -1.747298
-11.446914 1.630467 -4.436432
-12.864769 -1.832422 -4.985944
-12.074231 0.000000 5.322376
-12.544862 0.000000 1.747298
-11.446914 1.630467 4.436432
-12.864769 -1.832422 4.985944
-10.052405 4.356996 -2.692772
-11.814687 1.591791 -0.983781
-10.752989 3.099260 -3.535557
-10.124624 4.431488 -0.912937
-11.694102 1.606892 -2.663587
-14.059164 -6.093639 -3.766076
-13.291469 -1.790758 -1.106749
-13.568002 -3.910612 -4.461126
-14.328306 -6.271415 -1.291983
-13.154386 -1.807551 -2.996199
-10.052405 4.356996 2.692772
-11.814687 1.591791 0.983781
-10.752989 3.099260 3.535557
-10.124624 4.431488 0.912937
-11.694102 1.606892 2.663587
-11.019121 3.045610 0.000000
-14.059164 -6.093639 3.766076
-13.291469 -1.790758 1.106749
-13.568002 -3.910612 4.461126
-14.328306 -6.271415 1.291983
-13.154386 -1.807551 2.996199
-13.932753 -3.850918 0.000000
-5.300568 10.073533 0.000000
-4.029179 11.177137 0.000000
-0.926847 13.372976 0.000000
-2.586861 12.281856 0.000000
8.337934 15.845933 0.000000
5.712775 15.847514 0.000000
0.998469 14.406370 0.000000
3.219901 15.287389 0.000000
-8.337934 -15.845933 0.000000
-5.712775 -15.847514 0.000000
-0.998469 -14.406370 0.000000
-3.219901 -15.287389 0.000000
5.300568 -10.073533 0.000000
4.029179 -11.177137 0.000000
0.926847 -13.372976 0.000000
2.586861 -12.281856 0.000000
-9.207278 -15.636755 1.195833
-8.265075 -15.548574 3.519874
-7.911749 -15.862520 1.169214
-5.992473 -14.480007 7.740646
-7.182266 -15.152305 5.713529
-5.275916 -15.758880 1.099933
-6.941783 -15.660279 3.431355
-6.580535 -15.893049 1.137580
-7.440877 -15.799142 2.321047
-0.685797 -9.653295 13.823920
-2.053894 -11.126697 12.626208
-4.725389 -13.564919 9.577271
-3.405832 -12.438114 11.208708
-0.587050 -14.188199 0.949867
-1.842782 -14.600125 2.981684
-1.633324 -14.673025 0.987073
-4.642657 -14.410650 7.511976
-3.204923 -14.717349 5.185674
-5.239910 -14.812751 6.572571
-3.960713 -15.479975 1.066012
-2.996005 -15.015772 3.098445
-2.765541 -15.113550 1.025620
-4.769209 -15.591245 2.180715
-2.302624 -14.881335 2.024688
-6.380489 -15.439531 4.547679
-3.740653 -15.062847 4.250704
-5.824528 -15.159122 5.578206
-5.583929 -15.584057 3.350743
-4.481787 -15.001253 5.397628
-4.252635 -15.355844 3.237138
5.702826 -9.685131 0.740678
5.297579 -9.966007 2.256097
5.106466 -10.238117 0.754644
4.271285 -10.320988 5.517339
4.826448 -10.182277 3.839464
3.799829 -11.349889 0.792196
4.666228 -10.526753 2.306538
4.470138 -10.796101 0.772755
4.893727 -10.390803 1.526509
0.661787 -9.315328 13.339937
1.833376 -9.932067 11.270582
0.000000 -10.073179 12.825297
3.607992 -10.357269 7.312566
2.806471 -10.249244 9.236189
-1.321527 -11.491330 11.628242
1.222030 -10.626152 10.752756
-0.664380 -10.803521 12.250293
0.639271 -10.395219 11.787312
0.561533 -13.571483 0.908579
1.616076 -12.803959 2.614865
1.450801 -13.033321 0.876768
0.000000 -13.831457 1.863510
3.512925 -10.904000 5.684031
2.594107 -11.912417 4.197353
3.835734 -10.843272 4.811272
3.051939 -11.928142 0.821419
2.444571 -12.252024 2.528157
2.283752 -12.480598 0.846945
3.525701 -11.526031 1.612122
1.958428 -12.656875 1.722038
-1.203754 -14.188675 3.921653
1.103201 -13.003461 3.594068
-0.591749 -14.041740 2.874298
0.566085 -13.432762 2.749642
4.403651 -10.655972 3.138692
2.931005 -11.802558 3.330657
4.133762 -10.758675 3.958943
3.977276 -11.100088 2.386640
3.387645 -11.338985 4.079901
3.234394 -11.679076 2.462045
-3.912128 -13.861514 8.566887
-1.213245 -13.113407 8.104531
-3.284596 -13.344939 9.399071
-3.221520 -14.115120 7.382505
3.087839 -10.940879 6.761835
1.118046 -12.084451 7.468602
2.691615 -10.935724 7.702218
2.623857 -11.496457 6.012889
-1.996018 -12.169313 10.916878
-0.624945 -12.560656 8.826133
-2.642110 -12.776458 10.187785
-0.644075 -11.772413 10.569144
-1.905587 -12.997003 9.139856
-1.873061 -14.263459 5.069181
-0.617036 -13.218875 6.935642
-2.534470 -14.243453 6.204265
-0.602179 -13.728697 4.871729
-1.866314 -13.704032 7.182550
1.770438 -10.793995 9.683104
0.599249 -12.044202 8.463230
2.251802 -10.889042 8.682784
0.618442 -11.303886 10.148506
1.686701 -11.504092 8.089999
0.000000 -11.952768 9.502099
1.643960 -12.518843 4.449151
0.590736 -12.655453 6.640028
2.139840 -12.025674 5.238229
0.576187 -13.136116 4.661447
1.646126 -12.087230 6.335153
0.000000 -13.213065 5.783281
-5.702826 9.685131 0.740678
-5.297579 9.966007 2.256097
-5.106466 10.238117 0.754644
-4.271285 10.320988 5.517339
-4.826448 10.182277 3.839464
-3.799829 11.349889 0.792196
-4.666228 10.526753 2.306538
-4.470138 10.796101 0.772755
-4.893727 10.390803 1.526509
-0.661787 9.315328 13.339937
-1.833376 9.932067 11.270582
-3.607992 10.357269 7.312566
-2.806471 10.249244 9.236189
-0.561533 13.571483 0.908579
-1.616076 12.803959 2.614865
-1.450801 13.033321 0.876768
-3.512925 10.904000 5.684031
-2.594107 11.912417 4.197353
-3.835734 10.843272 4.811272
-3.051939 11.928142 0.821419
-2.444571 12.252024 2.528157
-2.283752 12.480598 0.846945
-3.525701 11.526031 1.612122
-1.958428 12.656875 1.722038
-4.403651 10.655972 3.138692
-2.931005 11.802558 3.330657
-4.133762 10.758675 3.958943
-3.977276 11.100088 2.386640
-3.387645 11.338985 4.079901
-3.234394 11.679076 2.462045
9.207278 15.636755 1.195833
8.265075 15.548574 3.519874
7.911749 15.862520 1.169214
5.992473 14.480007 7.740646
7.182266 15.152305 5.713529
5.275916 15.758880 1.099933
6.941783 15.660279 3.431355
6.580535 15.893049 1.137580
7.440877 15.799142 2.321047
0.685797 9.653295 13.823920
2.053894 11.126697 12.626208
0.000000 10.073179 12.825297
4.725389 13.564919 9.577271
3.405832 12.438114 11.208708
-1.222030 10.626152 10.752756
1.321527 11.491330 11.628242
-0.639271 10.395219 11.787312
0.664380 10.803521 12.250293
0.587050 14.188199 0.949867
1.842782 14.600125 2.981684
1.633324 14.673025 0.987073
0.000000 13.831457 1.863510
4.642657 14.410650 7.511976
3.204923 14.717349 5.185674
5.239910 14.812751 6.572571
3.960713 15.479975 1.066012
2.996005 15.015772 3.098445
2.765541 15.113550 1.025620
4.769209 15.591245 2.180715
2.302624 14.881335 2.024688
-1.103201 13.003461 3.594068
1.203754 14.188675 3.921653
-0.566085 13.432762 2.749642
0.591749 14.041740 2.874298
6.380489 15.439531 4.547679
3.740653 15.062847 4.250704
5.824528 15.159122 5.578206
5.583929 15.584057 3.350743
4.481787 15.001253 5.397628
4.252635 15.355844 3.237138
-3.087839 10.940879 6.761835
-1.118046 12.084451 7.468602
-2.691615 10.935724 7.702218
-2.623857 11.496457 6.012889
3.912128 13.861514 8.566887
1.213245 13.113407 8.104531
3.284596 13.344939 9.399071
3.221520 14.115120 7.382505
-1.770438 10.793995 9.683104
-0.599249 12.044202 8.463230
-2.251802 10.889042 8.682784
-0.618442 11.303886 10.148506
-1.686701 11.504092 8.089999
-1.643960 12.518843 4.449151
-0.590736 12.655453 6.640028
-2.139840 12.025674 5.238229
-0.576187 13.136116 4.661447
-1.646126 12.087230 6.335153
1.996018 12.169313 10.916878
0.624945 12.560656 8.826133
2.642110 12.776458 10.187785
0.644075 11.772413 10.569144
1.905587 12.997003 9.139856
0.000000 11.952768 9.502099
1.873061 14.263459 5.069181
0.617036 13.218875 6.935642
2.534470 14.243453 6.204265
0.602179 13.728697 4.871729
1.866314 13.704032 7.182550
0.000000 13.213065 5.783281
0.000000 -8.005655 15.214449
0.000000 -6.041944 16.760645
0.000000 -1.284320 18.530757
0.000000 -3.772686 17.911894
0.000000 8.005655 15.214449
0.000000 6.041944 16.760645
0.000000 1.284320 18.530757
0.000000 3.772686 17.911894
-9.207278 -15.636755 -1.195833
-8.265075 -15.548574 -3.519874
-7.911749 -15.862520 -1.169214
-5.992473 -14.480007 -7.740646
-7.182266 -15.152305 -5.713529
-5.275916 -15.758880 -1.099933
-6.941783 -15.660279 -3.431355
-6.580535 -15.893049 -1.137580
-7.440877 -15.799142 -2.321047
-0.685797 -9.653295 -13.823920
-2.053894 -11.126697 -12.626208
-4.725389 -13.564919 -9.577271
-3.405832 -12.438114 -11.208708
-0.587050 -14.188199 -0.949867
-1.842782 -14.600125 -2.981684
-1.633324 -14.673025 -0.987073
-4.642657 -14.410650 -7.511976
-3.204923 -14.717349 -5.185674
-5.239910 -14.812751 -6.572571
-3.960713 -15.479975 -1.066012
-2.996005 -15.015772 -3.098445
-2.765541 -15.113550 -1.025620
-4.769209 -15.591245 -2.180715
-2.302624 -14.881335 -2.024688
-6.380489 -15.439531 -4.547679
-3.740653 -15.062847 -4.250704
-5.824528 -15.159122 -5.578206
-5.583929 -15.584057 -3.350743
-4.481787 -15.001253 -5.397628
-4.252635 -15.355844 -3.237138
5.702826 -9.685131 -0.740678
5.297579 -9.966007 -2.256097
5.106466 -10.238117 -0.754644
4.271285 -10.320988 -5.517339
4.826448 -10.182277 -3.839464
3.799829 -11.349889 -0.792196
4.666228 -10.526753 -2.306538
4.470138 -10.796101 -0.772755
4.893727 -10.390803 -1.526509
0.661787 -9.315328 -13.339937
1.833376 -9.932067 -11.270582
0.000000 -10.073179 -12.825297
3.607992 -10.357269 -7.312566
2.806471 -10.249244 -9.236189
-1.321527 -11.491330 -11.628242
1.222030 -10.626152 -10.752756
-0.664380 -10.803521 -12.250293
0.639271 -10.395219 -11.787312
0.561533 -13.571483 -0.908579
1.616076 -12.803959 -2.614865
1.450801 -13.033321 -0.876768
0.000000 -13.831457 -1.863510
3.512925 -10.904000 -5.684031
2.594107 -11.912417 -4.197353
3.835734 -10.843272 -4.811272
3.051939 -11.928142 -0.821419
2.444571 -12.252024 -2.528157
2.283752 -12.480598 -0.846945
3.525701 -11.526031 -1.612122
1.958428 -12.656875 -1.722038
-1.203754 -14.188675 -3.921653
1.103201 -13.003461 -3.594068
-0.591749 -14.041740 -2.874298
0.566085 -13.432762 -2.749642
4.403651 -10.655972 -3.138692
2.931005 -11.802558 -3.330657
4.133762 -10.758675 -3.958943
3.977276 -11.100088 -2.386640
3.387645 -11.338985 -4.079901
3.234394 -11.679076 -2.462045
-3.912128 -13.861514 -8.566887
-1.213245 -13.113407 -8.104531
-3.284596 -13.344939 -9.399071
-3.221520 -14.115120 -7.382505
3.087839 -10.940879 -6.761835
1.118046 -12.084451 -7.468602
2.691615 -10.935724 -7.702218
2.623857 -11.496457 -6.012889
-1.996018 -12.169313 -10.916878
-0.624945 -12.560656 -8.826133
-2.642110 -12.776458 -10.187785
-0.644075 -11.772413 -10.569144
-1.905587 -12.997003 -9.139856
-1.873061 -14.263459 -5.069181
-0.617036 -13.218875 -6.935642
-2.534470 -14.243453 -6.204265
-0.602179 -13.728697 -4.871729
-1.866314 -13.704032 -7.182550
1.770438 -10.793995 -9.683104
0.599249 -12.044202 -8.463230
2.251802 -10.889042 -8.682784
0.618442 -11.303886 -10.148506
1.686701 -11.504092 -8.089999
0.000000 -11.952768 -9.502099
1.643960 -12.518843 -4.449151
0.590736 -12.655453 -6.640028
2.139840 -12.025674 -5.238229
0.576187 -13.136116 -4.661447
1.646126 -12.087230 -6.335153
0.000000 -13.213065 -5.783281
-5.702826 9.685131 -0.740678
-5.297579 9.966007 -2.256097
-5.106466 10.238117 -0.754644
-4.271285 10.320988 -5.517339
-4.826448 10.182277 -3.839464
-3.799829 11.349889 -0.792196
-4.666228 10.526753 -2.306538
-4.470138 10.796101 -0.772755
-4.893727 10.390803 -1.526509
-0.661787 9.315328 -13.339937
-1.833376 9.932067 -11.270582
-3.607992 10.357269 -7.312566
-2.806471 10.249244 -9.236189
-0.561533 13.571483 -0.908579
-1.616076 12.803959 -2.614865
-1.450801 13.033321 -0.876768
-3.512925 10.904000 -5.684031
-2.594107 11.912417 -4.197353
-3.835734 10.843272 -4.811272
-3.051939 11.928142 -0.821419
-2.444571 12.252024 -2.528157
-2.283752 12.480598 -0.846945
-3.525701 11.526031 -1.612122
-1.958428 12.656875 -1.722038
-4.403651 10.655972 -3.138692
-2.931005 11.802558 -3.330657
-4.133762 10.758675 -3.958943
-3.977276 11.100088 -2.386640
-3.387645 11.338985 -4.079901
-3.234394 11.679076 -2.462045
9.207278 15.636755 -1.195833
8.265075 15.548574 -3.519874
7.911749 15.862520 -1.169214
5.992473 14.480007 -7.740646
7.182266 15.152305 -5.713529
5.275916 15.758880 -1.099933
6.941783 15.660279 -3.431355
6.580535 15.893049 -1.137580
7.440877 15.799142 -2.321047
0.685797 9.653295 -13.823920
2.053894 11.126697 -12.626208
0.000000 10.073179 -12.825297
4.725389 13.564919 -9.577271
3.405832 12.438114 -11.208708
-1.222030 10.626152 -10.752756
1.321527 11.491330 -11.628242
-0.639271 10.395219 -11.787312
0.664380 10.803521 -12.250293
0.587050 14.188199 -0.949867
1.842782 14.600125 -2.981684
1.633324 14.673025 -0.987073
0.000000 13.831457 -1.863510
4.642657 14.410650 -7.511976
3.204923 14.717349 -5.185674
5.239910 14.812751 -6.572571
3.960713 15.479975 -1.066012
2.996005 15.015772 -3.098445
2.765541 15.113550 -1.025620
4.769209 15.591245 -2.180715
2.302624 14.881335 -2.024688
-1.103201 13.003461 -3.594068
1.203754 14.188675 -3.921653
-0.566085 13.432762 -2.749642
0.591749 14.041740 -2.874298
6.380489 15.439531 -4.547679
3.740653 15.062847 -4.250704
5.824528 15.159122 -5.578206
5.583929 15.584057 -3.350743
4.481787 15.001253 -5.397628
4.252635 15.355844 -3.237138
-3.087839 10.940879 -6.761835
-1.118046 12.084451 -7.468602
-2.691615 10.935724 -7.702218
-2.623857 11.496457 -6.012889
3.912128 13.861514 -8.566887
1.213245 13.113407 -8.104531
3.284596 13.344939 -9.399071
3.221520 14.115120 -7.382505
-1.770438 10.793995 -9.683104
-0.599249 12.044202 -8.463230
-2.251802 10.889042 -8.682784
-0.618442 11.303886 -10.148506
-1.686701 11.504092 -8.089999
-1.643960 12.518843 -4.449151
-0.590736 12.655453 -6.640028
-2.139840 12.025674 -5.238229
-0.576187 13.136116 -4.661447
-1.646126 12.087230 -6.335153
1.996018 12.169313 -10.916878
0.624945 12.560656 -8.826133
2.642110 12.776458 -10.187785
0.644075 11.772413 -10.569144
1.905587 12.997003 -9.139856
0.000000 11.952768 -9.502099
1.873061 14.263459 -5.069181
0.617036 13.218875 -6.935642
2.534470 14.243453 -6.204265
0.602179 13.728697 -4.871729
1.866314 13.704032 -7.182550
0.000000 13.213065 -5.783281
0.000000 -8.005655 -15.214449
0.000000 -6.041944 -16.760645
0.000000 -1.284320 -18.530757
0.000000 -3.772686 -17.911894
0.000000 8.005655 -15.214449
0.000000 6.041944 -16.760645
0.000000 1.284320 -18.530757
0.000000 3.772686 -17.911894
10.579486 15.150264 -0.751596
12.191071 13.834025 -2.250369
10.170700 15.243540 -1.962673
13.750709 9.708445 -4.790110
13.258249 11.947779 -3.630403
9.212397 15.171459 -4.334399
11.800136 13.942423 -3.485335
9.712077 15.249250 -3.166756
11.047310 14.673597 -2.737495
12.036052 0.920467 -7.087102
12.786731 2.894651 -6.796977
13.750597 7.350721 -5.690611
13.388413 5.048412 -6.346172
6.849460 14.066412 -8.693521
9.690360 13.451537 -8.313507
7.477225 14.447466 -7.684798
13.413420 9.745177 -6.022851
11.979496 11.931388 -7.374003
13.229826 10.906256 -5.495291
8.657557 15.001292 -5.522960
10.277854 13.701635 -7.182800
8.084138 14.762586 -6.620062
10.077908 14.607496 -5.182510
8.932753 14.193029 -7.500646
12.437877 13.023643 -4.234639
11.501494 12.947598 -6.716638
12.905518 12.015856 -4.892959
11.363324 13.939618 -4.746383
12.476926 12.009839 -6.150893
10.852547 13.858043 -5.989553
6.335296 -9.072408 -0.450077
7.181092 -8.148866 -1.325569
6.155439 -9.225587 -1.187835
8.714571 -6.152769 -3.035753
7.969376 -7.181668 -2.182192
5.758079 -9.482707 -2.709155
7.007054 -8.279168 -2.069631
5.963005 -9.362709 -1.944319
6.591460 -8.755110 -1.633347
11.354599 -0.868352 -6.685847
10.756758 -2.435107 -5.717914
9.426266 -5.039044 -3.901010
10.108366 -3.811594 -4.791414
4.754755 -9.764616 -6.034865
6.185094 -8.585752 -5.306286
5.034830 -9.728281 -5.174601
8.554310 -6.214915 -3.841029
7.436462 -7.406598 -4.577529
8.188786 -6.750580 -3.401387
5.531869 -9.585289 -3.528974
6.409265 -8.544333 -4.479191
5.294051 -9.667559 -4.335273
6.199219 -8.985502 -3.187915
5.748339 -9.133394 -4.826760
7.422881 -7.772464 -2.527218
7.049596 -7.935955 -4.116821
7.810053 -7.271655 -2.961080
6.830445 -8.379044 -2.853030
7.632615 -7.346880 -3.762738
6.631320 -8.467793 -3.659845
1.084842 -8.352702 -14.185425
3.096823 -7.271701 -13.679801
1.694328 -8.780120 -13.159381
1.109448 -7.507333 -15.051693
6.478943 -5.015718 -12.119809
4.891382 -6.148775 -12.971968
2.765966 -9.364602 -11.064722
3.605903 -7.664040 -12.621544
2.258496 -9.114285 -12.106054
2.681878 -8.225013 -12.914361
1.158738 -5.557979 -16.601388
3.179746 -6.432766 -14.511966
1.135706 -6.569698 -15.866877
2.176239 -6.976647 -14.813447
11.183303 -0.554797 -7.809342
10.214144 -1.661526 -9.001093
10.918800 -1.405843 -7.285174
7.880317 -3.888118 -11.161411
9.118494 -2.770708 -10.118639
10.325564 -2.949954 -6.269878
9.957934 -2.489290 -8.427874
10.629075 -2.207301 -6.769539
10.450798 -1.949693 -7.868092
4.387395 -9.771116 -7.098954
5.228584 -8.494138 -8.460027
4.045678 -9.739906 -8.029275
5.175393 -9.182288 -6.705891
6.825385 -5.377592 -11.043706
6.042120 -7.042794 -9.776356
6.104923 -5.940023 -11.477291
3.250604 -9.547593 -9.997240
4.893747 -8.379995 -9.433628
3.665514 -9.668047 -9.001565
3.670603 -8.787797 -10.780168
4.475870 -9.079185 -8.739296
6.594268 -7.993223 -5.926068
6.005902 -7.897579 -8.013270
5.913316 -8.585510 -6.312593
5.595088 -8.556980 -7.369031
4.514704 -7.077057 -12.262697
5.316167 -7.606892 -10.140916
5.331031 -6.510028 -11.888076
4.094270 -7.961716 -11.540165
5.714665 -6.805772 -10.813523
4.524315 -8.197663 -10.467918
1.234735 -0.763108 -18.443291
3.514702 -2.172205 -17.210102
1.223782 -2.025010 -18.191751
6.689176 -4.134138 -12.832226
5.346786 -3.304495 -15.174597
5.902711 -4.705871 -13.303072
1.189037 -4.417804 -17.266460
3.443315 -3.329473 -16.687090
1.207412 -3.255736 -17.792440
2.289098 -5.006244 -16.366143
2.388322 -2.716174 -17.554019
4.166929 -5.846288 -14.146871
4.407718 -3.878827 -15.619245
5.057909 -5.281256 -13.745183
3.289348 -5.481616 -15.298515
5.212807 -4.328326 -14.487594
3.380048 -4.440377 -16.033761
8.977398 -5.548337 -4.371429
8.696731 -5.374875 -6.265043
9.323553 -4.959321 -4.825365
8.436381 -6.161150 -4.754979
7.626400 -4.713375 -10.497101
8.266455 -5.108950 -8.299785
8.255697 -4.159764 -10.014567
7.235695 -5.584279 -9.907742
9.992191 -3.678782 -5.766701
9.027688 -4.732580 -6.771839
9.664260 -4.333793 -5.292245
9.851600 -3.495193 -6.796752
9.191754 -4.857602 -5.785070
7.262989 -7.369384 -5.523313
8.099246 -6.004672 -6.681736
7.862694 -6.771131 -5.141120
7.026693 -7.334903 -6.527998
8.285133 -6.091737 -5.706429
9.410109 -3.059698 -8.986869
8.816918 -4.573825 -7.832165
8.852974 -3.605006 -9.508454
9.659794 -3.289120 -7.874489
8.565625 -4.386924 -8.898759
9.346500 -4.039629 -7.319456
6.432554 -7.157864 -8.676384
7.858767 -5.890103 -7.745306
6.834785 -6.402479 -9.295723
6.750440 -7.266128 -7.584841
7.578533 -5.754156 -8.800256
7.450919 -6.631251 -7.137834
1.144236 8.810003 -14.962061
3.579010 8.403932 -15.809797
1.855315 9.614366 -14.409724
1.164906 7.882597 -15.804072
8.115457 6.282636 -15.181146
6.001048 7.543695 -15.914807
3.280412 11.106340 -13.122669
4.335973 9.215742 -15.176967
2.573315 10.384753 -13.793554
3.088869 9.473209 -14.874194
1.202765 5.769158 -17.232167
3.619574 7.322557 -16.519284
1.186162 6.861565 -16.571780
2.387915 7.655247 -16.254312
11.591800 0.575062 -8.094597
11.344761 1.845442 -9.997436
11.994329 1.544322 -8.002781
11.125269 0.000000 -8.737952
9.714146 4.792923 -13.758785
10.760754 3.269719 -11.941027
12.709082 3.630912 -7.717195
11.708108 2.926800 -9.909129
12.371255 2.569093 -7.879114
11.889603 2.218115 -8.951325
10.091769 -1.146910 -9.972948
10.814314 1.229026 -10.686985
10.622858 -0.576118 -9.368288
11.005313 0.596860 -9.705575
6.074899 13.529335 -9.829393
7.362136 11.960217 -11.912186
5.404975 13.012391 -10.727009
7.551646 13.398285 -9.784864
8.882868 6.998643 -14.372782
8.337905 9.718798 -13.491013
7.912336 7.698616 -14.875237
4.020569 11.809116 -12.365271
6.645066 11.378934 -12.809629
4.714405 12.434569 -11.577372
4.588128 10.984445 -13.474840
6.054498 12.281389 -11.821622
10.276087 12.456129 -9.234806
8.754139 11.511427 -11.680057
8.981784 13.040601 -9.588248
8.198702 12.538880 -10.798132
5.628246 8.822598 -15.287264
7.176690 10.269111 -13.689980
6.810575 8.316786 -15.187428
5.132974 9.981579 -14.467871
7.596099 9.046431 -14.373650
5.909673 10.707812 -13.673224
1.241278 0.767152 -18.541026
3.674727 2.271106 -17.993680
1.241063 2.053605 -18.448638
2.459155 0.000000 -18.252491
8.044683 4.971887 -15.432571
5.967343 3.688020 -16.935785
7.105928 5.665123 -16.014788
1.225498 4.553275 -17.795933
3.687251 3.565344 -17.869261
1.234800 3.329586 -18.196027
2.451193 5.360744 -17.525056
2.479766 2.820171 -18.226128
4.647710 -1.426618 -16.815574
4.829830 1.482519 -17.474490
3.613754 -0.743985 -17.654187
3.669217 0.755404 -17.925139
4.883233 6.851278 -16.578749
4.899856 4.311913 -17.363192
6.037136 6.303724 -16.406295
3.680400 6.133294 -17.117266
6.026417 5.003887 -16.748804
3.704484 4.866590 -17.572774
13.470526 8.325243 -6.559301
12.574088 7.771214 -9.058254
13.401609 7.128493 -6.935946
13.018294 9.507353 -7.337473
9.854994 6.090721 -13.564573
11.368754 7.026277 -11.414594
10.512206 5.296742 -12.751823
9.764692 7.536078 -13.370664
13.011053 4.790223 -7.508949
12.480557 6.542675 -9.361901
13.242317 5.938319 -7.251624
12.554709 4.454214 -8.661663
12.976647 6.857819 -8.167191
11.445167 11.612826 -8.703750
11.977162 8.879707 -9.880948
12.341652 10.628284 -8.069742
10.780473 11.253334 -10.015367
12.536359 9.217498 -8.634484
11.422388 3.713991 -10.908642
11.889025 6.167498 -10.561152
11.033116 4.492779 -11.850015
12.023753 4.094039 -9.801546
11.240780 5.757016 -11.677957
12.286761 5.310433 -9.622041
9.225377 10.265594 -12.443410
11.302712 8.471321 -11.139529
9.555005 8.950643 -12.995389
10.033639 10.800141 -11.273865
10.577302 8.031033 -12.282451
11.124196 9.900435 -10.656761
7.562648 -3.453536 -12.236622
8.217570 -1.230166 -13.296308
8.247707 -2.882241 -11.710216
7.023233 -3.064744 -13.428204
8.984461 4.102817 -14.537164
8.724393 1.306038 -14.116365
9.622160 3.362557 -13.661685
8.057263 3.515966 -15.405238
9.500464 -1.737044 -10.590402
8.920442 -0.631623 -12.694869
8.896574 -2.307246 -11.157156
9.882277 -0.602218 -11.007347
8.598664 -1.792753 -12.227420
5.596653 -2.067961 -15.747638
7.597594 -0.675927 -14.480510
6.368189 -2.601434 -14.619782
5.773892 -0.713692 -16.271025
7.330745 -1.904821 -13.986782
10.518230 1.923130 -11.724931
9.214842 0.652468 -13.113837
10.132440 2.627757 -12.707050
10.227739 0.623270 -11.392139
9.449800 1.970208 -13.437748
9.592817 0.000000 -12.066881
5.997332 2.216012 -16.875053
7.825124 0.696170 -14.914169
7.053474 2.881375 -16.193026
5.911412 0.730691 -16.658560
7.978708 2.073188 -15.223071
6.840728 0.000000 -15.629016
10.579486 15.150264 0.751596
12.191071 13.834025 2.250369
10.170700 15.243540 1.962673
11.483850 14.621380 0.000000
13.750709 9.708445 4.790110
13.258249 11.947779 3.630403
9.212397 15.171459 4.334399
11.800136 13.942423 3.485335
9.712077 15.249250 3.166756
11.047310 14.673597 2.737495
12.921742 13.075696 -1.486028
12.921742 13.075696 1.486028
12.275929 13.919881 -0.754928
12.275929 13.919881 0.754928
12.036052 0.920467 7.087102
12.786731 2.894651 6.796977
13.750597 7.350721 5.690611
13.388413 5.048412 6.346172
6.849460 14.066412 8.693521
9.690360 13.451537 8.313507
7.477225 14.447466 7.684798
13.413420 9.745177 6.022851
11.979496 11.931388 7.374003
13.229826 10.906256 5.495291
8.657557 15.001292 5.522960
10.277854 13.701635 7.182800
8.084138 14.762586 6.620062
10.077908 14.607496 5.182510
8.932753 14.193029 7.500646
12.437877 13.023643 4.234639
11.501494 12.947598 6.716638
12.905518 12.015856 4.892959
11.363324 13.939618 4.746383
12.476926 12.009839 6.150893
10.852547 13.858043 5.989553
14.063058 8.691448 -3.969010
14.357504 8.873425 -1.328348
13.988679 9.852468 -3.443040
14.063058 8.691448 3.969010
14.357504 8.873425 1.328348
13.988679 9.852468 3.443040
13.441421 12.058064 -2.204670
14.228115 9.997824 -0.707908
13.784522 10.991602 -2.850573
13.522796 12.140619 -0.739840
14.148362 9.949523 -2.074397
13.441421 12.058064 2.204670
14.228115 9.997824 0.707908
13.784522 10.991602 2.850573
13.522796 12.140619 0.739840
14.148362 9.949523 2.074397
13.957859 11.096089 0.000000
6.335296 -9.072408 0.450077
7.181092 -8.148866 1.325569
6.155439 -9.225587 1.187835
6.774243 -8.625050 0.000000
8.714571 -6.152769 3.035753
7.969376 -7.181668 2.182192
5.758079 -9.482707 2.709155
7.007054 -8.279168 2.069631
5.963005 -9.362709 1.944319
6.591460 -8.755110 1.633347
7.606938 -7.697570 -0.874814
7.606938 -7.697570 0.874814
7.200088 -8.164300 -0.442781
7.200088 -8.164300 0.442781
11.354599 -0.868352 6.685847
10.756758 -2.435107 5.717914
9.426266 -5.039044 3.901010
10.108366 -3.811594 4.791414
4.754755 -9.764616 6.034865
6.185094 -8.585752 5.306286
5.034830 -9.728281 5.174601
8.554310 -6.214915 3.841029
7.436462 -7.406598 4.577529
8.188786 -6.750580 3.401387
5.531869 -9.585289 3.528974
6.409265 -8.544333 4.479191
5.294051 -9.667559 4.335273
6.199219 -8.985502 3.187915
5.748339 -9.133394 4.826760
7.422881 -7.772464 2.527218
7.049596 -7.935955 4.116821
7.810053 -7.271655 2.961080
6.830445 -8.379044 2.853030
7.632615 -7.346880 3.762738
6.631320 -8.467793 3.659845
9.146522 -5.652862 -2.581418
9.226083 -5.702033 -0.853592
8.780686 -6.184389 -2.161194
9.146522 -5.652862 2.581418
9.226083 -5.702033 0.853592
8.780686 -6.184389 2.161194
8.020342 -7.194908 -1.315501
8.845305 -6.215426 -0.440091
8.403303 -6.700687 -1.737763
8.035482 -7.214169 -0.439626
8.823945 -6.205245 -1.293744
8.020342 -7.194908 1.315501
8.845305 -6.215426 0.440091
8.403303 -6.700687 1.737763
8.035482 -7.214169 0.439626
8.823945 -6.205245 1.293744
8.450237 -6.717690 0.000000
1.084842 -8.352702 14.185425
3.096823 -7.271701 13.679801
1.694328 -8.780120 13.159381
1.109448 -7.507333 15.051693
6.478943 -5.015718 12.119809
4.891382 -6.148775 12.971968
2.765966 -9.364602 11.064722
3.605903 -7.664040 12.621544
2.258496 -9.114285 12.106054
2.681878 -8.225013 12.914361
1.158738 -5.557979 16.601388
3.179746 -6.432766 14.511966
1.135706 -6.569698 15.866877
2.176239 -6.976647 14.813447
11.183303 -0.554797 7.809342
10.214144 -1.661526 9.001093
10.918800 -1.405843 7.285174
7.880317 -3.888118 11.161411
9.118494 -2.770708 10.118639
10.325564 -2.949954 6.269878
9.957934 -2.489290 8.427874
10.629075 -2.207301 6.769539
10.450798 -1.949693 7.868092
4.387395 -9.771116 7.098954
5.228584 -8.494138 8.460027
4.045678 -9.739906 8.029275
5.175393 -9.182288 6.705891
6.825385 -5.377592 11.043706
6.042120 -7.042794 9.776356
6.104923 -5.940023 11.477291
3.250604 -9.547593 9.997240
4.893747 -8.379995 9.433628
3.665514 -9.668047 9.001565
3.670603 -8.787797 10.780168
4.475870 -9.079185 8.739296
6.594268 -7.993223 5.926068
6.005902 -7.897579 8.013270
5.913316 -8.585510 6.312593
5.595088 -8.556980 7.369031
4.514704 -7.077057 12.262697
5.316167 -7.606892 10.140916
5.331031 -6.510028 11.888076
4.094270 -7.961716 11.540165
5.714665 -6.805772 10.813523
4.524315 -8.197663 10.467918
1.234735 -0.763108 18.443291
3.514702 -2.172205 17.210102
1.223782 -2.025010 18.191751
6.689176 -4.134138 12.832226
5.346786 -3.304495 15.174597
5.902711 -4.705871 13.303072
1.189037 -4.417804 17.266460
3.443315 -3.329473 16.687090
1.207412 -3.255736 17.792440
2.289098 -5.006244 16.366143
2.388322 -2.716174 17.554019
4.166929 -5.846288 14.146871
4.407718 -3.878827 15.619245
5.057909 -5.281256 13.745183
3.289348 -5.481616 15.298515
5.212807 -4.328326 14.487594
3.380048 -4.440377 16.033761
8.977398 -5.548337 4.371429
8.696731 -5.374875 6.265043
9.323553 -4.959321 4.825365
8.436381 -6.161150 4.754979
7.626400 -4.713375 10.497101
8.266455 -5.108950 8.299785
8.255697 -4.159764 10.014567
7.235695 -5.584279 9.907742
9.992191 -3.678782 5.766701
9.027688 -4.732580 6.771839
9.664260 -4.333793 5.292245
9.851600 -3.495193 6.796752
9.191754 -4.857602 5.785070
7.262989 -7.369384 5.523313
8.099246 -6.004672 6.681736
7.862694 -6.771131 5.141120
7.026693 -7.334903 6.527998
8.285133 -6.091737 5.706429
9.410109 -3.059698 8.986869
8.816918 -4.573825 7.832165
8.852974 -3.605006 9.508454
9.659794 -3.289120 7.874489
8.565625 -4.386924 8.898759
9.346500 -4.039629 7.319456
6.432554 -7.157864 8.676384
7.858767 -5.890103 7.745306
6.834785 -6.402479 9.295723
6.750440 -7.266128 7.584841
7.578533 -5.754156 8.800256
7.450919 -6.631251 7.137834
1.144236 8.810003 14.962061
3.579010 8.403932 15.809797
1.855315 9.614366 14.409724
1.164906 7.882597 15.804072
8.115457 6.282636 15.181146
6.001048 7.543695 15.914807
3.280412 11.106340 13.122669
4.335973 9.215742 15.176967
2.573315 10.384753 13.793554
3.088869 9.473209 14.874194
1.202765 5.769158 17.232167
3.619574 7.322557 16.519284
1.186162 6.861565 16.571780
2.387915 7.655247 16.254312
11.591800 0.575062 8.094597
11.344761 1.845442 9.997436
11.994329 1.544322 8.002781
11.125269 0.000000 8.737952
9.714146 4.792923 13.758785
10.760754 3.269719 11.941027
12.709082 3.630912 7.717195
11.708108 2.926800 9.909129
12.371255 2.569093 7.879114
11.889603 2.218115 8.951325
10.091769 -1.146910 9.972948
10.814314 1.229026 10.686985
10.622858 -0.576118 9.368288
11.005313 0.596860 9.705575
6.074899 13.529335 9.829393
7.362136 11.960217 11.912186
5.404975 13.012391 10.727009
7.551646 13.398285 9.784864
8.882868 6.998643 14.372782
8.337905 9.718798 13.491013
7.912336 7.698616 14.875237
4.020569 11.809116 12.365271
6.645066 11.378934 12.809629
4.714405 12.434569 11.577372
4.588128 10.984445 13.474840
6.054498 12.281389 11.821622
10.276087 12.456129 9.234806
8.754139 11.511427 11.680057
8.981784 13.040601 9.588248
8.198702 12.538880 10.798132
5.628246 8.822598 15.287264
7.176690 10.269111 13.689980
6.810575 8.316786 15.187428
5.132974 9.981579 14.467871
7.596099 9.046431 14.373650
5.909673 10.707812 13.673224
1.241278 0.767152 18.541026
3.674727 2.271106 17.993680
1.241063 2.053605 18.448638
2.459155 0.000000 18.252491
8.044683 4.971887 15.432571
5.967343 3.688020 16.935785
7.105928 5.665123 16.014788
1.225498 4.553275 17.795933
3.687251 3.565344 17.869261
1.234800 3.329586 18.196027
2.451193 5.360744 17.525056
2.479766 2.820171 18.226128
4.647710 -1.426618 16.815574
4.829830 1.482519 17.474490
3.613754 -0.743985 17.654187
3.669217 0.755404 17.925139
4.883233 6.851278 16.578749
4.899856 4.311913 17.363192
6.037136 6.303724 16.406295
3.680400 6.133294 17.117266
6.026417 5.003887 16.748804
3.704484 4.866590 17.572774
13.470526 8.325243 6.559301
12.574088 7.771214 9.058254
13.401609 7.128493 6.935946
13.018294 9.507353 7.337473
9.854994 6.090721 13.564573
11.368754 7.026277 11.414594
10.512206 5.296742 12.751823
9.764692 7.536078 13.370664
13.011053 4.790223 7.508949
12.480557 6.542675 9.361901
13.242317 5.938319 7.251624
12.554709 4.454214 8.661663
12.976647 6.857819 8.167191
11.445167 11.612826 8.703750
11.977162 8.879707 9.880948
12.341652 10.628284 8.069742
10.780473 11.253334 10.015367
