-16.50481035 37.1391106 -16.8821888
-16.05825153 41.43362019 -5.901689388
-3.611535375 27.42033015 -34.9119038
-10.53309878 33.70485246 -26.95958625
-4.087149508 49.08449548 -6.613146821
-10.91531357 40.74803372 -17.66134835
-10.33367501 45.36853485 -6.23411244
-13.65243164 41.52229804 -11.9676861
32.73538619 58.44624693 -8.865660373
22.3645052 50.32459113 -22.87586415
22.58098501 58.26362568 -8.298908466
3.752191325 28.48825063 -36.27159338
12.27550741 39.28038414 -31.41930099
0 32.58243216 -32.97063178
4.430619835 53.20939174 -7.168893484
13.33934302 49.79719509 -21.5835104
12.80043962 56.19851509 -7.722265292
0 49.14697939 -13.58389101
17.94395654 54.57447664 -15.72962568
-7.213192297 38.74059753 -23.94300602
8.103146138 43.52035969 -26.89706149
-3.757197067 36.12662904 -28.71961009
-3.974541881 44.07834491 -19.29283156
3.962272636 38.098495 -30.28718567
4.261515817 47.26093463 -20.68583231
0 -17.57131285 -39.86190906
0 -5.862993087 -42.09381616
0 17.57131285 -39.86190906
0 5.862993087 -42.09381616
44.26700757 56.36130204 -5.830413526
52.24251223 41.78735143 -16.32630027
39.26335378 54.48048442 -14.6415192
44.79172742 6.794418181 -25.08757315
50.67688364 23.03600446 -22.52106579
26.9212439 44.94491474 -27.77748493
45.72703286 38.89773746 -24.04012384
33.0751622 50.20675552 -22.1828861
43.76541851 47.47655187 -20.01008167
26.20562485 -33.36532598 -3.451546377
32.26461435 -25.80757933 -10.08301017
24.40132862 -33.85844752 -9.099388797
40.45177272 -6.136094227 -22.65679101
37.08600532 -16.85804893 -16.48121009
19.53653278 -32.6161675 -20.1579001
30.01252204 -25.53017614 -15.77851659
22.13075506 -33.59358912 -14.8426791
27.44148836 -29.76841739 -12.54658226
5.677653233 -20.9640527 -37.42953248
16.25205198 -15.88875937 -35.75287322
9.224188248 -24.73599641 -34.32282109
5.625942181 -15.30795485 -39.49769909
36.33259485 -3.758501751 -28.53616209
26.31479687 -10.28117984 -32.8987373
35.63531322 -9.576917835 -25.68189188
16.05293513 -30.53449713 -25.97419467
19.84578988 -19.23404337 -32.11116257
12.80662366 -28.01024269 -30.38539983
21.81382917 -27.4737285 -23.97571834
14.73594749 -21.97161592 -33.35202235
5.640006167 -3.485715508 -41.86159247
16.42054438 -10.14845454 -37.88526689
5.632936636 -9.337165011 -40.99349901
11.19048294 -12.76581805 -38.82576497
32.56821191 -20.12826192 -19.5078082
25.70986977 -15.88957337 -30.22376458
34.30232124 -15.15581871 -22.59765298
27.42335722 -23.93176043 -21.77383494
30.6075113 -12.90023763 -28.21499221
23.9150337 -21.75861646 -27.4041901
5.946647437 21.95728149 -39.20285799
18.07828331 17.67416778 -39.77039774
10.12183541 27.14316726 -37.66292887
5.815035099 15.82246882 -40.82525186
38.3287084 3.964993919 -30.10393946
29.43897136 11.50179348 -36.80457767
41.2452656 11.08458111 -29.72490925
33.04882146 0 -32.65970123
20.13136184 38.29212571 -32.57322769
23.44668778 22.72394358 -37.93753775
14.95306258 32.7048661 -35.47810863
29.28666704 36.8854974 -32.18916196
16.90913921 25.2118917 -38.27062965
5.681648165 3.511451678 -42.17067022
17.54224146 10.84170146 -40.47323185
5.746316652 9.525103911 -41.8186181
11.4221917 0 -41.32587779
11.83615097 13.50237971 -41.06593238
45.47070329 28.10244013 -27.23618235
30.80589292 19.03908888 -36.21449908
43.78383663 19.34504333 -28.84387735
38.30836559 33.43086773 -30.41640826
36.40975214 15.34572511 -33.56368517
30.53423478 27.78096455 -34.98911959
22.49760229 -6.777742585 -36.40188517
23.89143863 7.197656841 -38.65715974
27.64995253 -3.617260827 -34.78109817
17.22081061 -3.547682091 -39.3443973
28.73819755 3.759628741 -36.15001035
17.62542651 3.631037549 -40.26882349
44.26700757 56.36130204 5.830413526
52.24251223 41.78735143 16.32630027
39.26335378 54.48048442 14.6415192
51.57651806 52.19102052 0
44.79172742 6.794418181 25.08757315
50.67688364 23.03600446 22.52106579
26.9212439 44.94491474 27.77748493
45.72703286 38.89773746 24.04012384
33.0751622 50.20675552 22.1828861
43.76541851 47.47655187 20.01008167
57.44166851 35.50090351 -10.69518353
57.44166851 35.50090351 10.69518353
56.17211994 44.65518719 -5.84194346
56.17211994 44.65518719 5.84194346
26.20562485 -33.36532598 3.451546377
32.26461435 -25.80757933 10.08301017
24.40132862 -33.85844752 9.099388797
29.77910891 -30.13390865 0
40.45177272 -6.136094227 22.65679101
37.08600532 -16.85804893 16.48121009
19.53653278 -32.6161675 20.1579001
30.01252204 -25.53017614 15.77851659
22.13075506 -33.59358912 14.8426791
27.44148836 -29.76841739 12.54658226
36.22142691 -22.38607295 -6.744142688
36.22142691 -22.38607295 6.744142688
33.19534845 -26.38932803 -3.452341642
33.19534845 -26.38932803 3.452341642
5.677653233 -20.9640527 37.42953248
16.25205198 -15.88875937 35.75287322
9.224188248 -24.73599641 34.32282109
5.625942181 -15.30795485 39.49769909
36.33259485 -3.758501751 28.53616209
26.31479687 -10.28117984 32.8987373
35.63531322 -9.576917835 25.68189188
16.05293513 -30.53449713 25.97419467
19.84578988 -19.23404337 32.11116257
12.80662366 -28.01024269 30.38539983
21.81382917 -27.4737285 23.97571834
14.73594749 -21.97161592 33.35202235
5.640006167 -3.485715508 41.86159247
16.42054438 -10.14845454 37.88526689
5.632936636 -9.337165011 40.99349901
11.19048294 -12.76581805 38.82576497
32.56821191 -20.12826192 19.5078082
25.70986977 -15.88957337 30.22376458
34.30232124 -15.15581871 22.59765298
27.42335722 -23.93176043 21.77383494
30.6075113 -12.90023763 28.21499221
23.9150337 -21.75861646 27.4041901
5.946647437 21.95728149 39.20285799
18.07828331 17.67416778 39.77039774
10.12183541 27.14316726 37.66292887
5.815035099 15.82246882 40.82525186
38.3287084 3.964993919 30.10393946
29.43897136 11.50179348 36.80457767
41.2452656 11.08458111 29.72490925
33.04882146 0 32.65970123
20.13136184 38.29212571 32.57322769
23.44668778 22.72394358 37.93753775
14.95306258 32.7048661 35.47810863
29.28666704 36.8854974 32.18916196
16.90913921 25.2118917 38.27062965
5.681648165 3.511451678 42.17067022
17.54224146 10.84170146 40.47323185
5.746316652 9.525103911 41.8186181
11.4221917 0 41.32587779
11.83615097 13.50237971 41.06593238
45.47070329 28.10244013 27.23618235
30.80589292 19.03908888 36.21449908
43.78383663 19.34504333 28.84387735
38.30836559 33.43086773 30.41640826
36.40975214 15.34572511 33.56368517
30.53423478 27.78096455 34.98911959
22.49760229 -6.777742585 36.40188517
23.89143863 7.197656841 38.65715974
27.64995253 -3.617260827 34.78109817
17.22081061 -3.547682091 39.3443973
28.73819755 3.759628741 36.15001035
17.62542651 3.631037549 40.26882349
45.65763086 0 -20.12609368
51.14763632 0 -7.124044945
49.4008848 7.036524354 -19.14609031
44.04067233 -6.273030629 -17.06865562
45.65763086 0 20.12609368
51.14763632 0 7.124044945
49.4008848 7.036524354 19.14609031
44.04067233 -6.273030629 17.06865562
55.88356452 24.22151476 -14.96971938
54.8818466 7.394223081 -4.569881184
53.03906333 15.28708407 -17.43911634
59.28132223 25.94708506 -5.345393491
52.97599698 7.279457511 -12.06644071
39.46086505 -17.10345311 -10.57051535
48.10739231 -6.481501856 -4.005788445
41.90043162 -12.07667294 -13.77676105
40.49844959 -17.7259325 -3.651742922
46.70647048 -6.417958826 -10.63841908
55.88356452 24.22151476 14.96971938
54.8818466 7.394223081 4.569881184
53.03906333 15.28708407 17.43911634
59.28132223 25.94708506 5.345393491
52.97599698 7.279457511 12.06644071
58.01086887 16.03380981 0
39.46086505 -17.10345311 10.57051535
48.10739231 -6.481501856 4.005788445
41.90043162 -12.07667294 13.77676105
40.49844959 -17.7259325 3.651742922
46.70647048 -6.417958826 10.63841908
44.61077302 -12.33011441 0
-26.20562485 33.36532598 -3.451546377
-32.26461435 25.80757933 -10.08301017
-24.40132862 33.85844752 -9.099388797
-40.45177272 6.136094227 -22.65679101
-37.08600532 16.85804893 -16.48121009
-19.53653278 32.6161675 -20.1579001
-30.01252204 25.53017614 -15.77851659
-22.13075506 33.59358912 -14.8426791
-27.44148836 29.76841739 -12.54658226
-44.26700757 -56.36130204 -5.830413526
-52.24251223 -41.78735143 -16.32630027
-39.26335378 -54.48048442 -14.6415192
-44.79172742 -6.794418181 -25.08757315
-50.67688364 -23.03600446 -22.52106579
-26.9212439 -44.94491474 -27.77748493
-45.72703286 -38.89773746 -24.04012384
-33.0751622 -50.20675552 -22.1828861
-43.76541851 -47.47655187 -20.01008167
-5.946647437 -21.95728149 -39.20285799
-18.07828331 -17.67416778 -39.77039774
-10.12183541 -27.14316726 -37.66292887
-5.815035099 -15.82246882 -40.82525186
-38.3287084 -3.964993919 -30.10393946
-29.43897136 -11.50179348 -36.80457767
-41.2452656 -11.08458111 -29.72490925
-20.13136184 -38.29212571 -32.57322769
-23.44668778 -22.72394358 -37.93753775
-14.95306258 -32.7048661 -35.47810863
-29.28666704 -36.8854974 -32.18916196
-16.90913921 -25.2118917 -38.27062965
-5.681648165 -3.511451678 -42.17067022
-17.54224146 -10.84170146 -40.47323185
-5.746316652 -9.525103911 -41.8186181
-11.83615097 -13.50237971 -41.06593238
-45.47070329 -28.10244013 -27.23618235
-30.80589292 -19.03908888 -36.21449908
-43.78383663 -19.34504333 -28.84387735
-38.30836559 -33.43086773 -30.41640826
-36.40975214 -15.34572511 -33.56368517
-30.53423478 -27.78096455 -34.98911959
-5.677653233 20.9640527 -37.42953248
-16.25205198 15.88875937 -35.75287322
-9.224188248 24.73599641 -34.32282109
-5.625942181 15.30795485 -39.49769909
-36.33259485 3.758501751 -28.53616209
-26.31479687 10.28117984 -32.8987373
-35.63531322 9.576917835 -25.68189188
-33.04882146 0 -32.65970123
-16.05293513 30.53449713 -25.97419467
-19.84578988 19.23404337 -32.11116257
-12.80662366 28.01024269 -30.38539983
-21.81382917 27.4737285 -23.97571834
-14.73594749 21.97161592 -33.35202235
-5.640006167 3.485715508 -41.86159247
-16.42054438 10.14845454 -37.88526689
-5.632936636 9.337165011 -40.99349901
-11.4221917 0 -41.32587779
-11.19048294 12.76581805 -38.82576497
-32.56821191 20.12826192 -19.5078082
-25.70986977 15.88957337 -30.22376458
-34.30232124 15.15581871 -22.59765298
-27.42335722 23.93176043 -21.77383494
-30.6075113 12.90023763 -28.21499221
-23.9150337 21.75861646 -27.4041901
-23.89143863 -7.197656841 -38.65715974
-22.49760229 6.777742585 -36.40188517
-28.73819755 -3.759628741 -36.15001035
-17.62542651 -3.631037549 -40.26882349
-27.64995253 3.617260827 -34.78109817
-17.22081061 3.547682091 -39.3443973
-26.20562485 33.36532598 3.451546377
-32.26461435 25.80757933 10.08301017
-24.40132862 33.85844752 9.099388797
-29.77910891 30.13390865 0
-40.45177272 6.136094227 22.65679101
-37.08600532 16.85804893 16.48121009
-19.53653278 32.6161675 20.1579001
-30.01252204 25.53017614 15.77851659
-22.13075506 33.59358912 14.8426791
-27.44148836 29.76841739 12.54658226
-36.22142691 22.38607295 -6.744142688
-36.22142691 22.38607295 6.744142688
-33.19534845 26.38932803 -3.452341642
-33.19534845 26.38932803 3.452341642
-44.26700757 -56.36130204 5.830413526
-52.24251223 -41.78735143 16.32630027
-39.26335378 -54.48048442 14.6415192
-51.57651806 -52.19102052 0
-44.79172742 -6.794418181 25.08757315
-50.67688364 -23.03600446 22.52106579
-26.9212439 -44.94491474 27.77748493
-45.72703286 -38.89773746 24.04012384
-33.0751622 -50.20675552 22.1828861
-43.76541851 -47.47655187 20.01008167
-57.44166851 -35.50090351 -10.69518353
-57.44166851 -35.50090351 10.69518353
-56.17211994 -44.65518719 -5.84194346
-56.17211994 -44.65518719 5.84194346
-5.946647437 -21.95728149 39.20285799
-18.07828331 -17.67416778 39.77039774
-10.12183541 -27.14316726 37.66292887
-5.815035099 -15.82246882 40.82525186
-38.3287084 -3.964993919 30.10393946
-29.43897136 -11.50179348 36.80457767
-41.2452656 -11.08458111 29.72490925
-20.13136184 -38.29212571 32.57322769
-23.44668778 -22.72394358 37.93753775
-14.95306258 -32.7048661 35.47810863
-29.28666704 -36.8854974 32.18916196
-16.90913921 -25.2118917 38.27062965
-5.681648165 -3.511451678 42.17067022
-17.54224146 -10.84170146 40.47323185
-5.746316652 -9.525103911 41.8186181
-11.83615097 -13.50237971 41.06593238
-45.47070329 -28.10244013 27.23618235
-30.80589292 -19.03908888 36.21449908
-43.78383663 -19.34504333 28.84387735
-38.30836559 -33.43086773 30.41640826
-36.40975214 -15.34572511 33.56368517
-30.53423478 -27.78096455 34.98911959
-5.677653233 20.9640527 37.42953248
-16.25205198 15.88875937 35.75287322
-9.224188248 24.73599641 34.32282109
-5.625942181 15.30795485 39.49769909
-36.33259485 3.758501751 28.53616209
-26.31479687 10.28117984 32.8987373
-35.63531322 9.576917835 25.68189188
-33.04882146 0 32.65970123
-16.05293513 30.53449713 25.97419467
-19.84578988 19.23404337 32.11116257
-12.80662366 28.01024269 30.38539983
-21.81382917 27.4737285 23.97571834
-14.73594749 21.97161592 33.35202235
-5.640006167 3.485715508 41.86159247
-16.42054438 10.14845454 37.88526689
-5.632936636 9.337165011 40.99349901
-11.4221917 0 41.32587779
-11.19048294 12.76581805 38.82576497
-32.56821191 20.12826192 19.5078082
-25.70986977 15.88957337 30.22376458
-34.30232124 15.15581871 22.59765298
-27.42335722 23.93176043 21.77383494
-30.6075113 12.90023763 28.21499221
-23.9150337 21.75861646 27.4041901
-23.89143863 -7.197656841 38.65715974
-22.49760229 6.777742585 36.40188517
-28.73819755 -3.759628741 36.15001035
-17.62542651 -3.631037549 40.26882349
-27.64995253 3.617260827 34.78109817
-17.22081061 3.547682091 39.3443973
-45.65763086 0 -20.12609368
-51.14763632 0 -7.124044945
-44.04067233 6.273030629 -17.06865562
-49.4008848 -7.036524354 -19.14609031
-45.65763086 0 20.12609368
-51.14763632 0 7.124044945
-44.04067233 6.273030629 17.06865562
-49.4008848 -7.036524354 19.14609031
-39.46086505 17.10345311 -10.57051535
-48.10739231 6.481501856 -4.005788445
-41.90043162 12.07667294 -13.77676105
-40.49844959 17.7259325 -3.651742922
-46.70647048 6.417958826 -10.63841908
-55.88356452 -24.22151476 -14.96971938
-54.8818466 -7.394223081 -4.569881184
-53.03906333 -15.28708407 -17.43911634
-59.28132223 -25.94708506 -5.345393491
-52.97599698 -7.279457511 -12.06644071
-39.46086505 17.10345311 10.57051535
-48.10739231 6.481501856 4.005788445
-41.90043162 12.07667294 13.77676105
-40.49844959 17.7259325 3.651742922
-46.70647048 6.417958826 10.63841908
-44.61077302 12.33011441 0
-55.88356452 -24.22151476 14.96971938
-54.8818466 -7.394223081 4.569881184
-53.03906333 -15.28708407 17.43911634
-59.28132223 -25.94708506 5.345393491
-52.97599698 -7.279457511 12.06644071
-58.01086887 -16.03380981 0
-20.3324532 38.64107035 0
-15.32089579 42.50090515 0
-3.469842035 50.06448895 0
-9.755372947 46.31638789 0
31.51126945 59.88599445 0
21.32288613 59.15071632 0
3.718033479 53.64551011 0
11.96874836 56.82501268 0
-31.51126945 -59.88599445 0
-21.32288613 -59.15071632 0
-3.718033479 -53.64551011 0
-11.96874836 -56.82501268 0
20.3324532 -38.64107035 0
15.32089579 -42.50090515 0
3.469842035 -50.06448895 0
9.755372947 -46.31638789 0
-34.89289023 -59.2587252 4.531858929
-30.31308397 -57.02612992 12.90953232
-29.72191563 -59.59042513 4.392362928
-19.7167384 -47.64285248 25.46866335
-25.05009625 -52.84776642 19.92747891
-19.61111064 -58.57734498 4.088562436
-25.3184771 -57.11708824 12.51504067
-24.56162805 -59.32027661 4.245978984
-27.6123938 -58.62912708 8.613185154
-1.840753039 -25.91049578 37.10490881
-5.743327636 -31.11370821 35.30681044
-14.65717387 -42.07555713 29.70670215
-9.998254759 -36.51367272 32.90459273
-2.183110428 -52.76280482 3.532346873
-6.71105355 -53.1708114 10.85871274
-6.06172925 -54.45576684 3.663307869
-15.32871663 -47.57982079 24.80238451
-11.21038143 -51.47927192 18.13877817
-17.77130999 -50.23788006 22.29106867
-14.68999103 -57.41408297 3.953760251
-10.8874969 -54.56738921 11.25976472
-10.25355718 -56.03520094 3.802602933
-17.55912238 -57.40334291 8.028885073
-8.477053143 -54.78527499 7.4538414
-22.75885392 -55.07196361 16.22132122
-13.34145687 -53.72332447 15.16060857
-20.27855253 -52.77767792 19.42096223
-20.29195663 -56.63234886 12.17657455
-15.6216697 -52.28820353 18.81391289
-15.43744732 -55.74309366 11.7511
21.91071119 -37.21104228 2.845744548
20.0569611 -37.73192034 8.541723695
19.5312765 -39.15888479 2.88637031
15.13167677 -36.56366634 19.54601079
17.78678789 -37.52448703 14.14948018
14.40514037 -43.02738854 3.003211644
17.57931584 -39.65796718 8.689537361
17.02067125 -41.10765477 2.942370607
18.605076 -39.50397685 5.803515827
1.808984263 -25.46331751 36.46453092
5.396304318 -29.23375586 33.17350249
0 -28.00952476 35.66207368
12.13808375 -34.84414121 24.60108897
8.867803294 -32.38525873 29.18423893
-3.824581723 -33.25661697 33.65284909
3.655764045 -31.78866432 32.16740669
-1.883188442 -30.62263951 34.72352207
1.844101287 -29.98704096 34.00280626
2.095302142 -50.64059818 3.390270082
5.966653802 -47.27302824 9.654248651
5.432164592 -48.80004967 3.282840667
0 -51.19421608 6.897389165
12.34496509 -38.31835637 19.97457311
9.378789334 -43.06840491 15.17519992
13.77976217 -38.95413671 17.28435466
11.51825696 -45.01773754 3.100099001
9.068666196 -45.45153424 9.378744135
8.583969564 -46.91098423 3.183424762
13.27803207 -43.40783166 6.071362293
7.309410663 -47.23906604 6.427137696
-4.322865292 -50.95370766 14.08325843
4.007410554 -47.23543577 13.05555335
-2.162431842 -51.3128223 10.50356648
2.078463269 -49.32031349 10.09570646
16.37746146 -39.6302452 11.6729983
10.77726621 -43.39785191 12.24678204
15.13545789 -39.39207793 14.49537167
14.90401117 -41.59525743 8.943435391
12.32381706 -41.24976822 14.84215356
12.05728594 -43.53766564 9.178095959
-12.50942608 -44.32359383 27.39348749
-3.934063678 -42.52149772 26.27973084
-10.22963622 -41.56184773 29.27272524
-10.65959124 -46.70510236 24.42775135
10.52773997 -37.30205265 23.05393639
3.710272461 -40.10264066 24.78479497
8.91779627 -36.23199133 25.51881558
9.107600523 -39.90503999 20.87117563
-5.915149768 -36.06345527 32.35189497
-1.98385074 -39.87305181 28.01802973
-8.020540594 -38.78494518 30.92662186
-1.93271647 -35.32620682 31.71548503
-5.98313589 -40.80780175 28.69718627
-6.570512822 -50.03480956 17.78218729
-2.070422961 -44.35505454 23.27208535
-8.6535162 -48.63184849 21.18340836
-2.125097525 -48.44876789 17.19240012
-6.210899916 -45.60559893 23.90278372
5.495697891 -33.50614318 30.05777503
1.92801077 -38.7507345 27.22939885
7.228664827 -34.95566985 27.87320643
1.885491048 -34.46302019 30.94052545
5.504701292 -37.5446527 26.40244869
0 -37.17607262 29.55388694
5.890464509 -44.85620497 15.94173026
2.003218618 -42.91532344 22.51669129
7.553025851 -42.44720878 18.48945876
2.048210743 -46.69587429 16.57037299
5.645285125 -41.45238416 21.72600287
0 -45.73025801 20.01586418
-21.91071119 37.21104228 2.845744548
-20.0569611 37.73192034 8.541723695
-19.5312765 39.15888479 2.88637031
-15.13167677 36.56366634 19.54601079
-17.78678789 37.52448703 14.14948018
-14.40514037 43.02738854 3.003211644
-17.57931584 39.65796718 8.689537361
-17.02067125 41.10765477 2.942370607
-18.605076 39.50397685 5.803515827
-1.808984263 25.46331751 36.46453092
-5.396304318 29.23375586 33.17350249
-12.13808375 34.84414121 24.60108897
-8.867803294 32.38525873 29.18423893
-2.095302142 50.64059818 3.390270082
-5.966653802 47.27302824 9.654248651
-5.432164592 48.80004967 3.282840667
-12.34496509 38.31835637 19.97457311
-9.378789334 43.06840491 15.17519992
-13.77976217 38.95413671 17.28435466
-11.51825696 45.01773754 3.100099001
-9.068666196 45.45153424 9.378744135
-8.583969564 46.91098423 3.183424762
-13.27803207 43.40783166 6.071362293
-7.309410663 47.23906604 6.427137696
-16.37746146 39.6302452 11.6729983
-10.77726621 43.39785191 12.24678204
-15.13545789 39.39207793 14.49537167
-14.90401117 41.59525743 8.943435391
-12.32381706 41.24976822 14.84215356
-12.05728594 43.53766564 9.178095959
34.89289023 59.2587252 4.531858929
30.31308397 57.02612992 12.90953232
29.72191563 59.59042513 4.392362928
19.7167384 47.64285248 25.46866335
25.05009625 52.84776642 19.92747891
19.61111064 58.57734498 4.088562436
25.3184771 57.11708824 12.51504067
24.56162805 59.32027661 4.245978984
27.6123938 58.62912708 8.613185154
1.840753039 25.91049578 37.10490881
5.743327636 31.11370821 35.30681044
0 28.00952476 35.66207368
14.65717387 42.07555713 29.70670215
9.998254759 36.51367272 32.90459273
-3.655764045 31.78866432 32.16740669
3.824581723 33.25661697 33.65284909
-1.844101287 29.98704096 34.00280626
1.883188442 30.62263951 34.72352207
2.183110428 52.76280482 3.532346873
6.71105355 53.1708114 10.85871274
6.06172925 54.45576684 3.663307869
0 51.19421608 6.897389165
15.32871663 47.57982079 24.80238451
11.21038143 51.47927192 18.13877817
17.77130999 50.23788006 22.29106867
14.68999103 57.41408297 3.953760251
10.8874969 54.56738921 11.25976472
10.25355718 56.03520094 3.802602933
17.55912238 57.40334291 8.028885073
8.477053143 54.78527499 7.4538414
-4.007410554 47.23543577 13.05555335
4.322865292 50.95370766 14.08325843
-2.078463269 49.32031349 10.09570646
2.162431842 51.3128223 10.50356648
22.75885392 55.07196361 16.22132122
13.34145687 53.72332447 15.16060857
20.27855253 52.77767792 19.42096223
20.29195663 56.63234886 12.17657455
15.6216697 52.28820353 18.81391289
15.43744732 55.74309366 11.7511
-10.52773997 37.30205265 23.05393639
-3.710272461 40.10264066 24.78479497
-8.91779627 36.23199133 25.51881558
-9.107600523 39.90503999 20.87117563
12.50942608 44.32359383 27.39348749
3.934063678 42.52149772 26.27973084
10.22963622 41.56184773 29.27272524
10.65959124 46.70510236 24.42775135
-5.495697891 33.50614318 30.05777503
-1.92801077 38.7507345 27.22939885
-7.228664827 34.95566985 27.87320643
-1.885491048 34.46302019 30.94052545
-5.504701292 37.5446527 26.40244869
-5.890464509 44.85620497 15.94173026
-2.003218618 42.91532344 22.51669129
-7.553025851 42.44720878 18.48945876
-2.048210743 46.69587429 16.57037299
-5.645285125 41.45238416 21.72600287
5.915149768 36.06345527 32.35189497
1.98385074 39.87305181 28.01802973
8.020540594 38.78494518 30.92662186
1.93271647 35.32620682 31.71548503
5.98313589 40.80780175 28.69718627
0 37.17607262 29.55388694
6.570512822 50.03480956 17.78218729
2.070422961 44.35505454 23.27208535
8.6535162 48.63184849 21.18340836
2.125097525 48.44876789 17.19240012
6.210899916 45.60559893 23.90278372
0 45.73025801 20.01586418
0 -20.48173542 38.92477566
0 -14.65053129 40.64128163
0 -2.931530256 42.29747712
0 -8.794049392 41.75223284
0 20.48173542 38.92477566
0 14.65053129 40.64128163
0 2.931530256 42.29747712
0 8.794049392 41.75223284
-34.89289023 -59.2587252 -4.531858929
-30.31308397 -57.02612992 -12.90953232
-29.72191563 -59.59042513 -4.392362928
-19.7167384 -47.64285248 -25.46866335
-25.05009625 -52.84776642 -19.92747891
-19.61111064 -58.57734498 -4.088562436
-25.3184771 -57.11708824 -12.51504067
-24.56162805 -59.32027661 -4.245978984
-27.6123938 -58.62912708 -8.613185154
-1.840753039 -25.91049578 -37.10490881
-5.743327636 -31.11370821 -35.30681044
-14.65717387 -42.07555713 -29.70670215
-9.998254759 -36.51367272 -32.90459273
-2.183110428 -52.76280482 -3.532346873
-6.71105355 -53.1708114 -10.85871274
-6.06172925 -54.45576684 -3.663307869
-15.32871663 -47.57982079 -24.80238451
-11.21038143 -51.47927192 -18.13877817
-17.77130999 -50.23788006 -22.29106867
-14.68999103 -57.41408297 -3.953760251
-10.8874969 -54.56738921 -11.25976472
-10.25355718 -56.03520094 -3.802602933
-17.55912238 -57.40334291 -8.028885073
-8.477053143 -54.78527499 -7.4538414
-22.75885392 -55.07196361 -16.22132122
-13.34145687 -53.72332447 -15.16060857
-20.27855253 -52.77767792 -19.42096223
-20.29195663 -56.63234886 -12.17657455
-15.6216697 -52.28820353 -18.81391289
-15.43744732 -55.74309366 -11.7511
21.91071119 -37.21104228 -2.845744548
20.0569611 -37.73192034 -8.541723695
19.5312765 -39.15888479 -2.88637031
15.13167677 -36.56366634 -19.54601079
17.78678789 -37.52448703 -14.14948018
14.40514037 -43.02738854 -3.003211644
17.57931584 -39.65796718 -8.689537361
17.02067125 -41.10765477 -2.942370607
18.605076 -39.50397685 -5.803515827
1.808984263 -25.46331751 -36.46453092
5.396304318 -29.23375586 -33.17350249
0 -28.00952476 -35.66207368
12.13808375 -34.84414121 -24.60108897
8.867803294 -32.38525873 -29.18423893
-3.824581723 -33.25661697 -33.65284909
3.655764045 -31.78866432 -32.16740669
-1.883188442 -30.62263951 -34.72352207
1.844101287 -29.98704096 -34.00280626
2.095302142 -50.64059818 -3.390270082
5.966653802 -47.27302824 -9.654248651
5.432164592 -48.80004967 -3.282840667
0 -51.19421608 -6.897389165
12.34496509 -38.31835637 -19.97457311
9.378789334 -43.06840491 -15.17519992
13.77976217 -38.95413671 -17.28435466
11.51825696 -45.01773754 -3.100099001
9.068666196 -45.45153424 -9.378744135
8.583969564 -46.91098423 -3.183424762
13.27803207 -43.40783166 -6.071362293
7.309410663 -47.23906604 -6.427137696
-4.322865292 -50.95370766 -14.08325843
4.007410554 -47.23543577 -13.05555335
-2.162431842 -51.3128223 -10.50356648
2.078463269 -49.32031349 -10.09570646
16.37746146 -39.6302452 -11.6729983
10.77726621 -43.39785191 -12.24678204
15.13545789 -39.39207793 -14.49537167
14.90401117 -41.59525743 -8.943435391
12.32381706 -41.24976822 -14.84215356
12.05728594 -43.53766564 -9.178095959
-12.50942608 -44.32359383 -27.39348749
-3.934063678 -42.52149772 -26.27973084
-10.22963622 -41.56184773 -29.27272524
-10.65959124 -46.70510236 -24.42775135
10.52773997 -37.30205265 -23.05393639
3.710272461 -40.10264066 -24.78479497
8.91779627 -36.23199133 -25.51881558
9.107600523 -39.90503999 -20.87117563
-5.915149768 -36.06345527 -32.35189497
-1.98385074 -39.87305181 -28.01802973
-8.020540594 -38.78494518 -30.92662186
-1.93271647 -35.32620682 -31.71548503
-5.98313589 -40.80780175 -28.69718627
-6.570512822 -50.03480956 -17.78218729
-2.070422961 -44.35505454 -23.27208535
-8.6535162 -48.63184849 -21.18340836
-2.125097525 -48.44876789 -17.19240012
-6.210899916 -45.60559893 -23.90278372
5.495697891 -33.50614318 -30.05777503
1.92801077 -38.7507345 -27.22939885
7.228664827 -34.95566985 -27.87320643
1.885491048 -34.46302019 -30.94052545
5.504701292 -37.5446527 -26.40244869
0 -37.17607262 -29.55388694
5.890464509 -44.85620497 -15.94173026
2.003218618 -42.91532344 -22.51669129
7.553025851 -42.44720878 -18.48945876
2.048210743 -46.69587429 -16.57037299
5.645285125 -41.45238416 -21.72600287
0 -45.73025801 -20.01586418
-21.91071119 37.21104228 -2.845744548
-20.0569611 37.73192034 -8.541723695
-19.5312765 39.15888479 -2.88637031
-15.13167677 36.56366634 -19.54601079
-17.78678789 37.52448703 -14.14948018
-14.40514037 43.02738854 -3.003211644
-17.57931584 39.65796718 -8.689537361
-17.02067125 41.10765477 -2.942370607
-18.605076 39.50397685 -5.803515827
-1.808984263 25.46331751 -36.46453092
-5.396304318 29.23375586 -33.17350249
-12.13808375 34.84414121 -24.60108897
-8.867803294 32.38525873 -29.18423893
-2.095302142 50.64059818 -3.390270082
-5.966653802 47.27302824 -9.654248651
-5.432164592 48.80004967 -3.282840667
-12.34496509 38.31835637 -19.97457311
-9.378789334 43.06840491 -15.17519992
-13.77976217 38.95413671 -17.28435466
-11.51825696 45.01773754 -3.100099001
-9.068666196 45.45153424 -9.378744135
-8.583969564 46.91098423 -3.183424762
-13.27803207 43.40783166 -6.071362293
-7.309410663 47.23906604 -6.427137696
-16.37746146 39.6302452 -11.6729983
-10.77726621 43.39785191 -12.24678204
-15.13545789 39.39207793 -14.49537167
-14.90401117 41.59525743 -8.943435391
-12.32381706 41.24976822 -14.84215356
-12.05728594 43.53766564 -9.178095959
34.89289023 59.2587252 -4.531858929
30.31308397 57.02612992 -12.90953232
29.72191563 59.59042513 -4.392362928
19.7167384 47.64285248 -25.46866335
25.05009625 52.84776642 -19.92747891
19.61111064 58.57734498 -4.088562436
25.3184771 57.11708824 -12.51504067
24.56162805 59.32027661 -4.245978984
27.6123938 58.62912708 -8.613185154
1.840753039 25.91049578 -37.10490881
5.743327636 31.11370821 -35.30681044
0 28.00952476 -35.66207368
14.65717387 42.07555713 -29.70670215
9.998254759 36.51367272 -32.90459273
-3.655764045 31.78866432 -32.16740669
3.824581723 33.25661697 -33.65284909
-1.844101287 29.98704096 -34.00280626
1.883188442 30.62263951 -34.72352207
2.183110428 52.76280482 -3.532346873
6.71105355 53.1708114 -10.85871274
6.06172925 54.45576684 -3.663307869
0 51.19421608 -6.897389165
15.32871663 47.57982079 -24.80238451
11.21038143 51.47927192 -18.13877817
17.77130999 50.23788006 -22.29106867
14.68999103 57.41408297 -3.953760251
10.8874969 54.56738921 -11.25976472
10.25355718 56.03520094 -3.802602933
17.55912238 57.40334291 -8.028885073
8.477053143 54.78527499 -7.4538414
-4.007410554 47.23543577 -13.05555335
4.322865292 50.95370766 -14.08325843
-2.078463269 49.32031349 -10.09570646
2.162431842 51.3128223 -10.50356648
22.75885392 55.07196361 -16.22132122
13.34145687 53.72332447 -15.16060857
20.27855253 52.77767792 -19.42096223
20.29195663 56.63234886 -12.17657455
15.6216697 52.28820353 -18.81391289
15.43744732 55.74309366 -11.7511
-10.52773997 37.30205265 -23.05393639
-3.710272461 40.10264066 -24.78479497
-8.91779627 36.23199133 -25.51881558
-9.107600523 39.90503999 -20.87117563
12.50942608 44.32359383 -27.39348749
3.934063678 42.52149772 -26.27973084
10.22963622 41.56184773 -29.27272524
10.65959124 46.70510236 -24.42775135
-5.495697891 33.50614318 -30.05777503
-1.92801077 38.7507345 -27.22939885
-7.228664827 34.95566985 -27.87320643
-1.885491048 34.46302019 -30.94052545
-5.504701292 37.5446527 -26.40244869
-5.890464509 44.85620497 -15.94173026
-2.003218618 42.91532344 -22.51669129
-7.553025851 42.44720878 -18.48945876
-2.048210743 46.69587429 -16.57037299
-5.645285125 41.45238416 -21.72600287
5.915149768 36.06345527 -32.35189497
1.98385074 39.87305181 -28.01802973
8.020540594 38.78494518 -30.92662186
1.93271647 35.32620682 -31.71548503
5.98313589 40.80780175 -28.69718627
0 37.17607262 -29.55388694
6.570512822 50.03480956 -17.78218729
2.070422961 44.35505454 -23.27208535
8.6535162 48.63184849 -21.18340836
2.125097525 48.44876789 -17.19240012
6.210899916 45.60559893 -23.90278372
0 45.73025801 -20.01586418
0 -20.48173542 -38.92477566
0 -14.65053129 -40.64128163
0 -2.931530256 -42.29747712
0 -8.794049392 -41.75223284
0 20.48173542 -38.92477566
0 14.65053129 -40.64128163
0 2.931530256 -42.29747712
0 8.794049392 -41.75223284
40.68719416 58.26575617 -2.890530423
47.28613971 53.6587526 -8.728621841
38.63744449 57.90864221 -7.455991568
52.56166075 37.11022995 -18.31004634
51.28998355 46.22038525 -14.04433693
33.51130028 55.18816929 -15.76694354
44.73361451 52.85489447 -13.21269752
36.1979814 56.83563399 -11.80284708
41.9737574 55.75166947 -10.40098764
43.09769653 3.295931193 -25.3769076
46.43265981 10.51139054 -24.68196803
51.67771671 27.62559966 -21.38654527
49.4239655 18.63645518 -23.42719809
21.96482762 45.10812796 -27.87835625
31.91693128 44.30503994 -27.38202056
24.77642454 47.87291578 -25.4642381
49.38800443 35.88159155 -22.17604315
41.48455783 41.31796123 -25.53590439
49.15965254 40.52568542 -20.41951229
30.57394189 52.97667699 -19.50419343
35.16856473 46.88399121 -24.57796884
27.6773406 50.54207475 -22.66483973
36.25555278 52.55086864 -18.64422368
29.99048851 47.65114436 -25.18238622
46.91460854 49.1240683 -15.97269711
40.3558297 45.42984409 -23.56698329
48.35429249 45.02091496 -18.33289993
41.81372827 51.29374093 -17.46530924
45.01649791 43.33125657 -22.19229996
38.56128692 49.24041856 -21.28208895
24.48578327 -35.06466118 -1.739537536
27.83979711 -31.59168405 -5.138991311
23.68052079 -35.49165386 -4.569706037
33.58691144 -23.71344415 -11.70012317
30.86671532 -27.8157912 -8.451992372
21.74999101 -35.81902749 -10.23329078
26.94371283 -31.83527899 -7.958201714
22.76484489 -35.7438272 -7.422789138
25.36454606 -33.69047414 -6.285268376
40.98923994 -3.13468527 -24.13540023
39.77795051 -9.004902461 -21.14455874
36.00065585 -19.24503963 -14.89867791
38.08314576 -14.36013545 -18.05159482
16.67045353 -34.23532221 -21.15859274
22.28904068 -30.94021881 -19.12210685
18.06454118 -34.9042396 -18.56602743
32.4494358 -23.5753077 -14.57034145
27.51399428 -27.40350165 -16.93629543
31.2164379 -25.7338585 -12.96641462
20.59771876 -35.69048104 -13.14000963
23.57759138 -31.43180837 -16.47747956
19.38182021 -35.39348018 -15.87167839
23.32818891 -33.81320921 -11.9963961
20.88704008 -33.18690064 -17.53841089
28.48767219 -29.829309 -9.699003644
26.25842847 -29.55995008 -15.33438786
29.88921094 -27.82875221 -11.33210487
25.96512207 -31.85193716 -10.84545448
28.76534978 -27.68848776 -14.18078483
24.83657356 -31.71479417 -13.70737883
2.880560956 -22.17877891 -37.66630268
8.402580796 -19.73023739 -37.11727523
4.668610171 -24.19304859 -36.25981515
2.857801929 -19.3379621 -38.77130253
18.79347415 -14.54909543 -35.1559367
13.67948655 -17.19597629 -36.27806175
8.219192231 -27.82733626 -32.87932213
10.1717938 -21.6192844 -35.60377298
6.464668437 -26.08852487 -34.65209945
7.469353808 -22.90765341 -35.96805552
2.827681841 -13.56319789 -40.51255111
8.377600471 -16.9482538 -38.23432603
2.843245035 -16.44726158 -39.72277831
5.661817546 -18.15081563 -38.53945021
38.85225836 -1.927438039 -27.13067646
33.81824052 -5.501183284 -29.80192362
38.53401582 -4.961423478 -25.71042664
23.81725353 -11.75134232 -33.73394349
28.81125531 -8.754470017 -31.97136508
37.44207478 -10.69698609 -22.73553603
33.5841812 -8.395393314 -28.42389206
38.05287599 -7.902300809 -24.23545232
36.04982494 -6.725427006 -27.14083041
14.90766014 -33.20067426 -24.12110079
17.11503378 -27.80436509 -27.69270637
13.34741084 -32.13368027 -26.49000452
17.85960686 -31.68687988 -23.14115518
20.61377141 -16.24119914 -33.35378277
19.00804704 -22.15609071 -30.75566618
18.09603118 -17.60723998 -34.02064391
10.03169327 -29.46483987 -30.85249673
15.49116639 -26.5268942 -29.86217051
11.70791693 -30.88044126 -28.75165054
11.04622465 -26.4457863 -32.44157762
14.46784841 -29.34765072 -28.24898964
23.45703129 -28.43337268 -21.08012041
20.02402763 -26.33098695 -26.71670837
20.72263582 -30.08707932 -22.1218619
18.98389151 -29.03346457 -25.00280494
12.93483253 -20.27609188 -35.13318544
16.46025138 -23.55293962 -31.39894455
15.52376478 -18.95696287 -34.61764077
12.01702897 -23.36831156 -33.87136528
17.31464049 -20.62054494 -32.7634731
13.80586759 -25.0150266 -31.94266786
2.827811115 -1.747683383 -42.23912637
8.420970571 -5.204446031 -41.23415441
2.827051816 -4.677964097 -42.02466188
18.92088466 -11.69374981 -36.29700606
13.82680048 -8.545432652 -39.24154179
16.36567965 -13.04735859 -36.88369828
2.835598641 -10.5355196 -41.17682542
8.402652616 -8.124845997 -40.721172
2.827728498 -7.624849706 -41.66943996
5.639664346 -12.33391131 -40.32136261
5.645741279 -6.420749556 -41.49585052
11.14849446 -15.64157157 -37.84953599
11.19267911 -9.849647197 -39.66251942
13.76336375 -14.37112598 -37.40280068
8.429279016 -14.04718244 -39.20395411
13.81507318 -11.47100613 -38.39527495
8.44014071 -11.08783242 -40.03706497
33.80631953 -20.8934545 -16.46155614
31.12816768 -19.23826563 -22.42443726
34.85043586 -18.53740851 -18.03669529
31.34480674 -22.89133672 -17.66680492
23.58043053 -14.57350754 -32.45648695
27.68660184 -17.11126097 -27.79823595
26.05756847 -13.12952105 -31.60911403
22.79802781 -17.59479208 -31.21704008
36.65893342 -13.49656055 -21.15663276
31.91542095 -16.73100352 -23.94035829
35.81067913 -16.05876504 -19.61028249
35.0246651 -12.42620165 -24.16398866
33.47913299 -17.69284806 -21.07096413
26.2346214 -26.61893117 -19.95074415
28.51106866 -21.13772317 -23.52112911
28.80764165 -24.80833258 -18.83623438
24.65715923 -25.73869072 -22.90720452
30.01956041 -22.07221786 -20.67613181
31.01378672 -10.08413673 -29.61887551
30.09996224 -15.61452216 -26.7381272
28.5479946 -11.62498649 -30.6617065
33.12733518 -11.2797223 -27.00480344
28.16674858 -14.42572829 -29.26221114
32.56332595 -14.07412081 -25.50107801
21.04280333 -23.41550648 -28.3830385
26.72915704 -20.03335784 -26.34325588
21.9478167 -20.55959913 -29.85036726
22.91123155 -24.66149389 -25.74321551
24.85377463 -18.8707372 -28.86040934
25.75507287 -22.92178449 -24.67285301
2.951451588 22.72459886 -38.59327074
8.973301939 21.07035704 -39.63835943
4.877731476 25.27672911 -37.88400299
2.918335604 19.74757688 -39.59255239
21.05290794 16.29825142 -39.38253742
15.05834027 18.92928226 -39.93478818
9.021253034 30.54283616 -36.08781449
11.12063642 23.63596885 -38.92495484
6.912167527 27.89443205 -37.05079679
7.994727216 24.51891353 -38.49794771
2.868845894 13.76064451 -41.10231364
8.85776934 17.91965652 -40.42575699
2.893957326 16.74061593 -40.4312762
5.891158058 18.88604196 -40.10054912
39.98024389 1.983396748 -27.91835295
36.42917997 5.925902496 -32.10278306
41.60136084 5.356357597 -27.75700152
37.39413385 0 -29.36991067
26.76133051 13.20393871 -37.90383345
31.96077363 9.711469752 -35.46633255
44.67335027 12.76292003 -27.12650328
37.77220232 9.44231729 -31.9684138
43.18031368 8.967096935 -27.50106019
39.81310741 7.427502025 -29.97409275
32.23168278 -3.6630689 -31.85218362
33.74555178 3.835117206 -33.34822817
34.79421946 -1.88702263 -30.68498747
35.67513955 1.934798271 -31.46187002
18.74749505 41.75232535 -30.33408419
21.28627522 34.58078875 -34.4419168
16.16976386 38.92845048 -32.09140132
23.45909795 41.62161153 -30.39656082
23.7823213 18.73763945 -38.4806042
22.93059407 26.72827572 -37.10248059
20.71263429 20.15316612 -38.93987298
11.35562411 33.35345661 -34.92424922
18.58565093 31.82585376 -35.82737823
13.68983414 36.10788508 -33.61873248
12.48353001 29.88684163 -36.66278936
17.48614182 35.47017965 -34.14231507
33.02418939 40.03017572 -29.67783435
25.67367903 33.76010659 -34.25465685
28.28323872 41.06427648 -30.192969
24.70349872 37.78088147 -32.5358349
14.41512085 22.59652873 -39.15389805
19.50736286 27.91304513 -37.21149761
17.561658 21.44555159 -39.16209608
13.50837861 26.2683897 -38.07490415
20.19947024 24.05617859 -38.22226631
16.01180245 29.01198795 -37.04654445
2.833016499 1.750900487 -42.31687938
8.561496516 5.291295841 -41.92225425
2.84104222 4.701114223 -42.23263189
5.673623987 0 -42.11111268
20.69825969 12.792228 -39.70664539
14.47674779 8.947122182 -41.08614312
17.84184802 14.22421763 -40.21057197
2.867597918 10.65441125 -41.6414993
8.624194404 8.33906322 -41.79481406
2.850650569 7.686658096 -42.00721986
5.791279389 12.66549248 -41.40535001
5.723330358 6.508989526 -42.06612547
11.31275556 -3.472457643 -40.92993412
11.48152742 3.524262274 -41.54055643
8.524658553 -1.755022271 -41.64531069
8.572429803 1.764857223 -41.87868644
11.9493107 16.76513355 -40.56833565
11.68123354 10.279579 -41.39376706
14.9016551 15.55968197 -40.49617852
8.826412977 14.70899625 -41.05099483
14.70793454 12.2123716 -40.87674261
8.749766407 11.49458842 -41.50582059
49.03702479 30.30654803 -23.87795383
41.77911754 25.82091466 -30.0972807
48.3256375 25.70504677 -25.01072875
45.86957743 33.49888072 -25.85336968
27.3249075 16.88772157 -37.61044576
34.39245811 21.25570807 -34.53113064
30.17244561 15.20286746 -36.60066269
27.2098308 20.99968117 -37.25806397
46.09660974 16.97118891 -26.60331201
41.08921806 21.54017811 -30.82179626
47.31692835 21.21857092 -25.91121849
42.57773754 15.10591324 -29.37495517
44.74001421 23.64392991 -28.15829295
37.81854625 38.3725484 -28.76001635
38.36439518 28.44284704 -31.64994981
42.06131172 36.22202132 -27.50231122
33.91616539 35.4038226 -31.50908545
42.128161 30.975202 -29.01599484
35.39720318 11.50940515 -33.80513845
37.31011042 19.35482647 -33.14298107
32.88863299 13.39253141 -35.32372855
38.97580385 13.27110199 -31.77236913
33.71035534 17.26491168 -35.02142012
40.09678295 17.33013907 -31.4006988
26.42850711 29.40848088 -35.6474051
34.44398574 25.81558 -33.94670205
26.91855076 25.21593014 -36.61086827
30.07739874 32.37510755 -33.79516968
30.78990342 23.3778645 -35.75349134
34.37260585 30.59131177 -32.92828003
21.94124809 -10.01962313 -35.50168516
22.97761899 -3.439739044 -37.1785685
24.47206103 -8.551997797 -34.74579376
19.45864136 -8.491209854 -37.2043183
23.98728572 10.95396041 -38.81224359
23.6834267 3.545398136 -38.32058937
26.62957187 9.305960772 -37.80905952
20.77540773 9.065810072 -39.72193473
29.56419285 -5.405452406 -32.95593496
25.58211453 -1.811372796 -36.40644928
27.02666321 -7.009121474 -33.89402359
30.33501297 -1.848591599 -33.78857176
25.06521914 -5.22589953 -35.64309351
14.18389452 -5.240944736 -39.91007686
20.28030312 -1.804256241 -38.6529156
16.85097812 -6.883699247 -38.68566385
14.36265798 -1.77532216 -40.47445835
19.91538679 -5.174814597 -37.99779778
31.49261786 5.758041419 -35.10559788
26.03414281 1.843379209 -37.0497403
29.15592571 7.561326511 -36.56432266
30.98732579 1.888343024 -34.51514863
26.38165241 5.500365431 -37.51508009
28.24971486 0 -35.53554405
14.59254437 5.391940729 -41.0599195
20.56169051 1.829290135 -39.18922134
17.62759172 7.200949346 -40.46857595
14.50065262 1.792379235 -40.86333193
20.72452205 5.385060324 -39.54159699
17.46140896 0 -39.89409249
40.68719416 58.26575617 2.890530423
47.28613971 53.6587526 8.728621841
38.63744449 57.90864221 7.455991568
44.69226782 56.90274867 0
52.56166075 37.11022995 18.31004634
51.28998355 46.22038525 14.04433693
33.51130028 55.18816929 15.76694354
44.73361451 52.85489447 13.21269752
36.1979814 56.83563399 11.80284708
41.9737574 55.75166947 10.40098764
51.07833122 51.68689809 -5.874116787
51.07833122 51.68689809 5.874116787
48.22691999 54.68530953 -2.965791968
48.22691999 54.68530953 2.965791968
43.09769653 3.295931193 25.3769076
46.43265981 10.51139054 24.68196803
51.67771671 27.62559966 21.38654527
49.4239655 18.63645518 23.42719809
21.96482762 45.10812796 27.87835625
31.91693128 44.30503994 27.38202056
24.77642454 47.87291578 25.4642381
49.38800443 35.88159155 22.17604315
41.48455783 41.31796123 25.53590439
49.15965254 40.52568542 20.41951229
30.57394189 52.97667699 19.50419343
35.16856473 46.88399121 24.57796884
27.6773406 50.54207475 22.66483973
36.25555278 52.55086864 18.64422368
29.99048851 47.65114436 25.18238622
46.91460854 49.1240683 15.97269711
40.3558297 45.42984409 23.56698329
48.35429249 45.02091496 18.33289993
41.81372827 51.29374093 17.46530924
45.01649791 43.33125657 22.19229996
38.56128692 49.24041856 21.28208895
55.20426747 34.11811362 -15.58027325
58.87184456 36.38480092 -5.446788042
55.22916902 38.89885505 -13.59358013
55.20426747 34.11811362 15.58027325
58.87184456 36.38480092 5.446788042
55.22916902 38.89885505 13.59358013
53.28974361 47.80529696 -8.740616013
58.20059407 40.8964426 -2.895722458
54.61477756 43.54912881 -11.29407399
54.31054184 48.75941495 -2.971360023
57.17553957 40.20743678 -8.382931894
53.28974361 47.80529696 8.740616013
58.20059407 40.8964426 2.895722458
54.61477756 43.54912881 11.29407399
54.31054184 48.75941495 2.971360023
57.17553957 40.20743678 8.382931894
56.71391655 45.0858996 0
24.48578327 -35.06466118 1.739537536
27.83979711 -31.59168405 5.138991311
23.68052079 -35.49165386 4.569706037
26.29303122 -33.47661285 0
33.58691144 -23.71344415 11.70012317
30.86671532 -27.8157912 8.451992372
21.74999101 -35.81902749 10.23329078
26.94371283 -31.83527899 7.958201714
22.76484489 -35.7438272 7.422789138
25.36454606 -33.69047414 6.285268376
29.68228619 -30.03593235 -3.413526077
29.68228619 -30.03593235 3.413526077
28.03505901 -31.78942134 -1.724061019
28.03505901 -31.78942134 1.724061019
40.98923994 -3.13468527 24.13540023
39.77795051 -9.004902461 21.14455874
36.00065585 -19.24503963 14.89867791
38.08314576 -14.36013545 18.05159482
16.67045353 -34.23532221 21.15859274
22.28904068 -30.94021881 19.12210685
18.06454118 -34.9042396 18.56602743
32.4494358 -23.5753077 14.57034145
27.51399428 -27.40350165 16.93629543
31.2164379 -25.7338585 12.96641462
20.59771876 -35.69048104 13.14000963
23.57759138 -31.43180837 16.47747956
19.38182021 -35.39348018 15.87167839
23.32818891 -33.81320921 11.9963961
20.88704008 -33.18690064 17.53841089
28.48767219 -29.829309 9.699003644
26.25842847 -29.55995008 15.33438786
29.88921094 -27.82875221 11.33210487
25.96512207 -31.85193716 10.84545448
28.76534978 -27.68848776 14.18078483
24.83657356 -31.71479417 13.70737883
35.64016266 -22.02683189 -10.05870557
36.57208853 -22.60279375 -3.383627878
34.27820714 -24.14273172 -8.436910491
35.64016266 -22.02683189 10.05870557
36.57208853 -22.60279375 3.383627878
34.27820714 -24.14273172 8.436910491
31.3332397 -28.10850132 -5.139296947
34.98064242 -24.58022736 -1.740432954
32.83324267 -26.18081 -6.789757069
31.52866841 -28.30609627 -1.724951027
34.74574997 -24.4341821 -5.094333308
31.3332397 -28.10850132 5.139296947
34.98064242 -24.58022736 1.740432954
32.83324267 -26.18081 6.789757069
31.52866841 -28.30609627 1.724951027
34.74574997 -24.4341821 5.094333308
33.30611966 -26.47738789 0
2.880560956 -22.17877891 37.66630268
8.402580796 -19.73023739 37.11727523
4.668610171 -24.19304859 36.25981515
2.857801929 -19.3379621 38.77130253
18.79347415 -14.54909543 35.1559367
13.67948655 -17.19597629 36.27806175
8.219192231 -27.82733626 32.87932213
10.1717938 -21.6192844 35.60377298
6.464668437 -26.08852487 34.65209945
7.469353808 -22.90765341 35.96805552
2.827681841 -13.56319789 40.51255111
8.377600471 -16.9482538 38.23432603
2.843245035 -16.44726158 39.72277831
5.661817546 -18.15081563 38.53945021
38.85225836 -1.927438039 27.13067646
33.81824052 -5.501183284 29.80192362
38.53401582 -4.961423478 25.71042664
23.81725353 -11.75134232 33.73394349
28.81125531 -8.754470017 31.97136508
37.44207478 -10.69698609 22.73553603
33.5841812 -8.395393314 28.42389206
38.05287599 -7.902300809 24.23545232
36.04982494 -6.725427006 27.14083041
14.90766014 -33.20067426 24.12110079
17.11503378 -27.80436509 27.69270637
13.34741084 -32.13368027 26.49000452
17.85960686 -31.68687988 23.14115518
20.61377141 -16.24119914 33.35378277
19.00804704 -22.15609071 30.75566618
18.09603118 -17.60723998 34.02064391
10.03169327 -29.46483987 30.85249673
15.49116639 -26.5268942 29.86217051
11.70791693 -30.88044126 28.75165054
11.04622465 -26.4457863 32.44157762
14.46784841 -29.34765072 28.24898964
23.45703129 -28.43337268 21.08012041
20.02402763 -26.33098695 26.71670837
20.72263582 -30.08707932 22.1218619
18.98389151 -29.03346457 25.00280494
12.93483253 -20.27609188 35.13318544
16.46025138 -23.55293962 31.39894455
15.52376478 -18.95696287 34.61764077
12.01702897 -23.36831156 33.87136528
17.31464049 -20.62054494 32.7634731
13.80586759 -25.0150266 31.94266786
2.827811115 -1.747683383 42.23912637
8.420970571 -5.204446031 41.23415441
2.827051816 -4.677964097 42.02466188
18.92088466 -11.69374981 36.29700606
13.82680048 -8.545432652 39.24154179
16.36567965 -13.04735859 36.88369828
2.835598641 -10.5355196 41.17682542
8.402652616 -8.124845997 40.721172
2.827728498 -7.624849706 41.66943996
5.639664346 -12.33391131 40.32136261
5.645741279 -6.420749556 41.49585052
11.14849446 -15.64157157 37.84953599
11.19267911 -9.849647197 39.66251942
13.76336375 -14.37112598 37.40280068
8.429279016 -14.04718244 39.20395411
13.81507318 -11.47100613 38.39527495
8.44014071 -11.08783242 40.03706497
33.80631953 -20.8934545 16.46155614
31.12816768 -19.23826563 22.42443726
34.85043586 -18.53740851 18.03669529
31.34480674 -22.89133672 17.66680492
23.58043053 -14.57350754 32.45648695
27.68660184 -17.11126097 27.79823595
26.05756847 -13.12952105 31.60911403
22.79802781 -17.59479208 31.21704008
36.65893342 -13.49656055 21.15663276
31.91542095 -16.73100352 23.94035829
35.81067913 -16.05876504 19.61028249
35.0246651 -12.42620165 24.16398866
33.47913299 -17.69284806 21.07096413
26.2346214 -26.61893117 19.95074415
28.51106866 -21.13772317 23.52112911
28.80764165 -24.80833258 18.83623438
24.65715923 -25.73869072 22.90720452
30.01956041 -22.07221786 20.67613181
31.01378672 -10.08413673 29.61887551
30.09996224 -15.61452216 26.7381272
28.5479946 -11.62498649 30.6617065
33.12733518 -11.2797223 27.00480344
28.16674858 -14.42572829 29.26221114
32.56332595 -14.07412081 25.50107801
21.04280333 -23.41550648 28.3830385
26.72915704 -20.03335784 26.34325588
21.9478167 -20.55959913 29.85036726
22.91123155 -24.66149389 25.74321551
24.85377463 -18.8707372 28.86040934
25.75507287 -22.92178449 24.67285301
2.951451588 22.72459886 38.59327074
8.973301939 21.07035704 39.63835943
4.877731476 25.27672911 37.88400299
2.918335604 19.74757688 39.59255239
21.05290794 16.29825142 39.38253742
15.05834027 18.92928226 39.93478818
9.021253034 30.54283616 36.08781449
11.12063642 23.63596885 38.92495484
6.912167527 27.89443205 37.05079679
7.994727216 24.51891353 38.49794771
2.868845894 13.76064451 41.10231364
8.85776934 17.91965652 40.42575699
2.893957326 16.74061593 40.4312762
5.891158058 18.88604196 40.10054912
39.98024389 1.983396748 27.91835295
36.42917997 5.925902496 32.10278306
41.60136084 5.356357597 27.75700152
37.39413385 0 29.36991067
