14.447575 -43.940634 12.664706
-9.5218526 -51.139945 31.606224
7.7176616 -41.45 25.617509
-4.4181772 -42.482161 33.772071
-5.0044086 -55.499742 24.29191
4.0310735 -38.760037 30.813092
4.3927901 -48.716789 21.323051
-21.721785 38.782398 5.8828683
-17.167199 38.629617 17.559723
-16.881684 43.558248 6.2043154
-3.7823626 28.717324 36.563252
-11.015174 35.247444 28.193463
-4.623566 55.526572 7.4810869
-11.61707 43.367765 18.796814
-11.190831 49.131756 6.7512185
-14.447575 43.940634 12.664706
33.380419 59.597897 9.0403532
23.662104 53.244447 24.203132
23.294066 60.103524 8.5609784
4.0239783 30.551775 38.898898
14.41851 46.137775 36.90434
0 34.982392 35.399186
5.0361129 60.481041 8.1486018
14.72068 54.953874 23.818561
13.74536 60.347056 8.2923183
0 56.882462 15.721926
18.99728 57.778037 16.652966
-7.7176616 41.45 25.617509
9.5218526 51.139945 31.606224
-4.0310735 38.760037 30.813092
-4.3927901 48.716789 21.323051
4.4181772 42.482161 33.772071
5.0044086 55.499742 24.29191
0 -18.173981 41.229109
0 -5.9860827 42.977548
0 18.173981 41.229109
0 5.9860827 42.977548
-33.380419 -59.597897 -9.0403532
-23.662104 -53.244447 -24.203132
-23.294066 -60.103524 -8.5609784
-4.0239783 -30.551775 -38.898898
-14.41851 -46.137775 -36.90434
-5.0361129 -60.481041 -8.1486018
-14.72068 -54.953874 -23.818561
-13.74536 -60.347056 -8.2923183
-18.99728 -57.778037 -16.652966
21.721785 -38.782398 -5.8828683
17.167199 -38.629617 -17.559723
16.881684 -43.558248 -6.2043154
3.7823626 -28.717324 -36.563252
11.015174 -35.247444 -28.193463
0 -34.982392 -35.399186
4.623566 -55.526572 -7.4810869
11.61707 -43.367765 -18.796814
11.190831 -49.131756 -6.7512185
0 -56.882462 -15.721926
14.447575 -43.940634 -12.664706
-9.5218526 -51.139945 -31.606224
7.7176616 -41.45 -25.617509
-4.4181772 -42.482161 -33.772071
-5.0044086 -55.499742 -24.29191
4.0310735 -38.760037 -30.813092
4.3927901 -48.716789 -21.323051
-21.721785 38.782398 -5.8828683
-17.167199 38.629617 -17.559723
-16.881684 43.558248 -6.2043154
-3.7823626 28.717324 -36.563252
-11.015174 35.247444 -28.193463
-4.623566 55.526572 -7.4810869
-11.61707 43.367765 -18.796814
-11.190831 49.131756 -6.7512185
-14.447575 43.940634 -12.664706
33.380419 59.597897 -9.0403532
23.662104 53.244447 -24.203132
23.294066 60.103524 -8.5609784
4.0239783 30.551775 -38.898898
14.41851 46.137775 -36.90434
0 34.982392 -35.399186
5.0361129 60.481041 -8.1486018
14.72068 54.953874 -23.818561
13.74536 60.347056 -8.2923183
0 56.882462 -15.721926
18.99728 57.778037 -16.652966
-7.7176616 41.45 -25.617509
9.5218526 51.139945 -31.606224
-4.0310735 38.760037 -30.813092
-4.3927901 48.716789 -21.323051
4.4181772 42.482161 -33.772071
5.0044086 55.499742 -24.29191
0 -18.173981 -41.229109
0 -5.9860827 -42.977548
0 18.173981 -41.229109
0 5.9860827 -42.977548
46.909638 59.725932 -6.1784747
53.455363 42.757477 -16.705328
40.153115 55.715086 -14.973316
52.621388 7.9820925 -29.472918
53.41567 24.280965 -23.738197
28.572757 47.702109 -29.481525
46.817578 39.82541 -24.613457
33.94238 51.523157 -22.764513
44.629232 48.413613 -20.405028
26.776865 -34.092635 -3.5267844
32.953224 -26.358379 -10.298207
24.977762 -34.658287 -9.3143441
43.69311 -6.6277699 -24.472244
38.543455 -17.520557 -17.128908
20.074925 -33.515011 -20.713416
30.622249 -26.048841 -16.099069
22.698186 -34.454926 -15.223244
27.979887 -30.35247 -12.792745
5.851426 -21.605688 -38.575117
16.56685 -16.196521 -36.445397
9.5096416 -25.501481 -35.384981
5.760005 -15.672734 -40.438905
39.007693 -4.0352329 -30.637224
27.150372 -10.607639 -33.943373
37.527778 -10.085514 -27.045766
16.525478 -31.433328 -26.738786
20.230425 -19.606822 -32.733516
13.197008 -28.864079 -31.311638
22.269369 -28.047464 -24.476405
15.057935 -22.451707 -34.080781
5.7504557 -3.5539771 -42.681378
16.769161 -10.363911 -38.689591
5.7456717 -9.5240348 -41.813924
11.408485 -13.014509 -39.582129
33.439989 -20.66705 -20.029988
26.325846 -16.270268 -30.947888
35.577332 -15.719158 -23.437604
27.970206 -24.408984 -22.208027
31.664561 -13.345755 -29.189415
24.383378 -22.18473 -27.940864
6.2935896 23.238324 -41.49005
19.630161 19.191355 -43.184372
11.055228 29.646195 -41.136045
6.060848 16.491316 -42.551015
42.785595 4.426046 -33.604445
32.658024 12.759476 -40.829035
48.410646 13.010263 -34.888903
35.539212 0 -35.120769
22.781128 43.332281 -36.86064
26.687677 25.865029 -43.181568
17.159181 37.530018 -40.712415
31.847749 40.111088 -35.004064
18.860045 28.120734 -42.686134
5.8145257 3.5935745 -43.156922
18.590856 11.489781 -42.892582
5.9220623 9.8164202 -43.097601
11.714544 0 -42.383617
12.441936 14.193444 -43.167723
47.952325 29.636166 -28.722632
35.802965 22.12745 -42.08891
48.319675 21.349116 -31.831993
40.678473 35.499209 -32.298247
42.820466 18.047667 -39.473288
34.574329 31.456764 -39.618656
23.200978 -6.989645 -37.53997
25.526524 7.690251 -41.302783
28.973022 -3.7903492 -36.445397
17.708656 -3.6481838 -40.458978
30.846251 4.0354115 -38.801748
18.355931 3.7815297 -41.937807
46.909638 59.725932 6.1784747
53.455363 42.757477 16.705328
40.153115 55.715086 14.973316
60.354415 61.0735 0
52.621388 7.9820925 29.472918
53.41567 24.280965 23.738197
28.572757 47.702109 29.481525
46.817578 39.82541 24.613457
33.94238 51.523157 22.764513
44.629232 48.413613 20.405028
58.669063 36.259475 -10.923715
58.669063 36.259475 10.923715
59.662526 47.429957 -6.2049483
59.662526 47.429957 6.2049483
26.776865 -34.092635 3.5267844
32.953224 -26.358379 10.298207
24.977762 -34.658287 9.3143441
30.355914 -30.717586 0
43.69311 -6.6277699 24.472244
38.543455 -17.520557 17.128908
20.074925 -33.515011 20.713416
30.622249 -26.048841 16.099069
22.698186 -34.454926 15.223244
27.979887 -30.35247 12.792745
37.255394 -23.0251 -6.9366592
37.255394 -23.0251 6.9366592
33.911139 -26.958361 -3.5267844
33.911139 -26.958361 3.5267844
5.851426 -21.605688 38.575117
16.56685 -16.196521 36.445397
9.5096416 -25.501481 35.384981
5.760005 -15.672734 40.438905
39.007693 -4.0352329 30.637224
27.150372 -10.607639 33.943373
37.527778 -10.085514 27.045766
16.525478 -31.433328 26.738786
20.230425 -19.606822 32.733516
13.197008 -28.864079 31.311638
22.269369 -28.047464 24.476405
15.057935 -22.451707 34.080781
5.7504557 -3.5539771 42.681378
16.769161 -10.363911 38.689591
5.7456717 -9.5240348 41.813924
11.408485 -13.014509 39.582129
33.439989 -20.66705 20.029988
26.325846 -16.270268 30.947888
35.577332 -15.719158 23.437604
27.970206 -24.408984 22.208027
31.664561 -13.345755 29.189415
24.383378 -22.18473 27.940864
6.2935896 23.238324 41.49005
19.630161 19.191355 43.184372
11.055228 29.646195 41.136045
6.060848 16.491316 42.551015
42.785595 4.426046 33.604445
32.658024 12.759476 40.829035
48.410646 13.010263 34.888903
35.539212 0 35.120769
22.781128 43.332281 36.86064
26.687677 25.865029 43.181568
17.159181 37.530018 40.712415
31.847749 40.111088 35.004064
18.860045 28.120734 42.686134
5.8145257 3.5935745 43.156922
18.590856 11.489781 42.892582
5.9220623 9.8164202 43.097601
11.714544 0 42.383617
12.441936 14.193444 43.167723
47.952325 29.636166 28.722632
35.802965 22.12745 42.08891
48.319675 21.349116 31.831993
40.678473 35.499209 32.298247
42.820466 18.047667 39.473288
34.574329 31.456764 39.618656
23.200978 -6.989645 37.53997
25.526524 7.690251 41.302783
28.973022 -3.7903492 36.445397
17.708656 -3.6481838 40.458978
30.846251 4.0354115 38.801748
18.355931 3.7815297 41.937807
51.827649 0 -22.845866
59.922074 0 -8.3461832
56.544466 8.0540361 -21.914698
48.19891 -6.8653184 -18.680246
51.827649 0 22.845866
59.922074 0 8.3461832
56.544466 8.0540361 21.914698
48.19891 -6.8653184 18.680246
57.753204 25.031869 -15.470546
60.830897 8.1957377 -5.0652445
57.120096 16.463332 -18.78095
60.640583 26.542025 -5.4679579
59.347028 8.1549039 -13.517582
41.192331 -17.853919 -11.034329
53.534562 -7.2127037 -4.457696
44.593045 -12.852746 -14.662086
42.314057 -18.520613 -3.8154561
51.663367 -7.0990884 -11.767461
57.753204 25.031869 15.470546
60.830897 8.1957377 5.0652445
57.120096 16.463332 18.78095
60.640583 26.542025 5.4679579
59.347028 8.1549039 13.517582
61.0735 16.8803 0
41.192331 -17.853919 11.034329
53.534562 -7.2127037 4.457696
44.593045 -12.852746 14.662086
42.314057 -18.520613 3.8154561
51.663367 -7.0990884 11.767461
47.8485 -13.225 0
-26.776865 34.092635 -3.5267844
-32.953224 26.358379 -10.298207
-24.977762 34.658287 -9.3143441
-43.69311 6.6277699 -24.472244
-38.543455 17.520557 -17.128908
-20.074925 33.515011 -20.713416
-30.622249 26.048841 -16.099069
-22.698186 34.454926 -15.223244
-27.979887 30.35247 -12.792745
-46.909638 -59.725932 -6.1784747
-53.455363 -42.757477 -16.705328
-40.153115 -55.715086 -14.973316
-52.621388 -7.9820925 -29.472918
-53.41567 -24.280965 -23.738197
-28.572757 -47.702109 -29.481525
-46.817578 -39.82541 -24.613457
-33.94238 -51.523157 -22.764513
-44.629232 -48.413613 -20.405028
-6.2935896 -23.238324 -41.49005
-19.630161 -19.191355 -43.184372
-11.055228 -29.646195 -41.136045
-6.060848 -16.491316 -42.551015
-42.785595 -4.426046 -33.604445
-32.658024 -12.759476 -40.829035
-48.410646 -13.010263 -34.888903
-22.781128 -43.332281 -36.86064
-26.687677 -25.865029 -43.181568
-17.159181 -37.530018 -40.712415
-31.847749 -40.111088 -35.004064
-18.860045 -28.120734 -42.686134
-5.8145257 -3.5935745 -43.156922
-18.590856 -11.489781 -42.892582
-5.9220623 -9.8164202 -43.097601
-12.441936 -14.193444 -43.167723
-47.952325 -29.636166 -28.722632
-35.802965 -22.12745 -42.08891
-48.319675 -21.349116 -31.831993
-40.678473 -35.499209 -32.298247
-42.820466 -18.047667 -39.473288
-34.574329 -31.456764 -39.618656
-5.851426 21.605688 -38.575117
-16.56685 16.196521 -36.445397
-9.5096416 25.501481 -35.384981
-5.760005 15.672734 -40.438905
-39.007693 4.0352329 -30.637224
-27.150372 10.607639 -33.943373
-37.527778 10.085514 -27.045766
-35.539212 0 -35.120769
-16.525478 31.433328 -26.738786
-20.230425 19.606822 -32.733516
-13.197008 28.864079 -31.311638
-22.269369 28.047464 -24.476405
-15.057935 22.451707 -34.080781
-5.7504557 3.5539771 -42.681378
-16.769161 10.363911 -38.689591
-5.7456717 9.5240348 -41.813924
-11.714544 0 -42.383617
-11.408485 13.014509 -39.582129
-33.439989 20.66705 -20.029988
-26.325846 16.270268 -30.947888
-35.577332 15.719158 -23.437604
-27.970206 24.408984 -22.208027
-31.664561 13.345755 -29.189415
-24.383378 22.18473 -27.940864
-25.526524 -7.690251 -41.302783
-23.200978 6.989645 -37.53997
-30.846251 -4.0354115 -38.801748
-18.355931 -3.7815297 -41.937807
-28.973022 3.7903492 -36.445397
-17.708656 3.6481838 -40.458978
-26.776865 34.092635 3.5267844
-32.953224 26.358379 10.298207
-24.977762 34.658287 9.3143441
-30.355914 30.717586 0
-43.69311 6.6277699 24.472244
-38.543455 17.520557 17.128908
-20.074925 33.515011 20.713416
-30.622249 26.048841 16.099069
-22.698186 34.454926 15.223244
-27.979887 30.35247 12.792745
-37.255394 23.0251 -6.9366592
-37.255394 23.0251 6.9366592
-33.911139 26.958361 -3.5267844
-33.911139 26.958361 3.5267844
-46.909638 -59.725932 6.1784747
-53.455363 -42.757477 16.705328
-40.153115 -55.715086 14.973316
-60.354415 -61.0735 0
-52.621388 -7.9820925 29.472918
-53.41567 -24.280965 23.738197
-28.572757 -47.702109 29.481525
-46.817578 -39.82541 24.613457
-33.94238 -51.523157 22.764513
-44.629232 -48.413613 20.405028
-58.669063 -36.259475 -10.923715
-58.669063 -36.259475 10.923715
-59.662526 -47.429957 -6.2049483
-59.662526 -47.429957 6.2049483
-6.2935896 -23.238324 41.49005
-19.630161 -19.191355 43.184372
-11.055228 -29.646195 41.136045
-6.060848 -16.491316 42.551015
-42.785595 -4.426046 33.604445
-32.658024 -12.759476 40.829035
-48.410646 -13.010263 34.888903
-22.781128 -43.332281 36.86064
-26.687677 -25.865029 43.181568
-17.159181 -37.530018 40.712415
-31.847749 -40.111088 35.004064
-18.860045 -28.120734 42.686134
-5.8145257 -3.5935745 43.156922
-18.590856 -11.489781 42.892582
-5.9220623 -9.8164202 43.097601
-12.441936 -14.193444 43.167723
-47.952325 -29.636166 28.722632
-35.802965 -22.12745 42.08891
-48.319675 -21.349116 31.831993
-40.678473 -35.499209 32.298247
-42.820466 -18.047667 39.473288
-34.574329 -31.456764 39.618656
-5.851426 21.605688 38.575117
-16.56685 16.196521 36.445397
-9.5096416 25.501481 35.384981
-5.760005 15.672734 40.438905
-39.007693 4.0352329 30.637224
-27.150372 10.607639 33.943373
-37.527778 10.085514 27.045766
-35.539212 0 35.120769
-16.525478 31.433328 26.738786
-20.230425 19.606822 32.733516
-13.197008 28.864079 31.311638
-22.269369 28.047464 24.476405
-15.057935 22.451707 34.080781
-5.7504557 3.5539771 42.681378
-16.769161 10.363911 38.689591
-5.7456717 9.5240348 41.813924
-11.714544 0 42.383617
-11.408485 13.014509 39.582129
-33.439989 20.66705 20.029988
-26.325846 16.270268 30.947888
-35.577332 15.719158 23.437604
-27.970206 24.408984 22.208027
-31.664561 13.345755 29.189415
-24.383378 22.18473 27.940864
-25.526524 -7.690251 41.302783
-23.200978 6.989645 37.53997
-30.846251 -4.0354115 38.801748
-18.355931 -3.7815297 41.937807
-28.973022 3.7903492 36.445397
-17.708656 3.6481838 40.458978
-51.827649 0 -22.845866
-59.922074 0 -8.3461832
-48.19891 6.8653184 -18.680246
-56.544466 -8.0540361 -21.914698
-51.827649 0 22.845866
-59.922074 0 8.3461832
-48.19891 6.8653184 18.680246
-56.544466 -8.0540361 21.914698
-41.192331 17.853919 -11.034329
-53.534562 7.2127037 -4.457696
-44.593045 12.852746 -14.662086
-42.314057 18.520613 -3.8154561
-51.663367 7.0990884 -11.767461
-57.753204 -25.031869 -15.470546
-60.830897 -8.1957377 -5.0652445
-57.120096 -16.463332 -18.78095
-60.640583 -26.542025 -5.4679579
-59.347028 -8.1549039 -13.517582
-41.192331 17.853919 11.034329
-53.534562 7.2127037 4.457696
-44.593045 12.852746 14.662086
-42.314057 18.520613 3.8154561
-51.663367 7.0990884 11.767461
-47.8485 13.225 0
-57.753204 -25.031869 15.470546
-60.830897 -8.1957377 5.0652445
-57.120096 -16.463332 18.78095
-60.640583 -26.542025 5.4679579
-59.347028 -8.1549039 13.517582
-61.0735 -16.8803 0
-21.056468 40.017033 0
-16.18249 44.89101 0
-3.9584953 57.115005 0
-10.625576 50.447924 0
32.13612 61.0735 0
22.016019 61.0735 0
4.2328485 61.0735 0
12.863585 61.0735 0
-32.13612 -61.0735 0
-22.016019 -61.0735 0
-4.2328485 -61.0735 0
-12.863585 -61.0735 0
21.056468 -40.017033 0
16.18249 -44.89101 0
3.9584953 -57.115005 0
10.625576 -50.447924 0
-35.711738 -60.649378 4.6382102
-30.934052 -58.194319 13.173986
-30.299155 -60.74775 4.4776684
-21.324899 -51.528757 27.545969
-26.044748 -54.946166 20.718729
-20.372605 -60.851887 4.2473202
-26.025666 -58.712468 12.864608
-25.178287 -60.809608 4.3525811
-28.208833 -59.895541 8.7992335
-1.9473191 -27.410523 39.253011
-6.2628662 -33.928239 38.500647
-16.747723 -48.076785 33.943763
-11.40119 -41.6372 37.521701
-2.5210939 -60.931405 4.0792157
-7.5333754 -59.685962 12.189258
-6.7811639 -60.918835 4.0980866
-16.93555 -52.567376 27.402295
-12.399285 -56.938843 20.062464
-19.165322 -54.178626 24.039618
-15.576868 -60.880335 4.1924601
-11.879528 -59.539381 12.285716
-11.144187 -60.90245 4.1328992
-18.427177 -60.241141 8.4258019
-9.3489679 -60.420263 8.2205128
-23.667184 -57.269944 16.868731
-14.448835 -58.18251 16.418981
-21.425789 -55.763517 20.519682
-21.159625 -59.053905 12.697236
-16.854445 -56.414499 20.298603
-16.428593 -59.322022 12.505567
22.581777 -38.350716 2.932902
20.748506 -39.032882 8.8362344
20.275439 -40.65088 2.9963441
15.764551 -38.092921 20.363512
18.468338 -38.962341 14.691657
15.276648 -45.630537 3.1849053
18.339604 -41.373135 9.0653514
17.837408 -43.080206 3.0835603
19.362044 -41.111239 6.0396382
1.8938697 -26.658167 38.175605
5.6519301 -30.618574 34.744949
0 -29.652433 37.753845
12.680383 -36.400891 25.700204
9.2809848 -33.894199 30.544033
-4.1742291 -36.296972 36.729428
3.8715373 -33.664919 34.066016
-2.0213814 -32.869804 37.27162
1.9530005 -31.757858 36.010765
2.4166045 -58.406039 3.9101482
6.6300596 -52.529107 10.727662
6.0951281 -54.755806 3.6834919
0 -59.994187 8.0830079
12.997714 -40.344466 21.030743
10.107888 -46.416502 16.354906
14.479096 -40.93109 18.161549
12.405453 -48.485237 3.3388847
9.8708164 -49.471856 10.208322
9.4159264 -51.457589 3.4919617
14.144448 -46.240273 6.4675299
8.0724545 -52.170445 7.0980793
-4.9821811 -58.725078 16.231212
4.4934308 -52.964167 14.638936
-2.5198572 -59.794247 12.239686
2.3795897 -56.465808 11.558366
17.130168 -41.451648 12.209488
11.572582 -46.600427 13.150542
15.86812 -41.298931 15.19705
15.72154 -43.876878 9.4340088
13.0809 -43.783843 15.753944
12.898582 -46.575502 9.8184968
-14.285299 -50.615896 31.282344
-4.4847186 -48.473275 29.958132
-12.033555 -48.890965 34.434748
-12.135484 -53.171742 27.80994
11.10767 -39.35687 24.323883
4.0386048 -43.651435 26.97807
9.4227379 -38.283512 26.963737
9.7219609 -42.596866 22.279057
-6.5932263 -40.197549 36.060518
-2.2100158 -44.418702 31.212171
-9.1605595 -44.297737 35.322452
-2.1108924 -38.582909 34.639316
-6.833021 -46.604418 32.773529
-7.5132482 -57.21379 20.333571
-2.3598393 -50.555275 26.5252
-9.8561536 -55.390544 24.127409
-2.4807964 -56.558125 20.070065
-7.3073162 -53.6564 28.122366
5.818065 -35.471549 31.820907
2.1021353 -42.250432 29.688569
7.6466372 -36.97686 29.484877
2.0243394 -37.000892 33.218999
5.899524 -40.237529 28.296155
0 -40.589972 32.267837
6.4785862 -49.334783 17.5334
2.2219773 -47.60183 24.975595
8.1753196 -45.944434 20.012805
2.3128853 -52.730024 18.711635
6.1311515 -45.020019 23.59587
0 -51.92994 22.729428
-22.581777 38.350716 2.932902
-20.748506 39.032882 8.8362344
-20.275439 40.65088 2.9963441
-15.764551 38.092921 20.363512
-18.468338 38.962341 14.691657
-15.276648 45.630537 3.1849053
-18.339604 41.373135 9.0653514
-17.837408 43.080206 3.0835603
-19.362044 41.111239 6.0396382
-1.8938697 26.658167 38.175605
-5.6519301 30.618574 34.744949
-12.680383 36.400891 25.700204
-9.2809848 33.894199 30.544033
-2.4166045 58.406039 3.9101482
-6.6300596 52.529107 10.727662
-6.0951281 54.755806 3.6834919
-12.997714 40.344466 21.030743
-10.107888 46.416502 16.354906
-14.479096 40.93109 18.161549
-12.405453 48.485237 3.3388847
-9.8708164 49.471856 10.208322
-9.4159264 51.457589 3.4919617
-14.144448 46.240273 6.4675299
-8.0724545 52.170445 7.0980793
-17.130168 41.451648 12.209488
-11.572582 46.600427 13.150542
-15.86812 41.298931 15.19705
-15.72154 43.876878 9.4340088
-13.0809 43.783843 15.753944
-12.898582 46.575502 9.8184968
35.711738 60.649378 4.6382102
30.934052 58.194319 13.173986
30.299155 60.74775 4.4776684
21.324899 51.528757 27.545969
26.044748 54.946166 20.718729
20.372605 60.851887 4.2473202
26.025666 58.712468 12.864608
25.178287 60.809608 4.3525811
28.208833 59.895541 8.7992335
1.9473191 27.410523 39.253011
6.2628662 33.928239 38.500647
0 29.652433 37.753845
16.747723 48.076785 33.943763
11.40119 41.6372 37.521701
-3.8715373 33.664919 34.066016
4.1742291 36.296972 36.729428
-1.9530005 31.757858 36.010765
2.0213814 32.869804 37.27162
2.5210939 60.931405 4.0792157
7.5333754 59.685962 12.189258
6.7811639 60.918835 4.0980866
0 59.994187 8.0830079
16.93555 52.567376 27.402295
12.399285 56.938843 20.062464
19.165322 54.178626 24.039618
15.576868 60.880335 4.1924601
11.879528 59.539381 12.285716
11.144187 60.90245 4.1328992
18.427177 60.241141 8.4258019
9.3489679 60.420263 8.2205128
-4.4934308 52.964167 14.638936
4.9821811 58.725078 16.231212
-2.3795897 56.465808 11.558366
2.5198572 59.794247 12.239686
23.667184 57.269944 16.868731
14.448835 58.18251 16.418981
21.425789 55.763517 20.519682
21.159625 59.053905 12.697236
16.854445 56.414499 20.298603
16.428593 59.322022 12.505567
-11.10767 39.35687 24.323883
-4.0386048 43.651435 26.97807
-9.4227379 38.283512 26.963737
-9.7219609 42.596866 22.279057
14.285299 50.615896 31.282344
4.4847186 48.473275 29.958132
12.033555 48.890965 34.434748
12.135484 53.171742 27.80994
-5.818065 35.471549 31.820907
-2.1021353 42.250432 29.688569
-7.6466372 36.97686 29.484877
-2.0243394 37.000892 33.218999
-5.899524 40.237529 28.296155
-6.4785862 49.334783 17.5334
-2.2219773 47.60183 24.975595
-8.1753196 45.944434 20.012805
-2.3128853 52.730024 18.711635
-6.1311515 45.020019 23.59587
6.5932263 40.197549 36.060518
2.2100158 44.418702 31.212171
9.1605595 44.297737 35.322452
2.1108924 38.582909 34.639316
6.833021 46.604418 32.773529
0 40.589972 32.267837
7.5132482 57.21379 20.333571
2.3598393 50.555275 26.5252
9.8561536 55.390544 24.127409
2.4807964 56.558125 20.070065
7.3073162 53.6564 28.122366
0 51.92994 22.729428
0 -21.297273 40.474675
0 -15.085309 41.847377
0 -2.989488 43.133719
0 -8.9966956 42.714353
0 21.297273 40.474675
0 15.085309 41.847377
0 2.989488 43.133719
0 8.9966956 42.714353
-35.711738 -60.649378 -4.6382102
-30.934052 -58.194319 -13.173986
-30.299155 -60.74775 -4.4776684
-21.324899 -51.528757 -27.545969
-26.044748 -54.946166 -20.718729
-20.372605 -60.851887 -4.2473202
-26.025666 -58.712468 -12.864608
-25.178287 -60.809608 -4.3525811
-28.208833 -59.895541 -8.7992335
-1.9473191 -27.410523 -39.253011
-6.2628662 -33.928239 -38.500647
-16.747723 -48.076785 -33.943763
-11.40119 -41.6372 -37.521701
-2.5210939 -60.931405 -4.0792157
-7.5333754 -59.685962 -12.189258
-6.7811639 -60.918835 -4.0980866
-16.93555 -52.567376 -27.402295
-12.399285 -56.938843 -20.062464
-19.165322 -54.178626 -24.039618
-15.576868 -60.880335 -4.1924601
-11.879528 -59.539381 -12.285716
-11.144187 -60.90245 -4.1328992
-18.427177 -60.241141 -8.4258019
-9.3489679 -60.420263 -8.2205128
-23.667184 -57.269944 -16.868731
-14.448835 -58.18251 -16.418981
-21.425789 -55.763517 -20.519682
-21.159625 -59.053905 -12.697236
-16.854445 -56.414499 -20.298603
-16.428593 -59.322022 -12.505567
22.581777 -38.350716 -2.932902
20.748506 -39.032882 -8.8362344
20.275439 -40.65088 -2.9963441
15.764551 -38.092921 -20.363512
18.468338 -38.962341 -14.691657
15.276648 -45.630537 -3.1849053
18.339604 -41.373135 -9.0653514
17.837408 -43.080206 -3.0835603
19.362044 -41.111239 -6.0396382
1.8938697 -26.658167 -38.175605
5.6519301 -30.618574 -34.744949
0 -29.652433 -37.753845
12.680383 -36.400891 -25.700204
9.2809848 -33.894199 -30.544033
-4.1742291 -36.296972 -36.729428
3.8715373 -33.664919 -34.066016
-2.0213814 -32.869804 -37.27162
1.9530005 -31.757858 -36.010765
2.4166045 -58.406039 -3.9101482
6.6300596 -52.529107 -10.727662
6.0951281 -54.755806 -3.6834919
0 -59.994187 -8.0830079
12.997714 -40.344466 -21.030743
10.107888 -46.416502 -16.354906
14.479096 -40.93109 -18.161549
12.405453 -48.485237 -3.3388847
9.8708164 -49.471856 -10.208322
9.4159264 -51.457589 -3.4919617
14.144448 -46.240273 -6.4675299
8.0724545 -52.170445 -7.0980793
-4.9821811 -58.725078 -16.231212
4.4934308 -52.964167 -14.638936
-2.5198572 -59.794247 -12.239686
2.3795897 -56.465808 -11.558366
17.130168 -41.451648 -12.209488
11.572582 -46.600427 -13.150542
15.86812 -41.298931 -15.19705
15.72154 -43.876878 -9.4340088
13.0809 -43.783843 -15.753944
12.898582 -46.575502 -9.8184968
-14.285299 -50.615896 -31.282344
-4.4847186 -48.473275 -29.958132
-12.033555 -48.890965 -34.434748
-12.135484 -53.171742 -27.80994
11.10767 -39.35687 -24.323883
4.0386048 -43.651435 -26.97807
9.4227379 -38.283512 -26.963737
9.7219609 -42.596866 -22.279057
-6.5932263 -40.197549 -36.060518
-2.2100158 -44.418702 -31.212171
-9.1605595 -44.297737 -35.322452
-2.1108924 -38.582909 -34.639316
-6.833021 -46.604418 -32.773529
-7.5132482 -57.21379 -20.333571
-2.3598393 -50.555275 -26.5252
-9.8561536 -55.390544 -24.127409
-2.4807964 -56.558125 -20.070065
-7.3073162 -53.6564 -28.122366
5.818065 -35.471549 -31.820907
2.1021353 -42.250432 -29.688569
7.6466372 -36.97686 -29.484877
2.0243394 -37.000892 -33.218999
5.899524 -40.237529 -28.296155
0 -40.589972 -32.267837
6.4785862 -49.334783 -17.5334
2.2219773 -47.60183 -24.975595
8.1753196 -45.944434 -20.012805
2.3128853 -52.730024 -18.711635
6.1311515 -45.020019 -23.59587
0 -51.92994 -22.729428
-22.581777 38.350716 -2.932902
-20.748506 39.032882 -8.8362344
-20.275439 40.65088 -2.9963441
-15.764551 38.092921 -20.363512
-18.468338 38.962341 -14.691657
-15.276648 45.630537 -3.1849053
-18.339604 41.373135 -9.0653514
-17.837408 43.080206 -3.0835603
-19.362044 41.111239 -6.0396382
-1.8938697 26.658167 -38.175605
-5.6519301 30.618574 -34.744949
-12.680383 36.400891 -25.700204
-9.2809848 33.894199 -30.544033
-2.4166045 58.406039 -3.9101482
-6.6300596 52.529107 -10.727662
-6.0951281 54.755806 -3.6834919
-12.997714 40.344466 -21.030743
-10.107888 46.416502 -16.354906
-14.479096 40.93109 -18.161549
-12.405453 48.485237 -3.3388847
-9.8708164 49.471856 -10.208322
-9.4159264 51.457589 -3.4919617
-14.144448 46.240273 -6.4675299
-8.0724545 52.170445 -7.0980793
-17.130168 41.451648 -12.209488
-11.572582 46.600427 -13.150542
-15.86812 41.298931 -15.19705
-15.72154 43.876878 -9.4340088
-13.0809 43.783843 -15.753944
-12.898582 46.575502 -9.8184968
35.711738 60.649378 -4.6382102
30.934052 58.194319 -13.173986
30.299155 60.74775 -4.4776684
21.324899 51.528757 -27.545969
26.044748 54.946166 -20.718729
20.372605 60.851887 -4.2473202
26.025666 58.712468 -12.864608
25.178287 60.809608 -4.3525811
28.208833 59.895541 -8.7992335
1.9473191 27.410523 -39.253011
6.2628662 33.928239 -38.500647
0 29.652433 -37.753845
16.747723 48.076785 -33.943763
11.40119 41.6372 -37.521701
-3.8715373 33.664919 -34.066016
4.1742291 36.296972 -36.729428
-1.9530005 31.757858 -36.010765
2.0213814 32.869804 -37.27162
2.5210939 60.931405 -4.0792157
7.5333754 59.685962 -12.189258
6.7811639 60.918835 -4.0980866
0 59.994187 -8.0830079
16.93555 52.567376 -27.402295
12.399285 56.938843 -20.062464
19.165322 54.178626 -24.039618
15.576868 60.880335 -4.1924601
11.879528 59.539381 -12.285716
11.144187 60.90245 -4.1328992
18.427177 60.241141 -8.4258019
9.3489679 60.420263 -8.2205128
-4.4934308 52.964167 -14.638936
4.9821811 58.725078 -16.231212
-2.3795897 56.465808 -11.558366
2.5198572 59.794247 -12.239686
23.667184 57.269944 -16.868731
14.448835 58.18251 -16.418981
21.425789 55.763517 -20.519682
21.159625 59.053905 -12.697236
16.854445 56.414499 -20.298603
16.428593 59.322022 -12.505567
-11.10767 39.35687 -24.323883
-4.0386048 43.651435 -26.97807
-9.4227379 38.283512 -26.963737
-9.7219609 42.596866 -22.279057
14.285299 50.615896 -31.282344
4.4847186 48.473275 -29.958132
12.033555 48.890965 -34.434748
12.135484 53.171742 -27.80994
-5.818065 35.471549 -31.820907
-2.1021353 42.250432 -29.688569
-7.6466372 36.97686 -29.484877
-2.0243394 37.000892 -33.218999
-5.899524 40.237529 -28.296155
-6.4785862 49.334783 -17.5334
-2.2219773 47.60183 -24.975595
-8.1753196 45.944434 -20.012805
-2.3128853 52.730024 -18.711635
-6.1311515 45.020019 -23.59587
6.5932263 40.197549 -36.060518
2.2100158 44.418702 -31.212171
9.1605595 44.297737 -35.322452
2.1108924 38.582909 -34.639316
6.833021 46.604418 -32.773529
0 40.589972 -32.267837
7.5132482 57.21379 -20.333571
2.3598393 50.555275 -26.5252
9.8561536 55.390544 -24.127409
2.4807964 56.558125 -20.070065
7.3073162 53.6564 -28.122366
0 51.92994 -22.729428
0 -21.297273 -40.474675
0 -15.085309 -41.847377
0 -2.989488 -43.133719
0 -8.9966956 -42.714353
0 21.297273 -40.474675
0 15.085309 -41.847377
0 2.989488 -43.133719
0 8.9966956 -42.714353
42.47688 60.828661 -3.0176747
50.296204 57.074474 -9.2842543
39.822063 59.684113 -7.6845913
53.579827 37.829088 -18.664728
53.088542 47.841171 -14.536822
34.168569 56.270594 -16.076186
46.320394 54.729751 -13.681375
36.976105 58.057391 -12.056565
43.493253 57.76994 -10.777515
49.113728 3.7560121 -28.919284
52.990181 11.995877 -28.167716
53.51828 28.609518 -22.148252
53.288846 20.093798 -25.25917
23.787088 48.850419 -30.191219
33.355425 46.301864 -28.616126
26.217879 50.65809 -26.945709
50.51749 36.70219 -22.683201
42.611667 42.440544 -26.229699
50.111871 41.310665 -20.815037
31.360017 54.33874 -20.005658
36.179998 48.232355 -25.284821
28.749485 52.499936 -23.542813
36.965091 53.579313 -19.0091
31.204888 49.580673 -26.202092
48.262645 50.535591 -16.431654
41.250273 46.436748 -24.08932
49.419064 46.012285 -18.736594
42.717074 52.401893 -17.84263
45.906992 44.188414 -22.631297
39.337245 50.23127 -21.710343
25.090629 -35.930825 -1.7825074
28.397439 -32.224478 -5.2419273
24.296947 -36.415535 -4.6886597
34.393299 -24.28278 -11.981031
31.47801 -28.366664 -8.6193785
22.377759 -36.852869 -10.528653
27.496001 -32.487834 -8.1213278
23.389309 -36.724319 -7.6264043
25.939315 -34.453912 -6.4276947
44.875155 -3.4318638 -26.423516
42.457957 -9.6116004 -22.569156
37.185684 -19.878525 -15.389095
39.876527 -15.036372 -18.901666
17.242037 -35.409156 -21.884062
22.800002 -31.649503 -19.560468
18.661682 -36.058033 -19.179745
33.199383 -24.120163 -14.90708
28.046777 -27.934145 -17.264251
31.865401 -26.268843 -13.235975
21.222218 -36.772575 -13.538399
24.103272 -32.132605 -16.844858
19.996583 -36.516109 -16.375105
23.902222 -34.645246 -12.29159
21.442638 -34.069677 -18.004935
29.041721 -30.40945 -9.8876367
26.78044 -30.147596 -15.639232
30.473978 -28.373208 -11.553812
26.510588 -32.521072 -11.073292
29.323927 -28.226154 -14.456153
25.373293 -32.400153 -14.003596
2.9884688 -23.009612 -39.07731
8.6167745 -20.233189 -38.063447
4.8455468 -25.109946 -37.634033
2.9505842 -19.965795 -40.030064
19.173426 -14.843237 -35.866691
13.952382 -17.539023 -37.001782
8.5320384 -28.886525 -34.130804
10.432425 -22.173235 -36.516047
6.7109316 -27.082333 -35.972126
7.6996698 -23.614006 -37.077123
2.8979849 -13.900412 -41.519792
8.5690958 -17.335657 -39.108287
2.9235304 -16.911687 -40.84444
5.8137064 -18.637745 -39.573343
42.378077 -2.1023519 -29.592769
35.832959 -5.8289158 -31.57737
41.512658 -5.3449368 -27.697818
24.444235 -12.060692 -34.621978
29.933554 -9.0954871 -33.216761
39.501533 -11.285361 -23.986078
35.289869 -8.8217821 -29.867497
40.538471 -8.4184752 -25.8185
38.309242 -7.146942 -28.841878
15.438082 -34.38197 -24.979341
17.539741 -28.494326 -28.379897
13.834448 -33.306215 -27.456605
18.369228 -32.591061 -23.801485
21.031605 -16.570402 -34.029851
19.385031 -22.59551 -31.365639
18.446638 -17.948377 -34.679787
10.410104 -30.5763 -32.016301
15.881187 -27.194761 -30.614009
12.14368 -32.029797 -29.821774
11.386187 -27.259691 -33.44001
14.901986 -30.228286 -29.096658
23.938782 -29.017326 -21.513055
20.449566 -26.890557 -27.284475
21.210436 -30.795313 -22.642599
19.442872 -29.735417 -25.607307
13.218414 -20.720623 -35.903441
16.818309 -24.065283 -32.081961
15.833027 -19.33462 -35.307287
12.32367 -23.964606 -34.735669
17.658876 -21.030505 -33.414849
14.156022 -25.649477 -32.752822
2.8827236 -1.7816212 -43.059356
8.5881565 -5.3077726 -42.052798
2.8822519 -4.7693046 -42.845222
19.334204 -11.949195 -37.0899
14.112825 -8.7222054 -40.053301
16.691112 -13.306806 -37.617133
2.8984957 -10.76921 -42.090179
8.5653881 -8.2822011 -41.509825
2.885568 -7.7808115 -42.521764
5.760867 -12.598981 -41.187914
5.7552231 -6.5452603 -42.300535
11.375035 -15.959413 -38.618651
11.410364 -10.041212 -40.433911
14.030111 -14.649653 -38.127704
8.6051184 -14.340214 -40.02177
14.086175 -11.696109 -39.148731
8.6063731 -11.306212 -40.825613
34.730859 -21.464852 -16.911749
31.941268 -19.740789 -23.010187
35.972511 -19.134255 -18.617421
32.058297 -23.412404 -18.068948
24.128084 -14.911976 -33.210286
28.370414 -17.53388 -28.484805
26.77069 -13.488839 -32.474165
23.268746 -17.958077 -31.861588
38.335912 -14.113966 -22.124452
32.887389 -17.240538 -24.669449
37.18387 -16.674552 -20.362255
36.580786 -12.978289 -25.237577
34.529274 -18.24782 -21.731898
26.742799 -27.134553 -20.3372
29.136784 -21.60162 -24.037333
29.38729 -25.30751 -19.215245
25.135973 -26.238507 -23.352037
30.690979 -22.565886 -21.138575
32.277626 -10.495074 -30.825871
30.986167 -16.074246 -27.525352
29.495633 -12.010873 -31.679508
34.543016 -11.761756 -28.158841
28.967227 -14.835697 -30.093822
33.733611 -14.579927 -26.417555
21.455875 -23.875154 -28.940199
27.303623 -20.463917 -26.909428
22.374805 -20.95958 -30.431098
23.358196 -25.142603 -26.245428
25.377244 -19.268192 -29.468267
26.263572 -23.374344 -25.159985
3.1051504 23.907998 -40.603042
9.5563152 22.43934 -42.213743
5.1964042 26.928112 -40.359047
3.0484488 20.628017 -41.357776
23.002202 17.80731 -43.028976
16.245976 20.422215 -43.084402
9.9472579 33.677968 -39.792121
12.030832 25.570512 -42.110863
7.4792711 30.18301 -40.090602
8.5816244 26.31886 -41.324103
2.9626846 14.210749 -42.446752
9.3457851 18.906934 -42.653
3.0042597 17.37868 -41.972303
6.1840892 19.825129 -42.094504
44.560227 2.2106071 -31.116572
40.676958 6.6168847 -35.846087
47.554052 6.1227927 -31.728719
40.863468 0 -32.094777
29.559583 14.584586 -41.867182
35.573986 10.809366 -39.475854
50.837766 14.524058 -30.869653
43.238077 10.80868 -36.594444
50.740894 10.537175 -32.31631
45.580891 8.5035352 -34.316484
34.176425 -3.8840851 -33.774028
36.903929 4.1940607 -36.469418
37.398088 -2.0282403 -32.981336
39.018704 2.1161324 -34.410556
20.974525 46.712117 -33.937494
24.44648 39.714725 -39.555235
18.655961 44.913931 -37.025645
25.642286 45.495069 -33.225374
26.576156 20.938849 -43.001123
26.620465 31.029249 -43.072817
22.969747 22.349312 -43.183258
12.827036 37.675251 -39.44958
21.674888 37.115828 -41.782471
15.905963 41.953079 -39.060979
13.940162 33.374167 -40.940761
20.442704 41.467488 -39.915108
34.892738 42.295131 -31.357042
28.890246 37.989794 -38.546305
30.32614 44.030353 -32.37381
27.352045 41.831498 -36.024112
15.728653 24.655566 -42.721673
22.355719 31.988752 -42.644912
19.318443 23.590863 -43.079687
14.908647 28.991351 -42.02172
22.764533 27.110992 -43.075984
18.115732 32.824124 -41.914411
2.8906952 1.7865479 -43.178428
8.8060917 5.442464 -43.11994
2.9037341 4.8048514 -43.164558
5.7921486 0 -42.990833
22.291851 13.777122 -42.763722
15.148013 9.3619867 -42.991245
19.123191 15.245754 -43.098364
2.9482612 10.954111 -42.812842
8.9110504 8.6164353 -43.184984
2.9209468 7.8762088 -43.043105
5.9990661 13.119921 -42.890942
5.8751133 6.6816082 -43.181721
11.564864 -3.5498426 -41.842073
11.828165 3.630663 -42.794704
8.7082751 -1.7928245 -42.542328
8.7821033 1.8080239 -42.902999
12.675609 17.784146 -43.034145
12.183361 10.721455 -43.173112
15.890209 16.591889 -43.182636
9.2380479 15.394976 -42.965479
15.524189 12.890128 -43.145302
9.0939165 11.946699 -43.138348
50.778068 31.382572 -24.725733
45.138147 27.896909 -32.517094
50.879475 27.063467 -26.332457
47.495007 34.685944 -26.769507
30.788157 19.028127 -42.377318
39.549893 24.443178 -39.709361
34.199281 17.231852 -41.485412
31.321874 24.173225 -42.888631
50.887707 18.735107 -29.368354
45.460841 23.831912 -34.101033
50.911296 22.830411 -27.87953
48.384387 17.166022 -33.381041
48.170346 25.456771 -30.317261
39.526944 40.105973 -30.059209
41.597442 30.839785 -34.317156
43.682646 37.618269 -28.562441
36.370166 37.965462 -33.788922
44.503762 32.721889 -30.652203
40.45082 13.152589 -38.631458
42.648504 22.124147 -37.885134
37.456929 15.25278 -40.230264
45.771113 15.584877 -37.311782
39.45084 20.204927 -40.985164
45.632134 19.72256 -35.735557
30.357558 33.780556 -40.947003
38.585453 28.919587 -38.028377
31.634422 29.633518 -43.02474
33.307534 35.852003 -37.424571
35.725761 27.125515 -41.48505
37.592497 33.456986 -36.012872
22.515177 -10.281712 -36.430321
23.849055 -3.5701926 -38.588582
25.244767 -8.8220274 -35.842893
19.947143 -8.7043785 -38.138319
25.968066 11.858498 -42.017214
25.018614 3.7452751 -40.480968
28.935525 10.111798 -41.083085
22.111647 9.6489075 -42.276782
30.988096 -5.6657958 -34.543195
26.789783 -1.8968832 -38.125108
28.077316 -7.2815988 -35.211643
32.157742 -1.9596673 -35.818814
26.030706 -5.4271959 -37.016029
14.512535 -5.3623771 -40.834791
21.008662 -1.8690554 -40.041119
17.257058 -7.0495847 -39.617923
14.749677 -1.8231603 -41.565091
20.508979 -5.3290537 -39.13035
34.394774 6.2886654 -38.340703
27.551008 1.9507827 -39.208423
31.775997 8.2408184 -39.850143
33.302735 2.0294422 -37.094161
28.259229 5.8918253 -40.18502
29.926971 0 -37.645377
15.158858 5.6011935 -42.653391
21.465467 1.9096955 -40.91176
18.506425 7.5599565 -42.486158
14.967064 1.8500308 -42.177695
21.828016 5.6717923 -41.647022
18.056984 0 -41.254804
42.47688 60.828661 3.0176747
50.296204 57.074474 9.2842543
39.822063 59.684113 7.6845913
47.968038 61.0735 0
53.579827 37.829088 18.664728
53.088542 47.841171 14.536822
34.168569 56.270594 16.076186
46.320394 54.729751 13.681375
36.976105 58.057391 12.056565
43.493253 57.76994 10.777515
56.159856 56.828966 -6.458503
56.159856 56.828966 6.458503
53.255684 60.387509 -3.2750439
53.255684 60.387509 3.2750439
49.113728 3.7560121 28.919284
52.990181 11.995877 28.167716
53.51828 28.609518 22.148252
53.288846 20.093798 25.25917
23.787088 48.850419 30.191219
33.355425 46.301864 28.616126
26.217879 50.65809 26.945709
50.51749 36.70219 22.683201
42.611667 42.440544 26.229699
50.111871 41.310665 20.815037
31.360017 54.33874 20.005658
36.179998 48.232355 25.284821
28.749485 52.499936 23.542813
36.965091 53.579313 19.0091
31.204888 49.580673 26.202092
48.262645 50.535591 16.431654
41.250273 46.436748 24.08932
49.419064 46.012285 18.736594
42.717074 52.401893 17.84263
45.906992 44.188414 22.631297
39.337245 50.23127 21.710343
56.276294 34.780663 -15.882831
60.41532 37.338721 -5.5895895
56.522523 39.809787 -13.911914
56.276294 34.780663 15.882831
60.41532 37.338721 5.5895895
56.522523 39.809787 13.911914
56.790128 50.945431 -9.3147512
60.823741 42.739678 -3.026235
56.72895 45.234943 -11.731275
60.290253 54.127935 -3.2985134
59.143651 41.591468 -8.6714914
56.790128 50.945431 9.3147512
60.823741 42.739678 3.026235
56.72895 45.234943 11.731275
60.290253 54.127935 3.2985134
59.143651 41.591468 8.6714914
61.0735 48.551641 0
25.090629 -35.930825 1.7825074
28.397439 -32.224478 5.2419273
24.296947 -36.415535 4.6886597
26.866606 -34.206895 0
34.393299 -24.28278 11.981031
31.47801 -28.366664 8.6193785
22.377759 -36.852869 10.528653
27.496001 -32.487834 8.1213278
23.389309 -36.724319 7.6264043
25.939315 -34.453912 6.4276947
30.257215 -30.617711 -3.4796441
30.257215 -30.617711 3.4796441
28.596637 -32.426204 -1.7585962
28.596637 -32.426204 1.7585962
44.875155 -3.4318638 26.423516
42.457957 -9.6116004 22.569156
37.185684 -19.878525 15.389095
39.876527 -15.036372 18.901666
17.242037 -35.409156 21.884062
22.800002 -31.649503 19.560468
18.661682 -36.058033 19.179745
33.199383 -24.120163 14.90708
28.046777 -27.934145 17.264251
31.865401 -26.268843 13.235975
21.222218 -36.772575 13.538399
24.103272 -32.132605 16.844858
19.996583 -36.516109 16.375105
23.902222 -34.645246 12.29159
21.442638 -34.069677 18.004935
29.041721 -30.40945 9.8876367
26.78044 -30.147596 15.639232
30.473978 -28.373208 11.553812
26.510588 -32.521072 11.073292
29.323927 -28.226154 14.456153
25.373293 -32.400153 14.003596
36.646982 -22.64908 -10.34286
37.62269 -23.252101 -3.4808289
35.109817 -24.728449 -8.6415951
36.646982 -22.64908 10.34286
37.62269 -23.252101 3.4808289
35.109817 -24.728449 8.6415951
31.955394 -28.666625 -5.241343
35.838436 -25.182982 -1.7831118
33.537993 -26.742769 -6.935496
32.154682 -28.868124 -1.7592006
35.594711 -25.031195 -5.2188059
31.955394 -28.666625 5.241343
35.838436 -25.182982 1.7831118
33.537993 -26.742769 6.935496
32.154682 -28.868124 1.7592006
35.594711 -25.031195 5.2188059
34.02479 -27.04871 0
2.9884688 -23.009612 39.07731
8.6167745 -20.233189 38.063447
4.8455468 -25.109946 37.634033
2.9505842 -19.965795 40.030064
19.173426 -14.843237 35.866691
13.952382 -17.539023 37.001782
8.5320384 -28.886525 34.130804
10.432425 -22.173235 36.516047
6.7109316 -27.082333 35.972126
7.6996698 -23.614006 37.077123
2.8979849 -13.900412 41.519792
8.5690958 -17.335657 39.108287
2.9235304 -16.911687 40.84444
5.8137064 -18.637745 39.573343
42.378077 -2.1023519 29.592769
35.832959 -5.8289158 31.57737
41.512658 -5.3449368 27.697818
24.444235 -12.060692 34.621978
29.933554 -9.0954871 33.216761
39.501533 -11.285361 23.986078
35.289869 -8.8217821 29.867497
40.538471 -8.4184752 25.8185
38.309242 -7.146942 28.841878
15.438082 -34.38197 24.979341
17.539741 -28.494326 28.379897
13.834448 -33.306215 27.456605
18.369228 -32.591061 23.801485
21.031605 -16.570402 34.029851
19.385031 -22.59551 31.365639
18.446638 -17.948377 34.679787
10.410104 -30.5763 32.016301
15.881187 -27.194761 30.614009
12.14368 -32.029797 29.821774
11.386187 -27.259691 33.44001
14.901986 -30.228286 29.096658
23.938782 -29.017326 21.513055
20.449566 -26.890557 27.284475
21.210436 -30.795313 22.642599
19.442872 -29.735417 25.607307
13.218414 -20.720623 35.903441
16.818309 -24.065283 32.081961
15.833027 -19.33462 35.307287
12.32367 -23.964606 34.735669
17.658876 -21.030505 33.414849
14.156022 -25.649477 32.752822
2.8827236 -1.7816212 43.059356
8.5881565 -5.3077726 42.052798
2.8822519 -4.7693046 42.845222
19.334204 -11.949195 37.0899
14.112825 -8.7222054 40.053301
16.691112 -13.306806 37.617133
2.8984957 -10.76921 42.090179
8.5653881 -8.2822011 41.509825
2.885568 -7.7808115 42.521764
5.760867 -12.598981 41.187914
5.7552231 -6.5452603 42.300535
11.375035 -15.959413 38.618651
11.410364 -10.041212 40.433911
14.030111 -14.649653 38.127704
8.6051184 -14.340214 40.02177
14.086175 -11.696109 39.148731
8.6063731 -11.306212 40.825613
34.730859 -21.464852 16.911749
31.941268 -19.740789 23.010187
35.972511 -19.134255 18.617421
32.058297 -23.412404 18.068948
24.128084 -14.911976 33.210286
28.370414 -17.53388 28.484805
26.77069 -13.488839 32.474165
23.268746 -17.958077 31.861588
38.335912 -14.113966 22.124452
32.887389 -17.240538 24.669449
37.18387 -16.674552 20.362255
36.580786 -12.978289 25.237577
34.529274 -18.24782 21.731898
26.742799 -27.134553 20.3372
29.136784 -21.60162 24.037333
29.38729 -25.30751 19.215245
25.135973 -26.238507 23.352037
30.690979 -22.565886 21.138575
32.277626 -10.495074 30.825871
30.986167 -16.074246 27.525352
29.495633 -12.010873 31.679508
34.543016 -11.761756 28.158841
28.967227 -14.835697 30.093822
33.733611 -14.579927 26.417555
21.455875 -23.875154 28.940199
27.303623 -20.463917 26.909428
22.374805 -20.95958 30.431098
23.358196 -25.142603 26.245428
25.377244 -19.268192 29.468267
26.263572 -23.374344 25.159985
3.1051504 23.907998 40.603042
9.5563152 22.43934 42.213743
5.1964042 26.928112 40.359047
3.0484488 20.628017 41.357776
23.002202 17.80731 43.028976
16.245976 20.422215 43.084402
9.9472579 33.677968 39.792121
12.030832 25.570512 42.110863
7.4792711 30.18301 40.090602
8.5816244 26.31886 41.324103
2.9626846 14.210749 42.446752
9.3457851 18.906934 42.653
3.0042597 17.37868 41.972303
6.1840892 19.825129 42.094504
44.560227 2.2106071 31.116572
40.676958 6.6168847 35.846087
47.554052 6.1227927 31.728719
40.863468 0 32.094777
29.559583 14.584586 41.867182
35.573986 10.809366 39.475854
50.837766 14.524058 30.869653
43.238077 10.80868 36.594444
50.740894 10.537175 32.31631
45.580891 8.5035352 34.316484
34.176425 -3.8840851 33.774028
36.903929 4.1940607 36.469418
37.398088 -2.0282403 32.981336
39.018704 2.1161324 34.410556
20.974525 46.712117 33.937494
24.44648 39.714725 39.555235
18.655961 44.913931 37.025645
25.642286 45.495069 33.225374
26.576156 20.938849 43.001123
26.620465 31.029249 43.072817
22.969747 22.349312 43.183258
12.827036 37.675251 39.44958
21.674888 37.115828 41.782471
15.905963 41.953079 39.060979
13.940162 33.374167 40.940761
20.442704 41.467488 39.915108
34.892738 42.295131 31.357042
28.890246 37.989794 38.546305
30.32614 44.030353 32.37381
27.352045 41.831498 36.024112
15.728653 24.655566 42.721673
22.355719 31.988752 42.644912
19.318443 23.590863 43.079687
14.908647 28.991351 42.02172
22.764533 27.110992 43.075984
18.115732 32.824124 41.914411
2.8906952 1.7865479 43.178428
8.8060917 5.442464 43.11994
2.9037341 4.8048514 43.164558
5.7921486 0 42.990833
22.291851 13.777122 42.763722
15.148013 9.3619867 42.991245
19.123191 15.245754 43.098364
2.9482612 10.954111 42.812842
8.9110504 8.6164353 43.184984
2.9209468 7.8762088 43.043105
5.9990661 13.119921 42.890942
5.8751133 6.6816082 43.181721
11.564864 -3.5498426 41.842073
11.828165 3.630663 42.794704
8.7082751 -1.7928245 42.542328
8.7821033 1.8080239 42.902999
12.675609 17.784146 43.034145
12.183361 10.721455 43.173112
15.890209 16.591889 43.182636
9.2380479 15.394976 42.965479
15.524189 12.890128 43.145302
9.0939165 11.946699 43.138348
50.778068 31.382572 24.725733
45.138147 27.896909 32.517094
50.879475 27.063467 26.332457
47.495007 34.685944 26.769507
30.788157 19.028127 42.377318
39.549893 24.443178 39.709361
34.199281 17.231852 41.485412
31.321874 24.173225 42.888631
50.887707 18.735107 29.368354
45.460841 23.831912 34.101033
50.911296 22.830411 27.87953
48.384387 17.166022 33.381041
48.170346 25.456771 30.317261
39.526944 40.105973 30.059209
41.597442 30.839785 34.317156
43.682646 37.618269 28.562441
36.370166 37.965462 33.788922
44.503762 32.721889 30.652203
40.45082 13.152589 38.631458
42.648504 22.124147 37.885134
37.456929 15.25278 40.230264
45.771113 15.584877 37.311782
39.45084 20.204927 40.985164
45.632134 19.72256 35.735557
30.357558 33.780556 40.947003
38.585453 28.919587 38.028377
31.634422 29.633518 43.02474
33.307534 35.852003 37.424571
35.725761 27.125515 41.48505
37.592497 33.456986 36.012872
22.515177 -10.281712 36.430321
23.849055 -3.5701926 38.588582
25.244767 -8.8220274 35.842893
19.947143 -8.7043785 38.138319
25.968066 11.858498 42.017214
25.018614 3.7452751 40.480968
28.935525 10.111798 41.083085
22.111647 9.6489075 42.276782
30.988096 -5.6657958 34.543195
26.789783 -1.8968832 38.125108
28.077316 -7.2815988 35.211643
32.157742 -1.9596673 35.818814
26.030706 -5.4271959 37.016029
14.512535 -5.3623771 40.834791
21.008662 -1.8690554 40.041119
17.257058 -7.0495847 39.617923
14.749677 -1.8231603 41.565091
20.508979 -5.3290537 39.13035
34.394774 6.2886654 38.340703
27.551008 1.9507827 39.208423
31.775997 8.2408184 39.850143
33.302735 2.0294422 37.094161
28.259229 5.8918253 40.18502
29.926971 0 37.645377
15.158858 5.6011935 42.653391
21.465467 1.9096955 40.91176
18.506425 7.5599565 42.486158
14.967064 1.8500308 42.177695
21.828016 5.6717923 41.647022
18.056984 0 41.254804
48.996232 0 -25.781211
54.410814 0 -19.614227
52.455837 3.8664781 -26.163397
47.539973 -3.5041337 -23.711512
60.782229 0 -4.2126613
58.532034 0 -12.328289
55.0089 12.053111 -24.383974
57.791998 4.033747 -19.348184
54.793746 8.0497306 -25.806055
55.639999 3.982555 -23.037805
44.551713 -9.7618159 -19.748582
52.204611 -3.6437605 -17.477583
46.04868 -6.764996 -21.687416
50.013991 -3.5798611 -20.70835
48.996232 0 25.781211
54.410814 0 19.614227
52.455837 3.8664781 26.163397
47.539973 -3.5041337 23.711512
60.782229 0 4.2126613
58.532034 0 12.328289
55.0089 12.053111 24.383974
57.791998 4.033747 19.348184
54.793746 8.0497306 25.806055
55.639999 3.982555 23.037805
44.551713 -9.7618159 19.748582
52.204611 -3.6437605 17.477583
46.04868 -6.764996 21.687416
50.013991 -3.5798611 20.70835
55.975364 29.178809 -18.033496
59.022674 20.796704 -12.85307
55.727576 24.726904 -19.713253
58.194473 30.436934 -13.281831
61.017578 4.0849847 -2.5246594
60.475597 12.350519 -7.6330407
60.673318 4.0815704 -6.7538344
55.254136 16.27498 -22.834138
58.687529 16.561497 -14.57425
55.484267 20.416924 -21.318494
56.829868 12.219043 -20.36273
57.430776 20.664271 -17.158069
60.934506 31.970945 -2.8443252
60.283215 21.424433 -7.9163215
59.949545 31.420725 -8.1643621
59.480699 25.909028 -10.583953
59.06999 4.0677925 -15.113672
59.622645 12.302897 -11.896141
60.0156 4.0727167 -10.981907
58.091709 8.1251654 -17.769687
60.251615 8.1975673 -9.3228726
58.392176 12.309548 -16.171082
38.458374 -20.047562 -12.390074
44.033633 -15.515299 -9.5889822
39.971416 -17.735732 -14.139618
39.228967 -20.517575 -8.9532992
57.155437 -3.8264234 -2.3648597
50.16797 -10.245463 -6.3320443
56.611457 -3.8083238 -6.3016893
42.998677 -12.665162 -17.769488
45.939754 -12.964101 -11.408513
41.491723 -15.267992 -15.942196
46.392791 -9.9749576 -16.623017
42.89051 -15.432512 -12.814007
40.019184 -20.997153 -1.8680315
44.64241 -15.865748 -5.8623892
39.755175 -20.836462 -5.4141469
41.903617 -18.252677 -7.4562994
54.121587 -3.727026 -13.847572
49.296279 -10.172092 -9.8357845
55.583563 -3.7719543 -10.170915
50.093299 -7.0064445 -15.323051
52.788896 -7.182223 -8.1681488
47.992064 -10.11712 -13.290884
55.975364 29.178809 18.033496
59.022674 20.796704 12.85307
55.727576 24.726904 19.713253
58.194473 30.436934 13.281831
61.017578 4.0849847 2.5246594
60.475597 12.350519 7.6330407
60.673318 4.0815704 6.7538344
61.0735 8.2284237 0
55.254136 16.27498 22.834138
58.687529 16.561497 14.57425
55.484267 20.416924 21.318494
