11.137080 -26.911259 -14.386078
14.040587 -29.621189 -11.169358
12.029346 -35.931017 -2.507901
14.561837 -32.850702 -7.197984
14.440098 -34.875156 -2.496266
15.757702 -33.458175 -4.915329
1.051157 -14.796123 -21.188665
3.279629 -17.766950 -20.161349
0.000000 -16.397016 -20.876884
8.324870 -23.897755 -16.872587
5.699141 -20.813291 -18.756066
-2.274101 -19.774430 -20.010030
2.244687 -19.518657 -19.751209
-1.111141 -18.068328 -20.487979
1.104076 -17.953440 -20.357705
1.603304 -38.749677 -2.594201
4.614717 -36.561808 -7.466769
4.263144 -38.298112 -2.576362
0.000000 -38.312800 -5.161878
8.981113 -27.877073 -14.531746
7.114087 -32.668649 -11.510834
10.384758 -29.356767 -13.025902
9.439715 -36.894003 -2.540667
7.158914 -35.879988 -7.403694
6.893489 -37.672590 -2.556498
10.910550 -35.668187 -4.988834
5.774999 -37.322513 -5.077935
-3.045776 -35.900631 -9.922690
3.005413 -35.424868 -9.791193
-1.574241 -37.355519 -7.646552
1.562966 -37.087955 -7.591783
13.181582 -31.896843 -9.395142
8.429352 -33.943279 -9.578722
11.804484 -30.722768 -11.305266
12.170784 -33.967158 -7.303311
9.485627 -31.749895 -11.423987
9.689969 -34.989518 -7.376076
-7.586062 -26.879052 -16.612168
-2.524226 -27.283203 -16.861947
-6.191006 -25.153353 -17.715940
-6.688800 -29.307040 -15.328199
7.343462 -26.019468 -16.080916
2.491484 -26.929310 -16.643229
6.010002 -24.417953 -17.197985
6.501622 -28.486921 -14.899259
-3.543984 -21.606945 -19.383213
-1.260582 -25.336206 -17.803267
-4.833830 -23.374961 -18.638897
-1.179528 -21.559430 -19.355822
-3.714874 -25.337188 -17.817818
-4.452853 -33.908715 -12.051033
-1.380343 -29.571343 -15.515409
-5.640851 -31.700990 -13.808544
-1.491201 -33.996949 -12.064066
-4.024567 -29.551723 -15.488634
3.474932 -21.185947 -19.005542
1.251842 -25.160548 -17.679835
4.713026 -22.790789 -18.173085
1.171480 -21.412324 -19.223752
3.643114 -24.847752 -17.473633
0.000000 -23.371378 -18.579560
4.369198 -33.271682 -11.824633
1.370948 -29.370071 -15.409806
5.508055 -30.954685 -13.483463
1.481318 -33.771653 -11.984118
3.949400 -28.999782 -15.199351
0.000000 -31.766558 -13.904035
-19.093491 32.426547 -2.479846
-16.813546 31.630285 -7.160440
-16.806752 33.696399 -2.483735
-11.137080 26.911259 -14.386078
-14.040587 29.621189 -11.169358
-12.029346 35.931017 -2.507901
-14.561837 32.850702 -7.197984
-14.440098 34.875156 -2.496266
-15.757702 33.458175 -4.915329
-1.051157 14.796123 -21.188665
-3.279629 17.766950 -20.161349
-8.324870 23.897755 -16.872587
-5.699141 20.813291 -18.756066
-1.603304 38.749677 -2.594201
-4.614717 36.561808 -7.466769
-4.263144 38.298112 -2.576362
-8.981113 27.877073 -14.531746
-7.114087 32.668649 -11.510834
-10.384758 29.356767 -13.025902
-9.439715 36.894003 -2.540667
-7.158914 35.879988 -7.403694
-6.893489 37.672590 -2.556498
-10.910550 35.668187 -4.988834
-5.774999 37.322513 -5.077935
-13.181582 31.896843 -9.395142
-8.429352 33.943279 -9.578722
-11.804484 30.722768 -11.305266
-12.170784 33.967158 -7.303311
-9.485627 31.749895 -11.423987
-9.689969 34.989518 -7.376076
21.120263 35.868620 -2.743082
17.899104 33.672478 -7.622750
18.382309 36.855284 -2.716574
11.558049 27.928473 -14.929855
14.632149 30.869198 -11.639949
12.814887 38.277385 -2.671673
15.430367 34.810057 -7.627302
15.591927 37.657008 -2.695383
16.957242 36.005147 -5.289504
1.057124 14.880103 -21.308927
3.340810 18.098389 -20.537455
0.000000 16.397016 -20.876884
8.633117 24.782623 -17.497332
5.873537 21.450183 -19.330007
-2.244687 19.518657 -19.751209
2.274101 19.774430 -20.010030
-1.104076 17.953440 -20.357705
1.111141 18.068328 -20.487979
1.616129 39.059634 -2.614952
4.713093 37.341228 -7.625945
4.355448 39.127327 -2.632144
0.000000 38.312800 -5.161878
9.295765 28.853743 -15.040864
7.322561 33.625983 -11.848152
10.766217 30.435119 -13.504378
9.912491 38.741794 -2.667913
7.392873 37.052572 -7.645651
7.140012 39.019826 -2.647923
11.498226 37.589386 -5.257549
5.938316 38.377991 -5.221539
-3.005413 35.424868 -9.791193
3.045776 35.900631 -9.922690
-1.562966 37.087955 -7.591783
1.574241 37.355519 -7.646552
13.804055 33.403107 -9.838809
8.724322 35.131064 -9.913912
12.279322 31.958599 -11.760024
12.806365 35.740986 -7.684703
9.826854 32.892037 -11.834943
10.107827 36.498361 -7.694153
-7.343462 26.019468 -16.080916
-2.491484 26.929310 -16.643229
-6.010002 24.417953 -17.197985
-6.501622 28.486921 -14.899259
7.586062 26.879052 -16.612168
2.524226 27.283203 -16.861947
6.191006 25.153353 -17.715940
6.688800 29.307040 -15.328199
-3.474932 21.185947 -19.005542
-1.251842 25.160548 -17.679835
-4.713026 22.790789 -18.173085
-1.171480 21.412324 -19.223752
-3.643114 24.847752 -17.473633
-4.369198 33.271682 -11.824633
-1.370948 29.370071 -15.409806
-5.508055 30.954685 -13.483463
-1.481318 33.771653 -11.984118
-3.949400 28.999782 -15.199351
3.543984 21.606945 -19.383213
1.260582 25.336206 -17.803267
4.833830 23.374961 -18.638897
1.179528 21.559430 -19.355822
3.714874 25.337188 -17.817818
0.000000 23.371378 -18.579560
4.452853 33.908715 -12.051033
1.380343 29.571343 -15.515409
5.640851 31.700990 -13.808544
1.491201 33.996949 -12.064066
4.024567 29.551723 -15.488634
0.000000 31.766558 -13.904035
0.000000 -11.537674 -21.926921
0.000000 -8.087891 -22.436201
0.000000 -1.587241 -22.901450
0.000000 -4.791928 -22.751031
0.000000 11.537674 -21.926921
0.000000 8.087891 -22.436201
0.000000 1.587241 -22.901450
0.000000 4.791928 -22.751031
24.350989 34.871630 -1.729961
27.079208 30.728592 -4.998593
22.757284 34.107934 -4.391546
28.934234 20.428504 -10.079346
28.315677 25.516903 -7.753462
19.104412 31.462149 -8.988556
24.894857 29.414458 -7.353044
20.919736 32.846761 -6.821166
23.998367 31.875845 -5.946733
28.487259 2.178586 -16.773949
29.236573 6.618553 -15.541134
29.294303 15.659993 -12.123290
29.434936 11.099127 -13.952301
12.525413 25.722848 -15.897594
17.295962 24.009147 -14.838469
14.058855 27.164469 -14.449141
26.729583 19.419695 -12.002031
21.989032 21.900727 -13.535394
26.430087 21.788140 -10.978302
17.305488 29.985902 -11.039780
18.975055 25.296065 -13.260942
15.655062 28.587981 -12.819854
20.039575 29.046505 -10.305244
16.537268 26.275656 -13.885998
25.558782 26.762482 -8.701824
21.491843 24.194053 -12.550799
26.048502 24.252809 -9.875950
22.801115 27.970586 -9.523870
23.939124 23.042937 -11.801545
20.823985 26.590962 -11.492819
21.671658 -31.034717 -1.539614
24.702608 -28.031705 -4.559893
20.681529 -30.996855 -3.990981
28.671851 -20.243252 -9.987944
27.033350 -24.361323 -7.402332
18.097836 -29.804467 -8.514965
23.337464 -27.574324 -6.893046
19.464365 -30.561635 -6.346622
22.104189 -29.359903 -5.477360
28.574017 -2.185221 -16.825034
29.598335 -6.700449 -15.733433
29.650955 -15.850650 -12.270888
29.967680 -11.300010 -14.204825
12.056014 -24.758865 -15.301820
16.743078 -23.241669 -14.364141
13.546522 -26.174540 -13.922585
26.597521 -19.323749 -11.942734
21.545925 -21.459399 -13.262638
26.028208 -21.456844 -10.811373
16.580856 -28.730304 -10.577511
18.391535 -24.518161 -12.853142
15.071778 -27.522836 -12.342205
19.177811 -27.797415 -9.862087
15.969664 -25.373804 -13.409393
24.422957 -25.573164 -8.315118
20.931777 -23.563568 -12.223732
25.303380 -23.559052 -9.593447
21.800572 -26.743200 -9.105950
23.439033 -22.561567 -11.555009
20.119880 -25.691864 -11.104222
1.651097 -12.712567 -21.589800
4.868521 -11.431853 -21.506039
2.727073 -14.131875 -21.180430
1.616025 -10.935201 -21.924336
11.253975 -8.712341 -21.052202
8.040792 -10.107782 -21.324218
5.029828 -17.029255 -20.120875
6.017664 -12.790035 -21.063301
3.860078 -15.577556 -20.690898
4.389235 -13.461283 -21.136000
1.565359 -7.508367 -22.427094
4.784905 -9.680073 -21.837711
1.589213 -9.193088 -22.202783
3.216335 -10.311018 -21.893284
25.882459 -1.284014 -18.073817
21.926031 -3.566688 -19.322055
26.472336 -3.408429 -17.662707
14.594553 -7.200897 -20.671225
18.139545 -5.511808 -20.129147
27.261180 -7.788363 -16.553504
22.315883 -5.578537 -18.886994
26.935521 -5.593601 -17.154933
24.363727 -4.545278 -18.342718
10.335060 -23.017090 -16.722478
11.336852 -18.417374 -18.343412
8.943991 -21.532517 -17.750736
12.604166 -22.362569 -16.331544
12.672820 -9.984675 -20.505054
12.095710 -14.098957 -19.571270
11.000636 -10.703499 -20.681260
6.316493 -18.552647 -19.426390
9.942426 -17.025295 -19.165917
7.595343 -20.033243 -18.652220
6.817647 -16.322140 -20.022697
9.480777 -19.231508 -18.511556
17.196267 -20.844406 -15.453762
13.494224 -17.744493 -18.004432
14.900234 -21.633567 -15.906322
13.082466 -20.007979 -17.230310
7.715444 -12.094401 -20.956446
10.355548 -14.817732 -19.753846
9.341915 -11.407950 -20.832256
7.283743 -14.163965 -20.530060
10.700746 -12.743852 -20.248391
8.600027 -15.582498 -19.897902
1.532521 -0.947150 -22.891320
4.627476 -2.859937 -22.658914
1.536291 -2.542123 -22.837258
11.153965 -6.893530 -21.397284
7.813321 -4.828898 -22.174817
9.557667 -7.619745 -21.540327
1.557081 -5.785253 -22.610975
4.648527 -4.494838 -22.527822
1.543422 -4.161772 -22.743883
3.132958 -6.851759 -22.399405
3.090224 -3.514428 -22.712955
6.409106 -8.992110 -21.759144
6.283886 -5.529870 -22.267658
7.970624 -8.322590 -21.660668
4.755146 -7.924331 -22.115832
7.895823 -6.556103 -21.944314
4.710713 -6.188475 -22.345971
27.087562 -16.741034 -13.189943
22.714741 -14.038482 -16.363484
27.344682 -14.544999 -14.152124
24.536740 -17.919357 -13.829589
14.715776 -9.094850 -20.255033
18.560062 -11.470749 -18.634897
16.490419 -8.308961 -20.003691
14.470773 -11.168082 -19.814639
27.430999 -10.099152 -15.831000
22.785623 -11.944895 -17.091925
27.462105 -12.314971 -15.038521
24.956045 -8.854013 -17.217512
25.028574 -13.226948 -15.752385
19.648554 -19.936385 -14.942212
20.378420 -15.108287 -16.811837
22.043939 -18.983622 -14.413703
17.658116 -18.432650 -16.404893
22.432608 -16.493826 -15.450578
20.253198 -6.585330 -19.342267
20.551891 -10.661408 -18.256471
18.344207 -7.469917 -19.702424
22.547929 -7.677478 -18.380663
18.483572 -9.466446 -19.202436
22.703439 -9.812601 -17.779577
13.872509 -15.436718 -18.711573
18.281844 -13.702143 -18.017901
14.189455 -13.291961 -19.298524
15.716552 -16.917190 -17.659224
16.351294 -12.415055 -18.987258
18.019288 -16.037005 -17.262123
1.664615 12.816642 -21.766551
4.974529 11.680773 -21.974316
2.766067 14.333945 -21.483287
1.627715 11.014299 -22.082922
11.617435 8.993716 -21.732109
8.283027 10.412287 -21.966627
5.167203 17.494360 -20.670418
6.187004 13.149951 -21.656030
3.940689 15.902869 -21.122995
4.485506 13.756534 -21.599583
1.573440 7.547129 -22.542874
4.875614 9.863581 -22.251695
1.599099 9.250278 -22.340907
3.260277 10.451888 -22.192392
25.891164 1.284446 -18.079896
22.104122 3.595658 -19.478996
26.459856 3.406822 -17.654381
24.014332 0.000000 -18.861214
15.007459 7.404623 -21.256052
18.489033 5.618002 -20.516968
27.120580 7.748194 -16.468129
22.554416 5.638166 -19.088876
26.866433 5.579253 -17.110931
24.472788 4.565624 -18.424827
20.227702 -2.298840 -19.989539
20.370747 2.315096 -20.130900
22.103149 -1.198738 -19.492745
22.164679 1.202075 -19.547008
10.751370 23.944249 -17.396082
11.830633 19.219550 -19.142367
9.301090 22.392227 -18.459454
13.111795 23.263215 -16.989293
13.133470 10.347611 -21.250400
12.612396 14.701215 -20.407285
11.407627 11.099496 -21.446406
6.526781 19.170300 -20.073132
10.367436 17.753077 -19.985204
7.880573 20.785557 -19.352672
7.052867 16.885282 -20.713514
9.878119 20.037505 -19.287379
17.742938 21.507051 -15.945038
14.063867 18.493557 -18.764468
15.454474 22.438265 -16.497985
13.625461 20.838421 -17.945464
7.969971 12.493386 -21.647784
10.793075 15.443789 -20.588456
9.677000 11.817142 -21.579489
7.534363 14.651320 -21.236460
11.132513 13.258056 -21.065397
8.940232 16.198920 -20.685036
1.533555 0.947789 -22.906766
4.654921 2.876900 -22.793304
1.539067 2.546717 -22.878527
3.080213 0.000000 -22.862144
11.450716 7.076932 -21.966558
7.934436 4.903751 -22.518550
9.814726 7.824683 -22.119668
1.563395 5.808715 -22.702671
4.691613 4.536500 -22.736629
1.547961 4.174010 -22.810766
3.162554 6.916486 -22.611005
3.105512 3.531815 -22.825323
6.244213 -1.916665 -22.591775
6.276729 1.926646 -22.709418
4.658330 -0.959038 -22.757229
4.667680 0.960963 -22.802907
6.557245 9.199952 -22.262079
6.376781 5.611618 -22.596842
8.175667 8.536688 -22.217885
4.831117 8.050936 -22.469170
8.059822 6.692275 -22.400104
4.770515 6.267036 -22.629648
26.998885 16.686228 -13.146763
22.989738 14.208440 -16.561590
27.153751 14.443440 -14.053309
24.696701 18.036177 -13.919747
15.207262 9.398605 -20.931522
19.092139 11.799591 -19.169120
16.973043 8.552138 -20.589138
15.016937 11.589594 -20.562494
27.229602 10.025005 -15.714770
23.061777 12.089663 -17.299073
27.237560 12.214277 -14.915557
25.039831 8.883739 -17.275317
25.080288 13.254278 -15.784933
20.125498 20.420316 -15.304916
20.824846 15.439261 -17.180131
22.393673 19.284803 -14.642381
18.208035 19.006690 -16.915784
22.729979 16.712472 -15.655394
20.609315 6.701121 -19.682367
20.986735 10.886985 -18.642748
18.781498 7.647986 -20.172092
22.821563 7.770649 -18.603725
18.982033 9.721734 -19.720283
22.986286 9.934850 -18.001081
14.455308 16.085231 -19.497666
18.835859 14.117374 -18.563917
14.765527 13.831596 -20.082016
16.311284 17.557355 -18.327469
16.935649 12.858738 -19.665816
18.574950 16.531539 -17.794436
13.096634 -5.980669 -21.190799
13.372228 -2.001816 -21.636719
14.775994 -5.163614 -20.979174
11.328107 -4.943271 -21.658988
13.416779 6.126865 -21.708804
13.487033 2.019003 -21.822478
15.090096 5.273380 -21.425141
11.552610 5.041238 -22.088232
18.304406 -3.346738 -20.404373
15.031828 -1.064347 -21.392113
16.521670 -4.284746 -20.719756
18.476040 -1.125915 -20.579487
14.923640 -3.111461 -21.221625
7.942501 -2.934752 -22.348292
11.552568 -1.027785 -22.018430
9.602228 -3.922553 -22.044332
7.977372 -0.986057 -22.480505
11.461523 -2.978162 -21.868148
18.527589 3.387544 -20.653160
15.100239 1.069191 -21.489470
16.803008 4.357709 -21.072581
18.552881 1.130598 -20.665076
15.120287 3.152460 -21.501261
16.757251 0.000000 -21.079081
8.019206 2.963094 -22.564123
11.601598 1.032147 -22.111878
9.742547 3.979874 -22.366471
8.003391 0.989274 -22.553829
11.601486 3.014530 -22.135193
9.771122 0.000000 -22.324089
24.350989 34.871630 1.729961
27.079208 30.728592 4.998593
22.757284 34.107934 4.391546
26.690883 33.983163 0.000000
28.934234 20.428504 10.079346
28.315677 25.516903 7.753462
19.104412 31.462149 8.988556
24.894857 29.414458 7.353044
20.919736 32.846761 6.821166
23.998367 31.875845 5.946733
29.809993 30.165160 -3.428213
29.809993 30.165160 3.428213
28.566743 32.392307 -1.756758
28.566743 32.392307 1.756758
28.487259 2.178586 16.773949
29.236573 6.618553 15.541134
29.294303 15.659993 12.123290
29.434936 11.099127 13.952301
12.525413 25.722848 15.897594
17.295962 24.009147 14.838469
14.058855 27.164469 14.449141
26.729583 19.419695 12.002031
21.989032 21.900727 13.535394
26.430087 21.788140 10.978302
17.305488 29.985902 11.039780
18.975055 25.296065 13.260942
15.655062 28.587981 12.819854
20.039575 29.046505 10.305244
16.537268 26.275656 13.885998
25.558782 26.762482 8.701824
21.491843 24.194053 12.550799
26.048502 24.252809 9.875950
22.801115 27.970586 9.523870
23.939124 23.042937 11.801545
20.823985 26.590962 11.492819
31.421384 19.419483 -8.868042
35.990470 22.243334 -3.329817
31.250055 22.009952 -7.691590
31.421384 19.419483 8.868042
35.990470 22.243334 3.329817
31.250055 22.009952 7.691590
30.585099 27.437357 -5.016586
35.451156 24.910848 -1.763843
30.994603 24.714702 -6.409535
32.357452 29.050169 -1.770294
33.634629 23.652811 -4.931424
30.585099 27.437357 5.016586
35.451156 24.910848 1.763843
30.994603 24.714702 6.409535
32.357452 29.050169 1.770294
33.634629 23.652811 4.931424
34.316107 27.280298 0.000000
21.671658 -31.034717 1.539614
24.702608 -28.031705 4.559893
20.681529 -30.996855 3.990981
23.517903 -29.943285 0.000000
28.671851 -20.243252 9.987944
27.033350 -24.361323 7.402332
18.097836 -29.804467 8.514965
23.337464 -27.574324 6.893046
19.464365 -30.561635 6.346622
22.104189 -29.359903 5.477360
26.790106 -27.109293 -3.080919
26.790106 -27.109293 3.080919
25.242502 -28.622895 -1.552328
25.242502 -28.622895 1.552328
28.574017 -2.185221 16.825034
29.598335 -6.700449 15.733433
29.650955 -15.850650 12.270888
29.967680 -11.300010 14.204825
12.056014 -24.758865 15.301820
16.743078 -23.241669 14.364141
13.546522 -26.174540 13.922585
26.597521 -19.323749 11.942734
21.545925 -21.459399 13.262638
26.028208 -21.456844 10.811373
16.580856 -28.730304 10.577511
18.391535 -24.518161 12.853142
15.071778 -27.522836 12.342205
19.177811 -27.797415 9.862087
15.969664 -25.373804 13.409393
24.422957 -25.573164 8.315118
20.931777 -23.563568 12.223732
25.303380 -23.559052 9.593447
21.800572 -26.743200 9.105950
23.439033 -22.561567 11.555009
20.119880 -25.691864 11.104222
31.241519 -19.308321 -8.817279
34.047596 -21.042572 -3.150063
30.428896 -21.431596 -7.489478
31.241519 -19.308321 8.817279
34.047596 -21.042572 3.150063
30.428896 -21.431596 7.489478
28.233016 -25.327345 -4.630796
32.531777 -22.859456 -1.618592
29.418208 -23.457705 -6.083544
28.858308 -25.908675 -1.578854
31.785737 -22.352619 -4.660344
28.233016 -25.327345 4.630796
32.531777 -22.859456 1.618592
29.418208 -23.457705 6.083544
28.858308 -25.908675 1.578854
31.785737 -22.352619 4.660344
30.800344 -24.485370 0.000000
1.651097 -12.712567 21.589800
4.868521 -11.431853 21.506039
2.727073 -14.131875 21.180430
1.616025 -10.935201 21.924336
11.253975 -8.712341 21.052202
8.040792 -10.107782 21.324218
5.029828 -17.029255 20.120875
6.017664 -12.790035 21.063301
3.860078 -15.577556 20.690898
4.389235 -13.461283 21.136000
1.565359 -7.508367 22.427094
4.784905 -9.680073 21.837711
1.589213 -9.193088 22.202783
3.216335 -10.311018 21.893284
25.882459 -1.284014 18.073817
21.926031 -3.566688 19.322055
26.472336 -3.408429 17.662707
14.594553 -7.200897 20.671225
18.139545 -5.511808 20.129147
27.261180 -7.788363 16.553504
22.315883 -5.578537 18.886994
26.935521 -5.593601 17.154933
24.363727 -4.545278 18.342718
10.335060 -23.017090 16.722478
11.336852 -18.417374 18.343412
8.943991 -21.532517 17.750736
12.604166 -22.362569 16.331544
12.672820 -9.984675 20.505054
12.095710 -14.098957 19.571270
11.000636 -10.703499 20.681260
6.316493 -18.552647 19.426390
9.942426 -17.025295 19.165917
7.595343 -20.033243 18.652220
6.817647 -16.322140 20.022697
9.480777 -19.231508 18.511556
17.196267 -20.844406 15.453762
13.494224 -17.744493 18.004432
14.900234 -21.633567 15.906322
13.082466 -20.007979 17.230310
7.715444 -12.094401 20.956446
10.355548 -14.817732 19.753846
9.341915 -11.407950 20.832256
7.283743 -14.163965 20.530060
10.700746 -12.743852 20.248391
8.600027 -15.582498 19.897902
1.532521 -0.947150 22.891320
4.627476 -2.859937 22.658914
1.536291 -2.542123 22.837258
11.153965 -6.893530 21.397284
7.813321 -4.828898 22.174817
9.557667 -7.619745 21.540327
1.557081 -5.785253 22.610975
4.648527 -4.494838 22.527822
1.543422 -4.161772 22.743883
3.132958 -6.851759 22.399405
3.090224 -3.514428 22.712955
6.409106 -8.992110 21.759144
6.283886 -5.529870 22.267658
7.970624 -8.322590 21.660668
4.755146 -7.924331 22.115832
7.895823 -6.556103 21.944314
4.710713 -6.188475 22.345971
27.087562 -16.741034 13.189943
22.714741 -14.038482 16.363484
27.344682 -14.544999 14.152124
24.536740 -17.919357 13.829589
14.715776 -9.094850 20.255033
18.560062 -11.470749 18.634897
16.490419 -8.308961 20.003691
14.470773 -11.168082 19.814639
27.430999 -10.099152 15.831000
22.785623 -11.944895 17.091925
27.462105 -12.314971 15.038521
24.956045 -8.854013 17.217512
25.028574 -13.226948 15.752385
19.648554 -19.936385 14.942212
20.378420 -15.108287 16.811837
22.043939 -18.983622 14.413703
17.658116 -18.432650 16.404893
22.432608 -16.493826 15.450578
20.253198 -6.585330 19.342267
20.551891 -10.661408 18.256471
18.344207 -7.469917 19.702424
22.547929 -7.677478 18.380663
18.483572 -9.466446 19.202436
22.703439 -9.812601 17.779577
13.872509 -15.436718 18.711573
18.281844 -13.702143 18.017901
14.189455 -13.291961 19.298524
15.716552 -16.917190 17.659224
16.351294 -12.415055 18.987258
18.019288 -16.037005 17.262123
1.664615 12.816642 21.766551
4.974529 11.680773 21.974316
2.766067 14.333945 21.483287
1.627715 11.014299 22.082922
11.617435 8.993716 21.732109
8.283027 10.412287 21.966627
5.167203 17.494360 20.670418
6.187004 13.149951 21.656030
3.940689 15.902869 21.122995
4.485506 13.756534 21.599583
1.573440 7.547129 22.542874
4.875614 9.863581 22.251695
1.599099 9.250278 22.340907
3.260277 10.451888 22.192392
25.891164 1.284446 18.079896
22.104122 3.595658 19.478996
26.459856 3.406822 17.654381
24.014332 0.000000 18.861214
15.007459 7.404623 21.256052
18.489033 5.618002 20.516968
27.120580 7.748194 16.468129
22.554416 5.638166 19.088876
26.866433 5.579253 17.110931
24.472788 4.565624 18.424827
20.227702 -2.298840 19.989539
20.370747 2.315096 20.130900
22.103149 -1.198738 19.492745
22.164679 1.202075 19.547008
10.751370 23.944249 17.396082
11.830633 19.219550 19.142367
9.301090 22.392227 18.459454
13.111795 23.263215 16.989293
13.133470 10.347611 21.250400
12.612396 14.701215 20.407285
11.407627 11.099496 21.446406
6.526781 19.170300 20.073132
10.367436 17.753077 19.985204
7.880573 20.785557 19.352672
7.052867 16.885282 20.713514
9.878119 20.037505 19.287379
17.742938 21.507051 15.945038
14.063867 18.493557 18.764468
15.454474 22.438265 16.497985
13.625461 20.838421 17.945464
7.969971 12.493386 21.647784
10.793075 15.443789 20.588456
9.677000 11.817142 21.579489
7.534363 14.651320 21.236460
11.132513 13.258056 21.065397
8.940232 16.198920 20.685036
1.533555 0.947789 22.906766
4.654921 2.876900 22.793304
1.539067 2.546717 22.878527
3.080213 0.000000 22.862144
11.450716 7.076932 21.966558
7.934436 4.903751 22.518550
9.814726 7.824683 22.119668
1.563395 5.808715 22.702671
4.691613 4.536500 22.736629
1.547961 4.174010 22.810766
3.162554 6.916486 22.611005
3.105512 3.531815 22.825323
6.244213 -1.916665 22.591775
6.276729 1.926646 22.709418
4.658330 -0.959038 22.757229
4.667680 0.960963 22.802907
6.557245 9.199952 22.262079
6.376781 5.611618 22.596842
8.175667 8.536688 22.217885
4.831117 8.050936 22.469170
8.059822 6.692275 22.400104
4.770515 6.267036 22.629648
26.998885 16.686228 13.146763
22.989738 14.208440 16.561590
27.153751 14.443440 14.053309
24.696701 18.036177 13.919747
15.207262 9.398605 20.931522
19.092139 11.799591 19.169120
16.973043 8.552138 20.589138
15.016937 11.589594 20.562494
27.229602 10.025005 15.714770
23.061777 12.089663 17.299073
27.237560 12.214277 14.915557
25.039831 8.883739 17.275317
25.080288 13.254278 15.784933
20.125498 20.420316 15.304916
20.824846 15.439261 17.180131
22.393673 19.284803 14.642381
18.208035 19.006690 16.915784
22.729979 16.712472 15.655394
20.609315 6.701121 19.682367
20.986735 10.886985 18.642748
18.781498 7.647986 20.172092
22.821563 7.770649 18.603725
18.982033 9.721734 19.720283
22.986286 9.934850 18.001081
14.455308 16.085231 19.497666
18.835859 14.117374 18.563917
14.765527 13.831596 20.082016
16.311284 17.557355 18.327469
16.935649 12.858738 19.665816
18.574950 16.531539 17.794436
13.096634 -5.980669 21.190799
13.372228 -2.001816 21.636719
14.775994 -5.163614 20.979174
11.328107 -4.943271 21.658988
13.416779 6.126865 21.708804
13.487033 2.019003 21.822478
15.090096 5.273380 21.425141
11.552610 5.041238 22.088232
18.304406 -3.346738 20.404373
15.031828 -1.064347 21.392113
16.521670 -4.284746 20.719756
18.476040 -1.125915 20.579487
14.923640 -3.111461 21.221625
7.942501 -2.934752 22.348292
11.552568 -1.027785 22.018430
9.602228 -3.922553 22.044332
7.977372 -0.986057 22.480505
11.461523 -2.978162 21.868148
18.527589 3.387544 20.653160
15.100239 1.069191 21.489470
16.803008 4.357709 21.072581
18.552881 1.130598 20.665076
15.120287 3.152460 21.501261
16.757251 0.000000 21.079081
8.019206 2.963094 22.564123
11.601598 1.032147 22.111878
9.742547 3.979874 22.366471
8.003391 0.989274 22.553829
11.601486 3.014530 22.135193
9.771122 0.000000 22.324089
30.314779 0.000000 -15.951262
35.341010 0.000000 -12.739868
30.903228 2.277852 -15.413603
31.109938 -2.293089 -15.516704
43.343187 0.000000 -3.004006
40.087952 0.000000 -8.443511
31.542646 6.911373 -13.982011
35.807687 2.499293 -11.988056
31.307897 4.599433 -14.744992
33.369421 2.388489 -13.816647
32.218795 -7.059525 -14.281730
36.296146 -2.533387 -12.151587
31.760874 -4.665979 -14.958329
33.716756 -2.413351 -13.960461
30.314779 0.000000 15.951262
35.341010 0.000000 12.739868
30.903228 2.277852 15.413603
31.109938 -2.293089 15.516704
43.343187 0.000000 3.004006
40.087952 0.000000 8.443511
31.542646 6.911373 13.982011
35.807687 2.499293 11.988056
31.307897 4.599433 14.744992
33.369421 2.388489 13.816647
32.218795 -7.059525 14.281730
36.296146 -2.533387 12.151587
31.760874 -4.665979 14.958329
33.716756 -2.413351 13.960461
31.567230 16.455350 -10.169965
36.330071 12.800940 -7.911416
31.650669 14.043730 -11.196210
33.936612 17.749562 -7.745415
43.185054 2.891139 -1.786822
40.462658 8.263413 -5.107070
42.159302 2.836109 -4.692952
31.671880 9.328880 -13.088614
36.316749 10.248510 -9.018771
31.690150 11.661241 -12.176177
33.911350 7.291311 -12.150788
34.017210 12.239794 -10.163012
37.979399 19.926924 -1.772818
38.551404 13.701027 -5.062525
36.289645 19.020111 -4.942186
36.368498 15.841651 -6.471385
38.267756 2.635269 -9.791204
38.566436 7.958031 -7.694925
40.416847 2.742726 -7.395645
36.143333 5.055292 -11.055893
40.520929 5.513098 -6.269898
36.296911 7.651686 -10.052037
31.960298 -16.660248 -10.296599
37.399441 -13.177734 -8.144288
32.348491 -14.353361 -11.443060
33.988870 -17.776894 -7.757342
43.869295 -2.936947 -1.815133
41.876786 -8.552211 -5.285557
42.859546 -2.883215 -4.770899
32.497983 -9.572207 -13.430007
37.648640 -10.624367 -9.349528
32.529417 -11.970072 -12.498646
34.919737 -7.508126 -12.512103
35.067019 -12.617528 -10.476654
36.473013 -19.136558 -1.702502
39.296789 -13.965934 -5.160408
35.585922 -18.651276 -4.846348
36.736010 -16.001734 -6.536779
38.883574 -2.677676 -9.948767
39.994861 -8.252781 -7.979930
41.102610 -2.789263 -7.521129
37.108107 -5.190233 -11.351008
41.741448 -5.679156 -6.458751
37.582086 -7.922611 -10.407953
31.567230 16.455350 10.169965
36.330071 12.800940 7.911416
31.650669 14.043730 11.196210
33.936612 17.749562 7.745415
43.185054 2.891139 1.786822
40.462658 8.263413 5.107070
42.159302 2.836109 4.692952
42.747995 5.759431 0.000000
31.671880 9.328880 13.088614
36.316749 10.248510 9.018771
31.690150 11.661241 12.176177
33.911350 7.291311 12.150788
34.017210 12.239794 10.163012
37.979399 19.926924 1.772818
38.551404 13.701027 5.062525
36.289645 19.020111 4.942186
39.355053 17.225475 0.000000
36.368498 15.841651 6.471385
38.267756 2.635269 9.791204
38.566436 7.958031 7.694925
40.416847 2.742726 7.395645
36.143333 5.055292 11.055893
40.520929 5.513098 6.269898
36.296911 7.651686 10.052037
40.464873 11.184216 -3.433002
40.464873 11.184216 3.433002
41.837213 8.563940 -1.763109
40.118797 14.236449 -1.759722
41.837213 8.563940 1.763109
40.118797 14.236449 1.759722
31.960298 -16.660248 10.296599
37.399441 -13.177734 8.144288
32.348491 -14.353361 11.443060
33.988870 -17.776894 7.757342
43.869295 -2.936947 1.815133
41.876786 -8.552211 5.285557
42.859546 -2.883215 4.770899
43.905971 -5.915445 0.000000
32.497983 -9.572207 13.430007
37.648640 -10.624367 9.349528
32.529417 -11.970072 12.498646
34.919737 -7.508126 12.512103
35.067019 -12.617528 10.476654
36.473013 -19.136558 1.702502
39.296789 -13.965934 5.160408
35.585922 -18.651276 4.846348
38.676640 -16.928537 0.000000
36.736010 -16.001734 6.536779
38.883574 -2.677676 9.948767
39.994861 -8.252781 7.979930
41.102610 -2.789263 7.521129
37.108107 -5.190233 11.351008
41.741448 -5.679156 6.458751
37.582086 -7.922611 10.407953
41.585780 -11.494027 -3.528099
41.585780 -11.494027 3.528099
43.136246 -8.829848 -1.817854
40.454165 -14.355457 -1.774432
43.136246 -8.829848 1.817854
40.454165 -14.355457 1.774432
-21.671658 31.034717 -1.539614
-24.702608 28.031705 -4.559893
-20.681529 30.996855 -3.990981
-28.671851 20.243252 -9.987944
-27.033350 24.361323 -7.402332
-18.097836 29.804467 -8.514965
-23.337464 27.574324 -6.893046
-19.464365 30.561635 -6.346622
-22.104189 29.359903 -5.477360
-28.574017 2.185221 -16.825034
-29.598335 6.700449 -15.733433
-29.650955 15.850650 -12.270888
-29.967680 11.300010 -14.204825
-12.056014 24.758865 -15.301820
-16.743078 23.241669 -14.364141
-13.546522 26.174540 -13.922585
-26.597521 19.323749 -11.942734
-21.545925 21.459399 -13.262638
-26.028208 21.456844 -10.811373
-16.580856 28.730304 -10.577511
-18.391535 24.518161 -12.853142
-15.071778 27.522836 -12.342205
-19.177811 27.797415 -9.862087
-15.969664 25.373804 -13.409393
-24.422957 25.573164 -8.315118
-20.931777 23.563568 -12.223732
-25.303380 23.559052 -9.593447
-21.800572 26.743200 -9.105950
-23.439033 22.561567 -11.555009
-20.119880 25.691864 -11.104222
-24.350989 -34.871630 -1.729961
-27.079208 -30.728592 -4.998593
-22.757284 -34.107934 -4.391546
-28.934234 -20.428504 -10.079346
-28.315677 -25.516903 -7.753462
-19.104412 -31.462149 -8.988556
-24.894857 -29.414458 -7.353044
-20.919736 -32.846761 -6.821166
-23.998367 -31.875845 -5.946733
-28.487259 -2.178586 -16.773949
-29.236573 -6.618553 -15.541134
-29.294303 -15.659993 -12.123290
-29.434936 -11.099127 -13.952301
-12.525413 -25.722848 -15.897594
-17.295962 -24.009147 -14.838469
-14.058855 -27.164469 -14.449141
-26.729583 -19.419695 -12.002031
-21.989032 -21.900727 -13.535394
-26.430087 -21.788140 -10.978302
-17.305488 -29.985902 -11.039780
-18.975055 -25.296065 -13.260942
-15.655062 -28.587981 -12.819854
-20.039575 -29.046505 -10.305244
-16.537268 -26.275656 -13.885998
-25.558782 -26.762482 -8.701824
-21.491843 -24.194053 -12.550799
-26.048502 -24.252809 -9.875950
-22.801115 -27.970586 -9.523870
-23.939124 -23.042937 -11.801545
-20.823985 -26.590962 -11.492819
-1.664615 -12.816642 -21.766551
-4.974529 -11.680773 -21.974316
-2.766067 -14.333945 -21.483287
-1.627715 -11.014299 -22.082922
-11.617435 -8.993716 -21.732109
-8.283027 -10.412287 -21.966627
-5.167203 -17.494360 -20.670418
-6.187004 -13.149951 -21.656030
-3.940689 -15.902869 -21.122995
-4.485506 -13.756534 -21.599583
-1.573440 -7.547129 -22.542874
-4.875614 -9.863581 -22.251695
-1.599099 -9.250278 -22.340907
-3.260277 -10.451888 -22.192392
-25.891164 -1.284446 -18.079896
-22.104122 -3.595658 -19.478996
-26.459856 -3.406822 -17.654381
-15.007459 -7.404623 -21.256052
-18.489033 -5.618002 -20.516968
-27.120580 -7.748194 -16.468129
-22.554416 -5.638166 -19.088876
-26.866433 -5.579253 -17.110931
-24.472788 -4.565624 -18.424827
-10.751370 -23.944249 -17.396082
-11.830633 -19.219550 -19.142367
-9.301090 -22.392227 -18.459454
-13.111795 -23.263215 -16.989293
-13.133470 -10.347611 -21.250400
-12.612396 -14.701215 -20.407285
-11.407627 -11.099496 -21.446406
-6.526781 -19.170300 -20.073132
-10.367436 -17.753077 -19.985204
-7.880573 -20.785557 -19.352672
-7.052867 -16.885282 -20.713514
-9.878119 -20.037505 -19.287379
-17.742938 -21.507051 -15.945038
-14.063867 -18.493557 -18.764468
-15.454474 -22.438265 -16.497985
-13.625461 -20.838421 -17.945464
-7.969971 -12.493386 -21.647784
-10.793075 -15.443789 -20.588456
-9.677000 -11.817142 -21.579489
-7.534363 -14.651320 -21.236460
-11.132513 -13.258056 -21.065397
-8.940232 -16.198920 -20.685036
-1.533555 -0.947789 -22.906766
-4.654921 -2.876900 -22.793304
-1.539067 -2.546717 -22.878527
-11.450716 -7.076932 -21.966558
-7.934436 -4.903751 -22.518550
-9.814726 -7.824683 -22.119668
-1.563395 -5.808715 -22.702671
-4.691613 -4.536500 -22.736629
-1.547961 -4.174010 -22.810766
-3.162554 -6.916486 -22.611005
-3.105512 -3.531815 -22.825323
-6.557245 -9.199952 -22.262079
-6.376781 -5.611618 -22.596842
-8.175667 -8.536688 -22.217885
-4.831117 -8.050936 -22.469170
-8.059822 -6.692275 -22.400104
-4.770515 -6.267036 -22.629648
-26.998885 -16.686228 -13.146763
-22.989738 -14.208440 -16.561590
-27.153751 -14.443440 -14.053309
-24.696701 -18.036177 -13.919747
-15.207262 -9.398605 -20.931522
-19.092139 -11.799591 -19.169120
-16.973043 -8.552138 -20.589138
-15.016937 -11.589594 -20.562494
-27.229602 -10.025005 -15.714770
-23.061777 -12.089663 -17.299073
-27.237560 -12.214277 -14.915557
-25.039831 -8.883739 -17.275317
-25.080288 -13.254278 -15.784933
-20.125498 -20.420316 -15.304916
-20.824846 -15.439261 -17.180131
-22.393673 -19.284803 -14.642381
-18.208035 -19.006690 -16.915784
-22.729979 -16.712472 -15.655394
-20.609315 -6.701121 -19.682367
-20.986735 -10.886985 -18.642748
-18.781498 -7.647986 -20.172092
-22.821563 -7.770649 -18.603725
-18.982033 -9.721734 -19.720283
-22.986286 -9.934850 -18.001081
-14.455308 -16.085231 -19.497666
-18.835859 -14.117374 -18.563917
-14.765527 -13.831596 -20.082016
-16.311284 -17.557355 -18.327469
-16.935649 -12.858738 -19.665816
-18.574950 -16.531539 -17.794436
-1.651097 12.712567 -21.589800
-4.868521 11.431853 -21.506039
-2.727073 14.131875 -21.180430
-1.616025 10.935201 -21.924336
-11.253975 8.712341 -21.052202
-8.040792 10.107782 -21.324218
-5.029828 17.029255 -20.120875
-6.017664 12.790035 -21.063301
-3.860078 15.577556 -20.690898
-4.389235 13.461283 -21.136000
-1.565359 7.508367 -22.427094
-4.784905 9.680073 -21.837711
-1.589213 9.193088 -22.202783
-3.216335 10.311018 -21.893284
-25.882459 1.284014 -18.073817
-21.926031 3.566688 -19.322055
-26.472336 3.408429 -17.662707
-24.014332 0.000000 -18.861214
-14.594553 7.200897 -20.671225
-18.139545 5.511808 -20.129147
-27.261180 7.788363 -16.553504
-22.315883 5.578537 -18.886994
-26.935521 5.593601 -17.154933
-24.363727 4.545278 -18.342718
-20.370747 -2.315096 -20.130900
-20.227702 2.298840 -19.989539
-22.164679 -1.202075 -19.547008
-22.103149 1.198738 -19.492745
-10.335060 23.017090 -16.722478
-11.336852 18.417374 -18.343412
-8.943991 21.532517 -17.750736
-12.604166 22.362569 -16.331544
-12.672820 9.984675 -20.505054
-12.095710 14.098957 -19.571270
-11.000636 10.703499 -20.681260
-6.316493 18.552647 -19.426390
-9.942426 17.025295 -19.165917
-7.595343 20.033243 -18.652220
-6.817647 16.322140 -20.022697
-9.480777 19.231508 -18.511556
-17.196267 20.844406 -15.453762
-13.494224 17.744493 -18.004432
-14.900234 21.633567 -15.906322
-13.082466 20.007979 -17.230310
-7.715444 12.094401 -20.956446
-10.355548 14.817732 -19.753846
-9.341915 11.407950 -20.832256
-7.283743 14.163965 -20.530060
-10.700746 12.743852 -20.248391
-8.600027 15.582498 -19.897902
-1.532521 0.947150 -22.891320
-4.627476 2.859937 -22.658914
-1.536291 2.542123 -22.837258
-3.080213 0.000000 -22.862144
-11.153965 6.893530 -21.397284
-7.813321 4.828898 -22.174817
-9.557667 7.619745 -21.540327
-1.557081 5.785253 -22.610975
-4.648527 4.494838 -22.527822
-1.543422 4.161772 -22.743883
-3.132958 6.851759 -22.399405
-3.090224 3.514428 -22.712955
-6.276729 -1.926646 -22.709418
-6.244213 1.916665 -22.591775
-4.667680 -0.960963 -22.802907
-4.658330 0.959038 -22.757229
-6.409106 8.992110 -21.759144
-6.283886 5.529870 -22.267658
-7.970624 8.322590 -21.660668
-4.755146 7.924331 -22.115832
-7.895823 6.556103 -21.944314
-4.710713 6.188475 -22.345971
-27.087562 16.741034 -13.189943
-22.714741 14.038482 -16.363484
-27.344682 14.544999 -14.152124
-24.536740 17.919357 -13.829589
-14.715776 9.094850 -20.255033
-18.560062 11.470749 -18.634897
-16.490419 8.308961 -20.003691
-14.470773 11.168082 -19.814639
-27.430999 10.099152 -15.831000
-22.785623 11.944895 -17.091925
-27.462105 12.314971 -15.038521
-24.956045 8.854013 -17.217512
-25.028574 13.226948 -15.752385
-19.648554 19.936385 -14.942212
-20.378420 15.108287 -16.811837
-22.043939 18.983622 -14.413703
-17.658116 18.432650 -16.404893
-22.432608 16.493826 -15.450578
-20.253198 6.585330 -19.342267
-20.551891 10.661408 -18.256471
-18.344207 7.469917 -19.702424
-22.547929 7.677478 -18.380663
-18.483572 9.466446 -19.202436
-22.703439 9.812601 -17.779577
-13.872509 15.436718 -18.711573
-18.281844 13.702143 -18.017901
-14.189455 13.291961 -19.298524
-15.716552 16.917190 -17.659224
-16.351294 12.415055 -18.987258
-18.019288 16.037005 -17.262123
-13.416779 -6.126865 -21.708804
-13.487033 -2.019003 -21.822478
-15.090096 -5.273380 -21.425141
-11.552610 -5.041238 -22.088232
-13.096634 5.980669 -21.190799
-13.372228 2.001816 -21.636719
-14.775994 5.163614 -20.979174
-11.328107 4.943271 -21.658988
-18.527589 -3.387544 -20.653160
-15.100239 -1.069191 -21.489470
-16.803008 -4.357709 -21.072581
-18.552881 -1.130598 -20.665076
-15.120287 -3.152460 -21.501261
-8.019206 -2.963094 -22.564123
-11.601598 -1.032147 -22.111878
-9.742547 -3.979874 -22.366471
-8.003391 -0.989274 -22.553829
-11.601486 -3.014530 -22.135193
-18.304406 3.346738 -20.404373
-15.031828 1.064347 -21.392113
-16.521670 4.284746 -20.719756
-18.476040 1.125915 -20.579487
-14.923640 3.111461 -21.221625
-16.757251 0.000000 -21.079081
-7.942501 2.934752 -22.348292
-11.552568 1.027785 -22.018430
-9.602228 3.922553 -22.044332
-7.977372 0.986057 -22.480505
-11.461523 2.978162 -21.868148
-9.771122 0.000000 -22.324089
-21.671658 31.034717 1.539614
-24.702608 28.031705 4.559893
-20.681529 30.996855 3.990981
-23.517903 29.943285 0.000000
-28.671851 20.243252 9.987944
-27.033350 24.361323 7.402332
-18.097836 29.804467 8.514965
-23.337464 27.574324 6.893046
-19.464365 30.561635 6.346622
-22.104189 29.359903 5.477360
-26.790106 27.109293 -3.080919
-26.790106 27.109293 3.080919
-25.242502 28.622895 -1.552328
-25.242502 28.622895 1.552328
-28.574017 2.185221 16.825034
-29.598335 6.700449 15.733433
-29.650955 15.850650 12.270888
-29.967680 11.300010 14.204825
-12.056014 24.758865 15.301820
-16.743078 23.241669 14.364141
-13.546522 26.174540 13.922585
-26.597521 19.323749 11.942734
-21.545925 21.459399 13.262638
-26.028208 21.456844 10.811373
-16.580856 28.730304 10.577511
-18.391535 24.518161 12.853142
-15.071778 27.522836 12.342205
-19.177811 27.797415 9.862087
-15.969664 25.373804 13.409393
-24.422957 25.573164 8.315118
-20.931777 23.563568 12.223732
-25.303380 23.559052 9.593447
-21.800572 26.743200 9.105950
-23.439033 22.561567 11.555009
-20.119880 25.691864 11.104222
-31.241519 19.308321 -8.817279
-34.047596 21.042572 -3.150063
-30.428896 21.431596 -7.489478
-31.241519 19.308321 8.817279
-34.047596 21.042572 3.150063
-30.428896 21.431596 7.489478
-28.233016 25.327345 -4.630796
-32.531777 22.859456 -1.618592
-29.418208 23.457705 -6.083544
-28.858308 25.908675 -1.578854
-31.785737 22.352619 -4.660344
-28.233016 25.327345 4.630796
-32.531777 22.859456 1.618592
-29.418208 23.457705 6.083544
-28.858308 25.908675 1.578854
-31.785737 22.352619 4.660344
-30.800344 24.485370 0.000000
-24.350989 -34.871630 1.729961
-27.079208 -30.728592 4.998593
-22.757284 -34.107934 4.391546
-26.690883 -33.983163 0.000000
-28.934234 -20.428504 10.079346
-28.315677 -25.516903 7.753462
-19.104412 -31.462149 8.988556
-24.894857 -29.414458 7.353044
-20.919736 -32.846761 6.821166
-23.998367 -31.875845 5.946733
-29.809993 -30.165160 -3.428213
-29.809993 -30.165160 3.428213
-28.566743 -32.392307 -1.756758
-28.566743 -32.392307 1.756758
-28.487259 -2.178586 16.773949
-29.236573 -6.618553 15.541134
-29.294303 -15.659993 12.123290
-29.434936 -11.099127 13.952301
-12.525413 -25.722848 15.897594
-17.295962 -24.009147 14.838469
-14.058855 -27.164469 14.449141
-26.729583 -19.419695 12.002031
-21.989032 -21.900727 13.535394
-26.430087 -21.788140 10.978302
-17.305488 -29.985902 11.039780
-18.975055 -25.296065 13.260942
-15.655062 -28.587981 12.819854
-20.039575 -29.046505 10.305244
-16.537268 -26.275656 13.885998
-25.558782 -26.762482 8.701824
-21.491843 -24.194053 12.550799
-26.048502 -24.252809 9.875950
-22.801115 -27.970586 9.523870
-23.939124 -23.042937 11.801545
-20.823985 -26.590962 11.492819
-31.421384 -19.419483 -8.868042
-35.990470 -22.243334 -3.329817
-31.250055 -22.009952 -7.691590
-31.421384 -19.419483 8.868042
-35.990470 -22.243334 3.329817
-31.250055 -22.009952 7.691590
-30.585099 -27.437357 -5.016586
-35.451156 -24.910848 -1.763843
-30.994603 -24.714702 -6.409535
-32.357452 -29.050169 -1.770294
-33.634629 -23.652811 -4.931424
-30.585099 -27.437357 5.016586
-35.451156 -24.910848 1.763843
-30.994603 -24.714702 6.409535
-32.357452 -29.050169 1.770294
-33.634629 -23.652811 4.931424
-34.316107 -27.280298 0.000000
-1.664615 -12.816642 21.766551
-4.974529 -11.680773 21.974316
-2.766067 -14.333945 21.483287
-1.627715 -11.014299 22.082922
-11.617435 -8.993716 21.732109
-8.283027 -10.412287 21.966627
-5.167203 -17.494360 20.670418
-6.187004 -13.149951 21.656030
-3.940689 -15.902869 21.122995
-4.485506 -13.756534 21.599583
-1.573440 -7.547129 22.542874
-4.875614 -9.863581 22.251695
-1.599099 -9.250278 22.340907
-3.260277 -10.451888 22.192392
-25.891164 -1.284446 18.079896
-22.104122 -3.595658 19.478996
-26.459856 -3.406822 17.654381
-15.007459 -7.404623 21.256052
-18.489033 -5.618002 20.516968
-27.120580 -7.748194 16.468129
-22.554416 -5.638166 19.088876
-26.866433 -5.579253 17.110931
-24.472788 -4.565624 18.424827
-10.751370 -23.944249 17.396082
-11.830633 -19.219550 19.142367
-9.301090 -22.392227 18.459454
-13.111795 -23.263215 16.989293
-13.133470 -10.347611 21.250400
-12.612396 -14.701215 20.407285
-11.407627 -11.099496 21.446406
-6.526781 -19.170300 20.073132
-10.367436 -17.753077 19.985204
-7.880573 -20.785557 19.352672
-7.052867 -16.885282 20.713514
-9.878119 -20.037505 19.287379
-17.742938 -21.507051 15.945038
-14.063867 -18.493557 18.764468
-15.454474 -22.438265 16.497985
-13.625461 -20.838421 17.945464
-7.969971 -12.493386 21.647784
-10.793075 -15.443789 20.588456
-9.677000 -11.817142 21.579489
-7.534363 -14.651320 21.236460
-11.132513 -13.258056 21.065397
-8.940232 -16.198920 20.685036
-1.533555 -0.947789 22.906766
-4.654921 -2.876900 22.793304
-1.539067 -2.546717 22.878527
-11.450716 -7.076932 21.966558
-7.934436 -4.903751 22.518550
-9.814726 -7.824683 22.119668
-1.563395 -5.808715 22.702671
-4.691613 -4.536500 22.736629
-1.547961 -4.174010 22.810766
-3.162554 -6.916486 22.611005
-3.105512 -3.531815 22.825323
-6.557245 -9.199952 22.262079
-6.376781 -5.611618 22.596842
-8.175667 -8.536688 22.217885
-4.831117 -8.050936 22.469170
-8.059822 -6.692275 22.400104
-4.770515 -6.267036 22.629648
-26.998885 -16.686228 13.146763
-22.989738 -14.208440 16.561590
-27.153751 -14.443440 14.053309
-24.696701 -18.036177 13.919747
-15.207262 -9.398605 20.931522
-19.092139 -11.799591 19.169120
-16.973043 -8.552138 20.589138
-15.016937 -11.589594 20.562494
-27.229602 -10.025005 15.714770
-23.061777 -12.089663 17.299073
-27.237560 -12.214277 14.915557
-25.039831 -8.883739 17.275317
-25.080288 -13.254278 15.784933
-20.125498 -20.420316 15.304916
-20.824846 -15.439261 17.180131
-22.393673 -19.284803 14.642381
-18.208035 -19.006690 16.915784
-22.729979 -16.712472 15.655394
-20.609315 -6.701121 19.682367
-20.986735 -10.886985 18.642748
-18.781498 -7.647986 20.172092
-22.821563 -7.770649 18.603725
-18.982033 -9.721734 19.720283
-22.986286 -9.934850 18.001081
-14.455308 -16.085231 19.497666
-18.835859 -14.117374 18.563917
-14.765527 -13.831596 20.082016
-16.311284 -17.557355 18.327469
-16.935649 -12.858738 19.665816
-18.574950 -16.531539 17.794436
-1.651097 12.712567 21.589800
-4.868521 11.431853 21.506039
-2.727073 14.131875 21.180430
-1.616025 10.935201 21.924336
-11.253975 8.712341 21.052202
-8.040792 10.107782 21.324218
-5.029828 17.029255 20.120875
-6.017664 12.790035 21.063301
-3.860078 15.577556 20.690898
-4.389235 13.461283 21.136000
-1.565359 7.508367 22.427094
-4.784905 9.680073 21.837711
-1.589213 9.193088 22.202783
-3.216335 10.311018 21.893284
-25.882459 1.284014 18.073817
-21.926031 3.566688 19.322055
-26.472336 3.408429 17.662707
-24.014332 0.000000 18.861214
-14.594553 7.200897 20.671225
-18.139545 5.511808 20.129147
-27.261180 7.788363 16.553504
-22.315883 5.578537 18.886994
-26.935521 5.593601 17.154933
-24.363727 4.545278 18.342718
-20.370747 -2.315096 20.130900
-20.227702 2.298840 19.989539
-22.164679 -1.202075 19.547008
-22.103149 1.198738 19.492745
-10.335060 23.017090 16.722478
-11.336852 18.417374 18.343412
-8.943991 21.532517 17.750736
-12.604166 22.362569 16.331544
-12.672820 9.984675 20.505054
-12.095710 14.098957 19.571270
-11.000636 10.703499 20.681260
-6.316493 18.552647 19.426390
-9.942426 17.025295 19.165917
-7.595343 20.033243 18.652220
-6.817647 16.322140 20.022697
-9.480777 19.231508 18.511556
-17.196267 20.844406 15.453762
-13.494224 17.744493 18.004432
-14.900234 21.633567 15.906322
-13.082466 20.007979 17.230310
-7.715444 12.094401 20.956446
-10.355548 14.817732 19.753846
-9.341915 11.407950 20.832256
-7.283743 14.163965 20.530060
-10.700746 12.743852 20.248391
-8.600027 15.582498 19.897902
-1.532521 0.947150 22.891320
-4.627476 2.859937 22.658914
-1.536291 2.542123 22.837258
-3.080213 0.000000 22.862144
-11.153965 6.893530 21.397284
-7.813321 4.828898 22.174817
-9.557667 7.619745 21.540327
-1.557081 5.785253 22.610975
-4.648527 4.494838 22.527822
-1.543422 4.161772 22.743883
-3.132958 6.851759 22.399405
-3.090224 3.514428 22.712955
-6.276729 -1.926646 22.709418
-6.244213 1.916665 22.591775
-4.667680 -0.960963 22.802907
-4.658330 0.959038 22.757229
-6.409106 8.992110 21.759144
-6.283886 5.529870 22.267658
-7.970624 8.322590 21.660668
-4.755146 7.924331 22.115832
-7.895823 6.556103 21.944314
-4.710713 6.188475 22.345971
-27.087562 16.741034 13.189943
-22.714741 14.038482 16.363484
-27.344682 14.544999 14.152124
-24.536740 17.919357 13.829589
-14.715776 9.094850 20.255033
-18.560062 11.470749 18.634897
-16.490419 8.308961 20.003691
-14.470773 11.168082 19.814639
-27.430999 10.099152 15.831000
-22.785623 11.944895 17.091925
-27.462105 12.314971 15.038521
-24.956045 8.854013 17.217512
-25.028574 13.226948 15.752385
-19.648554 19.936385 14.942212
-20.378420 15.108287 16.811837
-22.043939 18.983622 14.413703
-17.658116 18.432650 16.404893
-22.432608 16.493826 15.450578
-20.253198 6.585330 19.342267
-20.551891 10.661408 18.256471
-18.344207 7.469917 19.702424
-22.547929 7.677478 18.380663
-18.483572 9.466446 19.202436
-22.703439 9.812601 17.779577
-13.872509 15.436718 18.711573
-18.281844 13.702143 18.017901
-14.189455 13.291961 19.298524
-15.716552 16.917190 17.659224
-16.351294 12.415055 18.987258
-18.019288 16.037005 17.262123
-13.416779 -6.126865 21.708804
-13.487033 -2.019003 21.822478
-15.090096 -5.273380 21.425141
-11.552610 -5.041238 22.088232
-13.096634 5.980669 21.190799
-13.372228 2.001816 21.636719
-14.775994 5.163614 20.979174
-11.328107 4.943271 21.658988
-18.527589 -3.387544 20.653160
-15.100239 -1.069191 21.489470
-16.803008 -4.357709 21.072581
-18.552881 -1.130598 20.665076
-15.120287 -3.152460 21.501261
-8.019206 -2.963094 22.564123
-11.601598 -1.032147 22.111878
-9.742547 -3.979874 22.366471
-8.003391 -0.989274 22.553829
-11.601486 -3.014530 22.135193
-18.304406 3.346738 20.404373
-15.031828 1.064347 21.392113
-16.521670 4.284746 20.719756
-18.476040 1.125915 20.579487
-14.923640 3.111461 21.221625
-16.757251 0.000000 21.079081
-7.942501 2.934752 22.348292
-11.552568 1.027785 22.018430
-9.602228 3.922553 22.044332
-7.977372 0.986057 22.480505
-11.461523 2.978162 21.868148
-9.771122 0.000000 22.324089
-30.314779 0.000000 -15.951262
-35.341010 0.000000 -12.739868
-31.109938 2.293089 -15.516704
-30.903228 -2.277852 -15.413603
-43.343187 0.000000 -3.004006
-40.087952 0.000000 -8.443511
-32.218795 7.059525 -14.281730
-36.296146 2.533387 -12.151587
-31.760874 4.665979 -14.958329
-33.716756 2.413351 -13.960461
-31.542646 -6.911373 -13.982011
-35.807687 -2.499293 -11.988056
-31.307897 -4.599433 -14.744992
-33.369421 -2.388489 -13.816647
-30.314779 0.000000 15.951262
-35.341010 0.000000 12.739868
-31.109938 2.293089 15.516704
-30.903228 -2.277852 15.413603
-43.343187 0.000000 3.004006
-40.087952 0.000000 8.443511
-32.218795 7.059525 14.281730
-36.296146 2.533387 12.151587
-31.760874 4.665979 14.958329
-33.716756 2.413351 13.960461
-31.542646 -6.911373 13.982011
-35.807687 -2.499293 11.988056
-31.307897 -4.599433 14.744992
-33.369421 -2.388489 13.816647
-31.960298 16.660248 -10.296599
-37.399441 13.177734 -8.144288
-32.348491 14.353361 -11.443060
-33.988870 17.776894 -7.757342
-43.869295 2.936947 -1.815133
-41.876786 8.552211 -5.285557
-42.859546 2.883215 -4.770899
-32.497983 9.572207 -13.430007
-37.648640 10.624367 -9.349528
-32.529417 11.970072 -12.498646
