-40.169950 -40.648550 -9.300030
-41.535444 -12.513180 -20.890707
-33.576903 -39.312522 -24.296475
-13.705075 -22.880571 -45.491744
-33.903735 -7.756876 -33.504549
-23.315836 -32.221693 -37.725816
-13.495758 -8.340837 -48.828109
-36.307674 -22.439377 -31.010456
-12.196255 20.361602 -40.483464
-30.690728 7.021768 -30.329372
-18.265484 25.242277 -29.554173
-12.901101 7.973319 -46.676621
-27.990312 17.298964 -23.906581
-25.230051 0.000000 -40.823081
-26.103881 26.414893 6.043495
-34.667605 10.444140 17.436452
-23.137589 27.089960 16.742516
-31.668180 19.572012 0.000000
-40.169950 -40.648550 9.300030
-41.535444 -12.513180 20.890707
-33.576903 -39.312522 24.296475
-45.675705 -28.229138 0.000000
-13.705075 -22.880571 45.491744
-33.903735 -7.756876 33.504549
-23.315836 -32.221693 37.725816
-13.495758 -8.340837 48.828109
-36.307674 -22.439377 31.010456
-12.196255 20.361602 40.483464
-30.690728 7.021768 30.329372
-18.265484 25.242277 29.554173
-12.901101 7.973319 46.676621
-27.990312 17.298964 23.906581
-25.230051 0.000000 40.823081
-40.837440 0.000000 -11.601061
-40.837440 0.000000 11.601061
-37.022033 10.232638 -6.324118
-44.810207 -12.385237 -7.654497
-37.022033 10.232638 6.324118
-44.810207 -12.385237 7.654497
-16.216242 36.787823 0.000000
-6.148809 44.145856 0.000000
22.929074 52.016413 0.000000
6.995534 50.224980 0.000000
-22.929074 -52.016413 0.000000
-6.995534 -50.224980 0.000000
16.216242 -36.787823 0.000000
6.148809 -44.145856 0.000000
-28.134048 -50.230949 7.619489
-20.972903 -47.193208 21.452443
-20.025123 -51.668971 7.359584
-4.126032 -31.326614 39.885433
-12.619166 -40.380056 32.298898
-4.064257 -48.809567 6.576106
-12.709154 -47.444634 20.563844
-11.607483 -50.961009 7.002577
-16.454560 -50.044648 14.424024
19.037203 -33.989307 5.155808
15.506706 -34.893177 15.861263
14.656018 -37.815567 5.386344
3.919270 -29.756782 37.886703
10.564025 -33.803814 27.038743
0.000000 -34.591324 35.003458
3.763515 -45.197820 6.089496
10.359046 -38.671428 16.761289
9.491390 -41.670603 5.725978
0.000000 -45.980837 12.708791
12.657633 -38.496732 11.095648
-8.074889 -43.368593 26.803265
7.100174 -38.133597 23.567859
-4.084738 -39.276039 31.223299
-4.098940 -45.457936 19.896670
3.835112 -36.875809 29.315187
3.812162 -42.277524 18.504623
-19.037203 33.989307 5.155808
-15.506706 34.893177 15.861263
-14.656018 37.815567 5.386344
-3.919270 29.756782 37.886703
-10.564025 33.803814 27.038743
-3.763515 45.197820 6.089496
-10.359046 38.671428 16.761289
-9.491390 41.670603 5.725978
-12.657633 38.496732 11.095648
28.134048 50.230949 7.619489
20.972903 47.193208 21.452443
20.025123 51.668971 7.359584
4.126032 31.326614 39.885433
12.619166 40.380056 32.298898
0.000000 34.591324 35.003458
4.064257 48.809567 6.576106
12.709154 47.444634 20.563844
11.607483 50.961009 7.002577
0.000000 45.980837 12.708791
16.454560 50.044648 14.424024
-7.100174 38.133597 23.567859
8.074889 43.368593 26.803265
-3.835112 36.875809 29.315187
-3.812162 42.277524 18.504623
4.084738 39.276039 31.223299
4.098940 45.457936 19.896670
0.000000 -20.353685 46.173939
0.000000 -7.040093 50.544899
0.000000 20.353685 46.173939
0.000000 7.040093 50.544899
-28.134048 -50.230949 -7.619489
-20.972903 -47.193208 -21.452443
-20.025123 -51.668971 -7.359584
-4.126032 -31.326614 -39.885433
-12.619166 -40.380056 -32.298898
-4.064257 -48.809567 -6.576106
-12.709154 -47.444634 -20.563844
-11.607483 -50.961009 -7.002577
-16.454560 -50.044648 -14.424024
19.037203 -33.989307 -5.155808
15.506706 -34.893177 -15.861263
14.656018 -37.815567 -5.386344
3.919270 -29.756782 -37.886703
10.564025 -33.803814 -27.038743
0.000000 -34.591324 -35.003458
3.763515 -45.197820 -6.089496
10.359046 -38.671428 -16.761289
9.491390 -41.670603 -5.725978
0.000000 -45.980837 -12.708791
12.657633 -38.496732 -11.095648
-8.074889 -43.368593 -26.803265
7.100174 -38.133597 -23.567859
-4.084738 -39.276039 -31.223299
-4.098940 -45.457936 -19.896670
3.835112 -36.875809 -29.315187
3.812162 -42.277524 -18.504623
-19.037203 33.989307 -5.155808
-15.506706 34.893177 -15.861263
-14.656018 37.815567 -5.386344
-3.919270 29.756782 -37.886703
-10.564025 33.803814 -27.038743
-3.763515 45.197820 -6.089496
-10.359046 38.671428 -16.761289
-9.491390 41.670603 -5.725978
-12.657633 38.496732 -11.095648
28.134048 50.230949 -7.619489
20.972903 47.193208 -21.452443
20.025123 51.668971 -7.359584
4.126032 31.326614 -39.885433
12.619166 40.380056 -32.298898
0.000000 34.591324 -35.003458
4.064257 48.809567 -6.576106
12.709154 47.444634 -20.563844
11.607483 50.961009 -7.002577
0.000000 45.980837 -12.708791
16.454560 50.044648 -14.424024
-7.100174 38.133597 -23.567859
8.074889 43.368593 -26.803265
-3.835112 36.875809 -29.315187
-3.812162 42.277524 -18.504623
4.084738 39.276039 -31.223299
4.098940 45.457936 -19.896670
0.000000 -20.353685 -46.173939
0.000000 -7.040093 -50.544899
0.000000 20.353685 -46.173939
0.000000 7.040093 -50.544899
36.241903 46.143640 -4.773426
42.449743 33.954384 -13.265963
33.425511 46.380093 -12.464556
39.668433 6.017270 -22.218047
42.811553 19.460690 -19.025673
25.702733 42.910615 -26.520219
39.550610 33.643758 -20.792986
29.781220 45.206685 -19.973702
37.358569 40.526427 -17.080792
23.388500 -29.778528 -3.080503
28.570195 -22.852515 -8.928468
22.045513 -30.589598 -8.220892
36.212348 -5.493020 -20.282315
32.853951 -14.934299 -14.600463
18.529747 -30.935342 -19.119093
27.196532 -23.134752 -14.298063
20.415414 -30.989770 -13.692232
24.804008 -26.907289 -11.340694
6.349691 -23.445472 -41.859895
17.527523 -17.135719 -38.558781
9.909539 -26.573862 -36.872981
6.473543 -17.614242 -45.448398
34.239967 -3.542025 -26.892581
26.740656 -10.447563 -33.431146
33.109720 -8.898170 -23.861731
15.864530 -30.176128 -25.669348
20.438987 -19.808955 -33.070976
13.173069 -28.811720 -31.254840
21.022694 -26.477323 -23.106177
15.540173 -23.170733 -35.172234
6.728812 -4.158635 -49.942994
18.152157 -11.218650 -41.880421
6.628952 -10.988162 -48.241967
12.667084 -14.450287 -43.948882
29.689401 -18.349059 -17.783449
25.597559 -15.820162 -30.091736
31.519121 -13.926115 -20.764139
25.703749 -22.431096 -20.408486
29.495711 -12.431644 -27.190099
23.441207 -21.327515 -26.861233
6.787057 25.060393 -44.743199
20.261216 19.808304 -44.572630
11.224884 30.101151 -41.767325
6.806851 18.521159 -47.788433
36.124452 3.736970 -28.372683
30.554660 11.937692 -38.199410
38.151508 10.253140 -27.495279
32.571594 0.000000 -32.188093
20.499762 38.992864 -33.169311
25.143767 24.368710 -40.683470
15.951143 34.887837 -37.846187
28.778220 36.245127 -31.630325
18.596456 27.727718 -42.089552
6.809105 4.208258 -50.538946
19.932013 12.318662 -45.986883
6.840983 11.339625 -49.785016
13.387192 0.000000 -48.435316
13.766616 15.704605 -47.763746
40.269239 24.887758 -24.120593
31.491422 19.462769 -37.020387
39.639895 17.514122 -26.113935
35.750191 31.198405 -28.385246
35.437278 14.935854 -32.667227
30.749853 27.977141 -35.236197
23.990860 -7.227609 -38.818027
25.949756 7.817756 -41.987587
28.433965 -3.719828 -35.767313
19.345210 -3.985333 -44.198014
29.784275 3.896480 -37.465879
20.002004 4.120640 -45.698593
36.241903 46.143640 4.773426
42.449743 33.954384 13.265963
33.425511 46.380093 12.464556
40.851941 41.338667 0.000000
39.668433 6.017270 22.218047
42.811553 19.460690 19.025673
25.702733 42.910615 26.520219
39.550610 33.643758 20.792986
29.781220 45.206685 19.973702
37.358569 40.526427 17.080792
45.056221 27.846276 -8.389111
45.056221 27.846276 8.389111
43.840955 34.852273 -4.559493
43.840955 34.852273 4.559493
23.388500 -29.778528 3.080503
28.570195 -22.852515 8.928468
22.045513 -30.589598 8.220892
26.288308 -26.601517 0.000000
36.212348 -5.493020 20.282315
32.853951 -14.934299 14.600463
18.529747 -30.935342 19.119093
27.196532 -23.134752 14.298063
20.415414 -30.989770 13.692232
24.804008 -26.907289 11.340694
31.459520 -19.443053 -5.857513
31.459520 -19.443053 5.857513
29.033267 -23.080595 -3.019482
29.033267 -23.080595 3.019482
6.349691 -23.445472 41.859895
17.527523 -17.135719 38.558781
9.909539 -26.573862 36.872981
6.473543 -17.614242 45.448398
34.239967 -3.542025 26.892581
26.740656 -10.447563 33.431146
33.109720 -8.898170 23.861731
15.864530 -30.176128 25.669348
20.438987 -19.808955 33.070976
13.173069 -28.811720 31.254840
21.022694 -26.477323 23.106177
15.540173 -23.170733 35.172234
6.728812 -4.158635 49.942994
18.152157 -11.218650 41.880421
6.628952 -10.988162 48.241967
12.667084 -14.450287 43.948882
29.689401 -18.349059 17.783449
25.597559 -15.820162 30.091736
31.519121 -13.926115 20.764139
25.703749 -22.431096 20.408486
29.495711 -12.431644 27.190099
23.441207 -21.327515 26.861233
6.787057 25.060393 44.743199
20.261216 19.808304 44.572630
11.224884 30.101151 41.767325
6.806851 18.521159 47.788433
36.124452 3.736970 28.372683
30.554660 11.937692 38.199410
38.151508 10.253140 27.495279
32.571594 0.000000 32.188093
20.499762 38.992864 33.169311
25.143767 24.368710 40.683470
15.951143 34.887837 37.846187
28.778220 36.245127 31.630325
18.596456 27.727718 42.089552
6.809105 4.208258 50.538946
19.932013 12.318662 45.986883
6.840983 11.339625 49.785016
13.387192 0.000000 48.435316
13.766616 15.704605 47.763746
40.269239 24.887758 24.120593
31.491422 19.462769 37.020387
39.639895 17.514122 26.113935
35.750191 31.198405 28.385246
35.437278 14.935854 32.667227
30.749853 27.977141 35.236197
23.990860 -7.227609 38.818027
25.949756 7.817756 41.987587
28.433965 -3.719828 35.767313
19.345210 -3.985333 44.198014
29.784275 3.896480 37.465879
20.002004 4.120640 45.698593
39.432468 0.000000 -17.382013
41.660784 0.000000 -5.802679
41.682200 5.937096 -16.154593
37.934630 -5.403303 -14.702163
39.432468 0.000000 17.382013
41.660784 0.000000 5.802679
41.682200 5.937096 16.154593
37.934630 -5.403303 14.702163
44.811268 19.422469 -12.003746
43.726760 5.891300 -3.641024
43.592039 12.564233 -14.332957
45.955724 20.114549 -4.143825
43.056622 5.916431 -9.807086
34.077202 -14.770021 -9.128375
39.656140 -5.342866 -3.302073
36.090843 -10.402215 -11.866582
34.498841 -15.099939 -3.110759
39.087002 -5.370964 -8.902919
44.811268 19.422469 12.003746
43.726760 5.891300 3.641024
43.592039 12.564233 14.332957
45.955724 20.114549 4.143825
43.056622 5.916431 9.807086
45.321358 12.526515 0.000000
34.077202 -14.770021 9.128375
39.656140 -5.342866 3.302073
36.090843 -10.402215 11.866582
34.498841 -15.099939 3.110759
39.087002 -5.370964 8.902919
37.308741 -10.311882 0.000000
-23.388500 29.778528 -3.080503
-28.570195 22.852515 -8.928468
-22.045513 30.589598 -8.220892
-36.212348 5.493020 -20.282315
-32.853951 14.934299 -14.600463
-18.529747 30.935342 -19.119093
-27.196532 23.134752 -14.298063
-20.415414 30.989770 -13.692232
-24.804008 26.907289 -11.340694
-36.241903 -46.143640 -4.773426
-42.449743 -33.954384 -13.265963
-33.425511 -46.380093 -12.464556
-39.668433 -6.017270 -22.218047
-42.811553 -19.460690 -19.025673
-25.702733 -42.910615 -26.520219
-39.550610 -33.643758 -20.792986
-29.781220 -45.206685 -19.973702
-37.358569 -40.526427 -17.080792
-6.787057 -25.060393 -44.743199
-20.261216 -19.808304 -44.572630
-11.224884 -30.101151 -41.767325
-6.806851 -18.521159 -47.788433
-36.124452 -3.736970 -28.372683
-30.554660 -11.937692 -38.199410
-38.151508 -10.253140 -27.495279
-20.499762 -38.992864 -33.169311
-25.143767 -24.368710 -40.683470
-15.951143 -34.887837 -37.846187
-28.778220 -36.245127 -31.630325
-18.596456 -27.727718 -42.089552
-6.809105 -4.208258 -50.538946
-19.932013 -12.318662 -45.986883
-6.840983 -11.339625 -49.785016
-13.766616 -15.704605 -47.763746
-40.269239 -24.887758 -24.120593
-31.491422 -19.462769 -37.020387
-39.639895 -17.514122 -26.113935
-35.750191 -31.198405 -28.385246
-35.437278 -14.935854 -32.667227
-30.749853 -27.977141 -35.236197
-6.349691 23.445472 -41.859895
-17.527523 17.135719 -38.558781
-9.909539 26.573862 -36.872981
-6.473543 17.614242 -45.448398
-34.239967 3.542025 -26.892581
-26.740656 10.447563 -33.431146
-33.109720 8.898170 -23.861731
-32.571594 0.000000 -32.188093
-15.864530 30.176128 -25.669348
-20.438987 19.808955 -33.070976
-13.173069 28.811720 -31.254840
-21.022694 26.477323 -23.106177
-15.540173 23.170733 -35.172234
-6.728812 4.158635 -49.942994
-18.152157 11.218650 -41.880421
-6.628952 10.988162 -48.241967
-13.387192 0.000000 -48.435316
-12.667084 14.450287 -43.948882
-29.689401 18.349059 -17.783449
-25.597559 15.820162 -30.091736
-31.519121 13.926115 -20.764139
-25.703749 22.431096 -20.408486
-29.495711 12.431644 -27.190099
-23.441207 21.327515 -26.861233
-25.949756 -7.817756 -41.987587
-23.990860 7.227609 -38.818027
-29.784275 -3.896480 -37.465879
-20.002004 -4.120640 -45.698593
-28.433965 3.719828 -35.767313
-19.345210 3.985333 -44.198014
-23.388500 29.778528 3.080503
-28.570195 22.852515 8.928468
-22.045513 30.589598 8.220892
-26.288308 26.601517 0.000000
-36.212348 5.493020 20.282315
-32.853951 14.934299 14.600463
-18.529747 30.935342 19.119093
-27.196532 23.134752 14.298063
-20.415414 30.989770 13.692232
-24.804008 26.907289 11.340694
-31.459520 19.443053 -5.857513
-31.459520 19.443053 5.857513
-29.033267 23.080595 -3.019482
-29.033267 23.080595 3.019482
-36.241903 -46.143640 4.773426
-42.449743 -33.954384 13.265963
-33.425511 -46.380093 12.464556
-40.851941 -41.338667 0.000000
-39.668433 -6.017270 22.218047
-42.811553 -19.460690 19.025673
-25.702733 -42.910615 26.520219
-39.550610 -33.643758 20.792986
-29.781220 -45.206685 19.973702
-37.358569 -40.526427 17.080792
-45.056221 -27.846276 -8.389111
-45.056221 -27.846276 8.389111
-43.840955 -34.852273 -4.559493
-43.840955 -34.852273 4.559493
-6.787057 -25.060393 44.743199
-20.261216 -19.808304 44.572630
-11.224884 -30.101151 41.767325
-6.806851 -18.521159 47.788433
-36.124452 -3.736970 28.372683
-30.554660 -11.937692 38.199410
-38.151508 -10.253140 27.495279
-20.499762 -38.992864 33.169311
-25.143767 -24.368710 40.683470
-15.951143 -34.887837 37.846187
-28.778220 -36.245127 31.630325
-18.596456 -27.727718 42.089552
-6.809105 -4.208258 50.538946
-19.932013 -12.318662 45.986883
-6.840983 -11.339625 49.785016
-13.766616 -15.704605 47.763746
-40.269239 -24.887758 24.120593
-31.491422 -19.462769 37.020387
-39.639895 -17.514122 26.113935
-35.750191 -31.198405 28.385246
-35.437278 -14.935854 32.667227
-30.749853 -27.977141 35.236197
-6.349691 23.445472 41.859895
-17.527523 17.135719 38.558781
-9.909539 26.573862 36.872981
-6.473543 17.614242 45.448398
-34.239967 3.542025 26.892581
-26.740656 10.447563 33.431146
-33.109720 8.898170 23.861731
-32.571594 0.000000 32.188093
-15.864530 30.176128 25.669348
-20.438987 19.808955 33.070976
-13.173069 28.811720 31.254840
-21.022694 26.477323 23.106177
-15.540173 23.170733 35.172234
-6.728812 4.158635 49.942994
-18.152157 11.218650 41.880421
-6.628952 10.988162 48.241967
-13.387192 0.000000 48.435316
-12.667084 14.450287 43.948882
-29.689401 18.349059 17.783449
-25.597559 15.820162 30.091736
-31.519121 13.926115 20.764139
-25.703749 22.431096 20.408486
-29.495711 12.431644 27.190099
-23.441207 21.327515 26.861233
-25.949756 -7.817756 41.987587
-23.990860 7.227609 38.818027
-29.784275 -3.896480 37.465879
-20.002004 -4.120640 45.698593
-28.433965 3.719828 35.767313
-19.345210 3.985333 44.198014
-39.432468 0.000000 -17.382013
-41.660784 0.000000 -5.802679
-37.934630 5.403303 -14.702163
-41.682200 -5.937096 -16.154593
-39.432468 0.000000 17.382013
-41.660784 0.000000 5.802679
-37.934630 5.403303 14.702163
-41.682200 -5.937096 16.154593
-34.077202 14.770021 -9.128375
-39.656140 5.342866 -3.302073
-36.090843 10.402215 -11.866582
-34.498841 15.099939 -3.110759
-39.087002 5.370964 -8.902919
-44.811268 -19.422469 -12.003746
-43.726760 -5.891300 -3.641024
-43.592039 -12.564233 -14.332957
-45.955724 -20.114549 -4.143825
-43.056622 -5.916431 -9.807086
-34.077202 14.770021 9.128375
-39.656140 5.342866 3.302073
-36.090843 10.402215 11.866582
-34.498841 15.099939 3.110759
-39.087002 5.370964 8.902919
-37.308741 10.311882 0.000000
-44.811268 -19.422469 12.003746
-43.726760 -5.891300 3.641024
-43.592039 -12.564233 14.332957
-45.955724 -20.114549 4.143825
-43.056622 -5.916431 9.807086
-45.321358 -12.526515 0.000000
-18.356961 34.886721 0.000000
-13.940670 38.672093 0.000000
-3.178353 45.858753 0.000000
-8.922815 42.363586 0.000000
26.965257 51.246467 0.000000
18.826527 52.225695 0.000000
3.392222 48.944554 0.000000
10.794371 51.249322 0.000000
-26.965257 -51.246467 0.000000
-18.826527 -52.225695 0.000000
-3.392222 -48.944554 0.000000
-10.794371 -51.249322 0.000000
18.356961 -34.886721 0.000000
13.940670 -38.672093 0.000000
3.178353 -45.858753 0.000000
8.922815 -42.363586 0.000000
-29.570869 -50.220317 3.840639
-26.532553 -49.914051 11.299505
-25.641710 -51.409890 3.789382
-18.945161 -45.778440 24.471996
-22.928377 -48.371611 18.239640
-17.426076 -52.050763 3.633022
-22.498712 -50.755854 11.121218
-21.532749 -52.005047 3.722375
-24.132921 -51.241196 7.527827
-2.049205 -28.844673 41.306773
-6.227048 -33.734200 38.280458
-14.751615 -42.346664 29.898112
-10.480961 -38.276516 34.493194
-1.997426 -48.275067 3.231903
-6.189099 -49.035433 10.014173
-5.525224 -49.636053 3.339080
-14.831662 -46.036980 23.998133
-10.538248 -48.392763 17.051243
-16.824202 -47.560492 21.103084
-13.201973 -51.598341 3.553265
-9.987481 -50.056571 10.328975
-9.290931 -50.774493 3.445606
-15.768760 -51.550385 7.210244
-7.740270 -50.023615 6.805991
-20.638062 -49.940063 14.709732
-12.335867 -49.674020 14.017903
-18.780115 -48.877792 17.985895
-18.276566 -51.007642 10.967201
-14.597020 -48.858538 17.579879
-14.053003 -50.744002 10.697251
19.739225 -33.523199 2.563714
18.267564 -34.365639 7.779667
17.675680 -35.438540 2.612147
14.417759 -34.838581 18.623824
16.507510 -34.825616 13.131808
13.135586 -39.235297 2.738532
16.083816 -36.284203 7.950305
15.466722 -37.354619 2.673739
16.912740 -35.910655 5.275622
2.000274 -28.155911 40.320437
5.742205 -31.107627 35.299909
0.000000 -30.652547 39.027202
11.951859 -34.309555 24.223654
9.067315 -33.113875 29.840837
-4.078513 -35.464678 35.887218
3.851792 -33.493227 33.892278
-2.035980 -33.107186 37.540791
1.980815 -32.210148 36.523624
1.921323 -46.435747 3.108765
5.526267 -43.783900 8.941688
4.982380 -44.759390 3.011020
0.000000 -47.104440 6.346374
11.829131 -36.717224 19.139936
8.820935 -40.506680 14.272573
13.017369 -36.798920 16.328063
10.533863 -41.170352 2.835153
8.384656 -42.023321 8.671346
7.865647 -42.985385 2.917030
12.162013 -39.759401 5.561064
6.725824 -43.467476 5.913992
-4.037499 -47.590092 13.153578
3.747132 -44.167529 12.207605
-2.001927 -47.504164 9.723947
1.926642 -45.717720 9.358267
15.118231 -36.583155 10.775485
10.027498 -40.378688 11.394780
14.119693 -36.748413 13.522564
13.694762 -38.220393 8.217803
11.548859 -38.655861 13.908835
11.118688 -40.148480 8.463628
-12.412053 -43.978580 27.180257
-3.923444 -42.406719 26.208794
-10.354925 -42.070881 29.631246
-10.390572 -45.526393 23.811262
10.281644 -36.430082 22.515029
3.675611 -39.728001 24.553255
8.863014 -36.009417 25.362053
8.793158 -38.527306 20.150592
-6.206490 -37.839695 33.945328
-2.009024 -40.378996 28.373547
-8.272907 -40.005316 31.899730
-2.023432 -36.984312 33.204113
-6.067814 -41.385348 29.103333
-6.211951 -47.304345 16.811790
-2.026037 -43.404171 22.773178
-8.297917 -46.633416 20.312917
-2.013274 -45.899379 16.287731
-6.075938 -44.614593 23.383378
5.673372 -34.589386 31.029533
1.944044 -39.072983 27.455837
7.320039 -35.397530 28.225540
1.962833 -35.876683 32.209697
5.515293 -37.616891 26.453248
0.000000 -38.189383 30.359439
5.564604 -42.374758 15.059833
1.955287 -41.888466 21.977923
7.210923 -40.524627 17.652007
1.939590 -44.219493 15.691611
5.484922 -40.274861 21.108840
0.000000 -43.976659 19.248324
-19.739225 33.523199 2.563714
-18.267564 34.365639 7.779667
-17.675680 35.438540 2.612147
-14.417759 34.838581 18.623824
-16.507510 34.825616 13.131808
-13.135586 39.235297 2.738532
-16.083816 36.284203 7.950305
-15.466722 37.354619 2.673739
-16.912740 35.910655 5.275622
-2.000274 28.155911 40.320437
-5.742205 31.107627 35.299909
-11.951859 34.309555 24.223654
-9.067315 33.113875 29.840837
-1.921323 46.435747 3.108765
-5.526267 43.783900 8.941688
-4.982380 44.759390 3.011020
-11.829131 36.717224 19.139936
-8.820935 40.506680 14.272573
-13.017369 36.798920 16.328063
-10.533863 41.170352 2.835153
-8.384656 42.023321 8.671346
-7.865647 42.985385 2.917030
-12.162013 39.759401 5.561064
-6.725824 43.467476 5.913992
-15.118231 36.583155 10.775485
-10.027498 40.378688 11.394780
-14.119693 36.748413 13.522564
-13.694762 38.220393 8.217803
-11.548859 38.655861 13.908835
-11.118688 40.148480 8.463628
29.570869 50.220317 3.840639
26.532553 49.914051 11.299505
25.641710 51.409890 3.789382
18.945161 45.778440 24.471996
22.928377 48.371611 18.239640
17.426076 52.050763 3.633022
22.498712 50.755854 11.121218
21.532749 52.005047 3.722375
24.132921 51.241196 7.527827
2.049205 28.844673 41.306773
6.227048 33.734200 38.280458
0.000000 30.652547 39.027202
14.751615 42.346664 29.898112
10.480961 38.276516 34.493194
-3.851792 33.493227 33.892278
4.078513 35.464678 35.887218
-1.980815 32.210148 36.523624
2.035980 33.107186 37.540791
1.997426 48.275067 3.231903
6.189099 49.035433 10.014173
5.525224 49.636053 3.339080
0.000000 47.104440 6.346374
14.831662 46.036980 23.998133
10.538248 48.392763 17.051243
16.824202 47.560492 21.103084
13.201973 51.598341 3.553265
9.987481 50.056571 10.328975
9.290931 50.774493 3.445606
15.768760 51.550385 7.210244
7.740270 50.023615 6.805991
-3.747132 44.167529 12.207605
4.037499 47.590092 13.153578
-1.926642 45.717720 9.358267
2.001927 47.504164 9.723947
20.638062 49.940063 14.709732
12.335867 49.674020 14.017903
18.780115 48.877792 17.985895
18.276566 51.007642 10.967201
14.597020 48.858538 17.579879
14.053003 50.744002 10.697251
-10.281644 36.430082 22.515029
-3.675611 39.728001 24.553255
-8.863014 36.009417 25.362053
-8.793158 38.527306 20.150592
12.412053 43.978580 27.180257
3.923444 42.406719 26.208794
10.354925 42.070881 29.631246
10.390572 45.526393 23.811262
-5.673372 34.589386 31.029533
-1.944044 39.072983 27.455837
-7.320039 35.397530 28.225540
-1.962833 35.876683 32.209697
-5.515293 37.616891 26.453248
-5.564604 42.374758 15.059833
-1.955287 41.888466 21.977923
-7.210923 40.524627 17.652007
-1.939590 44.219493 15.691611
-5.484922 40.274861 21.108840
6.206490 37.839695 33.945328
2.009024 40.378996 28.373547
8.272907 40.005316 31.899730
2.023432 36.984312 33.204113
6.067814 41.385348 29.103333
0.000000 38.189383 30.359439
6.211951 47.304345 16.811790
2.026037 43.404171 22.773178
8.297917 46.633416 20.312917
2.013274 45.899379 16.287731
6.075938 44.614593 23.383378
0.000000 43.976659 19.248324
0.000000 -23.399451 44.469785
0.000000 -17.176094 47.647314
0.000000 -3.532487 50.968356
0.000000 -10.498488 49.844538
0.000000 23.399451 44.469785
0.000000 17.176094 47.647314
0.000000 3.532487 50.968356
0.000000 10.498488 49.844538
-29.570869 -50.220317 -3.840639
-26.532553 -49.914051 -11.299505
-25.641710 -51.409890 -3.789382
-18.945161 -45.778440 -24.471996
-22.928377 -48.371611 -18.239640
-17.426076 -52.050763 -3.633022
-22.498712 -50.755854 -11.121218
-21.532749 -52.005047 -3.722375
-24.132921 -51.241196 -7.527827
-2.049205 -28.844673 -41.306773
-6.227048 -33.734200 -38.280458
-14.751615 -42.346664 -29.898112
-10.480961 -38.276516 -34.493194
-1.997426 -48.275067 -3.231903
-6.189099 -49.035433 -10.014173
-5.525224 -49.636053 -3.339080
-14.831662 -46.036980 -23.998133
-10.538248 -48.392763 -17.051243
-16.824202 -47.560492 -21.103084
-13.201973 -51.598341 -3.553265
-9.987481 -50.056571 -10.328975
-9.290931 -50.774493 -3.445606
-15.768760 -51.550385 -7.210244
-7.740270 -50.023615 -6.805991
-20.638062 -49.940063 -14.709732
-12.335867 -49.674020 -14.017903
-18.780115 -48.877792 -17.985895
-18.276566 -51.007642 -10.967201
-14.597020 -48.858538 -17.579879
-14.053003 -50.744002 -10.697251
19.739225 -33.523199 -2.563714
18.267564 -34.365639 -7.779667
17.675680 -35.438540 -2.612147
14.417759 -34.838581 -18.623824
16.507510 -34.825616 -13.131808
13.135586 -39.235297 -2.738532
16.083816 -36.284203 -7.950305
15.466722 -37.354619 -2.673739
16.912740 -35.910655 -5.275622
2.000274 -28.155911 -40.320437
5.742205 -31.107627 -35.299909
0.000000 -30.652547 -39.027202
11.951859 -34.309555 -24.223654
9.067315 -33.113875 -29.840837
-4.078513 -35.464678 -35.887218
3.851792 -33.493227 -33.892278
-2.035980 -33.107186 -37.540791
1.980815 -32.210148 -36.523624
1.921323 -46.435747 -3.108765
5.526267 -43.783900 -8.941688
4.982380 -44.759390 -3.011020
0.000000 -47.104440 -6.346374
11.829131 -36.717224 -19.139936
8.820935 -40.506680 -14.272573
13.017369 -36.798920 -16.328063
10.533863 -41.170352 -2.835153
8.384656 -42.023321 -8.671346
7.865647 -42.985385 -2.917030
12.162013 -39.759401 -5.561064
6.725824 -43.467476 -5.913992
-4.037499 -47.590092 -13.153578
3.747132 -44.167529 -12.207605
-2.001927 -47.504164 -9.723947
1.926642 -45.717720 -9.358267
15.118231 -36.583155 -10.775485
10.027498 -40.378688 -11.394780
14.119693 -36.748413 -13.522564
13.694762 -38.220393 -8.217803
11.548859 -38.655861 -13.908835
11.118688 -40.148480 -8.463628
-12.412053 -43.978580 -27.180257
-3.923444 -42.406719 -26.208794
-10.354925 -42.070881 -29.631246
-10.390572 -45.526393 -23.811262
10.281644 -36.430082 -22.515029
3.675611 -39.728001 -24.553255
8.863014 -36.009417 -25.362053
8.793158 -38.527306 -20.150592
-6.206490 -37.839695 -33.945328
-2.009024 -40.378996 -28.373547
-8.272907 -40.005316 -31.899730
-2.023432 -36.984312 -33.204113
-6.067814 -41.385348 -29.103333
-6.211951 -47.304345 -16.811790
-2.026037 -43.404171 -22.773178
-8.297917 -46.633416 -20.312917
-2.013274 -45.899379 -16.287731
-6.075938 -44.614593 -23.383378
5.673372 -34.589386 -31.029533
1.944044 -39.072983 -27.455837
7.320039 -35.397530 -28.225540
1.962833 -35.876683 -32.209697
5.515293 -37.616891 -26.453248
0.000000 -38.189383 -30.359439
5.564604 -42.374758 -15.059833
1.955287 -41.888466 -21.977923
7.210923 -40.524627 -17.652007
1.939590 -44.219493 -15.691611
5.484922 -40.274861 -21.108840
0.000000 -43.976659 -19.248324
-19.739225 33.523199 -2.563714
-18.267564 34.365639 -7.779667
-17.675680 35.438540 -2.612147
-14.417759 34.838581 -18.623824
-16.507510 34.825616 -13.131808
-13.135586 39.235297 -2.738532
-16.083816 36.284203 -7.950305
-15.466722 37.354619 -2.673739
-16.912740 35.910655 -5.275622
-2.000274 28.155911 -40.320437
-5.742205 31.107627 -35.299909
-11.951859 34.309555 -24.223654
-9.067315 33.113875 -29.840837
-1.921323 46.435747 -3.108765
-5.526267 43.783900 -8.941688
-4.982380 44.759390 -3.011020
-11.829131 36.717224 -19.139936
-8.820935 40.506680 -14.272573
-13.017369 36.798920 -16.328063
-10.533863 41.170352 -2.835153
-8.384656 42.023321 -8.671346
-7.865647 42.985385 -2.917030
-12.162013 39.759401 -5.561064
-6.725824 43.467476 -5.913992
-15.118231 36.583155 -10.775485
-10.027498 40.378688 -11.394780
-14.119693 36.748413 -13.522564
-13.694762 38.220393 -8.217803
-11.548859 38.655861 -13.908835
-11.118688 40.148480 -8.463628
29.570869 50.220317 -3.840639
26.532553 49.914051 -11.299505
25.641710 51.409890 -3.789382
18.945161 45.778440 -24.471996
22.928377 48.371611 -18.239640
17.426076 52.050763 -3.633022
22.498712 50.755854 -11.121218
21.532749 52.005047 -3.722375
24.132921 51.241196 -7.527827
2.049205 28.844673 -41.306773
6.227048 33.734200 -38.280458
0.000000 30.652547 -39.027202
14.751615 42.346664 -29.898112
10.480961 38.276516 -34.493194
-3.851792 33.493227 -33.892278
4.078513 35.464678 -35.887218
-1.980815 32.210148 -36.523624
2.035980 33.107186 -37.540791
1.997426 48.275067 -3.231903
6.189099 49.035433 -10.014173
5.525224 49.636053 -3.339080
0.000000 47.104440 -6.346374
14.831662 46.036980 -23.998133
10.538248 48.392763 -17.051243
16.824202 47.560492 -21.103084
13.201973 51.598341 -3.553265
9.987481 50.056571 -10.328975
9.290931 50.774493 -3.445606
15.768760 51.550385 -7.210244
7.740270 50.023615 -6.805991
-3.747132 44.167529 -12.207605
4.037499 47.590092 -13.153578
-1.926642 45.717720 -9.358267
2.001927 47.504164 -9.723947
20.638062 49.940063 -14.709732
12.335867 49.674020 -14.017903
18.780115 48.877792 -17.985895
18.276566 51.007642 -10.967201
14.597020 48.858538 -17.579879
14.053003 50.744002 -10.697251
-10.281644 36.430082 -22.515029
-3.675611 39.728001 -24.553255
-8.863014 36.009417 -25.362053
-8.793158 38.527306 -20.150592
12.412053 43.978580 -27.180257
3.923444 42.406719 -26.208794
10.354925 42.070881 -29.631246
10.390572 45.526393 -23.811262
-5.673372 34.589386 -31.029533
-1.944044 39.072983 -27.455837
-7.320039 35.397530 -28.225540
-1.962833 35.876683 -32.209697
-5.515293 37.616891 -26.453248
-5.564604 42.374758 -15.059833
-1.955287 41.888466 -21.977923
-7.210923 40.524627 -17.652007
-1.939590 44.219493 -15.691611
-5.484922 40.274861 -21.108840
6.206490 37.839695 -33.945328
2.009024 40.378996 -28.373547
8.272907 40.005316 -31.899730
2.023432 36.984312 -33.204113
6.067814 41.385348 -29.103333
0.000000 38.189383 -30.359439
6.211951 47.304345 -16.811790
2.026037 43.404171 -22.773178
8.297917 46.633416 -20.312917
2.013274 45.899379 -16.287731
6.075938 44.614593 -23.383378
0.000000 43.976659 -19.248324
0.000000 -23.399451 -44.469785
0.000000 -17.176094 -47.647314
0.000000 -3.532487 -50.968356
0.000000 -10.498488 -49.844538
0.000000 23.399451 -44.469785
0.000000 17.176094 -47.647314
0.000000 3.532487 -50.968356
0.000000 10.498488 -49.844538
33.695506 48.253368 -2.393822
38.410203 43.586632 -7.090199
32.411754 48.577764 -6.254600
43.008568 30.365438 -14.982192
41.512622 37.409436 -11.367078
29.272076 48.206793 -13.772404
37.096967 43.831832 -10.957107
30.924967 48.556301 -10.083508
34.949609 46.421839 -8.660422
38.575250 2.950073 -22.713988
40.662143 9.205065 -21.614564
43.146579 23.065070 -17.855980
42.262350 15.936002 -20.032558
21.336659 43.818089 -27.081068
29.827090 41.404056 -25.589114
23.438316 45.287427 -24.088982
41.674401 30.277470 -18.712505
36.842137 36.694184 -22.678253
41.134501 33.910001 -17.086094
27.410853 47.495868 -17.486348
31.848788 42.458324 -22.257904
25.480749 46.530841 -20.866062
31.701634 45.950158 -16.302395
27.807115 44.182037 -23.349054
38.895980 40.727800 -13.242649
35.577548 40.050780 -20.776564
40.213100 37.440948 -15.246273
35.592187 43.661651 -14.866614
38.642759 37.196126 -19.050165
33.826320 43.194154 -18.668847
21.923442 -31.395282 -1.557502
24.779855 -28.119362 -4.574152
21.283200 -31.898622 -4.107087
29.719871 -20.983189 -10.353026
27.365910 -24.661012 -7.493394
19.815196 -32.632706 -9.322977
24.136093 -28.517943 -7.128932
20.579661 -32.312799 -6.710280
22.753517 -30.222373 -5.638262
36.858122 -2.818755 -21.702904
35.477971 -8.031476 -18.858841
31.861847 -17.032537 -13.185854
33.790686 -12.741564 -16.016948
15.977618 -32.812478 -20.279227
20.910350 -29.026409 -17.939307
17.051894 -32.947607 -17.525269
29.055855 -21.109788 -13.046567
25.228057 -25.126744 -15.529182
27.932473 -23.026660 -11.602350
18.956952 -32.847460 -12.093307
21.807290 -29.071781 -15.240284
18.047546 -32.956938 -14.779048
21.274494 -30.836466 -10.940294
19.519930 -31.014733 -16.390477
25.496634 -26.697407 -8.680665
24.020042 -27.040128 -14.027216
26.740734 -24.897321 -10.138401
23.458564 -28.777091 -9.798482
26.027692 -25.053318 -12.831170
22.681501 -28.962898 -12.517988
3.235005 -24.907807 -42.301022
9.337677 -21.925952 -41.247937
5.147002 -26.672104 -39.975349
3.258490 -22.049311 -44.207374
20.005719 -15.487563 -37.423618
14.925508 -18.762304 -39.582517
8.704067 -29.468953 -34.818970
11.074410 -23.537719 -38.763152
6.986872 -28.195907 -37.451231
8.191220 -25.121534 -39.444141
3.308320 -15.868615 -47.398710
9.446612 -19.110912 -43.113163
3.286898 -19.013655 -45.921031
6.426991 -20.603830 -43.747911
35.868314 -1.779406 -25.046977
32.514377 -5.289085 -28.652909
35.345434 -4.550880 -23.582961
24.607776 -12.141383 -34.853613
28.767104 -8.741054 -31.922371
33.985584 -9.709487 -20.636690
32.019102 -8.004154 -27.099291
34.707430 -7.207564 -22.104775
33.723087 -6.291353 -25.389099
14.579004 -32.468729 -23.589324
17.093087 -27.768711 -27.657195
13.295539 -32.008800 -26.387057
17.273439 -30.646889 -22.381642
21.435028 -16.888251 -34.682603
19.381361 -22.591231 -31.359701
19.071145 -18.556015 -35.853863
10.398498 -30.542210 -31.980606
15.792090 -27.042193 -30.442258
11.893575 -31.370128 -29.207580
11.611469 -27.799039 -34.101640
14.580617 -29.576400 -28.469175
22.153000 -26.852695 -19.908227
19.732024 -25.947011 -26.327107
19.808325 -28.759596 -21.145815
18.533280 -28.344312 -24.409326
13.948182 -21.864575 -37.885613
16.976766 -24.292019 -32.384227
16.561944 -20.224743 -36.932756
12.800914 -24.892655 -36.080836
18.054854 -21.502088 -34.164136
14.383099 -26.060920 -33.278210
3.401899 -2.102489 -50.814301
9.913267 -6.126736 -48.541336
3.388980 -5.607794 -50.377824
20.387269 -12.600025 -39.110055
15.654498 -9.675012 -44.428690
17.876646 -14.251960 -40.288998
3.352479 -12.455961 -48.682643
9.815525 -9.491006 -47.568272
3.369991 -9.087037 -49.660222
6.568791 -14.365906 -46.964250
6.696603 -7.615866 -49.219616
12.458814 -17.479977 -42.298118
12.816208 -11.278366 -45.415678
15.219661 -15.891730 -41.360378
9.631489 -16.050635 -44.795343
15.468307 -12.843729 -42.989994
9.759452 -12.821014 -46.295414
30.318309 -18.737745 -14.763114
28.918159 -17.872405 -20.832368
31.316593 -16.657711 -16.207770
28.479132 -20.798514 -16.051631
24.095454 -14.891810 -33.165374
26.889480 -16.618613 -26.997900
26.209129 -13.205887 -31.792964
23.099550 -17.827497 -31.629911
33.138441 -12.200436 -19.124883
29.805066 -15.624693 -22.357341
32.264386 -14.468483 -17.668297
32.351999 -11.477982 -22.320081
30.632643 -16.188552 -19.279451
24.455695 -24.813945 -18.597917
26.882495 -19.930321 -22.177585
26.516271 -22.835068 -17.337993
23.440666 -24.468838 -21.777047
27.753805 -20.406296 -19.115581
30.137266 -9.799136 -28.781778
28.777222 -14.928343 -25.563122
28.233466 -11.496908 -30.323890
31.354132 -10.675954 -25.559320
27.598946 -14.134925 -28.672325
30.607245 -13.228688 -23.969227
20.939016 -23.300017 -28.243048
25.787082 -19.327278 -25.414782
22.039841 -20.645802 -29.975525
22.265799 -23.966755 -25.018004
24.552857 -18.642259 -28.510981
24.660438 -21.947570 -23.624215
3.350062 25.793687 -43.805515
10.258930 24.089160 -45.317448
5.471260 28.352432 -42.493775
3.361227 22.744503 -45.601186
23.249808 17.998996 -43.492159
17.060505 21.446130 -45.244538
9.823379 33.258558 -39.296569
12.526421 26.623846 -43.845547
7.646342 30.857233 -40.986139
9.004093 27.614523 -43.358466
3.383570 16.229558 -48.476826
10.253875 20.744040 -46.797409
3.376486 19.531887 -47.172645
6.816222 21.851639 -46.397373
36.867589 1.828980 -25.744774
35.144692 5.716956 -30.970843
37.998552 4.892480 -25.353158
35.247891 0.000000 -27.684219
28.420712 14.022671 -40.254124
32.379408 9.838674 -35.930884
39.954593 11.414798 -24.261185
36.132523 9.032429 -30.580675
39.038765 8.107037 -24.863354
37.190117 6.938159 -27.999322
31.687349 -3.601206 -31.314259
33.320188 3.786775 -32.927873
33.510808 -1.817418 -29.553148
34.399958 1.865640 -30.337289
18.768293 41.798645 -30.367737
22.024553 35.780164 -35.636475
16.574949 39.903928 -32.895555
23.155711 41.083336 -30.003455
25.680293 20.233015 -41.551586
24.357303 28.391271 -39.410945
22.737550 22.123387 -42.746726
12.138062 35.651615 -37.330640
19.706265 33.744780 -37.987574
14.345220 37.836511 -35.228193
13.594319 32.546184 -39.925058
18.244448 37.008383 -35.622934
31.279090 37.914858 -28.109566
26.111903 34.336358 -34.839350
27.398091 39.779135 -29.248054
24.768912 37.880923 -32.621988
16.165521 25.340382 -43.908281
20.984940 30.027307 -40.030067
19.527145 23.845721 -43.545087
14.951390 29.074470 -42.142197
21.979930 26.176583 -41.591324
17.366273 31.466171 -40.180387
3.412138 2.108817 -50.967243
10.175547 6.288834 -49.825618
3.416287 5.652980 -50.783756
6.795035 0.000000 -50.434517
23.013673 14.223232 -44.148434
16.753526 10.354248 -47.547818
20.157004 16.069950 -45.428290
3.412710 12.679747 -49.557282
10.222575 9.884598 -49.540931
3.414073 9.205903 -50.309821
6.844956 14.969876 -48.938717
6.844430 7.783986 -50.306138
13.187350 -4.047866 -47.712282
13.492522 4.141538 -48.816404
10.096382 -2.078602 -49.323614
10.186333 2.097121 -49.763048
13.779172 19.332467 -46.780779
13.670714 12.030338 -48.443715
17.044290 17.796931 -46.318923
10.323205 17.203363 -48.012464
16.942512 14.067798 -47.087149
10.315110 13.550984 -48.931261
41.881994 25.884496 -20.393903
38.405045 23.735623 -27.666631
41.739398 22.201739 -21.602048
40.126150 29.304415 -22.616214
28.812667 17.807208 -39.658222
33.996478 21.010979 -34.133553
31.104227 15.672361 -37.730960
28.542472 22.028171 -39.082832
40.751701 15.003377 -23.518654
38.166963 20.008246 -28.629758
41.348126 18.541950 -22.642643
38.978818 13.829073 -26.892012
40.066832 21.174275 -25.217104
34.880993 35.391963 -26.526084
36.211901 26.847017 -29.874180
37.776818 32.532336 -24.700842
32.523662 33.950241 -30.215410
38.286012 28.150219 -26.369695
34.740015 11.295720 -33.177508
35.969577 18.659417 -31.952170
33.089201 13.474205 -35.539147
36.962823 12.585690 -30.131424
33.638417 17.228068 -34.946683
37.653069 16.273947 -29.486971
27.231728 30.302270 -36.730809
33.789442 25.325003 -33.301608
28.018659 26.246456 -38.107082
29.944389 32.231937 -33.645719
31.270402 23.742693 -36.311450
33.357425 29.687810 -31.955757
23.219476 -10.603335 -37.569901
24.666101 -3.692504 -39.910589
25.473883 -8.902094 -36.168196
21.150301 -9.229403 -40.438719
26.062629 11.901680 -42.170220
25.664766 3.842004 -41.526464
28.304254 9.891195 -40.186798
23.125778 10.091446 -44.215770
29.671469 -5.425066 -33.075518
26.958928 -1.908860 -38.365821
27.636377 -7.167245 -34.658664
30.558724 -1.862224 -34.037752
26.266157 -5.476286 -37.350844
16.190349 -5.982329 -45.555759
22.360010 -1.989279 -42.616699
18.792727 -7.676912 -43.143438
16.512940 -2.041112 -46.534027
21.816021 -5.668675 -41.624135
31.900490 5.832616 -35.560263
27.559599 1.951391 -39.220649
30.261225 7.847976 -37.950474
31.314357 1.908272 -34.879411
28.008013 5.839449 -39.827788
29.179524 0.000000 -36.705159
16.890159 6.240909 -47.524857
22.788676 2.027416 -43.433708
20.043076 8.187685 -46.013928
16.751152 2.070556 -47.205316
23.042406 5.987340 -43.964032
19.737392 0.000000 -45.094032
33.695506 48.253368 2.393822
38.410203 43.586632 7.090199
32.411754 48.577764 6.254600
36.401007 46.346213 0.000000
43.008568 30.365438 14.982192
41.512622 37.409436 11.367078
29.272076 48.206793 13.772404
37.096967 43.831832 10.957107
30.924967 48.556301 10.083508
34.949609 46.421839 8.660422
40.680441 41.165123 -4.678337
40.680441 41.165123 4.678337
38.757592 43.947880 -2.383460
38.757592 43.947880 2.383460
38.575250 2.950073 22.713988
40.662143 9.205065 21.614564
43.146579 23.065070 17.855980
42.262350 15.936002 20.032558
21.336659 43.818089 27.081068
29.827090 41.404056 25.589114
23.438316 45.287427 24.088982
41.674401 30.277470 18.712505
36.842137 36.694184 22.678253
41.134501 33.910001 17.086094
27.410853 47.495868 17.486348
31.848788 42.458324 22.257904
25.480749 46.530841 20.866062
31.701634 45.950158 16.302395
27.807115 44.182037 23.349054
38.895980 40.727800 13.242649
35.577548 40.050780 20.776564
40.213100 37.440948 15.246273
35.592187 43.661651 14.866614
38.642759 37.196126 19.050165
33.826320 43.194154 18.668847
44.288700 27.371922 -12.499578
45.520373 28.133138 -4.211518
43.979994 30.975867 -10.824816
44.288700 27.371922 12.499578
45.520373 28.133138 4.211518
43.979994 30.975867 10.824816
42.245121 37.897359 -6.929070
44.973034 31.601690 -2.237596
43.306327 34.531914 -8.955541
42.584132 38.231572 -2.329802
44.640490 31.392439 -6.545075
42.245121 37.897359 6.929070
44.973034 31.601690 2.237596
43.306327 34.531914 8.955541
42.584132 38.231572 2.329802
44.640490 31.392439 6.545075
44.016453 34.991788 0.000000
21.923442 -31.395282 1.557502
24.779855 -28.119362 4.574152
21.283200 -31.898622 4.107087
23.431098 -29.832764 0.000000
29.719871 -20.983189 10.353026
27.365910 -24.661012 7.493394
19.815196 -32.632706 9.322977
24.136093 -28.517943 7.128932
20.579661 -32.312799 6.710280
22.753517 -30.222373 5.638262
26.242439 -26.555101 -3.017936
26.242439 -26.555101 3.017936
24.877880 -28.209443 -1.529905
24.877880 -28.209443 1.529905
36.858122 -2.818755 21.702904
35.477971 -8.031476 18.858841
31.861847 -17.032537 13.185854
33.790686 -12.741564 16.016948
15.977618 -32.812478 20.279227
20.910350 -29.026409 17.939307
17.051894 -32.947607 17.525269
29.055855 -21.109788 13.046567
25.228057 -25.126744 15.529182
27.932473 -23.026660 11.602350
18.956952 -32.847460 12.093307
21.807290 -29.071781 15.240284
18.047546 -32.956938 14.779048
21.274494 -30.836466 10.940294
19.519930 -31.014733 16.390477
25.496634 -26.697407 8.680665
24.020042 -27.040128 14.027216
26.740734 -24.897321 10.138401
23.458564 -28.777091 9.798482
26.027692 -25.053318 12.831170
22.681501 -28.962898 12.517988
31.194803 -19.279448 -8.804094
31.616274 -19.539932 -2.925119
30.054293 -21.167756 -7.397277
31.194803 -19.279448 8.804094
31.616274 -19.539932 2.925119
30.054293 -21.167756 7.397277
27.608506 -24.767108 -4.528364
30.384754 -21.350785 -1.511768
28.852041 -23.006250 -5.966464
27.696192 -24.865341 -1.515274
30.275216 -21.290378 -4.438875
27.608506 -24.767108 4.528364
30.384754 -21.350785 1.511768
28.852041 -23.006250 5.966464
27.696192 -24.865341 1.515274
30.275216 -21.290378 4.438875
29.084066 -23.120979 0.000000
3.235005 -24.907807 42.301022
9.337677 -21.925952 41.247937
5.147002 -26.672104 39.975349
3.258490 -22.049311 44.207374
20.005719 -15.487563 37.423618
14.925508 -18.762304 39.582517
8.704067 -29.468953 34.818970
11.074410 -23.537719 38.763152
6.986872 -28.195907 37.451231
8.191220 -25.121534 39.444141
3.308320 -15.868615 47.398710
9.446612 -19.110912 43.113163
3.286898 -19.013655 45.921031
6.426991 -20.603830 43.747911
35.868314 -1.779406 25.046977
32.514377 -5.289085 28.652909
35.345434 -4.550880 23.582961
24.607776 -12.141383 34.853613
28.767104 -8.741054 31.922371
33.985584 -9.709487 20.636690
32.019102 -8.004154 27.099291
34.707430 -7.207564 22.104775
33.723087 -6.291353 25.389099
14.579004 -32.468729 23.589324
17.093087 -27.768711 27.657195
13.295539 -32.008800 26.387057
17.273439 -30.646889 22.381642
21.435028 -16.888251 34.682603
19.381361 -22.591231 31.359701
19.071145 -18.556015 35.853863
10.398498 -30.542210 31.980606
15.792090 -27.042193 30.442258
11.893575 -31.370128 29.207580
11.611469 -27.799039 34.101640
14.580617 -29.576400 28.469175
22.153000 -26.852695 19.908227
19.732024 -25.947011 26.327107
19.808325 -28.759596 21.145815
18.533280 -28.344312 24.409326
13.948182 -21.864575 37.885613
16.976766 -24.292019 32.384227
16.561944 -20.224743 36.932756
12.800914 -24.892655 36.080836
18.054854 -21.502088 34.164136
14.383099 -26.060920 33.278210
3.401899 -2.102489 50.814301
9.913267 -6.126736 48.541336
3.388980 -5.607794 50.377824
20.387269 -12.600025 39.110055
15.654498 -9.675012 44.428690
17.876646 -14.251960 40.288998
3.352479 -12.455961 48.682643
9.815525 -9.491006 47.568272
3.369991 -9.087037 49.660222
6.568791 -14.365906 46.964250
6.696603 -7.615866 49.219616
12.458814 -17.479977 42.298118
12.816208 -11.278366 45.415678
15.219661 -15.891730 41.360378
9.631489 -16.050635 44.795343
15.468307 -12.843729 42.989994
9.759452 -12.821014 46.295414
30.318309 -18.737745 14.763114
28.918159 -17.872405 20.832368
31.316593 -16.657711 16.207770
28.479132 -20.798514 16.051631
24.095454 -14.891810 33.165374
26.889480 -16.618613 26.997900
26.209129 -13.205887 31.792964
23.099550 -17.827497 31.629911
33.138441 -12.200436 19.124883
29.805066 -15.624693 22.357341
32.264386 -14.468483 17.668297
32.351999 -11.477982 22.320081
30.632643 -16.188552 19.279451
24.455695 -24.813945 18.597917
26.882495 -19.930321 22.177585
26.516271 -22.835068 17.337993
23.440666 -24.468838 21.777047
27.753805 -20.406296 19.115581
30.137266 -9.799136 28.781778
28.777222 -14.928343 25.563122
28.233466 -11.496908 30.323890
31.354132 -10.675954 25.559320
27.598946 -14.134925 28.672325
30.607245 -13.228688 23.969227
20.939016 -23.300017 28.243048
25.787082 -19.327278 25.414782
22.039841 -20.645802 29.975525
22.265799 -23.966755 25.018004
24.552857 -18.642259 28.510981
24.660438 -21.947570 23.624215
3.350062 25.793687 43.805515
10.258930 24.089160 45.317448
5.471260 28.352432 42.493775
3.361227 22.744503 45.601186
23.249808 17.998996 43.492159
17.060505 21.446130 45.244538
9.823379 33.258558 39.296569
12.526421 26.623846 43.845547
7.646342 30.857233 40.986139
9.004093 27.614523 43.358466
3.383570 16.229558 48.476826
10.253875 20.744040 46.797409
3.376486 19.531887 47.172645
6.816222 21.851639 46.397373
36.867589 1.828980 25.744774
35.144692 5.716956 30.970843
37.998552 4.892480 25.353158
35.247891 0.000000 27.684219
28.420712 14.022671 40.254124
32.379408 9.838674 35.930884
39.954593 11.414798 24.261185
36.132523 9.032429 30.580675
39.038765 8.107037 24.863354
37.190117 6.938159 27.999322
31.687349 -3.601206 31.314259
33.320188 3.786775 32.927873
33.510808 -1.817418 29.553148
34.399958 1.865640 30.337289
18.768293 41.798645 30.367737
22.024553 35.780164 35.636475
16.574949 39.903928 32.895555
23.155711 41.083336 30.003455
25.680293 20.233015 41.551586
24.357303 28.391271 39.410945
22.737550 22.123387 42.746726
12.138062 35.651615 37.330640
19.706265 33.744780 37.987574
14.345220 37.836511 35.228193
13.594319 32.546184 39.925058
18.244448 37.008383 35.622934
31.279090 37.914858 28.109566
26.111903 34.336358 34.839350
27.398091 39.779135 29.248054
24.768912 37.880923 32.621988
16.165521 25.340382 43.908281
20.984940 30.027307 40.030067
19.527145 23.845721 43.545087
14.951390 29.074470 42.142197
21.979930 26.176583 41.591324
17.366273 31.466171 40.180387
3.412138 2.108817 50.967243
10.175547 6.288834 49.825618
3.416287 5.652980 50.783756
6.795035 0.000000 50.434517
23.013673 14.223232 44.148434
16.753526 10.354248 47.547818
20.157004 16.069950 45.428290
3.412710 12.679747 49.557282
10.222575 9.884598 49.540931
3.414073 9.205903 50.309821
6.844956 14.969876 48.938717
6.844430 7.783986 50.306138
13.187350 -4.047866 47.712282
13.492522 4.141538 48.816404
10.096382 -2.078602 49.323614
10.186333 2.097121 49.763048
13.779172 19.332467 46.780779
13.670714 12.030338 48.443715
17.044290 17.796931 46.318923
10.323205 17.203363 48.012464
16.942512 14.067798 47.087149
10.315110 13.550984 48.931261
41.881994 25.884496 20.393903
38.405045 23.735623 27.666631
41.739398 22.201739 21.602048
40.126150 29.304415 22.616214
28.812667 17.807208 39.658222
33.996478 21.010979 34.133553
31.104227 15.672361 37.730960
28.542472 22.028171 39.082832
40.751701 15.003377 23.518654
38.166963 20.008246 28.629758
41.348126 18.541950 22.642643
38.978818 13.829073 26.892012
40.066832 21.174275 25.217104
34.880993 35.391963 26.526084
36.211901 26.847017 29.874180
37.776818 32.532336 24.700842
32.523662 33.950241 30.215410
38.286012 28.150219 26.369695
34.740015 11.295720 33.177508
35.969577 18.659417 31.952170
33.089201 13.474205 35.539147
36.962823 12.585690 30.131424
33.638417 17.228068 34.946683
37.653069 16.273947 29.486971
27.231728 30.302270 36.730809
33.789442 25.325003 33.301608
28.018659 26.246456 38.107082
29.944389 32.231937 33.645719
31.270402 23.742693 36.311450
33.357425 29.687810 31.955757
23.219476 -10.603335 37.569901
24.666101 -3.692504 39.910589
25.473883 -8.902094 36.168196
21.150301 -9.229403 40.438719
26.062629 11.901680 42.170220
25.664766 3.842004 41.526464
28.304254 9.891195 40.186798
23.125778 10.091446 44.215770
29.671469 -5.425066 33.075518
26.958928 -1.908860 38.365821
27.636377 -7.167245 34.658664
30.558724 -1.862224 34.037752
26.266157 -5.476286 37.350844
16.190349 -5.982329 45.555759
22.360010 -1.989279 42.616699
18.792727 -7.676912 43.143438
16.512940 -2.041112 46.534027
21.816021 -5.668675 41.624135
31.900490 5.832616 35.560263
27.559599 1.951391 39.220649
30.261225 7.847976 37.950474
31.314357 1.908272 34.879411
28.008013 5.839449 39.827788
29.179524 0.000000 36.705159
16.890159 6.240909 47.524857
22.788676 2.027416 43.433708
20.043076 8.187685 46.013928
16.751152 2.070556 47.205316
23.042406 5.987340 43.964032
19.737392 0.000000 45.094032
38.497804 0.000000 -20.257068
40.210215 0.000000 -14.495139
39.668113 2.923905 -19.785264
