-3.481795792 17.45052218 3.600846161
-3.241638485 17.7153997 1.202184158
-5.238598962 17.12574729 2.395342324
-2.746007791 17.74682657 2.414554469
-6.624069597 16.02894948 4.721290496
-4.221262807 16.99816396 4.796845928
-6.077748087 15.81816209 5.820717027
-5.973321747 16.67080445 3.584405333
-4.890376375 16.36886454 5.889710696
-4.735767292 17.10038676 3.604901373
11.00732974 18.69378901 1.429622631
9.698081074 18.24440007 4.13015354
9.426606232 18.89970619 1.393082339
6.768187397 16.35441659 8.742657267
8.273993929 17.45550573 6.582004231
6.32264537 18.88540561 1.318157387
8.227524737 18.56084213 4.066903642
7.841144601 18.93762358 1.355501969
8.838911066 18.76757386 2.757137904
0.6541727358 9.208155327 13.18646184
2.060844622 11.16434971 12.66893603
0 10.09274646 12.85020974
5.18812088 14.8932583 10.51512133
3.590026809 13.11079455 11.81489899
-1.353129245 11.76612353 11.90630965
1.399401973 12.16848763 12.31346767
-0.6735801313 10.95312667 12.41993315
0.684350019 11.12825645 12.61851574
0.7596267695 18.35914412 1.229101932
2.324590042 18.41742698 3.761265698
2.060947214 18.51459482 1.245500061
0 18.21034401 2.453476957
5.443163582 16.89539666 8.807223682
3.953558754 18.15516515 6.396992441
6.176747945 17.46110571 7.747673788
4.805434889 18.78147078 1.293366171
3.700927302 18.54879432 3.827470267
3.413896525 18.65678168 1.266067249
5.746575079 18.78639562 2.62761372
2.871500142 18.55785522 2.524899428
-1.500681754 17.68856863 4.889000127
1.542358474 18.17981303 5.024776741
-0.7584540588 17.9975237 3.684034092
0.7680708192 18.22572193 3.730745522
7.551539129 18.27324388 5.38234229
4.578158603 18.43531051 5.202405644
6.883910376 17.91630858 6.592786303
6.687027005 18.66266783 4.012677748
5.414900685 18.12453051 6.521420037
5.162194438 18.64017296 3.929500896
-4.101348635 14.53196253 8.981246768
-1.430302094 15.45948216 9.554485423
-3.433357447 13.94934056 9.82476083
-3.567205888 15.62974718 8.174686671
4.531529291 16.05618535 9.923268277
1.486964627 16.0719216 9.932993812
3.744851481 15.21490537 10.71611992
3.89233057 17.05428413 8.91974947
-2.062367268 12.57383036 11.2797633
-0.7370540339 14.81391371 10.4094534
-2.748041555 13.28871038 10.5962486
-0.7062898962 12.90957227 11.59007386
-2.114059521 14.41888057 10.13975965
-2.259214245 17.20403834 6.114251949
-0.7687025354 16.46805678 8.640413747
-2.942298141 16.53540527 7.202610082
-0.7694018751 17.54111161 6.224591925
-2.190300549 16.08301047 8.429419411
2.174379481 13.25674585 11.89239484
0.7523453181 15.12125043 10.62541302
2.949732678 14.26402857 11.37395492
0.7197067569 13.15480576 11.81024182
2.239262904 15.27282655 10.74027832
0 14.04949037 11.16893261
2.366582263 18.02165159 6.404828688
0.7838593456 16.79276393 8.810780183
3.147163126 17.68672488 7.704110112
0.7814736728 17.81632897 6.322254819
2.315012513 16.99874955 8.909376122
0 17.25959158 7.554421426
0 -7.155418131 13.59860577
0 -5.037770747 13.97501945
0 -0.9935205811 14.33497538
0 -2.994344492 14.21649605
0 7.155418131 13.59860577
0 5.037770747 13.97501945
0 0.9935205811 14.33497538
0 2.994344492 14.21649605
-11.00732974 -18.69378901 -1.429622631
-9.698081074 -18.24440007 -4.13015354
-9.426606232 -18.89970619 -1.393082339
-6.768187397 -16.35441659 -8.742657267
-8.273993929 -17.45550573 -6.582004231
-6.32264537 -18.88540561 -1.318157387
-8.227524737 -18.56084213 -4.066903642
-7.841144601 -18.93762358 -1.355501969
-8.838911066 -18.76757386 -2.757137904
-0.6541727358 -9.208155327 -13.18646184
-2.060844622 -11.16434971 -12.66893603
-5.18812088 -14.8932583 -10.51512133
-3.590026809 -13.11079455 -11.81489899
-0.7596267695 -18.35914412 -1.229101932
-2.324590042 -18.41742698 -3.761265698
-2.060947214 -18.51459482 -1.245500061
-5.443163582 -16.89539666 -8.807223682
-3.953558754 -18.15516515 -6.396992441
-6.176747945 -17.46110571 -7.747673788
-4.805434889 -18.78147078 -1.293366171
-3.700927302 -18.54879432 -3.827470267
-3.413896525 -18.65678168 -1.266067249
-5.746575079 -18.78639562 -2.62761372
-2.871500142 -18.55785522 -2.524899428
-7.551539129 -18.27324388 -5.38234229
-4.578158603 -18.43531051 -5.202405644
-6.883910376 -17.91630858 -6.592786303
-6.687027005 -18.66266783 -4.012677748
-5.414900685 -18.12453051 -6.521420037
-5.162194438 -18.64017296 -3.929500896
9.123879435 -15.49511837 -1.185001707
8.253276771 -15.5263791 -3.514850001
8.047587391 -16.13486694 -1.189288233
5.984125313 -14.45983579 -7.729862309
7.193507023 -15.17602069 -5.722471405
5.718793167 -17.08173118 -1.192265107
7.159376265 -16.15115807 -3.538912897
6.898337044 -16.66059191 -1.19251843
7.623156439 -16.18617389 -2.377905311
0.6457968302 -9.090255826 -13.01762484
1.971577225 -10.68075555 -12.12016931
0 -10.09274646 -12.85020974
4.675343349 -13.42125555 -9.475839852
3.323605759 -12.13782364 -10.93809835
-1.399401973 -12.16848763 -12.31346767
1.353129245 -11.76612353 -11.90630965
-0.684350019 -11.12825645 -12.61851574
0.6735801313 -10.95312667 -12.41993315
0.7510353495 -18.1515012 -1.215200722
2.237793168 -17.72974654 -3.620825406
1.998217049 -17.95105608 -1.207590102
0 -18.21034401 -2.453476957
4.8707628 -15.11868389 -7.881059762
3.664905382 -16.82963795 -5.929941473
5.487914985 -15.51383747 -6.883650661
4.461359481 -17.43669297 -1.200759465
3.481795792 -17.45052218 -3.600846161
3.241638485 -17.7153997 -1.202184158
5.238598962 -17.12574729 -2.395342324
2.746007791 -17.74682657 -2.414554469
-1.542358474 -18.17981303 -5.024776741
1.500681754 -17.68856863 -4.889000127
-0.7680708192 -18.22572193 -3.730745522
0.7584540588 -17.9975237 -3.684034092
6.624069597 -16.02894948 -4.721290496
4.221262807 -16.99816396 -4.796845928
6.077748087 -15.81816209 -5.820717027
5.973321747 -16.67080445 -3.584405333
4.890376375 -16.36886454 -5.889710696
4.735767292 -17.10038676 -3.604901373
-4.531529291 -16.05618535 -9.923268277
-1.486964627 -16.0719216 -9.932993812
-3.744851481 -15.21490537 -10.71611992
-3.89233057 -17.05428413 -8.91974947
4.101348635 -14.53196253 -8.981246768
1.430302094 -15.45948216 -9.554485423
3.433357447 -13.94934056 -9.82476083
3.567205888 -15.62974718 -8.174686671
-2.174379481 -13.25674585 -11.89239484
-0.7523453181 -15.12125043 -10.62541302
-2.949732678 -14.26402857 -11.37395492
-0.7197067569 -13.15480576 -11.81024182
-2.239262904 -15.27282655 -10.74027832
-2.366582263 -18.02165159 -6.404828688
-0.7838593456 -16.79276393 -8.810780183
-3.147163126 -17.68672488 -7.704110112
-0.7814736728 -17.81632897 -6.322254819
-2.315012513 -16.99874955 -8.909376122
2.062367268 -12.57383036 -11.2797633
0.7370540339 -14.81391371 -10.4094534
2.748041555 -13.28871038 -10.5962486
0.7062898962 -12.90957227 -11.59007386
2.114059521 -14.41888057 -10.13975965
0 -14.04949037 -11.16893261
2.259214245 -17.20403834 -6.114251949
0.7687025354 -16.46805678 -8.640413747
2.942298141 -16.53540527 -7.202610082
0.7694018751 -17.54111161 -6.224591925
2.190300549 -16.08301047 -8.429419411
0 -17.25959158 -7.554421426
-9.123879435 15.49511837 -1.185001707
-8.253276771 15.5263791 -3.514850001
-8.047587391 16.13486694 -1.189288233
-5.984125313 14.45983579 -7.729862309
-7.193507023 15.17602069 -5.722471405
-5.718793167 17.08173118 -1.192265107
-7.159376265 16.15115807 -3.538912897
-6.898337044 16.66059191 -1.19251843
-7.623156439 16.18617389 -2.377905311
-0.6457968302 9.090255826 -13.01762484
-1.971577225 10.68075555 -12.12016931
-4.675343349 13.42125555 -9.475839852
-3.323605759 12.13782364 -10.93809835
-0.7510353495 18.1515012 -1.215200722
-2.237793168 17.72974654 -3.620825406
-1.998217049 17.95105608 -1.207590102
-4.8707628 15.11868389 -7.881059762
-3.664905382 16.82963795 -5.929941473
-5.487914985 15.51383747 -6.883650661
-4.461359481 17.43669297 -1.200759465
-3.481795792 17.45052218 -3.600846161
-3.241638485 17.7153997 -1.202184158
-5.238598962 17.12574729 -2.395342324
-2.746007791 17.74682657 -2.414554469
-6.624069597 16.02894948 -4.721290496
-4.221262807 16.99816396 -4.796845928
-6.077748087 15.81816209 -5.820717027
-5.973321747 16.67080445 -3.584405333
-4.890376375 16.36886454 -5.889710696
-4.735767292 17.10038676 -3.604901373
11.00732974 18.69378901 -1.429622631
9.698081074 18.24440007 -4.13015354
9.426606232 18.89970619 -1.393082339
6.768187397 16.35441659 -8.742657267
8.273993929 17.45550573 -6.582004231
6.32264537 18.88540561 -1.318157387
8.227524737 18.56084213 -4.066903642
7.841144601 18.93762358 -1.355501969
8.838911066 18.76757386 -2.757137904
0.6541727358 9.208155327 -13.18646184
2.060844622 11.16434971 -12.66893603
0 10.09274646 -12.85020974
5.18812088 14.8932583 -10.51512133
3.590026809 13.11079455 -11.81489899
-1.353129245 11.76612353 -11.90630965
1.399401973 12.16848763 -12.31346767
-0.6735801313 10.95312667 -12.41993315
0.684350019 11.12825645 -12.61851574
0.7596267695 18.35914412 -1.229101932
2.324590042 18.41742698 -3.761265698
2.060947214 18.51459482 -1.245500061
0 18.21034401 -2.453476957
5.443163582 16.89539666 -8.807223682
3.953558754 18.15516515 -6.396992441
6.176747945 17.46110571 -7.747673788
4.805434889 18.78147078 -1.293366171
3.700927302 18.54879432 -3.827470267
3.413896525 18.65678168 -1.266067249
5.746575079 18.78639562 -2.62761372
2.871500142 18.55785522 -2.524899428
-1.500681754 17.68856863 -4.889000127
1.542358474 18.17981303 -5.024776741
-0.7584540588 17.9975237 -3.684034092
0.7680708192 18.22572193 -3.730745522
7.551539129 18.27324388 -5.38234229
4.578158603 18.43531051 -5.202405644
6.883910376 17.91630858 -6.592786303
6.687027005 18.66266783 -4.012677748
5.414900685 18.12453051 -6.521420037
5.162194438 18.64017296 -3.929500896
-4.101348635 14.53196253 -8.981246768
-1.430302094 15.45948216 -9.554485423
-3.433357447 13.94934056 -9.82476083
-3.567205888 15.62974718 -8.174686671
4.531529291 16.05618535 -9.923268277
1.486964627 16.0719216 -9.932993812
3.744851481 15.21490537 -10.71611992
3.89233057 17.05428413 -8.91974947
-2.062367268 12.57383036 -11.2797633
-0.7370540339 14.81391371 -10.4094534
-2.748041555 13.28871038 -10.5962486
-0.7062898962 12.90957227 -11.59007386
-2.114059521 14.41888057 -10.13975965
-2.259214245 17.20403834 -6.114251949
-0.7687025354 16.46805678 -8.640413747
-2.942298141 16.53540527 -7.202610082
-0.7694018751 17.54111161 -6.224591925
-2.190300549 16.08301047 -8.429419411
2.174379481 13.25674585 -11.89239484
0.7523453181 15.12125043 -10.62541302
2.949732678 14.26402857 -11.37395492
0.7197067569 13.15480576 -11.81024182
2.239262904 15.27282655 -10.74027832
0 14.04949037 -11.16893261
2.366582263 18.02165159 -6.404828688
0.7838593456 16.79276393 -8.810780183
3.147163126 17.68672488 -7.704110112
0.7814736728 17.81632897 -6.322254819
2.315012513 16.99874955 -8.909376122
0 17.25959158 -7.554421426
0 -7.155418131 -13.59860577
0 -5.037770747 -13.97501945
0 -0.9935205811 -14.33497538
0 -2.994344492 -14.21649605
0 7.155418131 -13.59860577
0 5.037770747 -13.97501945
0 0.9935205811 -14.33497538
0 2.994344492 -14.21649605
12.73035698 18.23040126 -0.90439965
14.03148859 15.92247071 -2.590094232
12.07230877 18.09361407 -2.329632137
13.56987559 9.580770403 -4.727115684
13.99754809 12.61400414 -3.832839628
10.53253778 17.34553637 -4.955520288
13.11927375 15.50104629 -3.874960645
11.31647539 17.76836798 -3.68989163
12.79408771 16.993755 -3.170341575
11.83806405 0.9053255206 -6.970522363
12.25747467 2.77483788 -6.515642208
13.11184823 7.009262275 -5.426267911
12.67658072 4.779999459 -6.00876042
7.314738321 15.02193224 -9.2840647
9.5293236 13.22799673 -8.175351584
8.113526662 15.67692618 -8.338764714
12.7096219 9.233850749 -5.70683361
11.27171356 11.22644782 -6.938326326
12.89204485 10.62779997 -5.354986349
9.711047283 16.82671528 -6.195018796
10.35756917 13.80790446 -7.238510137
8.916072676 16.28179594 -7.301328591
11.02514884 15.98048034 -5.669623694
9.312630434 14.79660783 -7.819621084
13.15668969 13.77630855 -4.479368492
11.31214247 12.73443943 -6.606060998
13.05508256 12.15511036 -4.949664443
12.17693614 14.93769233 -5.086223214
12.13858264 11.68416165 -5.984096486
11.24833423 14.36343882 -6.20798912
10.24196124 -14.66691495 -0.7276171577
11.43465579 -12.97567045 -2.11074084
9.871331915 -14.79485602 -1.904902576
12.40171253 -8.756009553 -4.320181817
12.12062931 -10.92260355 -3.318897571
8.933303077 -14.71183268 -4.203086244
10.99453209 -12.99056291 -3.247388535
9.430049472 -14.80642897 -3.074796649
10.5022723 -13.94964975 -2.602435692
11.78751545 -0.9014597759 -6.940758197
12.07608944 -2.733776027 -6.419224199
12.42608899 -6.642672734 -5.142470133
12.29835756 -4.637381625 -5.829480818
6.505490866 -13.360019 -8.256945833
8.607486984 -11.94836218 -7.384493937
7.152053735 -13.81917175 -7.350600522
11.82141932 -8.588549877 -5.308015738
10.37579965 -10.33413178 -6.386844685
11.7498509 -9.686210885 -4.880551684
8.367837498 -14.49928262 -5.338138006
9.251309763 -12.33312559 -6.465387623
7.778808239 -14.2050175 -6.37002827
9.474706077 -13.73318006 -4.872316815
8.248540638 -13.10590191 -6.926127128
11.3640072 -11.89919906 -3.8690261
10.19356618 -11.47522243 -5.952835208
11.6039363 -10.8040011 -4.399481248
10.48143054 -12.85778152 -4.378022081
11.012655 -10.60038434 -5.42903501
9.891791896 -12.63121675 -5.459309372
1.014786687 -7.81331481 -13.26938159
2.921335912 -6.859636632 -12.90461011
1.659688624 -8.600616901 -12.89034649
0.9964043899 -6.742395311 -13.51804534
6.209217581 -4.806907887 -11.61524785
4.652450513 -5.84842336 -12.33832032
2.983144622 -10.09989378 -11.93350517
3.559637834 -7.565708094 -12.45960544
2.321030643 -9.366646756 -12.4412544
2.637272372 -8.088212582 -12.699567
0.9704155925 -4.654674558 -13.90326547
2.881215011 -5.828824548 -13.14950677
0.9826955309 -5.6845788 -13.72917081
1.963263941 -6.293887347 -13.36374976
11.09399592 -0.5503667136 -7.746978601
10.01028341 -1.628363951 -8.821443604
11.2554456 -1.449187967 -7.509788487
7.603508261 -3.751542062 -10.76934911
8.859327224 -2.691958879 -9.831046305
11.53244001 -3.294751987 -7.002715709
10.15498555 -2.538549245 -8.594647923
11.40210178 -2.367832543 -7.261871457
10.70999765 -1.998048744 -8.063235548
5.715289199 -12.72845324 -9.24753218
6.255461805 -10.16236054 -10.12154982
5.042044328 -12.13864189 -10.00671806
6.815383144 -12.09199221 -8.830868462
6.840314005 -5.389353543 -11.06786055
6.606605533 -7.70076753 -10.6897123
6.097994033 -5.933281351 -11.46426426
3.686734023 -10.82858344 -11.33855934
5.587356144 -9.567724059 -10.770692
4.35999084 -11.49977762 -10.70702276
3.976397413 -9.519900195 -11.67825292
5.342688415 -10.8375032 -10.43178953
8.790479194 -10.65535395 -7.899736229
7.240386448 -9.520887831 -9.660358882
7.847954166 -11.39440086 -8.377860795
7.056086779 -10.79139361 -9.293245345
4.476308987 -7.016871079 -12.15840973
5.795188964 -8.29232389 -11.05468032
5.305641543 -6.47902433 -11.83145942
4.238997313 -8.243153129 -11.94809689
5.960612587 -7.098679282 -11.27891568
4.919333457 -8.913402689 -11.38187323
0.9562065334 -0.5909681379 -14.28289477
2.814660636 -1.73955594 -13.78227727
0.9576214143 -1.584590197 -14.2352241
6.159555122 -3.806814421 -11.81622391
4.550394321 -2.812298352 -12.91437518
5.415080047 -4.317113171 -12.20408702
0.9674499634 -3.594510133 -14.04871538
2.822058059 -2.728755807 -13.67633732
0.9607075829 -2.590507164 -14.15699809
1.923809251 -4.207359026 -13.7544729
1.905969759 -2.167608092 -14.00876028
3.79169498 -5.319827588 -12.87293958
3.736707494 -3.288332501 -13.24144399
4.621722429 -4.825808319 -12.55981938
2.871279776 -4.784915861 -13.35411016
4.588222287 -3.809717495 -12.75172805
2.852221007 -3.74696935 -13.5299353
11.8350792 -7.314481205 -5.762940878
10.51376848 -6.497866269 -7.574019264
11.80144202 -6.277343348 -6.107786269
11.19144317 -8.173191049 -6.307808654
7.671353863 -4.741157427 -10.55897585
9.117590931 -5.634981091 -9.154353627
8.329595843 -4.19699958 -10.10421004
7.59770329 -5.863665522 -10.40343534
11.64520593 -4.287364969 -6.720690495
10.46237464 -5.484684884 -7.848024245
11.7360562 -5.262859395 -6.426780586
10.96731833 -3.891032468 -7.566500777
11.13955761 -5.886965483 -7.010970651
9.693641966 -9.835643685 -7.371761454
9.82053996 -7.280816356 -8.101772368
10.475157 -9.020911247 -6.849311541
8.941159015 -9.333343083 -8.306591862
10.51523165 -7.731441791 -7.242421698
9.558128523 -3.107826714 -9.128231302
9.748304293 -5.056986856 -8.659525822
8.960516897 -3.648798781 -9.623959338
10.26778352 -3.496138342 -8.370111091
9.047063269 -4.633494566 -9.398922096
10.37097981 -4.482417522 -8.121749163
7.391604811 -8.225052889 -9.969974088
9.072926938 -6.8001094 -8.941936912
7.505664941 -7.030925421 -10.20816139
8.166506378 -8.790371951 -9.17594208
8.345981662 -6.336857435 -9.69142316
9.030565817 -8.037122804 -8.651104352
1.032705067 7.951276753 -13.50368287
3.039122672 7.136213649 -13.42491734
1.711555723 8.869395658 -13.29318402
1.011390266 6.843800625 -13.72135612
6.411732488 4.963686176 -11.99408155
4.849879383 6.096603886 -12.8619026
3.166360068 10.72019778 -12.66642387
3.740507026 7.95013021 -13.09269197
2.428285681 9.799480359 -13.01616591
2.754045337 8.446341904 -13.26187755
0.9803052792 4.702111216 -14.04495624
2.978353569 6.025340118 -13.59283506
0.9950386833 5.755979981 -13.90161613
2.015748036 6.462142351 -13.72100398
11.11933628 0.5516238341 -7.764673868
10.07569475 1.639004356 -8.879086569
11.32624211 1.458303328 -7.557024891
10.58822031 0 -8.31614621
7.76363227 3.830546639 -10.99614328
8.968069064 2.72500073 -9.951715295
11.72099154 3.348620079 -7.117207766
10.26156533 2.565192121 -8.684851468
11.52656558 2.393679482 -7.341141061
10.79853547 2.014566289 -8.12989301
9.4879402 -1.078286198 -9.376228214
9.529735632 1.083036168 -9.417531542
10.04252385 -0.5446441983 -8.856491775
10.06399361 0.5458085851 -8.875425939
6.360588814 14.16559241 -10.29164889
6.77412365 11.00495679 -10.96076231
5.558433495 13.38184063 -11.03157235
7.549116079 13.3937962 -9.781585231
7.079763311 5.578011106 -11.45529767
6.97402446 8.129037044 -11.28420861
6.352893779 6.18129601 -11.94347727
3.970004746 11.66059916 -12.20975913
6.016866199 10.30321211 -11.59865435
4.753947371 12.53886524 -11.67447928
4.252890084 10.1818518 -12.49028226
5.824585316 11.81501841 -11.37271041
9.530919785 11.55287687 -8.565147663
7.76413037 10.20959515 -10.35915504
8.605370718 12.49408973 -9.186419344
7.684675519 11.7527407 -10.12113048
4.706912329 7.378355045 -12.78476728
6.16436687 8.820579792 -11.75890994
5.559506003 6.789032837 -12.39757136
4.496439837 8.743775798 -12.67372797
6.271560577 7.468996933 -11.86730423
5.260986537 9.532448238 -12.17235675
0.9574275524 0.5917227692 -14.30113318
2.841851133 1.756360591 -13.91541835
0.9609104017 1.590032533 -14.28411552
1.905301206 0 -14.14164103
6.315882957 3.903430336 -12.11611646
4.639262511 2.867221915 -13.16659006
5.579945829 4.448550607 -12.57564872
0.9750578674 3.622776906 -14.1591927
2.865167013 2.770439503 -13.88525316
0.9661204227 2.605102656 -14.23676176
1.957490296 4.281019263 -13.995279
1.922930243 2.186896794 -14.1334188
3.726496269 -1.143850442 -13.48259016
3.754056588 1.1523101 -13.58230433
2.837136465 -0.584098196 -13.86019496
2.846316184 0.5859880796 -13.90504043
3.928192648 5.51133668 -13.33635403
3.817708005 3.359613599 -13.52847842
4.780880723 4.991994721 -12.99234199
2.950068002 4.916214467 -13.72054838
4.711155335 3.911791927 -13.09338735
2.912855578 3.826625127 -13.81756442
12.48500829 7.716159476 -6.079415562
10.88944974 6.730050055 -7.844656485
12.29563358 6.540210388 -6.363553018
11.84873062 8.653212785 -6.678274148
7.880591474 4.870473383 -10.84697389
9.381638192 5.798171273 -9.419465543
8.510183959 4.28799178 -10.32327232
7.868547639 6.072694569 -10.77429895
11.91607526 4.387089753 -6.877014814
10.75019255 5.63556751 -8.063921882
12.10553106 5.428544883 -6.629108674
11.16710584 3.961913941 -7.704336873
11.50728933 6.081302101 -7.242412185
10.40010752 10.55245822 -7.90901005
10.22992314 7.584327545 -8.439506276
11.15165745 9.603494457 -7.291649769
9.521842347 9.939496799 -8.846063248
11.02063832 8.103047699 -7.590523225
9.68661021 3.149602552 -9.250934252
9.984409333 5.179467653 -8.869260522
9.113335449 3.711027797 -9.788092673
10.42348892 3.549155396 -8.497039315
9.251022513 4.73795322 -9.610813732
10.5861456 4.575413835 -8.290250362
7.816135771 8.697452279 -10.54259164
9.418123376 7.058832253 -9.28214959
7.84811212 7.351712533 -10.6739104
8.658866422 9.320344956 -9.729161173
8.649825455 6.567557056 -10.04424909
9.479697432 8.436845924 -9.081363601
6.993495061 -3.19362803 -11.31571271
7.086145098 -1.060792677 -11.46562362
7.654072985 -2.674789639 -10.86736589
6.233005771 -2.71991035 -11.91731357
7.127711073 3.254918703 -11.53287878
7.129304569 1.06725363 -11.53545711
7.764972426 2.713544519 -11.02482256
6.343156643 2.767977127 -12.12791862
8.886021913 -1.624700825 -9.905467796
7.724027563 -0.5469091848 -10.9922273
8.287440091 -2.149272881 -10.39324343
8.924455341 -0.5438492208 -9.940480329
7.694096159 -1.604158067 -10.94111275
4.621365713 -1.707593233 -13.00341458
6.325971355 -0.5627959912 -12.05688275
5.438837141 -2.221789078 -12.48622032
4.643795847 -0.5740047341 -13.08637453
6.288136473 -1.633909537 -11.99752436
8.949778149 1.636357876 -9.976538444
7.745977496 0.5484633765 -11.02346471
8.37410297 2.171748118 -10.50192698
8.945448825 0.5451285471 -9.963863865
7.759241818 1.617740421 -11.0337508
8.341377074 0 -10.49268546
4.6756531 1.727652406 -13.15616626
6.348350718 0.5647869923 -12.09953633
5.521448089 2.255536016 -12.67587455
4.661963362 0.5762503624 -13.13757121
6.353582577 1.650915054 -12.12239303
5.523127322 0 -12.61869261
12.73035698 18.23040126 0.90439965
14.03148859 15.92247071 2.590094232
12.07230877 18.09361407 2.329632137
13.84839156 17.63194357 0
13.56987559 9.580770403 4.727115684
13.99754809 12.61400414 3.832839628
10.53253778 17.34553637 4.955520288
13.11927375 15.50104629 3.874960645
11.31647539 17.76836798 3.68989163
12.79408771 16.993755 3.170341575
14.95341965 15.13158043 -1.719675081
14.95341965 15.13158043 1.719675081
14.6225372 16.58073899 -0.8992364303
14.6225372 16.58073899 0.8992364303
11.83806405 0.9053255206 6.970522363
12.25747467 2.77483788 6.515642208
13.11184823 7.009262275 5.426267911
12.67658072 4.779999459 6.00876042
7.314738321 15.02193224 9.2840647
9.5293236 13.22799673 8.175351584
8.113526662 15.67692618 8.338764714
12.7096219 9.233850749 5.70683361
11.27171356 11.22644782 6.938326326
12.89204485 10.62779997 5.354986349
9.711047283 16.82671528 6.195018796
10.35756917 13.80790446 7.238510137
8.916072676 16.28179594 7.301328591
11.02514884 15.98048034 5.669623694
9.312630434 14.79660783 7.819621084
13.15668969 13.77630855 4.479368492
11.31214247 12.73443943 6.606060998
13.05508256 12.15511036 4.949664443
12.17693614 14.93769233 5.086223214
12.13858264 11.68416165 5.984096486
11.24833423 14.36343882 6.20798912
14.22676219 8.792622581 -4.015212092
15.82066895 9.777711138 -1.463718882
14.49992395 10.21254619 -3.568872782
14.22676219 8.792622581 4.015212092
15.82066895 9.777711138 1.463718882
14.49992395 10.21254619 3.568872782
14.94795889 13.40955248 -2.451773267
15.98026362 11.22902514 -0.7950848097
14.75830965 11.76808836 -3.051947633
15.62060491 14.02400954 -0.8546120035
15.38407689 10.81851267 -2.255574146
14.94795889 13.40955248 2.451773267
15.98026362 11.22902514 0.7950848097
14.75830965 11.76808836 3.051947633
15.62060491 14.02400954 0.8546120035
15.38407689 10.81851267 2.255574146
15.95416801 12.68309545 0
10.24196124 -14.66691495 0.7276171577
11.43465579 -12.97567045 2.11074084
9.871331915 -14.79485602 1.904902576
10.97161074 -13.96919062 0
12.40171253 -8.756009553 4.320181817
12.12062931 -10.92260355 3.318897571
8.933303077 -14.71183268 4.203086244
10.99453209 -12.99056291 3.247388535
9.430049472 -14.80642897 3.074796649
10.5022723 -13.94964975 2.602435692
12.08608935 -12.23008767 -1.389925995
12.08608935 -12.23008767 1.389925995
11.59400993 -13.14664138 -0.7129922777
11.59400993 -13.14664138 0.7129922777
11.78751545 -0.9014597759 6.940758197
12.07608944 -2.733776027 6.419224199
12.42608899 -6.642672734 5.142470133
12.29835756 -4.637381625 5.829480818
6.505490866 -13.360019 8.256945833
8.607486984 -11.94836218 7.384493937
7.152053735 -13.81917175 7.350600522
11.82141932 -8.588549877 5.308015738
10.37579965 -10.33413178 6.386844685
11.7498509 -9.686210885 4.880551684
8.367837498 -14.49928262 5.338138006
9.251309763 -12.33312559 6.465387623
7.778808239 -14.2050175 6.37002827
9.474706077 -13.73318006 4.872316815
8.248540638 -13.10590191 6.926127128
11.3640072 -11.89919906 3.8690261
10.19356618 -11.47522243 5.952835208
11.6039363 -10.8040011 4.399481248
10.48143054 -12.85778152 4.378022081
11.012655 -10.60038434 5.42903501
9.891791896 -12.63121675 5.459309372
12.97092419 -8.016472017 -3.660777553
13.67703742 -8.452873991 -1.265391367
12.8873751 -9.076800266 -3.171975412
12.97092419 -8.016472017 3.660777553
13.67703742 -8.452873991 1.265391367
12.8873751 -9.076800266 3.171975412
12.47253257 -11.18889082 -2.045752344
13.44044691 -9.444344587 -0.6687183282
12.72602416 -10.14756977 -2.631680745
12.65195791 -11.35879049 -0.6921956712
13.24779341 -9.316218443 -1.942357707
12.47253257 -11.18889082 2.045752344
13.44044691 -9.444344587 0.6687183282
12.72602416 -10.14756977 2.631680745
12.65195791 -11.35879049 0.6921956712
13.24779341 -9.316218443 1.942357707
13.10515415 -10.41821303 0
1.014786687 -7.81331481 13.26938159
2.921335912 -6.859636632 12.90461011
1.659688624 -8.600616901 12.89034649
0.9964043899 -6.742395311 13.51804534
6.209217581 -4.806907887 11.61524785
4.652450513 -5.84842336 12.33832032
2.983144622 -10.09989378 11.93350517
3.559637834 -7.565708094 12.45960544
2.321030643 -9.366646756 12.4412544
2.637272372 -8.088212582 12.699567
0.9704155925 -4.654674558 13.90326547
2.881215011 -5.828824548 13.14950677
0.9826955309 -5.6845788 13.72917081
1.963263941 -6.293887347 13.36374976
11.09399592 -0.5503667136 7.746978601
10.01028341 -1.628363951 8.821443604
11.2554456 -1.449187967 7.509788487
7.603508261 -3.751542062 10.76934911
8.859327224 -2.691958879 9.831046305
11.53244001 -3.294751987 7.002715709
10.15498555 -2.538549245 8.594647923
11.40210178 -2.367832543 7.261871457
10.70999765 -1.998048744 8.063235548
5.715289199 -12.72845324 9.24753218
6.255461805 -10.16236054 10.12154982
5.042044328 -12.13864189 10.00671806
6.815383144 -12.09199221 8.830868462
6.840314005 -5.389353543 11.06786055
6.606605533 -7.70076753 10.6897123
6.097994033 -5.933281351 11.46426426
3.686734023 -10.82858344 11.33855934
5.587356144 -9.567724059 10.770692
4.35999084 -11.49977762 10.70702276
3.976397413 -9.519900195 11.67825292
5.342688415 -10.8375032 10.43178953
8.790479194 -10.65535395 7.899736229
7.240386448 -9.520887831 9.660358882
7.847954166 -11.39440086 8.377860795
7.056086779 -10.79139361 9.293245345
4.476308987 -7.016871079 12.15840973
5.795188964 -8.29232389 11.05468032
5.305641543 -6.47902433 11.83145942
4.238997313 -8.243153129 11.94809689
5.960612587 -7.098679282 11.27891568
4.919333457 -8.913402689 11.38187323
0.9562065334 -0.5909681379 14.28289477
2.814660636 -1.73955594 13.78227727
0.9576214143 -1.584590197 14.2352241
6.159555122 -3.806814421 11.81622391
4.550394321 -2.812298352 12.91437518
5.415080047 -4.317113171 12.20408702
0.9674499634 -3.594510133 14.04871538
2.822058059 -2.728755807 13.67633732
0.9607075829 -2.590507164 14.15699809
1.923809251 -4.207359026 13.7544729
1.905969759 -2.167608092 14.00876028
3.79169498 -5.319827588 12.87293958
3.736707494 -3.288332501 13.24144399
4.621722429 -4.825808319 12.55981938
2.871279776 -4.784915861 13.35411016
4.588222287 -3.809717495 12.75172805
2.852221007 -3.74696935 13.5299353
11.8350792 -7.314481205 5.762940878
10.51376848 -6.497866269 7.574019264
11.80144202 -6.277343348 6.107786269
11.19144317 -8.173191049 6.307808654
7.671353863 -4.741157427 10.55897585
9.117590931 -5.634981091 9.154353627
8.329595843 -4.19699958 10.10421004
7.59770329 -5.863665522 10.40343534
11.64520593 -4.287364969 6.720690495
10.46237464 -5.484684884 7.848024245
11.7360562 -5.262859395 6.426780586
10.96731833 -3.891032468 7.566500777
11.13955761 -5.886965483 7.010970651
9.693641966 -9.835643685 7.371761454
9.82053996 -7.280816356 8.101772368
10.475157 -9.020911247 6.849311541
8.941159015 -9.333343083 8.306591862
10.51523165 -7.731441791 7.242421698
9.558128523 -3.107826714 9.128231302
9.748304293 -5.056986856 8.659525822
8.960516897 -3.648798781 9.623959338
10.26778352 -3.496138342 8.370111091
9.047063269 -4.633494566 9.398922096
10.37097981 -4.482417522 8.121749163
7.391604811 -8.225052889 9.969974088
9.072926938 -6.8001094 8.941936912
7.505664941 -7.030925421 10.20816139
8.166506378 -8.790371951 9.17594208
8.345981662 -6.336857435 9.69142316
9.030565817 -8.037122804 8.651104352
1.032705067 7.951276753 13.50368287
3.039122672 7.136213649 13.42491734
1.711555723 8.869395658 13.29318402
1.011390266 6.843800625 13.72135612
6.411732488 4.963686176 11.99408155
4.849879383 6.096603886 12.8619026
3.166360068 10.72019778 12.66642387
3.740507026 7.95013021 13.09269197
2.428285681 9.799480359 13.01616591
2.754045337 8.446341904 13.26187755
0.9803052792 4.702111216 14.04495624
2.978353569 6.025340118 13.59283506
0.9950386833 5.755979981 13.90161613
2.015748036 6.462142351 13.72100398
11.11933628 0.5516238341 7.764673868
10.07569475 1.639004356 8.879086569
11.32624211 1.458303328 7.557024891
10.58822031 0 8.31614621
7.76363227 3.830546639 10.99614328
8.968069064 2.72500073 9.951715295
11.72099154 3.348620079 7.117207766
10.26156533 2.565192121 8.684851468
11.52656558 2.393679482 7.341141061
10.79853547 2.014566289 8.12989301
9.4879402 -1.078286198 9.376228214
9.529735632 1.083036168 9.417531542
10.04252385 -0.5446441983 8.856491775
10.06399361 0.5458085851 8.875425939
6.360588814 14.16559241 10.29164889
6.77412365 11.00495679 10.96076231
5.558433495 13.38184063 11.03157235
7.549116079 13.3937962 9.781585231
7.079763311 5.578011106 11.45529767
6.97402446 8.129037044 11.28420861
6.352893779 6.18129601 11.94347727
3.970004746 11.66059916 12.20975913
6.016866199 10.30321211 11.59865435
4.753947371 12.53886524 11.67447928
4.252890084 10.1818518 12.49028226
5.824585316 11.81501841 11.37271041
9.530919785 11.55287687 8.565147663
7.76413037 10.20959515 10.35915504
8.605370718 12.49408973 9.186419344
7.684675519 11.7527407 10.12113048
4.706912329 7.378355045 12.78476728
6.16436687 8.820579792 11.75890994
5.559506003 6.789032837 12.39757136
4.496439837 8.743775798 12.67372797
6.271560577 7.468996933 11.86730423
5.260986537 9.532448238 12.17235675
0.9574275524 0.5917227692 14.30113318
2.841851133 1.756360591 13.91541835
0.9609104017 1.590032533 14.28411552
1.905301206 0 14.14164103
6.315882957 3.903430336 12.11611646
4.639262511 2.867221915 13.16659006
5.579945829 4.448550607 12.57564872
0.9750578674 3.622776906 14.1591927
2.865167013 2.770439503 13.88525316
0.9661204227 2.605102656 14.23676176
1.957490296 4.281019263 13.995279
1.922930243 2.186896794 14.1334188
3.726496269 -1.143850442 13.48259016
3.754056588 1.1523101 13.58230433
2.837136465 -0.584098196 13.86019496
2.846316184 0.5859880796 13.90504043
3.928192648 5.51133668 13.33635403
3.817708005 3.359613599 13.52847842
4.780880723 4.991994721 12.99234199
2.950068002 4.916214467 13.72054838
4.711155335 3.911791927 13.09338735
2.912855578 3.826625127 13.81756442
12.48500829 7.716159476 6.079415562
10.88944974 6.730050055 7.844656485
12.29563358 6.540210388 6.363553018
11.84873062 8.653212785 6.678274148
7.880591474 4.870473383 10.84697389
9.381638192 5.798171273 9.419465543
8.510183959 4.28799178 10.32327232
7.868547639 6.072694569 10.77429895
11.91607526 4.387089753 6.877014814
10.75019255 5.63556751 8.063921882
12.10553106 5.428544883 6.629108674
11.16710584 3.961913941 7.704336873
11.50728933 6.081302101 7.242412185
10.40010752 10.55245822 7.90901005
10.22992314 7.584327545 8.439506276
11.15165745 9.603494457 7.291649769
9.521842347 9.939496799 8.846063248
11.02063832 8.103047699 7.590523225
9.68661021 3.149602552 9.250934252
9.984409333 5.179467653 8.869260522
9.113335449 3.711027797 9.788092673
10.42348892 3.549155396 8.497039315
9.251022513 4.73795322 9.610813732
10.5861456 4.575413835 8.290250362
7.816135771 8.697452279 10.54259164
9.418123376 7.058832253 9.28214959
7.84811212 7.351712533 10.6739104
8.658866422 9.320344956 9.729161173
8.649825455 6.567557056 10.04424909
9.479697432 8.436845924 9.081363601
6.993495061 -3.19362803 11.31571271
7.086145098 -1.060792677 11.46562362
7.654072985 -2.674789639 10.86736589
6.233005771 -2.71991035 11.91731357
7.127711073 3.254918703 11.53287878
7.129304569 1.06725363 11.53545711
7.764972426 2.713544519 11.02482256
6.343156643 2.767977127 12.12791862
8.886021913 -1.624700825 9.905467796
7.724027563 -0.5469091848 10.9922273
8.287440091 -2.149272881 10.39324343
8.924455341 -0.5438492208 9.940480329
7.694096159 -1.604158067 10.94111275
4.621365713 -1.707593233 13.00341458
6.325971355 -0.5627959912 12.05688275
5.438837141 -2.221789078 12.48622032
4.643795847 -0.5740047341 13.08637453
6.288136473 -1.633909537 11.99752436
8.949778149 1.636357876 9.976538444
7.745977496 0.5484633765 11.02346471
8.37410297 2.171748118 10.50192698
8.945448825 0.5451285471 9.963863865
7.759241818 1.617740421 11.0337508
8.341377074 0 10.49268546
4.6756531 1.727652406 13.15616626
6.348350718 0.5647869923 12.09953633
5.521448089 2.255536016 12.67587455
4.661963362 0.5762503624 13.13757121
6.353582577 1.650915054 12.12239303
5.523127322 0 12.61869261
12.25150768 0 -6.446591781
13.48058694 0 -4.859535745
12.47435666 0.9194749258 -6.22183472
12.41034309 -0.9147565369 -6.189906676
15.32326988 0 -1.062016752
14.59020351 0 -3.073056494
12.92305201 2.831596052 -5.728443212
13.72693781 0.9581083319 -4.595641817
12.69922641 1.865639041 -5.980918669
13.11011678 0.9383853803 -5.428258775
12.68814185 -2.780124411 -5.624313823
13.61576172 -0.9503485 -4.558421174
12.55790886 -1.844878128 -5.914362743
13.02613503 -0.9323742026 -5.393486038
12.25150768 0 6.446591781
13.48058694 0 4.859535745
12.47435666 0.9194749258 6.22183472
12.41034309 -0.9147565369 6.189906676
15.32326988 0 1.062016752
14.59020351 0 3.073056494
12.92305201 2.831596052 5.728443212
13.72693781 0.9581083319 4.595641817
12.69922641 1.865639041 5.980918669
13.11011678 0.9383853803 5.428258775
12.68814185 -2.780124411 5.624313823
13.61576172 -0.9503485 4.558421174
12.55790886 -1.844878128 5.914362743
13.02613503 -0.9323742026 5.393486038
13.9073258 7.249603642 -4.480501455
14.8298636 5.225318775 -3.229424605
13.65040639 6.056826958 -4.828738856
14.75585048 7.717620309 -3.36775484
15.51495864 1.038690339 -0.6419459335
15.38576418 3.142129849 -1.941943043
15.27615919 1.027646426 -1.700461611
13.16601612 3.878020006 -5.440943411
14.54475736 4.104499771 -3.611992648
13.40194605 4.931605526 -5.149375225
13.60333366 2.924865554 -4.874215218
14.13311223 5.085260622 -4.222421047
16.03247763 8.411875304 -0.7483703978
15.49827097 5.508028498 -2.035214863
15.53283862 8.141063617 -2.115374172
15.18800476 6.61569973 -2.702542661
14.33912325 0.9874485947 -3.66881401
14.88799778 3.072079397 -2.970510996
14.86179487 1.008535774 -2.719473848
13.99918953 1.958037253 -4.282215455
15.12964137 2.058471865 -2.341044632
14.27334567 3.008937991 -3.952848816
12.99405249 -6.773533001 -4.186273619
13.94769002 -4.914483944 -3.037318114
12.96452691 -5.752495113 -4.586113632
13.4878903 -7.054450449 -3.078365959
15.2567149 -1.021401523 -0.6312608572
14.70899956 -3.003918819 -1.85652393
15.04485102 -1.012086034 -1.674713603
12.80937143 -3.772971127 -5.293557631
13.91237981 -3.926044164 -3.454950286
12.89976379 -4.746814092 -4.956423776
13.28762 -2.856983663 -4.761091746
13.46059399 -4.843280619 -4.021498905
14.0616099 -7.377805964 -0.6563734465
14.33939639 -5.096168737 -1.883032807
13.86059545 -7.264608362 -1.887636017
13.94622102 -6.074794686 -2.481580553
14.1900364 -0.9771818859 -3.630668586
14.33927807 -2.958853257 -2.861028313
14.67125806 -0.9956057618 -2.68460862
13.74900773 -1.92304485 -4.205687285
14.71248886 -2.001715946 -2.276497653
13.85024954 -2.919745867 -3.835676915
13.9073258 7.249603642 4.480501455
14.8298636 5.225318775 3.229424605
13.65040639 6.056826958 4.828738856
14.75585048 7.717620309 3.36775484
15.51495864 1.038690339 0.6419459335
15.38576418 3.142129849 1.941943043
15.27615919 1.027646426 1.700461611
15.67466218 2.111844919 0
13.16601612 3.878020006 5.440943411
14.54475736 4.104499771 3.611992648
13.40194605 4.931605526 5.149375225
13.60333366 2.924865554 4.874215218
14.13311223 5.085260622 4.222421047
16.03247763 8.411875304 0.7483703978
15.49827097 5.508028498 2.035214863
15.53283862 8.141063617 2.115374172
16.05949651 7.02914689 0
15.18800476 6.61569973 2.702542661
14.33912325 0.9874485947 3.66881401
14.88799778 3.072079397 2.970510996
14.86179487 1.008535774 2.719473848
13.99918953 1.958037253 4.282215455
15.12964137 2.058471865 2.341044632
14.27334567 3.008937991 3.952848816
15.68749447 4.335916831 -1.330912478
15.68749447 4.335916831 1.330912478
15.73875062 3.221670648 -0.6632645404
15.9239516 5.650730852 -0.6984687456
15.73875062 3.221670648 0.6632645404
15.9239516 5.650730852 0.6984687456
12.99405249 -6.773533001 4.186273619
13.94769002 -4.914483944 3.037318114
12.96452691 -5.752495113 4.586113632
13.4878903 -7.054450449 3.078365959
15.2567149 -1.021401523 0.6312608572
14.70899956 -3.003918819 1.85652393
15.04485102 -1.012086034 1.674713603
15.14505391 -2.040490875 0
12.80937143 -3.772971127 5.293557631
13.91237981 -3.926044164 3.454950286
12.89976379 -4.746814092 4.956423776
13.28762 -2.856983663 4.761091746
13.46059399 -4.843280619 4.021498905
14.0616099 -7.377805964 0.6563734465
14.33939639 -5.096168737 1.883032807
13.86059545 -7.264608362 1.887636017
14.35968965 -6.285151457 0
13.94622102 -6.074794686 2.481580553
14.1900364 -0.9771818859 3.630668586
14.33927807 -2.958853257 2.861028313
14.67125806 -0.9956057618 2.68460862
13.74900773 -1.92304485 4.205687285
14.71248886 -2.001715946 2.276497653
13.85024954 -2.919745867 3.835676915
14.68650795 -4.059250962 -1.245989711
14.68650795 -4.059250962 1.245989711
14.95084965 -3.060389904 -0.6300607123
14.56726204 -5.169299623 -0.6389605731
14.95084965 -3.060389904 0.6300607123
14.56726204 -5.169299623 0.6389605731
-10.24196124 14.66691495 -0.7276171577
-11.43465579 12.97567045 -2.11074084
-9.871331915 14.79485602 -1.904902576
-12.40171253 8.756009553 -4.320181817
-12.12062931 10.92260355 -3.318897571
-8.933303077 14.71183268 -4.203086244
-10.99453209 12.99056291 -3.247388535
-9.430049472 14.80642897 -3.074796649
-10.5022723 13.94964975 -2.602435692
-11.78751545 0.9014597759 -6.940758197
-12.07608944 2.733776027 -6.419224199
-12.42608899 6.642672734 -5.142470133
-12.29835756 4.637381625 -5.829480818
-6.505490866 13.360019 -8.256945833
-8.607486984 11.94836218 -7.384493937
-7.152053735 13.81917175 -7.350600522
-11.82141932 8.588549877 -5.308015738
-10.37579965 10.33413178 -6.386844685
-11.7498509 9.686210885 -4.880551684
-8.367837498 14.49928262 -5.338138006
-9.251309763 12.33312559 -6.465387623
-7.778808239 14.2050175 -6.37002827
-9.474706077 13.73318006 -4.872316815
-8.248540638 13.10590191 -6.926127128
-11.3640072 11.89919906 -3.8690261
-10.19356618 11.47522243 -5.952835208
-11.6039363 10.8040011 -4.399481248
-10.48143054 12.85778152 -4.378022081
-11.012655 10.60038434 -5.42903501
-9.891791896 12.63121675 -5.459309372
-12.73035698 -18.23040126 -0.90439965
-14.03148859 -15.92247071 -2.590094232
-12.07230877 -18.09361407 -2.329632137
-13.56987559 -9.580770403 -4.727115684
-13.99754809 -12.61400414 -3.832839628
-10.53253778 -17.34553637 -4.955520288
-13.11927375 -15.50104629 -3.874960645
-11.31647539 -17.76836798 -3.68989163
-12.79408771 -16.993755 -3.170341575
-11.83806405 -0.9053255206 -6.970522363
-12.25747467 -2.77483788 -6.515642208
-13.11184823 -7.009262275 -5.426267911
-12.67658072 -4.779999459 -6.00876042
-7.314738321 -15.02193224 -9.2840647
-9.5293236 -13.22799673 -8.175351584
-8.113526662 -15.67692618 -8.338764714
-12.7096219 -9.233850749 -5.70683361
-11.27171356 -11.22644782 -6.938326326
-12.89204485 -10.62779997 -5.354986349
-9.711047283 -16.82671528 -6.195018796
-10.35756917 -13.80790446 -7.238510137
-8.916072676 -16.28179594 -7.301328591
-11.02514884 -15.98048034 -5.669623694
-9.312630434 -14.79660783 -7.819621084
-13.15668969 -13.77630855 -4.479368492
-11.31214247 -12.73443943 -6.606060998
-13.05508256 -12.15511036 -4.949664443
-12.17693614 -14.93769233 -5.086223214
-12.13858264 -11.68416165 -5.984096486
-11.24833423 -14.36343882 -6.20798912
-1.032705067 -7.951276753 -13.50368287
-3.039122672 -7.136213649 -13.42491734
-1.711555723 -8.869395658 -13.29318402
-1.011390266 -6.843800625 -13.72135612
-6.411732488 -4.963686176 -11.99408155
-4.849879383 -6.096603886 -12.8619026
-3.166360068 -10.72019778 -12.66642387
-3.740507026 -7.95013021 -13.09269197
-2.428285681 -9.799480359 -13.01616591
-2.754045337 -8.446341904 -13.26187755
-0.9803052792 -4.702111216 -14.04495624
-2.978353569 -6.025340118 -13.59283506
-0.9950386833 -5.755979981 -13.90161613
-2.015748036 -6.462142351 -13.72100398
-11.11933628 -0.5516238341 -7.764673868
-10.07569475 -1.639004356 -8.879086569
-11.32624211 -1.458303328 -7.557024891
-7.76363227 -3.830546639 -10.99614328
-8.968069064 -2.72500073 -9.951715295
-11.72099154 -3.348620079 -7.117207766
-10.26156533 -2.565192121 -8.684851468
-11.52656558 -2.393679482 -7.341141061
-10.79853547 -2.014566289 -8.12989301
-6.360588814 -14.16559241 -10.29164889
-6.77412365 -11.00495679 -10.96076231
-5.558433495 -13.38184063 -11.03157235
-7.549116079 -13.3937962 -9.781585231
-7.079763311 -5.578011106 -11.45529767
-6.97402446 -8.129037044 -11.28420861
-6.352893779 -6.18129601 -11.94347727
-3.970004746 -11.66059916 -12.20975913
-6.016866199 -10.30321211 -11.59865435
-4.753947371 -12.53886524 -11.67447928
-4.252890084 -10.1818518 -12.49028226
-5.824585316 -11.81501841 -11.37271041
-9.530919785 -11.55287687 -8.565147663
-7.76413037 -10.20959515 -10.35915504
-8.605370718 -12.49408973 -9.186419344
-7.684675519 -11.7527407 -10.12113048
-4.706912329 -7.378355045 -12.78476728
-6.16436687 -8.820579792 -11.75890994
-5.559506003 -6.789032837 -12.39757136
-4.496439837 -8.743775798 -12.67372797
-6.271560577 -7.468996933 -11.86730423
-5.260986537 -9.532448238 -12.17235675
-0.9574275524 -0.5917227692 -14.30113318
-2.841851133 -1.756360591 -13.91541835
-0.9609104017 -1.590032533 -14.28411552
-6.315882957 -3.903430336 -12.11611646
-4.639262511 -2.867221915 -13.16659006
-5.579945829 -4.448550607 -12.57564872
-0.9750578674 -3.622776906 -14.1591927
-2.865167013 -2.770439503 -13.88525316
-0.9661204227 -2.605102656 -14.23676176
-1.957490296 -4.281019263 -13.995279
-1.922930243 -2.186896794 -14.1334188
-3.928192648 -5.51133668 -13.33635403
-3.817708005 -3.359613599 -13.52847842
-4.780880723 -4.991994721 -12.99234199
-2.950068002 -4.916214467 -13.72054838
-4.711155335 -3.911791927 -13.09338735
-2.912855578 -3.826625127 -13.81756442
-12.48500829 -7.716159476 -6.079415562
-10.88944974 -6.730050055 -7.844656485
-12.29563358 -6.540210388 -6.363553018
-11.84873062 -8.653212785 -6.678274148
-7.880591474 -4.870473383 -10.84697389
-9.381638192 -5.798171273 -9.419465543
-8.510183959 -4.28799178 -10.32327232
-7.868547639 -6.072694569 -10.77429895
-11.91607526 -4.387089753 -6.877014814
-10.75019255 -5.63556751 -8.063921882
-12.10553106 -5.428544883 -6.629108674
-11.16710584 -3.961913941 -7.704336873
-11.50728933 -6.081302101 -7.242412185
-10.40010752 -10.55245822 -7.90901005
-10.22992314 -7.584327545 -8.439506276
-11.15165745 -9.603494457 -7.291649769
-9.521842347 -9.939496799 -8.846063248
-11.02063832 -8.103047699 -7.590523225
-9.68661021 -3.149602552 -9.250934252
-9.984409333 -5.179467653 -8.869260522
-9.113335449 -3.711027797 -9.788092673
-10.42348892 -3.549155396 -8.497039315
-9.251022513 -4.73795322 -9.610813732
-10.5861456 -4.575413835 -8.290250362
-7.816135771 -8.697452279 -10.54259164
-9.418123376 -7.058832253 -9.28214959
-7.84811212 -7.351712533 -10.6739104
-8.658866422 -9.320344956 -9.729161173
-8.649825455 -6.567557056 -10.04424909
-9.479697432 -8.436845924 -9.081363601
-1.014786687 7.81331481 -13.26938159
-2.921335912 6.859636632 -12.90461011
-1.659688624 8.600616901 -12.89034649
-0.9964043899 6.742395311 -13.51804534
-6.209217581 4.806907887 -11.61524785
-4.652450513 5.84842336 -12.33832032
-2.983144622 10.09989378 -11.93350517
-3.559637834 7.565708094 -12.45960544
-2.321030643 9.366646756 -12.4412544
-2.637272372 8.088212582 -12.699567
-0.9704155925 4.654674558 -13.90326547
-2.881215011 5.828824548 -13.14950677
-0.9826955309 5.6845788 -13.72917081
-1.963263941 6.293887347 -13.36374976
-11.09399592 0.5503667136 -7.746978601
-10.01028341 1.628363951 -8.821443604
-11.2554456 1.449187967 -7.509788487
-10.58822031 0 -8.31614621
-7.603508261 3.751542062 -10.76934911
-8.859327224 2.691958879 -9.831046305
-11.53244001 3.294751987 -7.002715709
-10.15498555 2.538549245 -8.594647923
-11.40210178 2.367832543 -7.261871457
-10.70999765 1.998048744 -8.063235548
-9.529735632 -1.083036168 -9.417531542
-9.4879402 1.078286198 -9.376228214
-10.06399361 -0.5458085851 -8.875425939
-10.04252385 0.5446441983 -8.856491775
-5.715289199 12.72845324 -9.24753218
-6.255461805 10.16236054 -10.12154982
-5.042044328 12.13864189 -10.00671806
-6.815383144 12.09199221 -8.830868462
-6.840314005 5.389353543 -11.06786055
-6.606605533 7.70076753 -10.6897123
-6.097994033 5.933281351 -11.46426426
-3.686734023 10.82858344 -11.33855934
-5.587356144 9.567724059 -10.770692
-4.35999084 11.49977762 -10.70702276
-3.976397413 9.519900195 -11.67825292
-5.342688415 10.8375032 -10.43178953
-8.790479194 10.65535395 -7.899736229
-7.240386448 9.520887831 -9.660358882
-7.847954166 11.39440086 -8.377860795
-7.056086779 10.79139361 -9.293245345
-4.476308987 7.016871079 -12.15840973
-5.795188964 8.29232389 -11.05468032
-5.305641543 6.47902433 -11.83145942
-4.238997313 8.243153129 -11.94809689
-5.960612587 7.098679282 -11.27891568
-4.919333457 8.913402689 -11.38187323
-0.9562065334 0.5909681379 -14.28289477
-2.814660636 1.73955594 -13.78227727
-0.9576214143 1.584590197 -14.2352241
-1.905301206 0 -14.14164103
-6.159555122 3.806814421 -11.81622391
-4.550394321 2.812298352 -12.91437518
-5.415080047 4.317113171 -12.20408702
-0.9674499634 3.594510133 -14.04871538
-2.822058059 2.728755807 -13.67633732
-0.9607075829 2.590507164 -14.15699809
-1.923809251 4.207359026 -13.7544729
-1.905969759 2.167608092 -14.00876028
-3.754056588 -1.1523101 -13.58230433
-3.726496269 1.143850442 -13.48259016
-2.846316184 -0.5859880796 -13.90504043
-2.837136465 0.584098196 -13.86019496
-3.79169498 5.319827588 -12.87293958
-3.736707494 3.288332501 -13.24144399
-4.621722429 4.825808319 -12.55981938
-2.871279776 4.784915861 -13.35411016
-4.588222287 3.809717495 -12.75172805
-2.852221007 3.74696935 -13.5299353
-11.8350792 7.314481205 -5.762940878
-10.51376848 6.497866269 -7.574019264
-11.80144202 6.277343348 -6.107786269
-11.19144317 8.173191049 -6.307808654
-7.671353863 4.741157427 -10.55897585
-9.117590931 5.634981091 -9.154353627
-8.329595843 4.19699958 -10.10421004
-7.59770329 5.863665522 -10.40343534
-11.64520593 4.287364969 -6.720690495
-10.46237464 5.484684884 -7.848024245
-11.7360562 5.262859395 -6.426780586
-10.96731833 3.891032468 -7.566500777
-11.13955761 5.886965483 -7.010970651
-9.693641966 9.835643685 -7.371761454
-9.82053996 7.280816356 -8.101772368
-10.475157 9.020911247 -6.849311541
-8.941159015 9.333343083 -8.306591862
-10.51523165 7.731441791 -7.242421698
-9.558128523 3.107826714 -9.128231302
-9.748304293 5.056986856 -8.659525822
-8.960516897 3.648798781 -9.623959338
-10.26778352 3.496138342 -8.370111091
-9.047063269 4.633494566 -9.398922096
-10.37097981 4.482417522 -8.121749163
-7.391604811 8.225052889 -9.969974088
-9.072926938 6.8001094 -8.941936912
-7.505664941 7.030925421 -10.20816139
-8.166506378 8.790371951 -9.17594208
-8.345981662 6.336857435 -9.69142316
-9.030565817 8.037122804 -8.651104352
-7.127711073 -3.254918703 -11.53287878
-7.129304569 -1.06725363 -11.53545711
-7.764972426 -2.713544519 -11.02482256
-6.343156643 -2.767977127 -12.12791862
-6.993495061 3.19362803 -11.31571271
-7.086145098 1.060792677 -11.46562362
-7.654072985 2.674789639 -10.86736589
-6.233005771 2.71991035 -11.91731357
-8.949778149 -1.636357876 -9.976538444
