0.000000 -12.600527 0.000000
-4.162623 -10.897888 6.735265
3.320624 -8.693507 5.372883
-3.320624 8.693507 5.372883
4.162623 10.897888 6.735265
0.000000 0.000000 10.288287
-4.162623 -10.897888 -6.735265
3.320624 -8.693507 -5.372883
-3.320624 8.693507 -5.372883
4.162623 10.897888 -6.735265
0.000000 0.000000 -10.288287
12.710445 7.855487 -4.854958
8.459117 -5.228022 -3.231095
5.175704 -3.198761 -8.374464
5.817773 3.595582 -9.413355
12.710445 7.855487 4.854958
8.459117 -5.228022 3.231095
5.175704 -3.198761 8.374464
5.817773 3.595582 9.413355
12.600527 0.000000 0.000000
-8.459117 5.228022 -3.231095
-12.710445 -7.855487 -4.854958
-5.817773 -3.595582 -9.413355
-5.175704 3.198761 -8.374464
-8.459117 5.228022 3.231095
-12.710445 -7.855487 4.854958
-5.817773 -3.595582 9.413355
-5.175704 3.198761 8.374464
-12.600527 0.000000 0.000000
-3.064055 10.785925 0.000000
4.010530 14.117656 0.000000
-4.010530 -14.117656 0.000000
3.064055 -10.785925 0.000000
-6.732392 -13.385517 4.032589
-1.899749 -8.205654 8.303420
-2.182144 -12.774493 3.530783
4.607382 -9.160516 2.759744
1.736859 -7.502077 7.591460
1.877298 -10.989896 3.037533
0.000000 -10.046884 6.209316
-4.607382 9.160516 2.759744
-1.736859 7.502077 7.591460
-1.877298 10.989896 3.037533
6.732392 13.385517 4.032589
1.899749 8.205654 8.303420
2.182144 12.774493 3.530783
0.000000 10.046884 6.209316
0.000000 -2.847102 10.022218
0.000000 2.847102 10.022218
-6.732392 -13.385517 -4.032589
-1.899749 -8.205654 -8.303420
-2.182144 -12.774493 -3.530783
4.607382 -9.160516 -2.759744
1.736859 -7.502077 -7.591460
1.877298 -10.989896 -3.037533
0.000000 -10.046884 -6.209316
-4.607382 9.160516 -2.759744
-1.736859 7.502077 -7.591460
-1.877298 10.989896 -3.037533
6.732392 13.385517 -4.032589
1.899749 8.205654 -8.303420
2.182144 12.774493 -3.530783
0.000000 10.046884 -6.209316
0.000000 -2.847102 -10.022218
0.000000 2.847102 -10.022218
12.055539 12.199173 -2.791063
11.654422 3.511071 -5.861719
8.942596 10.470173 -6.470923
7.137894 -7.222938 -1.652545
9.467178 -2.852130 -4.761621
6.057490 -7.092233 -4.383241
2.687437 -4.486667 -8.920507
7.603905 -1.739707 -7.514376
4.395247 -6.074082 -7.111659
2.708992 -1.674249 -9.801225
7.163282 -4.427152 -6.118173
2.918172 4.871878 -9.686394
8.329501 1.905716 -8.231428
5.395041 7.455763 -8.729359
2.789859 1.724228 -10.093805
9.243710 5.712927 -7.895071
5.676690 0.000000 -9.185078
12.055539 12.199173 2.791063
11.654422 3.511071 5.861719
8.942596 10.470173 6.470923
14.416551 8.909918 0.000000
7.137894 -7.222938 1.652545
9.467178 -2.852130 4.761621
6.057490 -7.092233 4.383241
8.909918 -5.506632 0.000000
2.687437 -4.486667 8.920507
7.603905 -1.739707 7.514376
4.395247 -6.074082 7.111659
2.708992 -1.674249 9.801225
7.163282 -4.427152 6.118173
2.918172 4.871878 9.686394
8.329501 1.905716 8.231428
5.395041 7.455763 8.729359
2.789859 1.724228 10.093805
9.243710 5.712927 7.895071
5.676690 0.000000 9.185078
11.900795 0.000000 -3.380766
11.900795 0.000000 3.380766
13.717559 3.791440 -2.343239
10.662513 -2.947046 -1.821375
13.717559 3.791440 2.343239
10.662513 -2.947046 1.821375
-7.137894 7.222938 -1.652545
-9.467178 2.852130 -4.761621
-6.057490 7.092233 -4.383241
-12.055539 -12.199173 -2.791063
-11.654422 -3.511071 -5.861719
-8.942596 -10.470173 -6.470923
-2.918172 -4.871878 -9.686394
-8.329501 -1.905716 -8.231428
-5.395041 -7.455763 -8.729359
-2.789859 -1.724228 -10.093805
-9.243710 -5.712927 -7.895071
-2.687437 4.486667 -8.920507
-7.603905 1.739707 -7.514376
-4.395247 6.074082 -7.111659
-2.708992 1.674249 -9.801225
-7.163282 4.427152 -6.118173
-5.676690 0.000000 -9.185078
-7.137894 7.222938 1.652545
-9.467178 2.852130 4.761621
-6.057490 7.092233 4.383241
-8.909918 5.506632 0.000000
-12.055539 -12.199173 2.791063
-11.654422 -3.511071 5.861719
-8.942596 -10.470173 6.470923
-14.416551 -8.909918 0.000000
-2.918172 -4.871878 9.686394
-8.329501 -1.905716 8.231428
-5.395041 -7.455763 8.729359
-2.789859 -1.724228 10.093805
-9.243710 -5.712927 7.895071
-2.687437 4.486667 8.920507
-7.603905 1.739707 7.514376
-4.395247 6.074082 7.111659
-2.708992 1.674249 9.801225
-7.163282 4.427152 6.118173
-5.676690 0.000000 9.185078
-11.900795 0.000000 -3.380766
-11.900795 0.000000 3.380766
-10.662513 2.947046 -1.821375
-13.717559 -3.791440 -2.343239
-10.662513 2.947046 1.821375
-13.717559 -3.791440 2.343239
-4.343711 9.854051 0.000000
-1.630449 11.705938 0.000000
6.398704 14.515965 0.000000
1.870767 13.431321 0.000000
-6.398704 -14.515965 0.000000
-1.870767 -13.431321 0.000000
4.343711 -9.854051 0.000000
1.630449 -11.705938 0.000000
-7.949720 -14.193548 2.153007
-5.431173 -12.221221 5.555356
-5.483745 -14.149199 2.015372
-0.911212 -6.918312 8.808480
-2.981081 -9.539159 7.630111
-1.075967 -12.921789 1.740951
-3.239431 -12.093144 5.241510
-3.108560 -13.647691 1.875336
-4.357652 -13.253297 3.819907
5.108868 -9.121450 1.383625
4.008159 -9.019155 4.099804
3.899713 -10.062068 1.433213
0.877054 -6.658970 8.478283
2.557941 -8.185153 6.547079
0.000000 -7.912575 8.006849
0.992556 -11.920067 1.605989
2.650761 -9.895574 4.289021
2.509511 -11.017653 1.513941
0.000000 -11.935241 3.298819
3.315464 -10.083603 2.906327
-1.967832 -10.568828 6.531895
1.751709 -9.408073 5.814509
-0.962230 -9.252140 7.355180
-1.034900 -11.477219 5.023511
0.912427 -8.773276 6.974497
0.965209 -10.704334 4.685224
-5.108868 9.121450 1.383625
-4.008159 9.019155 4.099804
-3.899713 10.062068 1.433213
-0.877054 6.658970 8.478283
-2.557941 8.185153 6.547079
-0.992556 11.920067 1.605989
-2.650761 9.895574 4.289021
-2.509511 11.017653 1.513941
-3.315464 10.083603 2.906327
7.949720 14.193548 2.153007
5.431173 12.221221 5.555356
5.483745 14.149199 2.015372
0.911212 6.918312 8.808480
2.981081 9.539159 7.630111
0.000000 7.912575 8.006849
1.075967 12.921789 1.740951
3.239431 12.093144 5.241510
3.108560 13.647691 1.875336
0.000000 11.935241 3.298819
4.357652 13.253297 3.819907
-1.751709 9.408073 5.814509
1.967832 10.568828 6.531895
-0.912427 8.773276 6.974497
-0.965209 10.704334 4.685224
0.962230 9.252140 7.355180
1.034900 11.477219 5.023511
0.000000 -4.267156 9.680381
0.000000 -1.423816 10.222395
0.000000 4.267156 9.680381
0.000000 1.423816 10.222395
-7.949720 -14.193548 -2.153007
-5.431173 -12.221221 -5.555356
-5.483745 -14.149199 -2.015372
-0.911212 -6.918312 -8.808480
-2.981081 -9.539159 -7.630111
-1.075967 -12.921789 -1.740951
-3.239431 -12.093144 -5.241510
-3.108560 -13.647691 -1.875336
-4.357652 -13.253297 -3.819907
5.108868 -9.121450 -1.383625
4.008159 -9.019155 -4.099804
3.899713 -10.062068 -1.433213
0.877054 -6.658970 -8.478283
2.557941 -8.185153 -6.547079
0.000000 -7.912575 -8.006849
0.992556 -11.920067 -1.605989
2.650761 -9.895574 -4.289021
2.509511 -11.017653 -1.513941
0.000000 -11.935241 -3.298819
3.315464 -10.083603 -2.906327
-1.967832 -10.568828 -6.531895
1.751709 -9.408073 -5.814509
-0.962230 -9.252140 -7.355180
-1.034900 -11.477219 -5.023511
0.912427 -8.773276 -6.974497
0.965209 -10.704334 -4.685224
-5.108868 9.121450 -1.383625
-4.008159 9.019155 -4.099804
-3.899713 10.062068 -1.433213
-0.877054 6.658970 -8.478283
-2.557941 8.185153 -6.547079
-0.992556 11.920067 -1.605989
-2.650761 9.895574 -4.289021
-2.509511 11.017653 -1.513941
-3.315464 10.083603 -2.906327
7.949720 14.193548 -2.153007
5.431173 12.221221 -5.555356
5.483745 14.149199 -2.015372
0.911212 6.918312 -8.808480
2.981081 9.539159 -7.630111
0.000000 7.912575 -8.006849
1.075967 12.921789 -1.740951
3.239431 12.093144 -5.241510
3.108560 13.647691 -1.875336
0.000000 11.935241 -3.298819
4.357652 13.253297 -3.819907
-1.751709 9.408073 -5.814509
1.967832 10.568828 -6.531895
-0.912427 8.773276 -6.974497
-0.965209 10.704334 -4.685224
0.962230 9.252140 -7.355180
1.034900 11.477219 -5.023511
0.000000 -4.267156 -9.680381
0.000000 -1.423816 -10.222395
0.000000 4.267156 -9.680381
0.000000 1.423816 -10.222395
10.750150 13.687224 -1.415904
12.686984 10.147971 -3.964808
9.535023 13.230471 -3.555662
10.877577 1.650010 -6.092465
12.306775 5.594245 -5.469194
6.537768 10.914778 -6.745704
11.104714 9.446234 -5.838094
8.032234 12.192605 -5.387067
10.628340 11.529581 -4.859406
6.363981 -8.102699 -0.838201
7.835394 -6.267316 -2.448638
5.925811 -8.222453 -2.209767
9.823628 -1.490138 -5.502154
9.006258 -4.093942 -4.002427
4.744406 -7.920768 -4.895304
7.288478 -6.199950 -3.831780
5.374407 -8.158133 -3.604513
6.664108 -7.229198 -3.046911
1.378806 -5.091076 -9.089683
3.946777 -3.858552 -8.682510
2.240075 -6.007085 -8.335225
1.366248 -3.717505 -9.591933
8.823294 -0.912744 -6.929947
6.390493 -2.496763 -7.989389
8.653961 -2.325734 -6.236794
3.898422 -7.415239 -6.307779
4.819508 -4.670947 -7.798128
3.110062 -6.802229 -7.379031
5.297443 -6.671937 -5.822453
3.578594 -5.335761 -8.099469
1.369664 -0.846499 -10.166000
3.987695 -2.464531 -9.200358
1.367947 -2.267511 -9.955185
2.717585 -3.100152 -9.428755
7.909122 -4.888106 -4.737430
6.243588 -3.858750 -7.339778
8.330247 -3.680559 -5.487793
6.659705 -5.811778 -5.287730
7.432970 -3.132796 -6.851952
5.807716 -5.284034 -6.655050
1.444131 5.332280 -9.520332
4.390273 4.292135 -9.658158
2.458067 6.591661 -9.146363
1.412169 3.842453 -9.914327
9.308046 0.962890 -7.310678
7.149192 2.793186 -8.937914
10.016326 2.691867 -7.218632
8.025837 0.000000 -7.931340
4.888859 9.299162 -7.910340
5.693979 5.518462 -9.213051
3.631320 7.942308 -8.615784
7.112206 8.957566 -7.817070
4.106349 6.122655 -9.293942
1.379776 0.852749 -10.241059
4.260097 2.632884 -9.828839
1.395481 2.313152 -10.155564
2.773855 0.000000 -10.035903
2.874384 3.279025 -9.972775
11.042465 6.824619 -6.614250
7.481146 4.623603 -8.794615
10.632813 4.697903 -7.004675
9.303106 8.118616 -7.386561
8.842032 3.726677 -8.150870
7.415175 6.746549 -8.497034
5.463495 -1.645961 -8.840121
5.801986 1.747936 -9.387810
6.714733 -0.878444 -8.446517
4.182038 -0.861547 -9.554704
6.979011 0.913018 -8.778954
4.280298 0.881790 -9.779199
10.750150 13.687224 1.415904
12.686984 10.147971 3.964808
9.535023 13.230471 3.555662
12.525249 12.674480 0.000000
10.877577 1.650010 6.092465
12.306775 5.594245 5.469194
6.537768 10.914778 6.745704
11.104714 9.446234 5.838094
8.032234 12.192605 5.387067
10.628340 11.529581 4.859406
13.949589 8.621320 -2.597303
13.949589 8.621320 2.597303
13.641281 10.844418 -1.418704
13.641281 10.844418 1.418704
6.363981 -8.102699 0.838201
7.835394 -6.267316 2.448638
5.925811 -8.222453 2.209767
7.231794 -7.317957 0.000000
9.823628 -1.490138 5.502154
9.006258 -4.093942 4.002427
4.744406 -7.920768 4.895304
7.288478 -6.199950 3.831780
5.374407 -8.158133 3.604513
6.664108 -7.229198 3.046911
8.796297 -5.436411 -1.637801
8.796297 -5.436411 1.637801
8.061421 -6.408593 -0.838394
8.061421 -6.408593 0.838394
1.378806 -5.091076 9.089683
3.946777 -3.858552 8.682510
2.240075 -6.007085 8.335225
1.366248 -3.717505 9.591933
8.823294 -0.912744 6.929947
6.390493 -2.496763 7.989389
8.653961 -2.325734 6.236794
3.898422 -7.415239 6.307779
4.819508 -4.670947 7.798128
3.110062 -6.802229 7.379031
5.297443 -6.671937 5.822453
3.578594 -5.335761 8.099469
1.369664 -0.846499 10.166000
3.987695 -2.464531 9.200358
1.367947 -2.267511 9.955185
2.717585 -3.100152 9.428755
7.909122 -4.888106 4.737430
6.243588 -3.858750 7.339778
8.330247 -3.680559 5.487793
6.659705 -5.811778 5.287730
7.432970 -3.132796 6.851952
5.807716 -5.284034 6.655050
1.444131 5.332280 9.520332
4.390273 4.292135 9.658158
2.458067 6.591661 9.146363
1.412169 3.842453 9.914327
9.308046 0.962890 7.310678
7.149192 2.793186 8.937914
10.016326 2.691867 7.218632
8.025837 0.000000 7.931340
4.888859 9.299162 7.910340
5.693979 5.518462 9.213051
3.631320 7.942308 8.615784
7.112206 8.957566 7.817070
4.106349 6.122655 9.293942
1.379776 0.852749 10.241059
4.260097 2.632884 9.828839
1.395481 2.313152 10.155564
2.773855 0.000000 10.035903
2.874384 3.279025 9.972775
11.042465 6.824619 6.614250
7.481146 4.623603 8.794615
10.632813 4.697903 7.004675
9.303106 8.118616 7.386561
8.842032 3.726677 8.150870
7.415175 6.746549 8.497034
5.463495 -1.645961 8.840121
5.801986 1.747936 9.387810
6.714733 -0.878444 8.446517
4.182038 -0.861547 9.554704
6.979011 0.913018 8.778954
4.280298 0.881790 9.779199
11.087860 0.000000 -4.887580
12.421096 0.000000 -1.730059
11.996901 1.708805 -4.649588
10.695185 -1.523392 -4.145087
11.087860 0.000000 4.887580
12.421096 0.000000 1.730059
11.996901 1.708805 4.649588
10.695185 -1.523392 4.145087
13.571206 5.882144 -3.635365
13.327941 1.795672 -1.109786
12.880425 3.712436 -4.235053
14.396345 6.301195 -1.298118
12.865110 1.767801 -2.930310
9.582988 -4.153538 -2.567028
11.682779 -1.574019 -0.972797
10.175432 -2.932795 -3.345658
9.834964 -4.304705 -0.886818
11.342568 -1.558588 -2.583518
13.571206 5.882144 3.635365
13.327941 1.795672 1.109786
12.880425 3.712436 4.235053
14.396345 6.301195 1.298118
12.865110 1.767801 2.930310
14.087818 3.893777 0.000000
9.582988 -4.153538 2.567028
11.682779 -1.574019 0.972797
10.175432 -2.932795 3.345658
9.834964 -4.304705 0.886818
11.342568 -1.558588 2.583518
10.833633 -2.994342 0.000000
-6.363981 8.102699 -0.838201
-7.835394 6.267316 -2.448638
-5.925811 8.222453 -2.209767
-9.823628 1.490138 -5.502154
-9.006258 4.093942 -4.002427
-4.744406 7.920768 -4.895304
-7.288478 6.199950 -3.831780
-5.374407 8.158133 -3.604513
-6.664108 7.229198 -3.046911
-10.750150 -13.687224 -1.415904
-12.686984 -10.147971 -3.964808
-9.535023 -13.230471 -3.555662
-10.877577 -1.650010 -6.092465
-12.306775 -5.594245 -5.469194
-6.537768 -10.914778 -6.745704
-11.104714 -9.446234 -5.838094
-8.032234 -12.192605 -5.387067
-10.628340 -11.529581 -4.859406
-1.444131 -5.332280 -9.520332
-4.390273 -4.292135 -9.658158
-2.458067 -6.591661 -9.146363
-1.412169 -3.842453 -9.914327
-9.308046 -0.962890 -7.310678
-7.149192 -2.793186 -8.937914
-10.016326 -2.691867 -7.218632
-4.888859 -9.299162 -7.910340
-5.693979 -5.518462 -9.213051
-3.631320 -7.942308 -8.615784
-7.112206 -8.957566 -7.817070
-4.106349 -6.122655 -9.293942
-1.379776 -0.852749 -10.241059
-4.260097 -2.632884 -9.828839
-1.395481 -2.313152 -10.155564
-2.874384 -3.279025 -9.972775
-11.042465 -6.824619 -6.614250
-7.481146 -4.623603 -8.794615
-10.632813 -4.697903 -7.004675
-9.303106 -8.118616 -7.386561
-8.842032 -3.726677 -8.150870
-7.415175 -6.746549 -8.497034
-1.378806 5.091076 -9.089683
-3.946777 3.858552 -8.682510
-2.240075 6.007085 -8.335225
-1.366248 3.717505 -9.591933
-8.823294 0.912744 -6.929947
-6.390493 2.496763 -7.989389
-8.653961 2.325734 -6.236794
-8.025837 0.000000 -7.931340
-3.898422 7.415239 -6.307779
-4.819508 4.670947 -7.798128
-3.110062 6.802229 -7.379031
-5.297443 6.671937 -5.822453
-3.578594 5.335761 -8.099469
-1.369664 0.846499 -10.166000
-3.987695 2.464531 -9.200358
-1.367947 2.267511 -9.955185
-2.773855 0.000000 -10.035903
-2.717585 3.100152 -9.428755
-7.909122 4.888106 -4.737430
-6.243588 3.858750 -7.339778
-8.330247 3.680559 -5.487793
-6.659705 5.811778 -5.287730
-7.432970 3.132796 -6.851952
-5.807716 5.284034 -6.655050
-5.801986 -1.747936 -9.387810
-5.463495 1.645961 -8.840121
-6.979011 -0.913018 -8.778954
-4.280298 -0.881790 -9.779199
-6.714733 0.878444 -8.446517
-4.182038 0.861547 -9.554704
-6.363981 8.102699 0.838201
-7.835394 6.267316 2.448638
-5.925811 8.222453 2.209767
-7.231794 7.317957 0.000000
-9.823628 1.490138 5.502154
-9.006258 4.093942 4.002427
-4.744406 7.920768 4.895304
-7.288478 6.199950 3.831780
-5.374407 8.158133 3.604513
-6.664108 7.229198 3.046911
-8.796297 5.436411 -1.637801
-8.796297 5.436411 1.637801
-8.061421 6.408593 -0.838394
-8.061421 6.408593 0.838394
-10.750150 -13.687224 1.415904
-12.686984 -10.147971 3.964808
-9.535023 -13.230471 3.555662
-12.525249 -12.674480 0.000000
-10.877577 -1.650010 6.092465
-12.306775 -5.594245 5.469194
-6.537768 -10.914778 6.745704
-11.104714 -9.446234 5.838094
-8.032234 -12.192605 5.387067
-10.628340 -11.529581 4.859406
-13.949589 -8.621320 -2.597303
-13.949589 -8.621320 2.597303
-13.641281 -10.844418 -1.418704
-13.641281 -10.844418 1.418704
-1.444131 -5.332280 9.520332
-4.390273 -4.292135 9.658158
-2.458067 -6.591661 9.146363
-1.412169 -3.842453 9.914327
-9.308046 -0.962890 7.310678
-7.149192 -2.793186 8.937914
-10.016326 -2.691867 7.218632
-4.888859 -9.299162 7.910340
-5.693979 -5.518462 9.213051
-3.631320 -7.942308 8.615784
-7.112206 -8.957566 7.817070
-4.106349 -6.122655 9.293942
-1.379776 -0.852749 10.241059
-4.260097 -2.632884 9.828839
-1.395481 -2.313152 10.155564
-2.874384 -3.279025 9.972775
-11.042465 -6.824619 6.614250
-7.481146 -4.623603 8.794615
-10.632813 -4.697903 7.004675
-9.303106 -8.118616 7.386561
-8.842032 -3.726677 8.150870
-7.415175 -6.746549 8.497034
-1.378806 5.091076 9.089683
-3.946777 3.858552 8.682510
-2.240075 6.007085 8.335225
-1.366248 3.717505 9.591933
-8.823294 0.912744 6.929947
-6.390493 2.496763 7.989389
-8.653961 2.325734 6.236794
-8.025837 0.000000 7.931340
-3.898422 7.415239 6.307779
-4.819508 4.670947 7.798128
-3.110062 6.802229 7.379031
-5.297443 6.671937 5.822453
-3.578594 5.335761 8.099469
-1.369664 0.846499 10.166000
-3.987695 2.464531 9.200358
-1.367947 2.267511 9.955185
-2.773855 0.000000 10.035903
-2.717585 3.100152 9.428755
-7.909122 4.888106 4.737430
-6.243588 3.858750 7.339778
-8.330247 3.680559 5.487793
-6.659705 5.811778 5.287730
-7.432970 3.132796 6.851952
-5.807716 5.284034 6.655050
-5.801986 -1.747936 9.387810
-5.463495 1.645961 8.840121
-6.979011 -0.913018 8.778954
-4.280298 -0.881790 9.779199
-6.714733 0.878444 8.446517
-4.182038 0.861547 9.554704
-11.087860 0.000000 -4.887580
-12.421096 0.000000 -1.730059
-10.695185 1.523392 -4.145087
-11.996901 -1.708805 -4.649588
-11.087860 0.000000 4.887580
-12.421096 0.000000 1.730059
-10.695185 1.523392 4.145087
-11.996901 -1.708805 4.649588
-9.582988 4.153538 -2.567028
-11.682779 1.574019 -0.972797
-10.175432 2.932795 -3.345658
-9.834964 4.304705 -0.886818
-11.342568 1.558588 -2.583518
-13.571206 -5.882144 -3.635365
-13.327941 -1.795672 -1.109786
-12.880425 -3.712436 -4.235053
-14.396345 -6.301195 -1.298118
-12.865110 -1.767801 -2.930310
-9.582988 4.153538 2.567028
-11.682779 1.574019 0.972797
-10.175432 2.932795 3.345658
-9.834964 4.304705 0.886818
-11.342568 1.558588 2.583518
-10.833633 2.994342 0.000000
-13.571206 -5.882144 3.635365
-13.327941 -1.795672 1.109786
-12.880425 -3.712436 4.235053
-14.396345 -6.301195 1.298118
-12.865110 -1.767801 2.930310
-14.087818 -3.893777 0.000000
-4.937694 9.383903 0.000000
-3.720647 10.321256 0.000000
-0.842644 12.158056 0.000000
-2.369072 11.247838 0.000000
7.652446 14.543188 0.000000
5.178218 14.364627 0.000000
0.902917 13.027700 0.000000
2.906585 13.799835 0.000000
-7.652446 -14.543188 0.000000
-5.178218 -14.364627 0.000000
-0.902917 -13.027700 0.000000
-2.906585 -13.799835 0.000000
4.937694 -9.383903 0.000000
3.720647 -10.321256 0.000000
0.842644 -12.158056 0.000000
2.369072 -11.247838 0.000000
-8.473665 -14.390857 1.100552
-7.361469 -13.848676 3.135053
-7.217905 -14.471410 1.066676
-4.788169 -11.569967 6.185011
-6.083363 -12.833969 4.839346
-4.762517 -14.225385 0.992899
-6.148539 -13.870765 3.039251
-5.964740 -14.405805 1.031127
-6.705612 -14.237960 2.091694
-0.447023 -6.292309 9.010849
-1.394755 -7.555899 8.574185
-3.559464 -10.217961 7.214210
-2.428055 -8.867269 7.990811
-0.530164 -12.813336 0.857823
-1.629765 -12.912420 2.637016
-1.472078 -13.224469 0.889627
-3.722547 -11.554660 6.023207
-2.722418 -12.501633 4.404964
-4.315725 -12.200164 5.413339
-3.567433 -13.942890 0.960162
-2.644006 -13.251576 2.734410
-2.490055 -13.608031 0.923454
-4.264196 -13.940281 1.949798
-2.058635 -13.304489 1.810150
-5.526940 -13.374111 3.939314
-3.239945 -13.046597 3.681722
-4.924604 -12.816948 4.716340
-4.927859 -13.753047 2.957056
-3.793690 -12.698080 4.568919
-3.748952 -13.537093 2.853730
5.320970 -9.036623 0.691083
4.870791 -9.163118 2.074340
4.743130 -9.509653 0.700949
3.674696 -8.879410 4.746708
4.319484 -9.112743 3.436172
3.498258 -10.449111 0.729324
4.269100 -9.630854 2.110236
4.133434 -9.982908 0.714549
4.518204 -9.593458 1.409372
0.439308 -6.183713 8.855335
1.310481 -7.099356 8.056115
0.000000 -6.802054 8.660460
2.947708 -8.461827 5.974323
2.153527 -7.864692 7.087331
-0.928792 -8.076300 8.172524
0.887795 -7.719810 7.811787
-0.457328 -7.436644 8.432534
0.447836 -7.282290 8.257510
0.508840 -12.297963 0.823320
1.448989 -11.480156 2.344514
1.319190 -11.850990 0.797231
0.000000 -12.432408 1.675016
2.997949 -9.305532 4.850783
2.277619 -10.459072 3.685265
3.346386 -9.459930 4.197469
2.797185 -10.932463 0.752853
2.202307 -11.037810 2.277608
2.084599 -11.392234 0.773088
3.224542 -10.541501 1.474418
1.775075 -11.471908 1.560817
-1.049799 -12.374001 3.420090
0.973191 -11.471026 3.170514
-0.525142 -12.461211 2.550769
0.504750 -11.977335 2.451721
3.977232 -9.624122 2.834763
2.617237 -10.539077 2.974105
3.675614 -9.566283 3.520171
3.619408 -10.101321 2.171895
2.992813 -10.017420 3.604386
2.928087 -10.573031 2.228881
-3.037888 -10.763892 6.652451
-0.955379 -10.326256 6.381977
-2.484246 -10.093207 7.108820
-2.588659 -11.342236 5.932228
2.556640 -9.058725 5.598600
0.901032 -9.738842 6.018935
2.165668 -8.798863 6.197191
2.211762 -9.690855 5.068521
-1.436482 -8.757934 7.856590
-0.481774 -9.683087 6.804120
-1.947771 -9.418843 7.510465
-0.469356 -8.578895 7.702039
-1.452992 -9.910089 6.969051
-1.595635 -12.150848 4.318367
-0.502798 -10.771532 5.651577
-2.101488 -11.810142 5.144346
-0.516075 -11.765682 4.175138
-1.508304 -11.075224 5.804741
1.334619 -8.136897 7.299468
0.468213 -9.410535 6.612602
1.755466 -8.488911 6.768950
0.457888 -8.369272 7.513842
1.336805 -9.117640 6.411779
0.000000 -9.028131 7.177099
1.430487 -10.893235 3.871416
0.486477 -10.421896 5.468131
1.834237 -10.308216 4.490126
0.497404 -11.339995 4.024080
1.370946 -10.066624 5.276114
0.000000 -11.105497 4.860811
-5.320970 9.036623 0.691083
-4.870791 9.163118 2.074340
-4.743130 9.509653 0.700949
-3.674696 8.879410 4.746708
-4.319484 9.112743 3.436172
-3.498258 10.449111 0.729324
-4.269100 9.630854 2.110236
-4.133434 9.982908 0.714549
-4.518204 9.593458 1.409372
-0.439308 6.183713 8.855335
-1.310481 7.099356 8.056115
-2.947708 8.461827 5.974323
-2.153527 7.864692 7.087331
-0.508840 12.297963 0.823320
-1.448989 11.480156 2.344514
-1.319190 11.850990 0.797231
-2.997949 9.305532 4.850783
-2.277619 10.459072 3.685265
-3.346386 9.459930 4.197469
-2.797185 10.932463 0.752853
-2.202307 11.037810 2.277608
-2.084599 11.392234 0.773088
-3.224542 10.541501 1.474418
-1.775075 11.471908 1.560817
-3.977232 9.624122 2.834763
-2.617237 10.539077 2.974105
-3.675614 9.566283 3.520171
-3.619408 10.101321 2.171895
-2.992813 10.017420 3.604386
-2.928087 10.573031 2.228881
8.473665 14.390857 1.100552
7.361469 13.848676 3.135053
7.217905 14.471410 1.066676
4.788169 11.569967 6.185011
6.083363 12.833969 4.839346
4.762517 14.225385 0.992899
6.148539 13.870765 3.039251
5.964740 14.405805 1.031127
6.705612 14.237960 2.091694
0.447023 6.292309 9.010849
1.394755 7.555899 8.574185
0.000000 6.802054 8.660460
3.559464 10.217961 7.214210
2.428055 8.867269 7.990811
-0.887795 7.719810 7.811787
0.928792 8.076300 8.172524
-0.447836 7.282290 8.257510
0.457328 7.436644 8.432534
0.530164 12.813336 0.857823
1.629765 12.912420 2.637016
1.472078 13.224469 0.889627
0.000000 12.432408 1.675016
3.722547 11.554660 6.023207
2.722418 12.501633 4.404964
4.315725 12.200164 5.413339
3.567433 13.942890 0.960162
2.644006 13.251576 2.734410
2.490055 13.608031 0.923454
4.264196 13.940281 1.949798
2.058635 13.304489 1.810150
-0.973191 11.471026 3.170514
1.049799 12.374001 3.420090
-0.504750 11.977335 2.451721
0.525142 12.461211 2.550769
5.526940 13.374111 3.939314
3.239945 13.046597 3.681722
4.924604 12.816948 4.716340
4.927859 13.753047 2.957056
3.793690 12.698080 4.568919
3.748952 13.537093 2.853730
-2.556640 9.058725 5.598600
-0.901032 9.738842 6.018935
-2.165668 8.798863 6.197191
-2.211762 9.690855 5.068521
3.037888 10.763892 6.652451
0.955379 10.326256 6.381977
2.484246 10.093207 7.108820
2.588659 11.342236 5.932228
-1.334619 8.136897 7.299468
-0.468213 9.410535 6.612602
-1.755466 8.488911 6.768950
-0.457888 8.369272 7.513842
-1.336805 9.117640 6.411779
-1.430487 10.893235 3.871416
-0.486477 10.421896 5.468131
-1.834237 10.308216 4.490126
-0.497404 11.339995 4.024080
-1.370946 10.066624 5.276114
1.436482 8.757934 7.856590
0.481774 9.683087 6.804120
1.947771 9.418843 7.510465
0.469356 8.578895 7.702039
1.452992 9.910089 6.969051
0.000000 9.028131 7.177099
1.595635 12.150848 4.318367
0.502798 10.771532 5.651577
2.101488 11.810142 5.144346
0.516075 11.765682 4.175138
1.508304 11.075224 5.804741
0.000000 11.105497 4.860811
0.000000 -4.973946 9.452800
0.000000 -3.557851 9.869650
0.000000 -0.711916 10.271854
0.000000 -2.135616 10.139442
0.000000 4.973946 9.452800
0.000000 3.557851 9.869650
0.000000 0.711916 10.271854
0.000000 2.135616 10.139442
-8.473665 -14.390857 -1.100552
-7.361469 -13.848676 -3.135053
-7.217905 -14.471410 -1.066676
-4.788169 -11.569967 -6.185011
-6.083363 -12.833969 -4.839346
-4.762517 -14.225385 -0.992899
-6.148539 -13.870765 -3.039251
-5.964740 -14.405805 -1.031127
-6.705612 -14.237960 -2.091694
-0.447023 -6.292309 -9.010849
-1.394755 -7.555899 -8.574185
-3.559464 -10.217961 -7.214210
-2.428055 -8.867269 -7.990811
-0.530164 -12.813336 -0.857823
-1.629765 -12.912420 -2.637016
-1.472078 -13.224469 -0.889627
-3.722547 -11.554660 -6.023207
-2.722418 -12.501633 -4.404964
-4.315725 -12.200164 -5.413339
-3.567433 -13.942890 -0.960162
-2.644006 -13.251576 -2.734410
-2.490055 -13.608031 -0.923454
-4.264196 -13.940281 -1.949798
-2.058635 -13.304489 -1.810150
-5.526940 -13.374111 -3.939314
-3.239945 -13.046597 -3.681722
-4.924604 -12.816948 -4.716340
-4.927859 -13.753047 -2.957056
-3.793690 -12.698080 -4.568919
-3.748952 -13.537093 -2.853730
5.320970 -9.036623 -0.691083
4.870791 -9.163118 -2.074340
4.743130 -9.509653 -0.700949
3.674696 -8.879410 -4.746708
4.319484 -9.112743 -3.436172
3.498258 -10.449111 -0.729324
4.269100 -9.630854 -2.110236
4.133434 -9.982908 -0.714549
4.518204 -9.593458 -1.409372
0.439308 -6.183713 -8.855335
1.310481 -7.099356 -8.056115
0.000000 -6.802054 -8.660460
2.947708 -8.461827 -5.974323
2.153527 -7.864692 -7.087331
-0.928792 -8.076300 -8.172524
0.887795 -7.719810 -7.811787
-0.457328 -7.436644 -8.432534
0.447836 -7.282290 -8.257510
0.508840 -12.297963 -0.823320
1.448989 -11.480156 -2.344514
1.319190 -11.850990 -0.797231
0.000000 -12.432408 -1.675016
2.997949 -9.305532 -4.850783
2.277619 -10.459072 -3.685265
3.346386 -9.459930 -4.197469
2.797185 -10.932463 -0.752853
2.202307 -11.037810 -2.277608
2.084599 -11.392234 -0.773088
3.224542 -10.541501 -1.474418
1.775075 -11.471908 -1.560817
-1.049799 -12.374001 -3.420090
0.973191 -11.471026 -3.170514
-0.525142 -12.461211 -2.550769
0.504750 -11.977335 -2.451721
3.977232 -9.624122 -2.834763
2.617237 -10.539077 -2.974105
3.675614 -9.566283 -3.520171
3.619408 -10.101321 -2.171895
2.992813 -10.017420 -3.604386
2.928087 -10.573031 -2.228881
-3.037888 -10.763892 -6.652451
-0.955379 -10.326256 -6.381977
-2.484246 -10.093207 -7.108820
-2.588659 -11.342236 -5.932228
2.556640 -9.058725 -5.598600
0.901032 -9.738842 -6.018935
2.165668 -8.798863 -6.197191
2.211762 -9.690855 -5.068521
-1.436482 -8.757934 -7.856590
-0.481774 -9.683087 -6.804120
-1.947771 -9.418843 -7.510465
-0.469356 -8.578895 -7.702039
-1.452992 -9.910089 -6.969051
-1.595635 -12.150848 -4.318367
-0.502798 -10.771532 -5.651577
-2.101488 -11.810142 -5.144346
-0.516075 -11.765682 -4.175138
-1.508304 -11.075224 -5.804741
1.334619 -8.136897 -7.299468
0.468213 -9.410535 -6.612602
1.755466 -8.488911 -6.768950
0.457888 -8.369272 -7.513842
1.336805 -9.117640 -6.411779
0.000000 -9.028131 -7.177099
1.430487 -10.893235 -3.871416
0.486477 -10.421896 -5.468131
1.834237 -10.308216 -4.490126
0.497404 -11.339995 -4.024080
1.370946 -10.066624 -5.276114
0.000000 -11.105497 -4.860811
-5.320970 9.036623 -0.691083
-4.870791 9.163118 -2.074340
-4.743130 9.509653 -0.700949
-3.674696 8.879410 -4.746708
-4.319484 9.112743 -3.436172
-3.498258 10.449111 -0.729324
-4.269100 9.630854 -2.110236
-4.133434 9.982908 -0.714549
-4.518204 9.593458 -1.409372
-0.439308 6.183713 -8.855335
-1.310481 7.099356 -8.056115
-2.947708 8.461827 -5.974323
-2.153527 7.864692 -7.087331
-0.508840 12.297963 -0.823320
-1.448989 11.480156 -2.344514
-1.319190 11.850990 -0.797231
-2.997949 9.305532 -4.850783
-2.277619 10.459072 -3.685265
-3.346386 9.459930 -4.197469
-2.797185 10.932463 -0.752853
-2.202307 11.037810 -2.277608
-2.084599 11.392234 -0.773088
-3.224542 10.541501 -1.474418
-1.775075 11.471908 -1.560817
-3.977232 9.624122 -2.834763
-2.617237 10.539077 -2.974105
-3.675614 9.566283 -3.520171
-3.619408 10.101321 -2.171895
-2.992813 10.017420 -3.604386
-2.928087 10.573031 -2.228881
8.473665 14.390857 -1.100552
7.361469 13.848676 -3.135053
7.217905 14.471410 -1.066676
4.788169 11.569967 -6.185011
6.083363 12.833969 -4.839346
4.762517 14.225385 -0.992899
6.148539 13.870765 -3.039251
5.964740 14.405805 -1.031127
6.705612 14.237960 -2.091694
0.447023 6.292309 -9.010849
1.394755 7.555899 -8.574185
0.000000 6.802054 -8.660460
3.559464 10.217961 -7.214210
2.428055 8.867269 -7.990811
-0.887795 7.719810 -7.811787
0.928792 8.076300 -8.172524
-0.447836 7.282290 -8.257510
0.457328 7.436644 -8.432534
0.530164 12.813336 -0.857823
1.629765 12.912420 -2.637016
1.472078 13.224469 -0.889627
0.000000 12.432408 -1.675016
3.722547 11.554660 -6.023207
2.722418 12.501633 -4.404964
4.315725 12.200164 -5.413339
3.567433 13.942890 -0.960162
2.644006 13.251576 -2.734410
2.490055 13.608031 -0.923454
4.264196 13.940281 -1.949798
2.058635 13.304489 -1.810150
-0.973191 11.471026 -3.170514
1.049799 12.374001 -3.420090
-0.504750 11.977335 -2.451721
0.525142 12.461211 -2.550769
5.526940 13.374111 -3.939314
3.239945 13.046597 -3.681722
4.924604 12.816948 -4.716340
4.927859 13.753047 -2.957056
3.793690 12.698080 -4.568919
3.748952 13.537093 -2.853730
-2.556640 9.058725 -5.598600
-0.901032 9.738842 -6.018935
-2.165668 8.798863 -6.197191
-2.211762 9.690855 -5.068521
3.037888 10.763892 -6.652451
0.955379 10.326256 -6.381977
2.484246 10.093207 -7.108820
2.588659 11.342236 -5.932228
-1.334619 8.136897 -7.299468
-0.468213 9.410535 -6.612602
-1.755466 8.488911 -6.768950
-0.457888 8.369272 -7.513842
-1.336805 9.117640 -6.411779
-1.430487 10.893235 -3.871416
-0.486477 10.421896 -5.468131
-1.834237 10.308216 -4.490126
-0.497404 11.339995 -4.024080
-1.370946 10.066624 -5.276114
1.436482 8.757934 -7.856590
0.481774 9.683087 -6.804120
1.947771 9.418843 -7.510465
0.469356 8.578895 -7.702039
1.452992 9.910089 -6.969051
0.000000 9.028131 -7.177099
1.595635 12.150848 -4.318367
0.502798 10.771532 -5.651577
2.101488 11.810142 -5.144346
0.516075 11.765682 -4.175138
1.508304 11.075224 -5.804741
0.000000 11.105497 -4.860811
0.000000 -4.973946 -9.452800
0.000000 -3.557851 -9.869650
0.000000 -0.711916 -10.271854
0.000000 -2.135616 -10.139442
0.000000 4.973946 -9.452800
0.000000 3.557851 -9.869650
0.000000 0.711916 -10.271854
0.000000 2.135616 -10.139442
9.880800 14.149717 -0.701959
11.483340 13.030915 -2.119728
9.383022 14.062992 -1.810672
12.764489 9.012141 -4.446556
12.455665 11.224524 -3.410638
8.138149 13.402331 -3.828969
10.863464 12.835700 -3.208676
8.790604 13.802414 -2.866297
10.193239 13.539176 -2.525858
10.466185 0.800410 -6.162729
11.276074 2.552669 -5.993964
12.549825 6.708819 -5.193678
12.002506 4.525824 -5.689246
5.334112 10.954414 -6.770200
7.750960 10.759386 -6.649666
6.016903 11.625837 -6.183937
11.993773 8.713769 -5.385406
10.074438 10.033980 -6.201341
11.938318 9.841578 -4.958836
7.424818 12.865275 -4.736552
8.540612 11.385679 -5.968708
6.721384 12.274037 -5.504109
8.804585 12.761868 -4.527711
7.283127 11.571980 -6.115490
11.393114 11.929677 -3.878936
9.800329 11.032542 -5.723192
11.742738 10.933235 -4.452106
10.154376 12.456577 -4.241414
10.932162 10.522905 -5.389354
9.364528 11.957932 -5.168311
5.946321 -8.515379 -0.422443
6.760836 -7.671974 -1.247993
5.750765 -8.619074 -1.109743
8.156511 -5.758760 -2.841350
7.495917 -6.755007 -2.052549
5.281940 -8.698576 -2.485133
6.543224 -7.731131 -1.932633
5.528395 -8.680313 -1.802609
6.159727 -8.181661 -1.526364
9.954151 -0.761252 -5.861231
9.659992 -2.186822 -5.134912
8.742684 -4.673617 -3.618113
9.248412 -3.487329 -4.383792
4.048385 -8.313976 -5.138320
5.412847 -7.513767 -4.643764
4.386936 -8.476421 -4.508721
7.880277 -5.725214 -3.538377
6.681716 -6.654883 -4.112944
7.580846 -6.249414 -3.148867
5.002113 -8.667358 -3.191024
5.725769 -7.633149 -4.001521
4.706834 -8.595232 -3.854404
5.665202 -8.211467 -2.913300
5.072374 -8.059369 -4.259166
6.918171 -7.243985 -2.355383
6.376804 -7.178572 -3.723924
7.258532 -6.758154 -2.751978
6.305575 -7.735176 -2.633796
6.985605 -6.724091 -3.443774
6.031510 -7.701871 -3.328808
0.699538 -5.386070 -9.147182
2.040549 -4.791447 -9.013852
1.133762 -5.875231 -8.805620
0.694011 -4.696184 -9.415529
4.563956 -3.533217 -8.537545
3.322035 -4.176007 -8.810051
1.996014 -6.757810 -7.984674
2.470199 -5.250198 -8.646301
1.569931 -6.335543 -8.415190
1.813917 -5.563076 -8.734767
0.686697 -3.293794 -9.838388
2.034483 -4.115848 -9.285126
0.690476 -3.994183 -9.646593
1.374961 -4.407888 -9.359225
9.435189 -0.468074 -6.588628
8.212689 -1.335951 -7.237335
9.357905 -1.204871 -6.243723
5.783970 -2.853789 -8.192217
6.996753 -2.126005 -7.764179
9.092729 -2.597741 -5.521277
8.155848 -2.038804 -6.902683
9.241061 -1.919057 -5.885529
8.754624 -1.633256 -6.591094
3.620294 -8.062714 -5.857759
4.156350 -6.752232 -6.725116
3.241391 -7.803597 -6.433042
4.337168 -7.695092 -5.619781
5.006011 -3.944141 -8.099896
4.616064 -5.380560 -7.468949
4.394583 -4.275881 -8.261842
2.436176 -7.155475 -7.492464
3.761997 -6.442001 -7.251965
2.843243 -7.499250 -6.982278
2.682552 -6.422304 -7.878369
3.513487 -7.127015 -6.860208
5.696491 -6.904985 -5.119263
4.862793 -6.394425 -6.488097
5.032449 -7.306584 -5.372248
4.610198 -7.050716 -6.071879
3.141197 -4.924006 -8.532020
3.997337 -5.719782 -7.625168
3.769914 -4.603659 -8.406821
2.918310 -5.674945 -8.225590
4.204824 -5.007656 -7.956541
3.352726 -6.074847 -7.757210
0.686728 -0.424421 -10.257683
2.045015 -1.263889 -10.013628
0.686544 -1.136034 -10.205601
4.594897 -2.839803 -8.814652
3.357810 -2.075240 -9.529726
3.974371 -3.168524 -8.957129
0.688619 -2.558529 -9.999706
2.040567 -1.973102 -9.889051
0.686708 -1.851679 -10.119336
1.369581 -2.995265 -9.791958
1.371056 -1.559265 -10.077180
2.707388 -3.798523 -9.191680
2.718119 -2.391966 -9.631960
3.342404 -3.489998 -9.083192
2.047033 -3.411329 -9.520598
3.354961 -2.785710 -9.324212
2.049670 -2.692657 -9.722917
8.209794 -5.073932 -3.997654
7.559410 -4.671972 -5.445728
8.463355 -4.501771 -4.380174
7.612020 -5.559113 -4.290347
5.726458 -3.539146 -7.881990
6.723633 -4.155434 -6.750743
6.328026 -3.188477 -7.676207
5.536453 -4.272858 -7.580993
8.902545 -3.277611 -5.137844
7.750593 -4.063089 -5.813866
8.696548 -3.899837 -4.762316
8.505666 -3.017677 -5.868174
8.130337 -4.296671 -5.117039
6.371023 -6.464352 -4.844996
6.923853 -5.133252 -5.712057
6.995875 -6.024652 -4.574340
5.987939 -6.250587 -5.562966
7.290187 -5.360192 -5.021155
7.531633 -2.448911 -7.192882
7.309713 -3.791954 -6.493298
6.932821 -2.823104 -7.446131
8.044904 -2.739257 -6.558060
6.840236 -3.503258 -7.106267
7.907935 -3.417871 -6.192883
5.110201 -5.686407 -6.892761
6.491120 -4.865059 -6.397404
5.329981 -4.992856 -7.249099
5.563944 -5.988992 -6.251686
6.035687 -4.582719 -7.008690
6.254565 -5.566507 -5.991751
0.716754 5.518621 -9.372295
2.179148 5.116892 -9.626092
1.184547 6.138401 -9.200051
0.708712 4.795658 -9.614968
5.112654 3.957996 -9.563966
3.656886 4.596936 -9.698080
2.190792 7.417264 -8.763850
2.700623 5.739945 -9.452844
1.678605 6.774104 -8.997708
1.941503 5.954367 -9.349146
0.696693 3.341744 -9.981611
2.151091 4.351751 -9.817310
0.702791 4.065423 -9.818651
1.430655 4.586436 -9.738334
9.709118 0.481664 -6.779913
8.846750 1.439093 -7.796093
10.102803 1.300780 -6.740729
9.081087 0.000000 -7.132421
6.498933 3.206549 -9.204866
7.761607 2.358410 -8.612924
10.848829 3.099448 -6.587614
9.172900 2.293047 -7.763462
10.486249 2.177641 -6.678575
9.668530 1.803753 -7.279146
7.827396 -0.889569 -7.735236
8.195036 0.931350 -8.098547
8.449703 -0.458259 -7.451785
8.663633 0.469862 -7.640449
4.552790 10.139465 -7.366569
5.169327 8.397872 -8.364147
3.926793 9.453693 -7.793329
5.696993 10.107721 -7.381741
5.775487 4.550396 -9.344934
5.568647 6.490906 -9.010260
5.030020 4.894154 -9.456466
2.757690 8.099817 -8.481281
4.513486 7.728842 -8.700604
3.324547 8.768724 -8.164239
3.031599 7.257957 -8.903481
4.246473 8.613859 -8.291389
8.019855 9.721244 -7.207200
6.234799 8.198571 -8.318672
6.868525 9.972373 -7.332299
5.999193 9.175008 -7.901259
3.500682 5.487520 -9.508442
4.737322 6.778624 -9.036734
4.264812 5.208007 -9.510433
3.280481 6.379223 -9.246410
4.905399 5.841992 -9.282197
3.888433 7.045500 -8.996676
0.687992 0.425203 -10.276565
2.079141 1.284980 -10.180731
0.689941 1.141656 -10.256106
1.377828 0.000000 -10.226595
5.026529 3.106566 -9.642675
3.515648 2.172790 -9.977684
4.332855 3.454321 -9.765053
0.696390 2.587401 -10.112551
2.094368 2.025124 -10.149783
0.692275 1.866689 -10.201365
1.406400 3.075788 -10.055202
1.389899 1.580694 -10.215670
2.747279 -0.843279 -9.939749
2.788265 0.855860 -10.088037
2.070195 -0.426203 -10.113476
2.081797 0.428592 -10.170151
2.901865 4.071377 -9.851935
2.836763 2.496374 -10.052389
3.618836 3.778636 -9.834412
2.143476 3.572049 -9.969148
3.571791 2.965749 -9.926831
2.124862 2.791437 -10.079601
11.908539 7.359882 -5.798711
10.145971 6.270555 -7.309061
11.735780 6.242417 -6.073803
11.139331 8.135133 -6.278437
6.635796 4.101148 -9.133618
8.352136 5.161904 -8.385813
7.327315 3.691984 -8.888394
6.607850 5.099729 -9.048043
11.194465 4.121418 -6.460559
9.978430 5.230987 -7.485009
11.490817 5.152885 -6.292485
10.339914 3.668439 -7.133646
10.865019 5.741879 -6.838182
9.184155 9.318693 -6.984310
9.316713 6.907286 -7.686124
10.214501 8.796442 -6.678878
8.236470 8.597744 -7.651915
10.230735 7.522263 -7.046473
8.596137 2.795035 -8.209507
9.060682 4.700279 -8.048703
7.986936 3.252348 -8.578293
9.465192 3.222859 -7.715853
8.186489 4.192748 -8.504878
9.737420 4.208588 -7.625594
6.418107 7.141788 -8.656897
8.364650 6.269259 -8.243885
6.537114 6.123636 -8.890873
7.304233 7.862227 -8.207086
7.477263 5.677265 -8.682660
8.347315 7.429036 -7.996564
5.328386 -2.433244 -8.621510
5.580067 -0.835333 -9.028737
5.942989 -2.076835 -8.437943
4.725490 -2.062073 -9.034991
5.825262 2.660146 -9.425472
5.751470 0.860992 -9.306075
6.466936 2.259933 -9.181851
5.045264 2.201613 -9.646389
7.179602 -1.312703 -8.003280
6.212563 -0.439888 -8.841230
6.563368 -1.702150 -8.231093
7.366794 -0.448927 -8.205484
6.087036 -1.269099 -8.655850
3.444529 -1.272752 -9.692078
4.925029 -0.438160 -9.386779
4.092225 -1.671692 -9.394732
3.487941 -0.431133 -9.829137
4.836410 -1.256693 -9.227685
7.647916 1.398328 -8.525321
6.322337 0.447661 -8.997452
7.080455 1.836252 -8.879569
7.525207 0.458580 -8.381931
6.406729 1.335752 -9.110458
6.860384 0.000000 -8.629732
3.543769 1.309422 -9.971315
4.993363 0.444239 -9.517020
4.280824 1.748735 -9.827709
3.521453 0.435276 -9.923574
5.032907 1.307751 -9.602594
4.240467 0.000000 -9.688197
9.880800 14.149717 0.701959
11.483340 13.030915 2.119728
9.383022 14.062992 1.810672
10.853423 13.818713 0.000000
12.764489 9.012141 4.446556
12.455665 11.224524 3.410638
8.138149 13.402331 3.828969
10.863464 12.835700 3.208676
8.790604 13.802414 2.866297
10.193239 13.539176 2.525858
12.404265 12.552055 -1.426517
12.404265 12.552055 1.426517
11.711806 13.280213 -0.720236
11.711806 13.280213 0.720236
10.466185 0.800410 6.162729
11.276074 2.552669 5.993964
12.549825 6.708819 5.193678
12.002506 4.525824 5.689246
5.334112 10.954414 6.770200
7.750960 10.759386 6.649666
6.016903 11.625837 6.183937
11.993773 8.713769 5.385406
10.074438 10.033980 6.201341
11.938318 9.841578 4.958836
7.424818 12.865275 4.736552
8.540612 11.385679 5.968708
6.721384 12.274037 5.504109
8.804585 12.761868 4.527711
7.283127 11.571980 6.115490
11.393114 11.929677 3.878936
9.800329 11.032542 5.723192
11.742738 10.933235 4.452106
10.154376 12.456577 4.241414
10.932162 10.522905 5.389354
9.364528 11.957932 5.168311
13.406240 8.285512 -3.783637
14.296904 8.835973 -1.322741
13.412288 9.446505 -3.301172
13.406240 8.285512 3.783637
14.296904 8.835973 1.322741
13.412288 9.446505 3.301172
12.941302 11.609416 -2.122640
14.133892 9.931615 -0.703220
13.263084 10.575814 -2.742742
13.189201 11.841122 -0.721589
13.884960 9.764292 -2.035777
12.941302 11.609416 2.122640
14.133892 9.931615 0.703220
13.263084 10.575814 2.742742
13.189201 11.841122 0.721589
13.884960 9.764292 2.035777
13.772856 10.949016 0.000000
5.946321 -8.515379 0.422443
6.760836 -7.671974 1.247993
5.750765 -8.619074 1.109743
6.385207 -8.129725 0.000000
8.156511 -5.758760 2.841350
7.495917 -6.755007 2.052549
5.281940 -8.698576 2.485133
6.543224 -7.731131 1.932633
5.528395 -8.680313 1.802609
6.159727 -8.181661 1.526364
7.208281 -7.294163 -0.828968
7.208281 -7.294163 0.828968
6.808255 -7.719994 -0.418685
6.808255 -7.719994 0.418685
9.954151 -0.761252 5.861231
9.659992 -2.186822 5.134912
8.742684 -4.673617 3.618113
9.248412 -3.487329 4.383792
4.048385 -8.313976 5.138320
5.412847 -7.513767 4.643764
4.386936 -8.476421 4.508721
7.880277 -5.725214 3.538377
6.681716 -6.654883 4.112944
7.580846 -6.249414 3.148867
5.002113 -8.667358 3.191024
5.725769 -7.633149 4.001521
4.706834 -8.595232 3.854404
5.665202 -8.211467 2.913300
5.072374 -8.059369 4.259166
6.918171 -7.243985 2.355383
6.376804 -7.178572 3.723924
7.258532 -6.758154 2.751978
6.305575 -7.735176 2.633796
6.985605 -6.724091 3.443774
6.031510 -7.701871 3.328808
8.655139 -5.349170 -2.442735
8.881455 -5.489041 -0.821707
8.324391 -5.863012 -2.048886
8.655139 -5.349170 2.442735
8.881455 -5.489041 0.821707
8.324391 -5.863012 2.048886
7.609211 -6.826091 -1.248068
8.494976 -5.969257 -0.422660
7.973484 -6.357955 -1.648878
7.656671 -6.874076 -0.418901
8.437932 -5.933790 -1.237148
7.609211 -6.826091 1.248068
8.494976 -5.969257 0.422660
7.973484 -6.357955 1.648878
7.656671 -6.874076 0.418901
8.437932 -5.933790 1.237148
8.088321 -6.429978 0.000000
0.699538 -5.386070 9.147182
2.040549 -4.791447 9.013852
1.133762 -5.875231 8.805620
0.694011 -4.696184 9.415529
4.563956 -3.533217 8.537545
3.322035 -4.176007 8.810051
1.996014 -6.757810 7.984674
2.470199 -5.250198 8.646301
1.569931 -6.335543 8.415190
1.813917 -5.563076 8.734767
0.686697 -3.293794 9.838388
2.034483 -4.115848 9.285126
0.690476 -3.994183 9.646593
1.374961 -4.407888 9.359225
9.435189 -0.468074 6.588628
8.212689 -1.335951 7.237335
9.357905 -1.204871 6.243723
5.783970 -2.853789 8.192217
6.996753 -2.126005 7.764179
9.092729 -2.597741 5.521277
8.155848 -2.038804 6.902683
9.241061 -1.919057 5.885529
8.754624 -1.633256 6.591094
3.620294 -8.062714 5.857759
4.156350 -6.752232 6.725116
3.241391 -7.803597 6.433042
4.337168 -7.695092 5.619781
5.006011 -3.944141 8.099896
4.616064 -5.380560 7.468949
4.394583 -4.275881 8.261842
2.436176 -7.155475 7.492464
3.761997 -6.442001 7.251965
2.843243 -7.499250 6.982278
2.682552 -6.422304 7.878369
3.513487 -7.127015 6.860208
5.696491 -6.904985 5.119263
4.862793 -6.394425 6.488097
5.032449 -7.306584 5.372248
4.610198 -7.050716 6.071879
3.141197 -4.924006 8.532020
3.997337 -5.719782 7.625168
3.769914 -4.603659 8.406821
2.918310 -5.674945 8.225590
4.204824 -5.007656 7.956541
3.352726 -6.074847 7.757210
0.686728 -0.424421 10.257683
2.045015 -1.263889 10.013628
0.686544 -1.136034 10.205601
4.594897 -2.839803 8.814652
3.357810 -2.075240 9.529726
3.974371 -3.168524 8.957129
0.688619 -2.558529 9.999706
2.040567 -1.973102 9.889051
0.686708 -1.851679 10.119336
1.369581 -2.995265 9.791958
1.371056 -1.559265 10.077180
2.707388 -3.798523 9.191680
2.718119 -2.391966 9.631960
3.342404 -3.489998 9.083192
2.047033 -3.411329 9.520598
3.354961 -2.785710 9.324212
2.049670 -2.692657 9.722917
8.209794 -5.073932 3.997654
7.559410 -4.671972 5.445728
8.463355 -4.501771 4.380174
7.612020 -5.559113 4.290347
5.726458 -3.539146 7.881990
6.723633 -4.155434 6.750743
6.328026 -3.188477 7.676207
5.536453 -4.272858 7.580993
8.902545 -3.277611 5.137844
7.750593 -4.063089 5.813866
8.696548 -3.899837 4.762316
8.505666 -3.017677 5.868174
8.130337 -4.296671 5.117039
6.371023 -6.464352 4.844996
6.923853 -5.133252 5.712057
6.995875 -6.024652 4.574340
5.987939 -6.250587 5.562966
7.290187 -5.360192 5.021155
7.531633 -2.448911 7.192882
7.309713 -3.791954 6.493298
6.932821 -2.823104 7.446131
8.044904 -2.739257 6.558060
6.840236 -3.503258 7.106267
7.907935 -3.417871 6.192883
5.110201 -5.686407 6.892761
6.491120 -4.865059 6.397404
5.329981 -4.992856 7.249099
5.563944 -5.988992 6.251686
6.035687 -4.582719 7.008690
6.254565 -5.566507 5.991751
0.716754 5.518621 9.372295
2.179148 5.116892 9.626092
1.184547 6.138401 9.200051
0.708712 4.795658 9.614968
5.112654 3.957996 9.563966
3.656886 4.596936 9.698080
2.190792 7.417264 8.763850
2.700623 5.739945 9.452844
1.678605 6.774104 8.997708
1.941503 5.954367 9.349146
0.696693 3.341744 9.981611
2.151091 4.351751 9.817310
0.702791 4.065423 9.818651
1.430655 4.586436 9.738334
9.709118 0.481664 6.779913
8.846750 1.439093 7.796093
10.102803 1.300780 6.740729
9.081087 0.000000 7.132421
6.498933 3.206549 9.204866
7.761607 2.358410 8.612924
10.848829 3.099448 6.587614
9.172900 2.293047 7.763462
10.486249 2.177641 6.678575
9.668530 1.803753 7.279146
7.827396 -0.889569 7.735236
8.195036 0.931350 8.098547
8.449703 -0.458259 7.451785
8.663633 0.469862 7.640449
4.552790 10.139465 7.366569
5.169327 8.397872 8.364147
3.926793 9.453693 7.793329
5.696993 10.107721 7.381741
5.775487 4.550396 9.344934
5.568647 6.490906 9.010260
5.030020 4.894154 9.456466
2.757690 8.099817 8.481281
4.513486 7.728842 8.700604
3.324547 8.768724 8.164239
3.031599 7.257957 8.903481
4.246473 8.613859 8.291389
8.019855 9.721244 7.207200
6.234799 8.198571 8.318672
6.868525 9.972373 7.332299
5.999193 9.175008 7.901259
3.500682 5.487520 9.508442
4.737322 6.778624 9.036734
4.264812 5.208007 9.510433
3.280481 6.379223 9.246410
4.905399 5.841992 9.282197
3.888433 7.045500 8.996676
0.687992 0.425203 10.276565
2.079141 1.284980 10.180731
0.689941 1.141656 10.256106
1.377828 0.000000 10.226595
5.026529 3.106566 9.642675
3.515648 2.172790 9.977684
4.332855 3.454321 9.765053
0.696390 2.587401 10.112551
2.094368 2.025124 10.149783
0.692275 1.866689 10.201365
1.406400 3.075788 10.055202
1.389899 1.580694 10.215670
2.747279 -0.843279 9.939749
2.788265 0.855860 10.088037
2.070195 -0.426203 10.113476
2.081797 0.428592 10.170151
2.901865 4.071377 9.851935
2.836763 2.496374 10.052389
3.618836 3.778636 9.834412
2.143476 3.572049 9.969148
3.571791 2.965749 9.926831
2.124862 2.791437 10.079601
11.908539 7.359882 5.798711
10.145971 6.270555 7.309061
11.735780 6.242417 6.073803
11.139331 8.135133 6.278437
6.635796 4.101148 9.133618
8.352136 5.161904 8.385813
7.327315 3.691984 8.888394
6.607850 5.099729 9.048043
11.194465 4.121418 6.460559
9.978430 5.230987 7.485009
11.490817 5.152885 6.292485
10.339914 3.668439 7.133646
10.865019 5.741879 6.838182
9.184155 9.318693 6.984310
9.316713 6.907286 7.686124
10.214501 8.796442 6.678878
8.236470 8.597744 7.651915
10.230735 7.522263 7.046473
8.596137 2.795035 8.209507
9.060682 4.700279 8.048703
7.986936 3.252348 8.578293
9.465192 3.222859 7.715853
8.186489 4.192748 8.504878
9.737420 4.208588 7.625594
6.418107 7.141788 8.656897
8.364650 6.269259 8.243885
6.537114 6.123636 8.890873
7.304233 7.862227 8.207086
7.477263 5.677265 8.682660
8.347315 7.429036 7.996564
5.328386 -2.433244 8.621510
5.580067 -0.835333 9.028737
5.942989 -2.076835 8.437943
4.725490 -2.062073 9.034991
5.825262 2.660146 9.425472
5.751470 0.860992 9.306075
6.466936 2.259933 9.181851
5.045264 2.201613 9.646389
7.179602 -1.312703 8.003280
6.212563 -0.439888 8.841230
6.563368 -1.702150 8.231093
7.366794 -0.448927 8.205484
6.087036 -1.269099 8.655850
3.444529 -1.272752 9.692078
4.925029 -0.438160 9.386779
4.092225 -1.671692 9.394732
3.487941 -0.431133 9.829137
4.836410 -1.256693 9.227685
7.647916 1.398328 8.525321
6.322337 0.447661 8.997452
7.080455 1.836252 8.879569
7.525207 0.458580 8.381931
6.406729 1.335752 9.110458
6.860384 0.000000 8.629732
3.543769 1.309422 9.971315
4.993363 0.444239 9.517020
4.280824 1.748735 9.827709
3.521453 0.435276 9.923574
