-23.53948134 3.23457158 5.361631159
-22.34151174 6.175041972 0
-26.26207432 -11.38272453 7.034910647
-26.12113107 -3.519296129 2.175044624
-25.99645788 -7.49278008 8.547572769
-26.7446397 -11.70597103 2.411562657
-25.8105252 -3.54663682 5.878911013
-26.79582175 -7.406182982 0
-10.41225034 19.78809413 0
-7.795270563 21.62445717 0
-1.722498413 24.85300537 0
-4.913360085 23.32756449 0
14.10742198 26.81063027 0
9.84036322 27.29764301 0
1.81023967 26.1189769 0
5.685800858 26.99494519 0
-14.10742198 -26.81063027 0
-9.84036322 -27.29764301 0
-1.81023967 -26.1189769 0
-5.685800858 -26.99494519 0
10.41225034 -19.78809413 0
7.795270563 -21.62445717 0
1.722498413 -24.85300537 0
4.913360085 -23.32756449 0
-15.53167589 -26.3775029 2.017240864
-14.02354996 -26.38163715 5.972255137
-13.41882189 -26.90382785 1.983059792
-10.39268939 -25.11253928 13.42452803
-12.30282806 -25.95506929 9.786962264
-9.124739257 -27.2551111 1.902343363
-11.8656682 -26.76829317 5.865254833
-11.25798202 -27.18983473 1.946172093
-12.6639158 -26.88916919 3.950278717
-1.262302866 -17.76821354 25.44482162
-3.726124856 -20.18578233 22.90616038
-8.313496818 -23.86510615 16.84953565
-6.084519482 -22.22069335 20.02435829
-1.069914934 -25.85838632 1.731158728
-3.308690343 -26.21432669 5.353573433
-2.938314534 -26.39645628 1.775722786
-8.134299092 -25.24859075 13.16157241
-5.675291038 -26.06154416 9.182813795
-9.117405509 -25.77407769 11.43622571
-6.93906829 -27.12052319 1.867626217
-5.308506068 -26.60586905 5.490015739
-4.90904607 -26.82770262 1.820553848
-8.291437443 -27.10592343 3.791248611
-4.110373944 -26.56441608 3.614236569
-10.9655661 -26.53451968 7.815682225
-6.580688545 -26.49908997 7.477987156
-10.06887237 -26.20560328 9.64305463
-9.644282957 -26.91600454 5.787235431
-7.836721985 -26.2307501 9.438133541
-7.43608145 -26.8509538 5.660400644
11.25239529 -19.10998476 1.461451538
10.40221562 -19.56904484 4.430025626
10.00822479 -20.06581196 1.47903507
8.276718124 -19.99957866 10.69126867
9.420452086 -19.87416921 7.494017523
7.330331041 -21.89530915 1.528241653
9.095716755 -20.51943545 4.496054983
8.695168365 -21.00022814 1.503137417
9.566453422 -20.31235747 2.984081539
1.232140893 -17.34365269 24.8368328
3.450424252 -18.69221123 21.21130514
0 -18.63024354 23.72025671
6.931809958 -19.89877233 14.04917589
5.339070408 -19.49830988 17.57106031
-2.408935054 -20.94687372 21.19644283
2.284923267 -19.86853032 20.10525162
-1.220041748 -19.8391716 22.49596781
1.188669814 -19.32903071 21.91751054
1.038639667 -25.10250573 1.680554283
3.030975714 -24.01402952 4.904221724
2.714877095 -24.38919786 1.64069199
0 -25.40088504 3.422257487
6.746337878 -20.94040584 10.91580399
4.927016017 -22.62538514 7.972079379
7.397066165 -20.91083454 9.278354264
5.831727881 -22.79261489 1.569589378
4.634399212 -23.22729164 4.792859666
4.320507625 -23.61136809 1.602290276
6.77763484 -22.157081 3.099064408
3.689349429 -23.84342998 3.244031275
-2.179006579 -25.68399817 7.0988825
2.055612397 -24.22954824 6.696882428
-1.078842405 -25.60008945 5.240254374
1.047358311 -24.85299645 5.087326886
8.55509151 -20.70164385 6.097621961
5.591112259 -22.51426819 6.353478876
8.002730621 -20.82818971 7.66429107
7.688241214 -21.45693323 4.613475378
6.498630381 -21.7519455 7.826606773
6.194211495 -22.36668436 4.715079974
-6.914228211 -24.49860137 15.14096833
-2.203240525 -23.81382068 14.71775058
-5.849232478 -23.76476587 16.73793394
-5.719745533 -25.06112051 13.10749338
5.898029553 -20.89799042 12.91566837
2.085659491 -22.54294098 13.93230373
5.116083941 -20.7860668 14.63998488
4.984586511 -21.84001413 11.42278697
-3.609866194 -22.008614 19.74354269
-1.143294671 -22.97886969 16.14681156
-4.741689373 -22.92939737 18.28360975
-1.180324932 -21.57398837 19.36889259
-3.439097785 -23.45626494 16.49510082
-3.366153026 -25.63343687 9.110029181
-1.127049863 -24.14499793 12.66832966
-4.525701215 -25.43396357 11.07870774
-1.098637172 -25.047141 8.888161428
-3.361035332 -24.67952011 12.93501775
3.329441746 -20.29892364 18.20980937
1.111489482 -22.33962304 15.69762519
4.257764207 -20.58927941 16.41762946
1.148458113 -20.99152641 18.84596456
3.16830783 -21.60935004 15.19629867
0 -22.0343306 17.51664631
3.084899742 -23.49167793 8.348855933
1.094621585 -23.45028094 12.3038275
4.040910117 -22.70948872 9.891961505
1.066687301 -24.31873589 8.629681541
3.08979245 -22.687829 11.8911336
0 -24.29701403 10.63465972
-11.25239529 19.10998476 1.461451538
-10.40221562 19.56904484 4.430025626
-10.00822479 20.06581196 1.47903507
-8.276718124 19.99957866 10.69126867
-9.420452086 19.87416921 7.494017523
-7.330331041 21.89530915 1.528241653
-9.095716755 20.51943545 4.496054983
-8.695168365 21.00022814 1.503137417
-9.566453422 20.31235747 2.984081539
-1.232140893 17.34365269 24.8368328
-3.450424252 18.69221123 21.21130514
-6.931809958 19.89877233 14.04917589
-5.339070408 19.49830988 17.57106031
-1.038639667 25.10250573 1.680554283
-3.030975714 24.01402952 4.904221724
-2.714877095 24.38919786 1.64069199
-6.746337878 20.94040584 10.91580399
-4.927016017 22.62538514 7.972079379
-7.397066165 20.91083454 9.278354264
-5.831727881 22.79261489 1.569589378
-4.634399212 23.22729164 4.792859666
-4.320507625 23.61136809 1.602290276
-6.77763484 22.157081 3.099064408
-3.689349429 23.84342998 3.244031275
-8.55509151 20.70164385 6.097621961
-5.591112259 22.51426819 6.353478876
-8.002730621 20.82818971 7.66429107
-7.688241214 21.45693323 4.613475378
-6.498630381 21.7519455 7.826606773
-6.194211495 22.36668436 4.715079974
15.53167589 26.3775029 2.017240864
14.02354996 26.38163715 5.972255137
13.41882189 26.90382785 1.983059792
10.39268939 25.11253928 13.42452803
12.30282806 25.95506929 9.786962264
9.124739257 27.2551111 1.902343363
11.8656682 26.76829317 5.865254833
11.25798202 27.18983473 1.946172093
12.6639158 26.88916919 3.950278717
1.262302866 17.76821354 25.44482162
3.726124856 20.18578233 22.90616038
0 18.63024354 23.72025671
8.313496818 23.86510615 16.84953565
6.084519482 22.22069335 20.02435829
-2.284923267 19.86853032 20.10525162
2.408935054 20.94687372 21.19644283
-1.188669814 19.32903071 21.91751054
1.220041748 19.8391716 22.49596781
1.069914934 25.85838632 1.731158728
3.308690343 26.21432669 5.353573433
2.938314534 26.39645628 1.775722786
0 25.40088504 3.422257487
8.134299092 25.24859075 13.16157241
5.675291038 26.06154416 9.182813795
9.117405509 25.77407769 11.43622571
6.93906829 27.12052319 1.867626217
5.308506068 26.60586905 5.490015739
4.90904607 26.82770262 1.820553848
8.291437443 27.10592343 3.791248611
4.110373944 26.56441608 3.614236569
-2.055612397 24.22954824 6.696882428
2.179006579 25.68399817 7.0988825
-1.047358311 24.85299645 5.087326886
1.078842405 25.60008945 5.240254374
10.9655661 26.53451968 7.815682225
6.580688545 26.49908997 7.477987156
10.06887237 26.20560328 9.64305463
9.644282957 26.91600454 5.787235431
7.836721985 26.2307501 9.438133541
7.43608145 26.8509538 5.660400644
-5.898029553 20.89799042 12.91566837
-2.085659491 22.54294098 13.93230373
-5.116083941 20.7860668 14.63998488
-4.984586511 21.84001413 11.42278697
6.914228211 24.49860137 15.14096833
2.203240525 23.81382068 14.71775058
5.849232478 23.76476587 16.73793394
5.719745533 25.06112051 13.10749338
-3.329441746 20.29892364 18.20980937
-1.111489482 22.33962304 15.69762519
-4.257764207 20.58927941 16.41762946
-1.148458113 20.99152641 18.84596456
-3.16830783 21.60935004 15.19629867
-3.084899742 23.49167793 8.348855933
-1.094621585 23.45028094 12.3038275
-4.040910117 22.70948872 9.891961505
-1.066687301 24.31873589 8.629681541
-3.08979245 22.687829 11.8911336
3.609866194 22.008614 19.74354269
1.143294671 22.97886969 16.14681156
4.741689373 22.92939737 18.28360975
1.180324932 21.57398837 19.36889259
3.439097785 23.45626494 16.49510082
0 22.0343306 17.51664631
3.366153026 25.63343687 9.110029181
1.127049863 24.14499793 12.66832966
4.525701215 25.43396357 11.07870774
1.098637172 25.047141 8.888161428
3.361035332 24.67952011 12.93501775
0 24.29701403 10.63465972
0 -14.85044471 28.2227173
0 -11.23250815 31.1595203
0 -2.394357195 34.54689525
0 -7.026302273 33.3593542
0 14.85044471 28.2227173
0 11.23250815 31.1595203
0 2.394357195 34.54689525
0 7.026302273 33.3593542
-15.53167589 -26.3775029 -2.017240864
-14.02354996 -26.38163715 -5.972255137
-13.41882189 -26.90382785 -1.983059792
-10.39268939 -25.11253928 -13.42452803
-12.30282806 -25.95506929 -9.786962264
-9.124739257 -27.2551111 -1.902343363
-11.8656682 -26.76829317 -5.865254833
-11.25798202 -27.18983473 -1.946172093
-12.6639158 -26.88916919 -3.950278717
-1.262302866 -17.76821354 -25.44482162
-3.726124856 -20.18578233 -22.90616038
-8.313496818 -23.86510615 -16.84953565
-6.084519482 -22.22069335 -20.02435829
-1.069914934 -25.85838632 -1.731158728
-3.308690343 -26.21432669 -5.353573433
-2.938314534 -26.39645628 -1.775722786
-8.134299092 -25.24859075 -13.16157241
-5.675291038 -26.06154416 -9.182813795
-9.117405509 -25.77407769 -11.43622571
-6.93906829 -27.12052319 -1.867626217
-5.308506068 -26.60586905 -5.490015739
-4.90904607 -26.82770262 -1.820553848
-8.291437443 -27.10592343 -3.791248611
-4.110373944 -26.56441608 -3.614236569
-10.9655661 -26.53451968 -7.815682225
-6.580688545 -26.49908997 -7.477987156
-10.06887237 -26.20560328 -9.64305463
-9.644282957 -26.91600454 -5.787235431
-7.836721985 -26.2307501 -9.438133541
-7.43608145 -26.8509538 -5.660400644
11.25239529 -19.10998476 -1.461451538
10.40221562 -19.56904484 -4.430025626
10.00822479 -20.06581196 -1.47903507
8.276718124 -19.99957866 -10.69126867
9.420452086 -19.87416921 -7.494017523
7.330331041 -21.89530915 -1.528241653
9.095716755 -20.51943545 -4.496054983
8.695168365 -21.00022814 -1.503137417
9.566453422 -20.31235747 -2.984081539
1.232140893 -17.34365269 -24.8368328
3.450424252 -18.69221123 -21.21130514
0 -18.63024354 -23.72025671
6.931809958 -19.89877233 -14.04917589
5.339070408 -19.49830988 -17.57106031
-2.408935054 -20.94687372 -21.19644283
2.284923267 -19.86853032 -20.10525162
-1.220041748 -19.8391716 -22.49596781
1.188669814 -19.32903071 -21.91751054
1.038639667 -25.10250573 -1.680554283
3.030975714 -24.01402952 -4.904221724
2.714877095 -24.38919786 -1.64069199
0 -25.40088504 -3.422257487
6.746337878 -20.94040584 -10.91580399
4.927016017 -22.62538514 -7.972079379
7.397066165 -20.91083454 -9.278354264
5.831727881 -22.79261489 -1.569589378
4.634399212 -23.22729164 -4.792859666
4.320507625 -23.61136809 -1.602290276
6.77763484 -22.157081 -3.099064408
3.689349429 -23.84342998 -3.244031275
-2.179006579 -25.68399817 -7.0988825
2.055612397 -24.22954824 -6.696882428
-1.078842405 -25.60008945 -5.240254374
1.047358311 -24.85299645 -5.087326886
8.55509151 -20.70164385 -6.097621961
5.591112259 -22.51426819 -6.353478876
8.002730621 -20.82818971 -7.66429107
7.688241214 -21.45693323 -4.613475378
6.498630381 -21.7519455 -7.826606773
6.194211495 -22.36668436 -4.715079974
-6.914228211 -24.49860137 -15.14096833
-2.203240525 -23.81382068 -14.71775058
-5.849232478 -23.76476587 -16.73793394
-5.719745533 -25.06112051 -13.10749338
5.898029553 -20.89799042 -12.91566837
2.085659491 -22.54294098 -13.93230373
5.116083941 -20.7860668 -14.63998488
4.984586511 -21.84001413 -11.42278697
-3.609866194 -22.008614 -19.74354269
-1.143294671 -22.97886969 -16.14681156
-4.741689373 -22.92939737 -18.28360975
-1.180324932 -21.57398837 -19.36889259
-3.439097785 -23.45626494 -16.49510082
-3.366153026 -25.63343687 -9.110029181
-1.127049863 -24.14499793 -12.66832966
-4.525701215 -25.43396357 -11.07870774
-1.098637172 -25.047141 -8.888161428
-3.361035332 -24.67952011 -12.93501775
3.329441746 -20.29892364 -18.20980937
1.111489482 -22.33962304 -15.69762519
4.257764207 -20.58927941 -16.41762946
1.148458113 -20.99152641 -18.84596456
3.16830783 -21.60935004 -15.19629867
0 -22.0343306 -17.51664631
3.084899742 -23.49167793 -8.348855933
1.094621585 -23.45028094 -12.3038275
4.040910117 -22.70948872 -9.891961505
1.066687301 -24.31873589 -8.629681541
3.08979245 -22.687829 -11.8911336
0 -24.29701403 -10.63465972
-11.25239529 19.10998476 -1.461451538
-10.40221562 19.56904484 -4.430025626
-10.00822479 20.06581196 -1.47903507
-8.276718124 19.99957866 -10.69126867
-9.420452086 19.87416921 -7.494017523
-7.330331041 21.89530915 -1.528241653
-9.095716755 20.51943545 -4.496054983
-8.695168365 21.00022814 -1.503137417
-9.566453422 20.31235747 -2.984081539
-1.232140893 17.34365269 -24.8368328
-3.450424252 18.69221123 -21.21130514
-6.931809958 19.89877233 -14.04917589
-5.339070408 19.49830988 -17.57106031
-1.038639667 25.10250573 -1.680554283
-3.030975714 24.01402952 -4.904221724
-2.714877095 24.38919786 -1.64069199
-6.746337878 20.94040584 -10.91580399
-4.927016017 22.62538514 -7.972079379
-7.397066165 20.91083454 -9.278354264
-5.831727881 22.79261489 -1.569589378
-4.634399212 23.22729164 -4.792859666
-4.320507625 23.61136809 -1.602290276
-6.77763484 22.157081 -3.099064408
-3.689349429 23.84342998 -3.244031275
-8.55509151 20.70164385 -6.097621961
-5.591112259 22.51426819 -6.353478876
-8.002730621 20.82818971 -7.66429107
-7.688241214 21.45693323 -4.613475378
-6.498630381 21.7519455 -7.826606773
-6.194211495 22.36668436 -4.715079974
15.53167589 26.3775029 -2.017240864
14.02354996 26.38163715 -5.972255137
13.41882189 26.90382785 -1.983059792
10.39268939 25.11253928 -13.42452803
12.30282806 25.95506929 -9.786962264
9.124739257 27.2551111 -1.902343363
11.8656682 26.76829317 -5.865254833
11.25798202 27.18983473 -1.946172093
12.6639158 26.88916919 -3.950278717
1.262302866 17.76821354 -25.44482162
3.726124856 20.18578233 -22.90616038
0 18.63024354 -23.72025671
8.313496818 23.86510615 -16.84953565
6.084519482 22.22069335 -20.02435829
-2.284923267 19.86853032 -20.10525162
2.408935054 20.94687372 -21.19644283
-1.188669814 19.32903071 -21.91751054
1.220041748 19.8391716 -22.49596781
1.069914934 25.85838632 -1.731158728
3.308690343 26.21432669 -5.353573433
2.938314534 26.39645628 -1.775722786
0 25.40088504 -3.422257487
8.134299092 25.24859075 -13.16157241
5.675291038 26.06154416 -9.182813795
9.117405509 25.77407769 -11.43622571
6.93906829 27.12052319 -1.867626217
5.308506068 26.60586905 -5.490015739
4.90904607 26.82770262 -1.820553848
8.291437443 27.10592343 -3.791248611
4.110373944 26.56441608 -3.614236569
-2.055612397 24.22954824 -6.696882428
2.179006579 25.68399817 -7.0988825
-1.047358311 24.85299645 -5.087326886
1.078842405 25.60008945 -5.240254374
10.9655661 26.53451968 -7.815682225
6.580688545 26.49908997 -7.477987156
10.06887237 26.20560328 -9.64305463
9.644282957 26.91600454 -5.787235431
7.836721985 26.2307501 -9.438133541
7.43608145 26.8509538 -5.660400644
-5.898029553 20.89799042 -12.91566837
-2.085659491 22.54294098 -13.93230373
-5.116083941 20.7860668 -14.63998488
-4.984586511 21.84001413 -11.42278697
6.914228211 24.49860137 -15.14096833
2.203240525 23.81382068 -14.71775058
5.849232478 23.76476587 -16.73793394
5.719745533 25.06112051 -13.10749338
-3.329441746 20.29892364 -18.20980937
-1.111489482 22.33962304 -15.69762519
-4.257764207 20.58927941 -16.41762946
-1.148458113 20.99152641 -18.84596456
-3.16830783 21.60935004 -15.19629867
-3.084899742 23.49167793 -8.348855933
-1.094621585 23.45028094 -12.3038275
-4.040910117 22.70948872 -9.891961505
-1.066687301 24.31873589 -8.629681541
-3.08979245 22.687829 -11.8911336
3.609866194 22.008614 -19.74354269
1.143294671 22.97886969 -16.14681156
4.741689373 22.92939737 -18.28360975
1.180324932 21.57398837 -19.36889259
3.439097785 23.45626494 -16.49510082
0 22.0343306 -17.51664631
3.366153026 25.63343687 -9.110029181
1.127049863 24.14499793 -12.66832966
4.525701215 25.43396357 -11.07870774
1.098637172 25.047141 -8.888161428
3.361035332 24.67952011 -12.93501775
0 24.29701403 -10.63465972
0 -14.85044471 -28.2227173
0 -11.23250815 -31.1595203
0 -2.394357195 -34.54689525
0 -7.026302273 -33.3593542
0 14.85044471 -28.2227173
0 11.23250815 -31.1595203
0 2.394357195 -34.54689525
0 7.026302273 -33.3593542
17.81613453 25.51344648 -1.265707306
20.70857897 23.49941277 -3.822628698
17.14070976 25.68998136 -3.30769773
24.49478368 17.29410833 -8.532847286
22.97833589 20.70711401 -6.29197884
15.60237318 25.69480758 -7.3408592
20.03759896 23.67537678 -5.918384575
16.39940582 25.74924322 -5.347250639
18.65915883 24.78403937 -4.623690904
23.61444629 1.805933876 -13.90472508
24.66276069 5.58313718 -13.10985572
25.2289857 13.48677734 -10.44088012
25.24517234 9.519279117 -11.96633348
11.84865774 24.33302817 -15.03863846
16.62976982 23.08438144 -14.26693234
12.85276139 24.83405798 -13.20956442
23.8653247 17.33874131 -10.71593145
20.77172334 20.6883068 -12.78607677
23.20932971 19.13304807 -9.640491113
14.72397741 25.51281736 -9.39294333
17.56453645 23.41567189 -12.27518476
13.81648603 25.2305263 -11.31425328
17.09047583 24.77191166 -8.788685591
15.27523779 24.27044697 -12.82629782
21.30516731 22.30854156 -7.253625147
19.74338695 22.22576014 -11.5297362
22.34897688 20.80831578 -8.473323372
19.31620399 23.6955757 -8.068246724
21.61030214 20.80129708 -10.65347883
18.487791 23.60778491 -10.20346685
12.5842104 -18.02111327 -0.8940169938
14.37521155 -16.3125162 -2.653542587
12.20306491 -18.28958745 -2.354864569
17.60437498 -12.42925726 -6.132548267
16.04351993 -14.45774829 -4.393072172
11.36165231 -18.71096574 -5.345615629
14.0009828 -16.5428275 -4.135385721
11.79527971 -18.52015429 -3.846012329
13.12266504 -17.43018803 -3.251762179
22.5747858 -1.726424999 -13.29254924
21.59543085 -4.888757363 -11.47937112
19.06141593 -10.18975061 -7.888464522
20.40290046 -7.693387933 -9.67107325
9.26059155 -19.01803901 -11.75379451
12.23232726 -16.98013331 -10.49429952
9.842401677 -19.01745208 -10.1156347
17.24892239 -12.53176343 -7.745055738
14.87678152 -14.8170383 -9.157433282
16.48920706 -13.59318839 -6.849144552
10.88421554 -18.85951027 -6.943424112
12.71338348 -16.9484926 -8.884898927
10.384386 -18.96310852 -8.503723236
12.2846713 -17.80610412 -6.317326369
11.32535926 -17.99458281 -9.509667401
14.87954056 -15.58029768 -5.065935788
14.06808028 -15.83688648 -8.215472594
15.6954083 -14.61342119 -5.950709545
13.62008215 -16.70802855 -5.689015465
15.30665987 -14.73363848 -7.545899901
13.19085341 -16.84391769 -7.280071233
2.028284092 -15.61670284 -26.52190449
5.888138237 -13.82603369 -26.010062
3.184333284 -16.50142699 -24.73184353
2.075260529 -14.042719 -28.15469923
12.63682596 -9.782884494 -23.63902757
9.433959063 -11.8590808 -25.01890316
5.255555603 -17.79348979 -21.023855
6.894507903 -14.65369138 -24.13246857
4.268011369 -17.22379451 -22.87751581
5.085700158 -15.59726043 -24.4897685
2.168451364 -10.40114717 -31.06767369
6.041659188 -12.22254196 -27.5733807
2.125088839 -12.29295807 -29.68946813
4.103840213 -13.1562076 -27.9344476
22.11656748 -1.097190105 -15.4440813
20.21909636 -3.289022528 -17.81783902
21.7276348 -2.797528239 -14.49697751
15.49385164 -7.644607483 -21.94496167
18.01607143 -5.474289663 -19.99213122
20.72587396 -5.921263355 -12.5851427
19.81145613 -4.952479423 -16.76737888
21.25581319 -4.414116552 -13.53759036
20.80131675 -3.880677303 -15.6606866
8.503895393 -18.93892524 -13.75959178
10.20589705 -16.58007172 -16.51348831
7.806879087 -18.79493779 -15.49396095
10.1187367 -17.95286966 -13.11110922
13.38901515 -10.54895085 -21.66388159
11.84433777 -13.80595394 -19.16454109
11.91476426 -11.59293503 -22.39982614
6.211038714 -18.24290838 -19.10206448
9.509024531 -16.28314366 -18.33045394
7.03934319 -18.56675489 -17.28682709
7.038352915 -16.85053337 -20.67088799
8.669991542 -17.58685025 -16.92846747
13.07908256 -15.85377212 -11.7537736
11.81307369 -15.53383239 -15.76138679
11.65101067 -16.91603738 -12.43770586
10.97576983 -16.78605381 -14.45567849
8.700199594 -13.63806187 -23.6312086
10.35494352 -14.81686725 -19.75269332
10.34250099 -12.62982337 -23.06354089
7.873504851 -15.31081559 -22.19237047
11.14757053 -13.27598914 -21.09389031
8.747953135 -15.85052724 -20.24015945
2.305416324 -1.424825647 -34.43609473
6.628081866 -4.096379874 -32.45508921
2.287354239 -3.784918602 -34.00195495
13.01203935 -8.041882581 -24.96173301
10.23860042 -6.327803054 -29.05794921
11.42914059 -9.111756972 -25.75810979
2.224955336 -8.266706088 -32.30943764
6.510916643 -6.295654175 -31.5533878
2.258400527 -6.08968103 -33.27981637
4.311672921 -9.429602216 -30.82675078
4.486166562 -5.101996449 -32.9730478
7.974584397 -11.18850918 -27.07399821
8.400551728 -7.392552753 -29.76830147
9.739921848 -10.17001705 -26.468846
6.244011232 -10.40548839 -29.04043505
10.01439787 -8.31520889 -27.83232158
6.405881895 -8.415421898 -30.38725519
18.1166855 -11.19672741 -8.821688956
17.45843589 -10.78990677 -12.57689191
18.813817 -10.0073185 -9.737011204
16.97578916 -12.39754033 -9.568026946
15.03583493 -9.292657038 -20.69556701
16.46865827 -10.17819056 -16.53506092
16.33159863 -8.228936181 -19.81103357
14.27872305 -11.01986388 -19.55166795
20.11202923 -7.404558584 -11.60707028
18.10985047 -9.493716919 -13.58453988
19.48483252 -8.737682581 -10.67008722
19.75927843 -7.010281968 -13.63219259
18.49853223 -9.775991519 -11.64253295
14.49091452 -14.70319126 -11.01996189
16.20347976 -12.01304215 -13.36758519
15.76112106 -13.57303517 -10.30560482
13.97093768 -14.58374181 -12.97939977
16.62780297 -12.22577828 -11.45248769
18.69961217 -6.080181293 -17.85855722
17.61633341 -9.13857055 -15.64878255
17.55940289 -7.150338378 -18.85951238
19.29209567 -6.568879765 -15.72656686
17.03600112 -8.725065389 -17.6985661
18.71737676 -8.089794702 -14.65800163
12.67795019 -14.10746564 -17.1003237
15.65996675 -11.73705992 -15.4338766
13.48549519 -12.63252646 -18.34109467
13.36689073 -14.38803031 -15.01912929
15.03406326 -11.41492031 -17.45767901
14.83810436 -13.20578016 -14.214612
2.103219047 16.19366192 -27.50175624
6.501882103 15.2671757 -28.72119333
3.387020427 17.55176525 -26.30605899
2.145485432 14.51791167 -29.10742831
14.82235876 11.47482953 -27.7273857
10.87312802 13.66820683 -28.8355859
5.900375876 19.97662774 -23.60333639
7.822714931 16.62651664 -27.38142081
4.663525822 18.81991483 -24.99756363
5.600083777 17.17481612 -26.96674028
2.224591227 10.67042643 -31.87199652
6.604438944 13.36107014 -30.14183747
2.189210328 12.66388035 -30.585305
4.372959991 14.01895944 -29.76632017
22.73444362 1.127842583 -15.8755465
21.89129391 3.561037425 -19.29144329
23.35231874 3.00671342 -15.58098903
21.85746201 0 -17.16717679
18.03208062 8.896960006 -25.54002239
20.37201428 6.190156808 -22.60648135
24.27716976 6.935848203 -14.74155668
22.38607778 5.596084854 -18.94640381
23.87409438 4.957845377 -15.20514444
22.94831079 4.281218824 -17.27709392
19.85254469 -2.256203609 -19.61879878
20.91444543 2.376886591 -20.66819659
20.89151538 -1.133026201 -18.4242066
21.46025499 1.16387111 -18.92577749
10.59565052 23.59744845 -17.14412268
12.89809597 20.95370503 -20.86955768
9.496660951 22.86306088 -18.84759483
13.07838092 23.20393101 -16.9459969
16.14280743 12.71861151 -26.1196111
14.8206232 17.27516095 -23.98027208
14.29405629 13.90796009 -26.872909
7.173608216 21.07014357 -22.06244929
11.7236522 20.07544647 -22.59957012
8.347020174 22.01584345 -20.49814742
8.193295574 19.61558367 -24.06283076
10.647116 21.59739531 -20.78887343
17.76809853 21.53754928 -15.96764961
15.32046689 20.14594772 -20.44106479
15.50685438 22.51431535 -16.55390241
14.25411013 21.79986128 -18.77342878
10.12865598 15.87724918 -27.51113692
12.73648309 18.22460728 -24.2956269
12.26238972 14.97431003 -27.34484891
9.192361796 17.87546448 -25.90971904
13.58857304 16.1830551 -25.71285541
10.50375472 19.03188641 -24.30256165
2.31382849 1.430024651 -34.56174759
6.83631544 4.2250753 -33.47472647
2.309550758 3.821647506 -34.33191041
4.59637976 0 -34.11552588
14.84026949 9.171790945 -28.46893057
11.06085827 6.835986357 -31.39158135
13.02558042 10.38450112 -29.35604194
2.271593463 8.439987628 -32.98668793
6.827436939 6.601709748 -33.08731738
2.293516963 6.184371009 -33.79729258
4.519451121 9.884011863 -32.31228247
4.604099113 5.236117965 -33.83984478
8.792236272 -2.698782616 -31.81060967
9.032199043 2.772439344 -32.67880313
6.789355448 -1.397765077 -33.16787591
6.861676227 1.412654187 -33.52118288
8.899989399 12.48687181 -30.21578117
9.043925962 7.958727227 -32.04817055
11.02029693 11.5069309 -29.94834527
6.747067332 11.24381879 -31.38011181
11.08608327 9.205056498 -30.81078251
6.825255256 8.966353656 -32.37661521
24.38873503 15.07306719 -11.87578348
22.84981446 14.12196197 -16.46078999
24.61914005 13.09524673 -12.74153153
23.20923791 16.94987257 -13.08137204
18.08432733 11.17672895 -24.89156138
20.75463202 12.82706801 -20.83831599
19.47755419 9.814076015 -23.62723262
17.6789595 13.64405812 -24.20756707
24.5533334 9.039694281 -14.17023927
22.9974716 12.05595185 -17.25083654
24.66992471 11.06285986 -13.50949505
23.7198156 8.415418416 -16.36462058
23.87314352 12.61633332 -15.02518451
19.91935877 20.21115655 -15.14815192
21.46386472 15.91302087 -17.70731007
21.70456022 18.69135818 -14.19179635
18.84173563 19.66818648 -17.50451005
22.40415347 16.47290465 -15.4309798
21.61003816 7.026506677 -20.63808059
21.94702633 11.38514149 -19.49578465
20.65701365 8.411711856 -22.18647224
22.73613687 7.741561725 -18.53408685
20.78843296 10.64689041 -21.59693771
22.94531455 9.917142046 -17.96899546
16.30191934 18.14005919 -21.98842032
20.32085082 15.23036718 -20.02746934
17.07724216 15.99709246 -23.22608928
17.62695665 18.97353632 -19.80576832
19.08078959 14.48748012 -22.1567712
19.70478104 17.53707888 -18.87679249
14.77684197 -6.747947385 -23.90943255
15.9012705 -2.380412915 -25.72879614
16.16156476 -5.647814706 -22.94642838
13.61936383 -5.94311156 -26.03980092
16.73493803 7.642125531 -27.07769853
16.61107142 2.486669788 -26.87727815
18.088215 6.321101219 -25.68191486
15.0294876 6.558450351 -28.7359138
18.67892595 -3.415213996 -20.82185946
17.28057786 -1.223572375 -24.59235653
17.46938981 -4.530528771 -21.9082876
19.30146492 -1.176215943 -21.49888425
16.76645796 -3.495673596 -23.84213859
10.6758621 -3.944727818 -30.03931512
14.57386164 -1.296577307 -27.77681578
12.24858214 -5.003600093 -28.11970487
10.95259239 -1.353814873 -30.86477763
14.14944638 -3.676592498 -26.99660358
20.15317661 3.684762765 -22.46524304
17.69896161 1.253196546 -25.18776731
19.23172845 4.987575411 -24.118429
19.80458334 1.20687558 -22.05928133
17.97039067 3.746684025 -25.55414781
18.58566031 0 -23.37905192
11.2101583 4.142150102 -31.54269646
14.8879776 1.32452293 -28.37550002
13.17293417 5.381201993 -30.24178773
11.13654407 1.37655255 -31.3831597
15.04022503 3.908052445 -28.69617525
13.00131631 0 -29.70411589
17.81613453 25.51344648 1.265707306
20.70857897 23.49941277 3.822628698
17.14070976 25.68998136 3.30769773
19.38093139 24.67604177 0
24.49478368 17.29410833 8.532847286
22.97833589 20.70711401 6.29197884
15.60237318 25.69480758 7.3408592
20.03759896 23.67537678 5.918384575
16.39940582 25.74924322 5.347250639
18.65915883 24.78403937 4.623690904
22.11068037 22.37411552 -2.542775295
22.11068037 22.37411552 2.542775295
20.83033136 23.61986041 -1.280994711
20.83033136 23.61986041 1.280994711
23.61444629 1.805933876 13.90472508
24.66276069 5.58313718 13.10985572
25.2289857 13.48677734 10.44088012
25.24517234 9.519279117 11.96633348
11.84865774 24.33302817 15.03863846
16.62976982 23.08438144 14.26693234
12.85276139 24.83405798 13.20956442
23.8653247 17.33874131 10.71593145
20.77172334 20.6883068 12.78607677
23.20932971 19.13304807 9.640491113
14.72397741 25.51281736 9.39294333
17.56453645 23.41567189 12.27518476
13.81648603 25.2305263 11.31425328
17.09047583 24.77191166 8.788685591
15.27523779 24.27044697 12.82629782
21.30516731 22.30854156 7.253625147
19.74338695 22.22576014 11.5297362
22.34897688 20.80831578 8.473323372
19.31620399 23.6955757 8.068246724
21.61030214 20.80129708 10.65347883
18.487791 23.60778491 10.20346685
25.39641344 15.6958467 -7.167617269
25.89425101 16.00352724 -2.395720702
24.88829678 17.52925612 -6.125767646
25.39641344 15.6958467 7.167617269
25.89425101 16.00352724 2.395720702
24.88829678 17.52925612 6.125767646
23.26681428 20.87225215 -3.816236965
25.28275627 17.76570853 -1.257922644
24.17343669 19.27559088 -4.998950737
23.38542557 20.99518124 -1.279429671
25.15147937 17.68722297 -3.687645804
23.26681428 20.87225215 3.816236965
25.28275627 17.76570853 1.257922644
24.17343669 19.27559088 4.998950737
23.38542557 20.99518124 1.279429671
25.15147937 17.68722297 3.687645804
24.45188036 19.43852744 0
12.5842104 -18.02111327 0.8940169938
14.37521155 -16.3125162 2.653542587
12.20306491 -18.28958745 2.354864569
13.51413293 -17.20636135 0
17.60437498 -12.42925726 6.132548267
16.04351993 -14.45774829 4.393072172
11.36165231 -18.71096574 5.345615629
14.0009828 -16.5428275 4.135385721
11.79527971 -18.52015429 3.846012329
13.12266504 -17.43018803 3.251762179
15.28300726 -15.46509488 -1.757578358
15.28300726 -15.46509488 1.757578358
14.41856701 -16.3494538 -0.886692956
14.41856701 -16.3494538 0.886692956
22.5747858 -1.726424999 13.29254924
21.59543085 -4.888757363 11.47937112
19.06141593 -10.18975061 7.888464522
20.40290046 -7.693387933 9.67107325
9.26059155 -19.01803901 11.75379451
12.23232726 -16.98013331 10.49429952
9.842401677 -19.01745208 10.1156347
17.24892239 -12.53176343 7.745055738
14.87678152 -14.8170383 9.157433282
16.48920706 -13.59318839 6.849144552
10.88421554 -18.85951027 6.943424112
12.71338348 -16.9484926 8.884898927
10.384386 -18.96310852 8.503723236
12.2846713 -17.80610412 6.317326369
11.32535926 -17.99458281 9.509667401
14.87954056 -15.58029768 5.065935788
14.06808028 -15.83688648 8.215472594
15.6954083 -14.61342119 5.950709545
13.62008215 -16.70802855 5.689015465
15.30665987 -14.73363848 7.545899901
13.19085341 -16.84391769 7.280071233
18.51844602 -11.44502906 -5.226451907
18.7088234 -11.56268875 -1.730929213
17.75937262 -12.50823204 -4.371122346
18.51844602 -11.44502906 5.226451907
18.7088234 -11.56268875 1.730929213
17.75937262 -12.50823204 4.371122346
16.15973334 -14.49661415 -2.650529247
17.91141013 -12.5860048 -0.8911674081
16.96826714 -13.53028035 -3.508956241
16.19599793 -14.54059114 -0.8860920764
17.86110643 -12.56042904 -2.618749904
16.15973334 -14.49661415 2.650529247
17.91141013 -12.5860048 0.8911674081
16.96826714 -13.53028035 3.508956241
16.19599793 -14.54059114 0.8860920764
17.86110643 -12.56042904 2.618749904
17.07701033 -13.57572215 0
2.028284092 -15.61670284 26.52190449
5.888138237 -13.82603369 26.010062
3.184333284 -16.50142699 24.73184353
2.075260529 -14.042719 28.15469923
12.63682596 -9.782884494 23.63902757
9.433959063 -11.8590808 25.01890316
5.255555603 -17.79348979 21.023855
6.894507903 -14.65369138 24.13246857
4.268011369 -17.22379451 22.87751581
5.085700158 -15.59726043 24.4897685
2.168451364 -10.40114717 31.06767369
6.041659188 -12.22254196 27.5733807
2.125088839 -12.29295807 29.68946813
4.103840213 -13.1562076 27.9344476
22.11656748 -1.097190105 15.4440813
20.21909636 -3.289022528 17.81783902
21.7276348 -2.797528239 14.49697751
15.49385164 -7.644607483 21.94496167
18.01607143 -5.474289663 19.99213122
20.72587396 -5.921263355 12.5851427
19.81145613 -4.952479423 16.76737888
21.25581319 -4.414116552 13.53759036
20.80131675 -3.880677303 15.6606866
8.503895393 -18.93892524 13.75959178
10.20589705 -16.58007172 16.51348831
7.806879087 -18.79493779 15.49396095
10.1187367 -17.95286966 13.11110922
13.38901515 -10.54895085 21.66388159
11.84433777 -13.80595394 19.16454109
11.91476426 -11.59293503 22.39982614
6.211038714 -18.24290838 19.10206448
9.509024531 -16.28314366 18.33045394
7.03934319 -18.56675489 17.28682709
7.038352915 -16.85053337 20.67088799
8.669991542 -17.58685025 16.92846747
13.07908256 -15.85377212 11.7537736
11.81307369 -15.53383239 15.76138679
11.65101067 -16.91603738 12.43770586
10.97576983 -16.78605381 14.45567849
8.700199594 -13.63806187 23.6312086
10.35494352 -14.81686725 19.75269332
10.34250099 -12.62982337 23.06354089
7.873504851 -15.31081559 22.19237047
11.14757053 -13.27598914 21.09389031
8.747953135 -15.85052724 20.24015945
2.305416324 -1.424825647 34.43609473
6.628081866 -4.096379874 32.45508921
2.287354239 -3.784918602 34.00195495
13.01203935 -8.041882581 24.96173301
10.23860042 -6.327803054 29.05794921
11.42914059 -9.111756972 25.75810979
2.224955336 -8.266706088 32.30943764
6.510916643 -6.295654175 31.5533878
2.258400527 -6.08968103 33.27981637
4.311672921 -9.429602216 30.82675078
4.486166562 -5.101996449 32.9730478
7.974584397 -11.18850918 27.07399821
8.400551728 -7.392552753 29.76830147
9.739921848 -10.17001705 26.468846
6.244011232 -10.40548839 29.04043505
10.01439787 -8.31520889 27.83232158
6.405881895 -8.415421898 30.38725519
18.1166855 -11.19672741 8.821688956
17.45843589 -10.78990677 12.57689191
18.813817 -10.0073185 9.737011204
16.97578916 -12.39754033 9.568026946
15.03583493 -9.292657038 20.69556701
16.46865827 -10.17819056 16.53506092
16.33159863 -8.228936181 19.81103357
14.27872305 -11.01986388 19.55166795
20.11202923 -7.404558584 11.60707028
18.10985047 -9.493716919 13.58453988
19.48483252 -8.737682581 10.67008722
19.75927843 -7.010281968 13.63219259
18.49853223 -9.775991519 11.64253295
14.49091452 -14.70319126 11.01996189
16.20347976 -12.01304215 13.36758519
15.76112106 -13.57303517 10.30560482
13.97093768 -14.58374181 12.97939977
16.62780297 -12.22577828 11.45248769
18.69961217 -6.080181293 17.85855722
17.61633341 -9.13857055 15.64878255
17.55940289 -7.150338378 18.85951238
19.29209567 -6.568879765 15.72656686
17.03600112 -8.725065389 17.6985661
18.71737676 -8.089794702 14.65800163
12.67795019 -14.10746564 17.1003237
15.65996675 -11.73705992 15.4338766
13.48549519 -12.63252646 18.34109467
13.36689073 -14.38803031 15.01912929
15.03406326 -11.41492031 17.45767901
14.83810436 -13.20578016 14.214612
2.103219047 16.19366192 27.50175624
6.501882103 15.2671757 28.72119333
3.387020427 17.55176525 26.30605899
2.145485432 14.51791167 29.10742831
14.82235876 11.47482953 27.7273857
10.87312802 13.66820683 28.8355859
5.900375876 19.97662774 23.60333639
7.822714931 16.62651664 27.38142081
4.663525822 18.81991483 24.99756363
5.600083777 17.17481612 26.96674028
2.224591227 10.67042643 31.87199652
6.604438944 13.36107014 30.14183747
2.189210328 12.66388035 30.585305
4.372959991 14.01895944 29.76632017
22.73444362 1.127842583 15.8755465
21.89129391 3.561037425 19.29144329
23.35231874 3.00671342 15.58098903
21.85746201 0 17.16717679
18.03208062 8.896960006 25.54002239
20.37201428 6.190156808 22.60648135
24.27716976 6.935848203 14.74155668
22.38607778 5.596084854 18.94640381
23.87409438 4.957845377 15.20514444
22.94831079 4.281218824 17.27709392
19.85254469 -2.256203609 19.61879878
20.91444543 2.376886591 20.66819659
20.89151538 -1.133026201 18.4242066
21.46025499 1.16387111 18.92577749
10.59565052 23.59744845 17.14412268
12.89809597 20.95370503 20.86955768
9.496660951 22.86306088 18.84759483
13.07838092 23.20393101 16.9459969
16.14280743 12.71861151 26.1196111
14.8206232 17.27516095 23.98027208
14.29405629 13.90796009 26.872909
7.173608216 21.07014357 22.06244929
11.7236522 20.07544647 22.59957012
8.347020174 22.01584345 20.49814742
8.193295574 19.61558367 24.06283076
10.647116 21.59739531 20.78887343
17.76809853 21.53754928 15.96764961
15.32046689 20.14594772 20.44106479
15.50685438 22.51431535 16.55390241
14.25411013 21.79986128 18.77342878
10.12865598 15.87724918 27.51113692
12.73648309 18.22460728 24.2956269
12.26238972 14.97431003 27.34484891
9.192361796 17.87546448 25.90971904
13.58857304 16.1830551 25.71285541
10.50375472 19.03188641 24.30256165
2.31382849 1.430024651 34.56174759
6.83631544 4.2250753 33.47472647
2.309550758 3.821647506 34.33191041
4.59637976 0 34.11552588
14.84026949 9.171790945 28.46893057
11.06085827 6.835986357 31.39158135
13.02558042 10.38450112 29.35604194
2.271593463 8.439987628 32.98668793
6.827436939 6.601709748 33.08731738
2.293516963 6.184371009 33.79729258
4.519451121 9.884011863 32.31228247
4.604099113 5.236117965 33.83984478
8.792236272 -2.698782616 31.81060967
9.032199043 2.772439344 32.67880313
6.789355448 -1.397765077 33.16787591
6.861676227 1.412654187 33.52118288
8.899989399 12.48687181 30.21578117
9.043925962 7.958727227 32.04817055
11.02029693 11.5069309 29.94834527
6.747067332 11.24381879 31.38011181
11.08608327 9.205056498 30.81078251
6.825255256 8.966353656 32.37661521
24.38873503 15.07306719 11.87578348
22.84981446 14.12196197 16.46078999
24.61914005 13.09524673 12.74153153
23.20923791 16.94987257 13.08137204
18.08432733 11.17672895 24.89156138
20.75463202 12.82706801 20.83831599
19.47755419 9.814076015 23.62723262
17.6789595 13.64405812 24.20756707
24.5533334 9.039694281 14.17023927
22.9974716 12.05595185 17.25083654
24.66992471 11.06285986 13.50949505
23.7198156 8.415418416 16.36462058
23.87314352 12.61633332 15.02518451
19.91935877 20.21115655 15.14815192
21.46386472 15.91302087 17.70731007
21.70456022 18.69135818 14.19179635
18.84173563 19.66818648 17.50451005
22.40415347 16.47290465 15.4309798
21.61003816 7.026506677 20.63808059
21.94702633 11.38514149 19.49578465
20.65701365 8.411711856 22.18647224
22.73613687 7.741561725 18.53408685
20.78843296 10.64689041 21.59693771
22.94531455 9.917142046 17.96899546
16.30191934 18.14005919 21.98842032
20.32085082 15.23036718 20.02746934
17.07724216 15.99709246 23.22608928
17.62695665 18.97353632 19.80576832
19.08078959 14.48748012 22.1567712
19.70478104 17.53707888 18.87679249
14.77684197 -6.747947385 23.90943255
15.9012705 -2.380412915 25.72879614
16.16156476 -5.647814706 22.94642838
13.61936383 -5.94311156 26.03980092
16.73493803 7.642125531 27.07769853
16.61107142 2.486669788 26.87727815
18.088215 6.321101219 25.68191486
15.0294876 6.558450351 28.7359138
18.67892595 -3.415213996 20.82185946
17.28057786 -1.223572375 24.59235653
17.46938981 -4.530528771 21.9082876
19.30146492 -1.176215943 21.49888425
16.76645796 -3.495673596 23.84213859
10.6758621 -3.944727818 30.03931512
14.57386164 -1.296577307 27.77681578
12.24858214 -5.003600093 28.11970487
10.95259239 -1.353814873 30.86477763
14.14944638 -3.676592498 26.99660358
20.15317661 3.684762765 22.46524304
17.69896161 1.253196546 25.18776731
19.23172845 4.987575411 24.118429
19.80458334 1.20687558 22.05928133
17.97039067 3.746684025 25.55414781
18.58566031 0 23.37905192
11.2101583 4.142150102 31.54269646
14.8879776 1.32452293 28.37550002
13.17293417 5.381201993 30.24178773
11.13654407 1.37655255 31.3831597
15.04022503 3.908052445 28.69617525
13.00131631 0 29.70411589
23.49999014 0 -12.3654041
24.33418844 0 -8.772085298
24.15189012 1.780216647 -12.04623795
23.08042567 -1.701239853 -11.51182364
25.11944849 0 -1.740964905
24.86305757 0 -5.236772777
25.19256153 5.519993086 -11.16718852
24.96660422 1.742610905 -8.358569987
24.72440968 3.632254632 -11.64438515
24.6034114 1.761043167 -10.1870705
22.03383735 -4.827878646 -9.767010603
23.84669329 -1.664443727 -7.98363498
22.58497281 -3.317950687 -10.63678063
23.50404242 -1.682353419 -9.73187552
23.49999014 0 12.3654041
24.33418844 0 8.772085298
24.15189012 1.780216647 12.04623795
23.08042567 -1.701239853 11.51182364
25.11944849 0 1.740964905
24.86305757 0 5.236772777
25.19256153 5.519993086 11.16718852
24.96660422 1.742610905 8.358569987
24.72440968 3.632254632 11.64438515
24.6034114 1.761043167 10.1870705
22.03383735 -4.827878646 9.767010603
23.84669329 -1.664443727 7.98363498
22.58497281 -3.317950687 10.63678063
23.50404242 -1.682353419 9.73187552
25.74967061 13.42277506 -8.295731208
26.52329686 9.345512868 -5.775844595
25.84810645 11.46907304 -9.143592682
26.11651713 13.65948802 -5.96062064
25.69032044 1.719907108 -1.06296105
26.42165074 5.395913812 -3.334858136
25.61790461 1.723348637 -2.851650261
25.56204657 7.529242492 -10.56368514
26.32939174 7.430098675 -6.538546299
25.77927751 9.486176628 -9.905066951
25.64211623 5.513335509 -9.187835594
26.20575474 9.429139914 -7.829254348
26.48598282 13.89659103 -1.236323291
26.76078947 9.510686149 -3.514195655
26.36317102 13.81745202 -3.590327076
26.56429754 11.5710667 -4.726832029
25.26672439 1.739966318 -6.46475456
26.24973669 5.416529237 -5.23744916
25.4762821 1.728845144 -4.661757448
25.53179352 3.571078364 -7.809926464
26.00418263 3.538013693 -4.023687718
25.99519165 5.479998983 -7.199087371
19.38920747 -10.1071961 -6.246590721
21.31990672 -7.512092621 -4.642728567
20.09211012 -8.915077744 -7.107447944
19.53003874 -10.21462123 -4.457376589
24.52119818 -1.641637097 -1.014587523
23.0406486 -4.705434767 -2.908118618
24.45297338 -1.644982249 -2.72197625
21.4115894 -6.306734803 -8.848481214
22.00039789 -6.208465765 -5.463499561
20.77123912 -7.643334575 -7.980848729
22.38335579 -4.812666365 -8.020188006
21.07633987 -7.583515892 -6.296785848
19.66916726 -10.3199634 -0.9181252496
21.40957527 -7.608884304 -2.811480449
19.62336624 -10.28498891 -2.672451773
20.49987812 -8.929483516 -3.647733593
24.12226298 -1.661154191 -6.17193219
22.89816938 -4.724946592 -4.568731466
24.32033787 -1.65040165 -4.450237902
23.29307871 -3.257954023 -7.125125453
23.70602409 -3.22533644 -3.668088297
22.6709573 -4.779223197 -6.278476595
25.74967061 13.42277506 8.295731208
26.52329686 9.345512868 5.775844595
25.84810645 11.46907304 9.143592682
26.11651713 13.65948802 5.96062064
25.69032044 1.719907108 1.06296105
26.42165074 5.395913812 3.334858136
25.61790461 1.723348637 2.851650261
26.1725975 3.526230193 0
25.56204657 7.529242492 10.56368514
26.32939174 7.430098675 6.538546299
25.77927751 9.486176628 9.905066951
25.64211623 5.513335509 9.187835594
26.20575474 9.429139914 7.829254348
26.48598282 13.89659103 1.236323291
26.76078947 9.510686149 3.514195655
26.36317102 13.81745202 3.590327076
26.80946196 11.73434336 0
26.56429754 11.5710667 4.726832029
25.26672439 1.739966318 6.46475456
26.24973669 5.416529237 5.23744916
25.4762821 1.728845144 4.661757448
25.53179352 3.571078364 7.809926464
26.00418263 3.538013693 4.023687718
25.99519165 5.479998983 7.199087371
26.73850106 7.390339931 -2.268469627
26.73850106 7.390339931 2.268469627
26.53284914 5.431187224 -1.118150889
26.88347618 9.539798416 -1.179183933
26.53284914 5.431187224 1.118150889
26.88347618 9.539798416 1.179183933
19.38920747 -10.1071961 6.246590721
21.31990672 -7.512092621 4.642728567
20.09211012 -8.915077744 7.107447944
19.53003874 -10.21462123 4.457376589
24.52119818 -1.641637097 1.014587523
23.0406486 -4.705434767 2.908118618
24.45297338 -1.644982249 2.72197625
23.85326059 -3.213746274 0
21.4115894 -6.306734803 8.848481214
22.00039789 -6.208465765 5.463499561
20.77123912 -7.643334575 7.980848729
22.38335579 -4.812666365 8.020188006
21.07633987 -7.583515892 6.296785848
19.66916726 -10.3199634 0.9181252496
21.40957527 -7.608884304 2.811480449
19.62336624 -10.28498891 2.672451773
20.59156769 -9.012807712 0
20.49987812 -8.929483516 3.647733593
24.12226298 -1.661154191 6.17193219
22.89816938 -4.724946592 4.568731466
24.32033787 -1.65040165 4.450237902
23.29307871 -3.257954023 7.125125453
23.70602409 -3.22533644 3.668088297
22.6709573 -4.779223197 6.278476595
22.30825554 -6.165850184 -1.892611706
22.30825554 -6.165850184 1.892611706
23.10781929 -4.730094843 -0.9738128211
21.47814144 -7.621675793 -0.9420909383
23.10781929 -4.730094843 0.9738128211
21.47814144 -7.621675793 0.9420909383
-12.5842104 18.02111327 -0.8940169938
-14.37521155 16.3125162 -2.653542587
-12.20306491 18.28958745 -2.354864569
-17.60437498 12.42925726 -6.132548267
-16.04351993 14.45774829 -4.393072172
-11.36165231 18.71096574 -5.345615629
-14.0009828 16.5428275 -4.135385721
-11.79527971 18.52015429 -3.846012329
-13.12266504 17.43018803 -3.251762179
-22.5747858 1.726424999 -13.29254924
-21.59543085 4.888757363 -11.47937112
-19.06141593 10.18975061 -7.888464522
-20.40290046 7.693387933 -9.67107325
-9.26059155 19.01803901 -11.75379451
-12.23232726 16.98013331 -10.49429952
-9.842401677 19.01745208 -10.1156347
-17.24892239 12.53176343 -7.745055738
-14.87678152 14.8170383 -9.157433282
-16.48920706 13.59318839 -6.849144552
-10.88421554 18.85951027 -6.943424112
-12.71338348 16.9484926 -8.884898927
-10.384386 18.96310852 -8.503723236
-12.2846713 17.80610412 -6.317326369
-11.32535926 17.99458281 -9.509667401
-14.87954056 15.58029768 -5.065935788
-14.06808028 15.83688648 -8.215472594
-15.6954083 14.61342119 -5.950709545
-13.62008215 16.70802855 -5.689015465
-15.30665987 14.73363848 -7.545899901
-13.19085341 16.84391769 -7.280071233
-17.81613453 -25.51344648 -1.265707306
-20.70857897 -23.49941277 -3.822628698
-17.14070976 -25.68998136 -3.30769773
-24.49478368 -17.29410833 -8.532847286
-22.97833589 -20.70711401 -6.29197884
-15.60237318 -25.69480758 -7.3408592
-20.03759896 -23.67537678 -5.918384575
-16.39940582 -25.74924322 -5.347250639
-18.65915883 -24.78403937 -4.623690904
-23.61444629 -1.805933876 -13.90472508
-24.66276069 -5.58313718 -13.10985572
-25.2289857 -13.48677734 -10.44088012
-25.24517234 -9.519279117 -11.96633348
-11.84865774 -24.33302817 -15.03863846
-16.62976982 -23.08438144 -14.26693234
-12.85276139 -24.83405798 -13.20956442
-23.8653247 -17.33874131 -10.71593145
-20.77172334 -20.6883068 -12.78607677
-23.20932971 -19.13304807 -9.640491113
-14.72397741 -25.51281736 -9.39294333
-17.56453645 -23.41567189 -12.27518476
-13.81648603 -25.2305263 -11.31425328
-17.09047583 -24.77191166 -8.788685591
-15.27523779 -24.27044697 -12.82629782
-21.30516731 -22.30854156 -7.253625147
-19.74338695 -22.22576014 -11.5297362
-22.34897688 -20.80831578 -8.473323372
-19.31620399 -23.6955757 -8.068246724
-21.61030214 -20.80129708 -10.65347883
-18.487791 -23.60778491 -10.20346685
-2.103219047 -16.19366192 -27.50175624
-6.501882103 -15.2671757 -28.72119333
-3.387020427 -17.55176525 -26.30605899
-2.145485432 -14.51791167 -29.10742831
-14.82235876 -11.47482953 -27.7273857
-10.87312802 -13.66820683 -28.8355859
-5.900375876 -19.97662774 -23.60333639
-7.822714931 -16.62651664 -27.38142081
-4.663525822 -18.81991483 -24.99756363
-5.600083777 -17.17481612 -26.96674028
-2.224591227 -10.67042643 -31.87199652
-6.604438944 -13.36107014 -30.14183747
-2.189210328 -12.66388035 -30.585305
-4.372959991 -14.01895944 -29.76632017
-22.73444362 -1.127842583 -15.8755465
-21.89129391 -3.561037425 -19.29144329
-23.35231874 -3.00671342 -15.58098903
-18.03208062 -8.896960006 -25.54002239
-20.37201428 -6.190156808 -22.60648135
-24.27716976 -6.935848203 -14.74155668
-22.38607778 -5.596084854 -18.94640381
-23.87409438 -4.957845377 -15.20514444
-22.94831079 -4.281218824 -17.27709392
-10.59565052 -23.59744845 -17.14412268
-12.89809597 -20.95370503 -20.86955768
-9.496660951 -22.86306088 -18.84759483
-13.07838092 -23.20393101 -16.9459969
-16.14280743 -12.71861151 -26.1196111
-14.8206232 -17.27516095 -23.98027208
-14.29405629 -13.90796009 -26.872909
-7.173608216 -21.07014357 -22.06244929
-11.7236522 -20.07544647 -22.59957012
-8.347020174 -22.01584345 -20.49814742
-8.193295574 -19.61558367 -24.06283076
-10.647116 -21.59739531 -20.78887343
-17.76809853 -21.53754928 -15.96764961
-15.32046689 -20.14594772 -20.44106479
-15.50685438 -22.51431535 -16.55390241
-14.25411013 -21.79986128 -18.77342878
-10.12865598 -15.87724918 -27.51113692
-12.73648309 -18.22460728 -24.2956269
-12.26238972 -14.97431003 -27.34484891
-9.192361796 -17.87546448 -25.90971904
-13.58857304 -16.1830551 -25.71285541
-10.50375472 -19.03188641 -24.30256165
-2.31382849 -1.430024651 -34.56174759
-6.83631544 -4.2250753 -33.47472647
-2.309550758 -3.821647506 -34.33191041
-14.84026949 -9.171790945 -28.46893057
-11.06085827 -6.835986357 -31.39158135
-13.02558042 -10.38450112 -29.35604194
-2.271593463 -8.439987628 -32.98668793
-6.827436939 -6.601709748 -33.08731738
-2.293516963 -6.184371009 -33.79729258
-4.519451121 -9.884011863 -32.31228247
-4.604099113 -5.236117965 -33.83984478
-8.899989399 -12.48687181 -30.21578117
-9.043925962 -7.958727227 -32.04817055
-11.02029693 -11.5069309 -29.94834527
-6.747067332 -11.24381879 -31.38011181
-11.08608327 -9.205056498 -30.81078251
-6.825255256 -8.966353656 -32.37661521
-24.38873503 -15.07306719 -11.87578348
-22.84981446 -14.12196197 -16.46078999
-24.61914005 -13.09524673 -12.74153153
-23.20923791 -16.94987257 -13.08137204
-18.08432733 -11.17672895 -24.89156138
-20.75463202 -12.82706801 -20.83831599
-19.47755419 -9.814076015 -23.62723262
-17.6789595 -13.64405812 -24.20756707
-24.5533334 -9.039694281 -14.17023927
-22.9974716 -12.05595185 -17.25083654
-24.66992471 -11.06285986 -13.50949505
-23.7198156 -8.415418416 -16.36462058
