6.4049215 15.476633 8.2734165
8.1301727 17.152088 6.4675937
6.4590461 19.292827 1.3465945
8.2488137 18.608869 4.0774269
8.0097451 19.344821 1.384648
8.9629995 19.03105 2.795845
0.53907395 7.5880213 10.866362
1.7316291 9.3808685 10.6451
0 8.413789 10.71254
4.6908308 13.465715 9.5072293
3.1114402 11.362994 10.239854
-1.165699 10.136326 10.257094
1.1865539 10.317669 10.440598
-0.57010181 9.2704595 10.511929
0.57471464 9.3454691 10.596983
0.76111992 18.395232 1.2315179
2.3189078 18.372408 3.7520717
2.0819718 18.70347 1.2582059
0 18.082122 2.4362016
5.0711751 15.740757 8.2053337
3.8255861 17.567501 6.1899283
5.878843 16.618955 7.374003
4.9016449 19.157496 1.3192608
3.7020076 18.554209 3.8285875
3.4696127 18.961268 1.28673
5.8234125 19.037588 2.6627475
2.8956991 18.714247 2.5461774
-1.4575393 17.180048 4.7484485
1.5165312 17.875386 4.9406352
-0.74513665 17.681512 3.6193475
0.76140348 18.067511 3.6983603
7.4572164 18.045001 5.315114
4.5101674 18.161524 5.1251436
6.6821919 17.391309 6.3995986
6.6925161 18.677987 4.0159716
5.2359824 17.525663 6.3059403
5.1666075 18.656108 3.9328602
-3.7959871 13.450001 8.3125576
-1.3091367 14.149861 8.7450949
-3.1326791 12.727719 8.9643514
-3.3393926 14.631581 7.6526248
4.1125683 14.571716 9.0058158
1.3420412 14.50551 8.9648983
3.3282568 13.522328 9.5240088
3.5947748 15.750541 8.2378642
-1.8128388 11.052506 9.91501
-0.66055879 13.27645 9.329107
-2.4628809 11.909758 9.4966898
-0.61324076 11.208819 10.063156
-1.9127383 13.045775 9.1741533
-2.1668578 16.500739 5.8643019
-0.71581119 15.334956 8.0459015
-2.7878905 15.667651 6.8246273
-0.74171222 16.909833 6.0005779
-2.0471851 15.032138 7.8786365
1.8676965 11.386962 10.215045
0.66831333 13.432307 9.4386248
2.573126 12.442871 9.9217869
0.6192536 11.318722 10.161826
1.9808785 13.510524 9.5009777
0 12.322575 9.7960853
2.2883917 17.426226 6.1932168
0.72624783 15.558542 8.163212
2.9760394 16.725028 7.2852072
0.75531826 17.220028 6.1106531
2.1368479 15.690516 8.2237056
0 16.372438 7.1661194
0 -5.8064959 11.035029
0 -4.0281154 11.174187
0 -0.78268804 11.292986
0 -2.370662 11.255387
0 5.8064959 11.035029
0 4.0281154 11.174187
0 0.78268804 11.292986
0 2.370662 11.255387
-11.281176 -19.158863 -1.4651896
-9.7871144 -18.411893 -4.1680705
-9.6302662 -19.308031 -1.4231796
-6.4049215 -15.476633 -8.2734165
-8.1301727 -17.152088 -6.4675937
-6.4590461 -19.292827 -1.3465945
-8.2488137 -18.608869 -4.0774269
-8.0097451 -19.344821 -1.384648
-8.9629995 -19.03105 -2.795845
-0.53907395 -7.5880213 -10.866362
-1.7316291 -9.3808685 -10.6451
-4.6908308 -13.465715 -9.5072293
-3.1114402 -11.362994 -10.239854
-0.76111992 -18.395232 -1.2315179
-2.3189078 -18.372408 -3.7520717
-2.0819718 -18.70347 -1.2582059
-5.0711751 -15.740757 -8.2053337
-3.8255861 -17.567501 -6.1899283
-5.878843 -16.618955 -7.374003
-4.9016449 -19.157496 -1.3192608
-3.7020076 -18.554209 -3.8285875
-3.4696127 -18.961268 -1.28673
-5.8234125 -19.037588 -2.6627475
-2.8956991 -18.714247 -2.5461774
-7.4572164 -18.045001 -5.315114
-4.5101674 -18.161524 -5.1251436
-6.6821919 -17.391309 -6.3995986
-6.6925161 -18.677987 -4.0159716
-5.2359824 -17.525663 -6.3059403
-5.1666075 -18.656108 -3.9328602
8.3542777 -14.188101 -1.0850465
7.6149577 -14.325549 -3.243007
7.4135151 -14.863595 -1.0955838
5.5816569 -13.487325 -7.2099826
6.699169 -14.133124 -5.329223
5.3797242 -16.06895 -1.1215754
6.6546623 -15.012551 -3.2894304
6.4149199 -15.493062 -1.1089499
7.051533 -14.972451 -2.1995978
0.53556412 -7.5386169 -10.795613
1.6896591 -9.1535021 -10.387092
0 -8.413789 -10.71254
4.293039 -12.323795 -8.7009973
2.9566709 -10.797776 -9.7305035
-1.1865539 -10.317669 -10.440598
1.165699 -10.136326 -10.257094
-0.57471464 -9.3454691 -10.596983
0.57010181 -9.2704595 -10.511929
0.7434167 -17.967369 -1.2028735
2.1740823 -17.224973 -3.517739
1.954794 -17.560963 -1.1813481
0 -18.082122 -2.4362016
4.5564151 -14.142959 -7.3724344
3.491364 -16.032718 -5.6491457
5.1507738 -14.56077 -6.4607647
4.2529959 -16.622329 -1.1446791
3.3458736 -16.769289 -3.4602765
3.1308469 -17.109929 -1.1610963
4.9527868 -16.191386 -2.2646551
2.6625806 -17.207655 -2.3411972
-1.5165312 -17.875386 -4.9406352
1.4575393 -17.180048 -4.7484485
-0.76140348 -18.067511 -3.6983603
0.74513665 -17.681512 -3.6193475
6.1886145 -14.975234 -4.4109209
4.0207555 -16.190762 -4.5689988
5.6989655 -14.832329 -5.4579533
5.6083818 -15.652302 -3.3654162
4.6220177 -15.470626 -5.5665137
4.497797 -16.2411 -3.4237566
-4.1125683 -14.571716 -9.0058158
-1.3420412 -14.50551 -8.9648983
-3.3282568 -13.522328 -9.5240088
-3.5947748 -15.750541 -8.2378642
3.7959871 -13.450001 -8.3125576
1.3091367 -14.149861 -8.7450949
3.1326791 -12.727719 -8.9643514
3.3393926 -14.631581 -7.6526248
-1.8676965 -11.386962 -10.215045
-0.66831333 -13.432307 -9.4386248
-2.573126 -12.442871 -9.9217869
-0.6192536 -11.318722 -10.161826
-1.9808785 -13.510524 -9.5009777
-2.2883917 -17.426226 -6.1932168
-0.72624783 -15.558542 -8.163212
-2.9760394 -16.725028 -7.2852072
-0.75531826 -17.220028 -6.1106531
-2.1368479 -15.690516 -8.2237056
1.8128388 -11.052506 -9.91501
0.66055879 -13.27645 -9.329107
2.4628809 -11.909758 -9.4966898
0.61324076 -11.208819 -10.063156
1.9127383 -13.045775 -9.1741533
0 -12.322575 -9.7960853
2.1668578 -16.500739 -5.8643019
0.71581119 -15.334956 -8.0459015
2.7878905 -15.667651 -6.8246273
0.74171222 -16.909833 -6.0005779
2.0471851 -15.032138 -7.8786365
0 -16.372438 -7.1661194
-8.3542777 14.188101 -1.0850465
-7.6149577 14.325549 -3.243007
-7.4135151 14.863595 -1.0955838
-5.5816569 13.487325 -7.2099826
-6.699169 14.133124 -5.329223
-5.3797242 16.06895 -1.1215754
-6.6546623 15.012551 -3.2894304
-6.4149199 15.493062 -1.1089499
-7.051533 14.972451 -2.1995978
-0.53556412 7.5386169 -10.795613
-1.6896591 9.1535021 -10.387092
-4.293039 12.323795 -8.7009973
-2.9566709 10.797776 -9.7305035
-0.7434167 17.967369 -1.2028735
-2.1740823 17.224973 -3.517739
-1.954794 17.560963 -1.1813481
-4.5564151 14.142959 -7.3724344
-3.491364 16.032718 -5.6491457
-5.1507738 14.56077 -6.4607647
-4.2529959 16.622329 -1.1446791
-3.3458736 16.769289 -3.4602765
-3.1308469 17.109929 -1.1610963
-4.9527868 16.191386 -2.2646551
-2.6625806 17.207655 -2.3411972
-6.1886145 14.975234 -4.4109209
-4.0207555 16.190762 -4.5689988
-5.6989655 14.832329 -5.4579533
-5.6083818 15.652302 -3.3654162
-4.6220177 15.470626 -5.5665137
-4.497797 16.2411 -3.4237566
11.281176 19.158863 -1.4651896
9.7871144 18.411893 -4.1680705
9.6302662 19.308031 -1.4231796
6.4049215 15.476633 -8.2734165
8.1301727 17.152088 -6.4675937
6.4590461 19.292827 -1.3465945
8.2488137 18.608869 -4.0774269
8.0097451 19.344821 -1.384648
8.9629995 19.03105 -2.795845
0.53907395 7.5880213 -10.866362
1.7316291 9.3808685 -10.6451
0 8.413789 -10.71254
4.6908308 13.465715 -9.5072293
3.1114402 11.362994 -10.239854
-1.165699 10.136326 -10.257094
1.1865539 10.317669 -10.440598
-0.57010181 9.2704595 -10.511929
0.57471464 9.3454691 -10.596983
0.76111992 18.395232 -1.2315179
2.3189078 18.372408 -3.7520717
2.0819718 18.70347 -1.2582059
0 18.082122 -2.4362016
5.0711751 15.740757 -8.2053337
3.8255861 17.567501 -6.1899283
5.878843 16.618955 -7.374003
4.9016449 19.157496 -1.3192608
3.7020076 18.554209 -3.8285875
3.4696127 18.961268 -1.28673
5.8234125 19.037588 -2.6627475
2.8956991 18.714247 -2.5461774
-1.4575393 17.180048 -4.7484485
1.5165312 17.875386 -4.9406352
-0.74513665 17.681512 -3.6193475
0.76140348 18.067511 -3.6983603
7.4572164 18.045001 -5.315114
4.5101674 18.161524 -5.1251436
6.6821919 17.391309 -6.3995986
6.6925161 18.677987 -4.0159716
5.2359824 17.525663 -6.3059403
5.1666075 18.656108 -3.9328602
-3.7959871 13.450001 -8.3125576
-1.3091367 14.149861 -8.7450949
-3.1326791 12.727719 -8.9643514
-3.3393926 14.631581 -7.6526248
4.1125683 14.571716 -9.0058158
1.3420412 14.50551 -8.9648983
3.3282568 13.522328 -9.5240088
3.5947748 15.750541 -8.2378642
-1.8128388 11.052506 -9.91501
-0.66055879 13.27645 -9.329107
-2.4628809 11.909758 -9.4966898
-0.61324076 11.208819 -10.063156
-1.9127383 13.045775 -9.1741533
-2.1668578 16.500739 -5.8643019
-0.71581119 15.334956 -8.0459015
-2.7878905 15.667651 -6.8246273
-0.74171222 16.909833 -6.0005779
-2.0471851 15.032138 -7.8786365
1.8676965 11.386962 -10.215045
0.66831333 13.432307 -9.4386248
2.573126 12.442871 -9.9217869
0.6192536 11.318722 -10.161826
1.9808785 13.510524 -9.5009777
0 12.322575 -9.7960853
2.2883917 17.426226 -6.1932168
0.72624783 15.558542 -8.163212
2.9760394 16.725028 -7.2852072
0.75531826 17.220028 -6.1106531
2.1368479 15.690516 -8.2237056
0 16.372438 -7.1661194
0 -5.8064959 -11.035029
0 -4.0281154 -11.174187
0 -0.78268804 -11.292986
0 -2.370662 -11.255387
0 5.8064959 -11.035029
0 4.0281154 -11.174187
0 0.78268804 -11.292986
0 2.370662 -11.255387
13.201566 18.905192 -0.93787564
15.212853 17.263044 -2.8081641
12.470735 18.690763 -2.4065177
15.273008 10.783237 -5.3204079
15.774423 14.21525 -4.3193876
10.736126 17.680816 -5.0513078
14.194921 16.771975 -4.1926682
11.626258 18.254767 -3.7909004
13.478504 17.902832 -3.3399382
12.06383 0.92259112 -7.1034583
12.810491 2.9000292 -6.8096061
14.448887 7.7240093 -5.9795942
13.605387 5.1302276 -6.4490192
6.9850173 14.3448 -8.8655739
9.8506031 13.673976 -8.4509822
7.9195216 15.30207 -8.1393739
14.206886 10.32165 -6.3791303
12.370967 12.321286 -7.6149738
14.488642 11.943985 -6.0181671
9.7902607 16.963971 -6.2455518
10.910386 14.544877 -7.6248531
8.8626955 16.184323 -7.2576182
11.485402 16.647598 -5.9063064
9.442911 15.003607 -7.9290149
14.577777 15.264322 -4.9631964
12.314668 13.863014 -7.1915154
14.643337 13.633876 -5.5518304
13.122451 16.097575 -5.4811584
13.5 12.994613 -6.6552503
12.017522 15.345645 -6.6325061
9.3569372 -13.399524 -0.66474261
10.535208 -11.955006 -1.9447103
9.0310189 -13.53542 -1.7427447
11.771563 -8.3111034 -4.1006668
11.338118 -10.217437 -3.1046285
8.2316849 -13.556371 -3.8729775
10.13293 -11.972539 -2.9929024
8.6534129 -13.587006 -2.8215637
9.631525 -12.793079 -2.3866668
11.780465 -0.90092057 -6.9366066
11.898413 -2.6935538 -6.3247778
11.942628 -6.3842268 -4.9423924
11.962304 -4.5106648 -5.6701898
6.0389814 -12.401971 -7.6648393
7.9930817 -11.095484 -6.8573863
6.6542668 -12.85735 -6.8389946
11.184806 -8.1260345 -5.0221655
9.6858974 -9.6470001 -5.962174
11.048838 -9.1083178 -4.589371
7.7468528 -13.423278 -4.94199
8.5840487 -11.443585 -5.9990643
7.2277117 -13.19865 -5.918738
8.7431307 -12.672793 -4.4961081
7.6581245 -12.167804 -6.430367
10.543525 -11.040076 -3.589682
9.4754454 -10.666811 -5.5334673
10.839577 -10.092334 -4.1096842
9.6781722 -11.872408 -4.0425065
10.282339 -9.8974084 -5.0690027
9.1574584 -11.693518 -5.0540285
0.83426695 -6.4234094 -10.9089
2.4437882 -5.738299 -10.795107
1.3848663 -7.1764692 -10.755877
0.81147989 -5.4910619 -11.009207
5.4953206 -4.2542397 -10.279799
3.9935826 -5.0201849 -10.591
2.5779643 -8.7280935 -10.312658
3.0294441 -6.4388263 -10.603797
1.9699232 -7.9497332 -10.559238
2.2203361 -6.8095167 -10.691845
0.77844792 -3.7338866 -11.152921
2.3889311 -4.8329126 -10.902784
0.79376822 -4.5916948 -11.089681
1.6109111 -5.1643047 -10.965318
11.042549 -0.54781447 -7.7110532
9.7153906 -1.580394 -8.5615728
11.127965 -1.4327743 -7.4247319
6.9504365 -3.4293189 -9.8443606
8.3563637 -2.5391305 -9.2729162
11.253201 -3.2149751 -6.8331567
9.8101454 -2.4523459 -8.3027932
11.197712 -2.3253877 -7.1316978
10.469315 -1.9531473 -7.8820331
5.261248 -11.717263 -8.512878
5.6858739 -9.2370319 -9.1999372
4.5876249 -11.044634 -9.1048523
6.2960405 -11.170564 -8.1579427
6.1504903 -4.8458546 -9.9517024
5.9575658 -6.9442361 -9.6395439
5.4042294 -5.258256 -10.159983
3.2472948 -9.5378735 -9.9870629
5.0102899 -8.5795625 -9.658287
3.9071993 -10.305508 -9.5950824
3.4712411 -8.3105047 -10.194663
4.8225552 -9.7824266 -9.4162109
8.1682418 -9.9011106 -7.3405504
6.6379304 -8.7286765 -8.8565424
7.2705615 -10.556088 -7.7614816
6.4906844 -9.9266821 -8.54858
3.8591303 -6.0494081 -10.482048
5.1687946 -7.3960174 -9.8597944
4.6356422 -5.6608495 -10.337376
3.6740562 -7.1445687 -10.355746
5.2960166 -6.3071912 -10.02134
4.3404914 -7.8645914 -10.042605
0.75540618 -0.4668667 -11.283532
2.280236 -1.4092633 -11.165412
0.7579572 -1.2542029 -11.267178
5.4313372 -3.356751 -10.419242
3.8397312 -2.3730844 -10.897458
4.6936071 -3.7419268 -10.578087
0.77154263 -2.8666266 -11.203869
2.2949455 -2.2190705 -11.12183
0.76280942 -2.0568832 -11.240768
1.5549365 -3.4006365 -11.117179
1.5253262 -1.7347124 -11.211054
3.1860305 -4.4700676 -10.816687
3.1009267 -2.7288403 -10.988483
3.9411753 -4.1152096 -10.71039
2.3630077 -3.9378932 -10.990174
3.8903247 -3.2302354 -10.81211
2.332146 -3.0637456 -11.062882
11.275493 -6.9686381 -5.4904576
9.9635428 -6.1578081 -7.1776419
11.30758 -6.0146517 -5.8521902
10.572037 -7.7208343 -5.9586941
7.0181145 -4.3374333 -9.6598466
8.5420231 -5.2792606 -8.576465
7.7299326 -3.8948497 -9.3767889
6.9421043 -5.3576951 -9.5057323
11.289627 -4.1564529 -6.5154784
9.9595484 -5.2210885 -7.4708448
11.310437 -5.0719967 -6.1937072
10.595468 -3.7591059 -7.3099565
10.642695 -5.6243866 -6.6982573
9.0448029 -9.1772998 -6.8783363
9.2269134 -6.8407096 -7.6120409
9.8264244 -8.4622409 -6.4251297
8.3174369 -8.6822628 -7.7271363
9.9132247 -7.2888095 -6.8277862
9.1138681 -2.9633754 -8.7039524
9.2276272 -4.7868827 -8.1970026
8.4320767 -3.4336134 -9.0563931
9.8683851 -3.3601448 -8.0445287
8.4938955 -4.3501872 -8.8242405
9.9183672 -4.2867948 -7.7672979
6.760465 -7.5227483 -9.1186776
8.4724678 -6.3500685 -8.3501468
6.8573667 -6.4236326 -9.3264364
7.5475258 -8.1241055 -8.4804513
7.7234061 -5.8641542 -8.9684832
8.4143009 -7.4886525 -8.0607347
0.84182702 6.4816179 -11.007756
2.5067728 5.8861941 -11.073333
1.4080982 7.2968587 -10.936313
0.81773321 5.5333764 -11.094044
5.7870569 4.4800894 -10.825535
4.1571737 5.2258292 -11.024844
2.6773144 9.0644588 -10.710089
3.1402311 6.6742947 -10.991579
2.0222002 8.1607003 -10.839455
2.2798496 6.9920377 -10.978427
0.78248849 3.7532674 -11.21081
2.4402899 4.9368137 -11.13718
0.79886314 4.6211673 -11.160861
1.6348753 5.2411297 -11.12844
11.196885 0.555471 -7.8188267
10.084367 1.6404151 -8.8867293
11.548304 1.4868948 -7.7051877
10.52309 0 -8.2649922
7.3575041 3.6301645 -10.420917
8.8055794 2.6756273 -9.7714032
12.269436 3.5053075 -7.4502337
10.408586 2.6019444 -8.8092819
11.906541 2.4725876 -7.5831432
10.996456 2.0514902 -8.2789014
9.1579334 -1.0407816 -9.050107
9.3713243 1.065033 -9.2609854
9.840261 -0.53367471 -8.6781163
9.9637192 0.54037032 -8.786994
5.8966761 13.132418 -9.5410223
6.3377503 10.296043 -10.254695
5.0220704 12.090555 -9.9670767
7.2752893 12.907967 -9.4267808
6.585792 5.1888205 -10.656035
6.5302465 7.6117622 -10.566161
5.750324 5.5950023 -10.810643
3.4231007 10.054246 -10.527754
5.4588843 9.3477304 -10.523038
4.1901353 11.051772 -10.289901
3.6560372 8.7529254 -10.737389
5.273954 10.698077 -10.297583
9.9488978 12.059528 -8.9407718
7.5634251 9.9456738 -10.091368
8.6489877 12.557417 -9.2329814
7.4615798 11.411544 -9.8273015
4.0390521 6.3314458 -10.970746
5.5961971 8.0075869 -10.675091
4.8939931 5.9763367 -10.913493
3.860139 7.5064253 -10.880242
5.6884485 6.7745506 -10.763916
4.6367226 8.4013364 -10.727996
0.75589307 0.46716761 -11.290805
2.2941599 1.4178688 -11.233592
0.75927236 1.2563791 -11.286728
1.5172977 0 -11.261778
5.6545729 3.4947183 -10.847488
3.9112935 2.4173123 -11.100557
4.8711944 3.8835063 -10.97832
0.77462309 2.8780719 -11.248602
2.3171438 2.2405349 -11.229408
0.76498509 2.0627498 -11.272829
1.5700061 3.4335936 -11.224921
1.532805 1.7432179 -11.266023
3.0691718 -0.94208427 -11.104368
3.0865575 0.94742084 -11.16727
2.2927524 -0.47202261 -11.200729
2.2974581 0.47299139 -11.223717
3.2746682 4.5944281 -11.117615
3.1525435 2.7742635 -11.171393
4.0722841 4.2521079 -11.066686
2.4043889 4.0068539 -11.182635
3.9906241 3.3135165 -11.090865
2.3637102 3.1052116 -11.212612
13.790161 8.5227883 -6.7149431
11.672703 7.2141272 -8.4089047
13.413412 7.1347717 -6.9420547
13.086462 9.5571369 -7.375894
7.5508458 4.6666794 -10.393107
9.5799051 5.920707 -9.6185319
8.3259332 4.1951541 -10.099767
7.588442 5.856518 -10.390754
12.65142 4.6578184 -7.3013975
11.374364 5.9627768 -8.5321249
13.02926 5.8427774 -7.1349518
11.689718 4.1473286 -8.0648941
12.387142 6.5462813 -7.7961703
11.192317 11.356272 -8.5114644
10.864607 8.0548739 -8.9631096
12.219418 10.52302 -7.9898186
9.9641305 10.401185 -9.2569616
11.967208 8.7990237 -8.2424782
9.7495711 3.1700743 -9.3110634
10.329232 5.3583465 -9.1755705
9.0646967 3.6912217 -9.7358527
10.719452 3.6499296 -8.738303
9.3242295 4.7754465 -9.6868679
11.042901 4.7728269 -8.6479457
7.6081168 8.4659779 -10.262011
9.7166057 7.2825432 -9.5763226
7.611072 7.1296654 -10.351521
8.7541097 9.4228642 -9.8361772
8.6418989 6.5615387 -10.035045
9.8721838 8.7861553 -9.4573578
6.2983826 -2.8762001 -10.190997
6.4155803 -0.96040943 -10.380627
7.0175582 -2.4523534 -9.9636328
5.4980083 -2.3991779 -10.512021
6.5675804 2.9991311 -10.626568
6.5064221 0.97400841 -10.527612
7.310517 2.5547307 -10.37958
5.6609113 2.4702642 -10.823487
8.4342155 -1.5420935 -9.4018281
7.1428444 -0.5057578 -10.165133
7.7340507 -2.0057563 -9.6992402
8.5360666 -0.52018112 -9.5078746
7.0819284 -1.4765259 -10.070602
3.8943484 -1.4389606 -10.957762
5.5970878 -0.49795018 -10.667679
4.6896316 -1.9157353 -10.76623
3.9082055 -0.48308077 -11.013456
5.5531765 -1.4429375 -10.595249
8.705348 1.5916668 -9.7040662
7.2031087 0.51002489 -10.250897
8.0297769 2.0824502 -10.070109
8.6271376 0.52573091 -9.6093138
7.2585115 1.5133421 -10.321705
7.8792771 0 -9.9114062
3.9389319 1.4554341 -11.083209
5.6313648 0.50099967 -10.733009
4.779719 1.9525364 -10.973049
3.9231667 0.48493007 -11.055617
5.652251 1.4686811 -10.784279
4.766966 0 -10.89109
13.201566 18.905192 0.93787564
15.212853 17.263044 2.8081641
12.470735 18.690763 2.4065177
14.576797 18.559359 0
15.273008 10.783237 5.3204079
15.774423 14.21525 4.3193876
10.736126 17.680816 5.0513078
14.194921 16.771975 4.1926682
11.626258 18.254767 3.7909004
13.478504 17.902832 3.3399382
16.513104 16.709847 -1.899042
16.513104 16.709847 1.899042
15.743203 17.851481 -0.96815359
15.743203 17.851481 0.96815359
12.06383 0.92259112 7.1034583
12.810491 2.9000292 6.8096061
14.448887 7.7240093 5.9795942
13.605387 5.1302276 6.4490192
6.9850173 14.3448 8.8655739
9.8506031 13.673976 8.4509822
7.9195216 15.30207 8.1393739
14.206886 10.32165 6.3791303
12.370967 12.321286 7.6149738
14.488642 11.943985 6.0181671
9.7902607 16.963971 6.2455518
10.910386 14.544877 7.6248531
8.8626955 16.184323 7.2576182
11.485402 16.647598 5.9063064
9.442911 15.003607 7.9290149
14.577777 15.264322 4.9631964
12.314668 13.863014 7.1915154
14.643337 13.633876 5.5518304
13.122451 16.097575 5.4811584
13.5 12.994613 6.6552503
12.017522 15.345645 6.6325061
15.976865 9.8742454 -4.5091426
17.92526 11.07842 -1.6584344
16.41313 11.56005 -4.0397711
15.976865 9.8742454 4.5091426
17.92526 11.07842 1.6584344
16.41313 11.56005 4.0397711
16.832938 15.100535 -2.7609488
18.175023 12.77124 -0.90428324
16.74073 13.348846 -3.4619028
17.533647 15.741518 -0.95927563
17.473162 12.287616 -2.5618705
16.832938 15.100535 2.7609488
18.175023 12.77124 0.90428324
16.74073 13.348846 3.4619028
17.533647 15.741518 0.95927563
17.473162 12.287616 2.5618705
18.095173 14.385132 0
9.3569372 -13.399524 0.66474261
10.535208 -11.955006 1.9447103
9.0310189 -13.53542 1.7427447
10.043142 -12.787053 0
11.771563 -8.3111034 4.1006668
11.338118 -10.217437 3.1046285
8.2316849 -13.556371 3.8729775
10.13293 -11.972539 2.9929024
8.6534129 -13.587006 2.8215637
9.631525 -12.793079 2.3866668
11.206229 -11.339744 -1.2887401
11.206229 -11.339744 1.2887401
10.668771 -12.097497 -0.6560932
10.668771 -12.097497 0.6560932
11.780465 -0.90092057 6.9366066
11.898413 -2.6935538 6.3247778
11.942628 -6.3842268 4.9423924
11.962304 -4.5106648 5.6701898
6.0389814 -12.401971 7.6648393
7.9930817 -11.095484 6.8573863
6.6542668 -12.85735 6.8389946
11.184806 -8.1260345 5.0221655
9.6858974 -9.6470001 5.962174
11.048838 -9.1083178 4.589371
7.7468528 -13.423278 4.94199
8.5840487 -11.443585 5.9990643
7.2277117 -13.19865 5.918738
8.7431307 -12.672793 4.4961081
7.6581245 -12.167804 6.430367
10.543525 -11.040076 3.589682
9.4754454 -10.666811 5.5334673
10.839577 -10.092334 4.1096842
9.6781722 -11.872408 4.0425065
10.282339 -9.8974084 5.0690027
9.1574584 -11.693518 5.0540285
12.434258 -7.6847943 -3.5093146
13.208994 -8.1636071 -1.2220882
12.265341 -8.638691 -3.0188739
12.434258 -7.6847943 3.5093146
13.208994 -8.1636071 1.2220882
12.265341 -8.638691 3.0188739
11.671181 -10.470012 -1.9143141
12.85291 -9.0314939 -0.63948593
12.013274 -9.5792318 -2.4842874
11.840494 -10.630267 -0.64780002
12.644366 -8.8918717 -1.8538848
11.671181 -10.470012 1.9143141
12.85291 -9.0314939 0.63948593
12.013274 -9.5792318 2.4842874
11.840494 -10.630267 0.64780002
12.644366 -8.8918717 1.8538848
12.397865 -9.8559389 0
0.83426695 -6.4234094 10.9089
2.4437882 -5.738299 10.795107
1.3848663 -7.1764692 10.755877
0.81147989 -5.4910619 11.009207
5.4953206 -4.2542397 10.279799
3.9935826 -5.0201849 10.591
2.5779643 -8.7280935 10.312658
3.0294441 -6.4388263 10.603797
1.9699232 -7.9497332 10.559238
2.2203361 -6.8095167 10.691845
0.77844792 -3.7338866 11.152921
2.3889311 -4.8329126 10.902784
0.79376822 -4.5916948 11.089681
1.6109111 -5.1643047 10.965318
11.042549 -0.54781447 7.7110532
9.7153906 -1.580394 8.5615728
11.127965 -1.4327743 7.4247319
6.9504365 -3.4293189 9.8443606
8.3563637 -2.5391305 9.2729162
11.253201 -3.2149751 6.8331567
9.8101454 -2.4523459 8.3027932
11.197712 -2.3253877 7.1316978
10.469315 -1.9531473 7.8820331
5.261248 -11.717263 8.512878
5.6858739 -9.2370319 9.1999372
4.5876249 -11.044634 9.1048523
6.2960405 -11.170564 8.1579427
6.1504903 -4.8458546 9.9517024
5.9575658 -6.9442361 9.6395439
5.4042294 -5.258256 10.159983
3.2472948 -9.5378735 9.9870629
5.0102899 -8.5795625 9.658287
3.9071993 -10.305508 9.5950824
3.4712411 -8.3105047 10.194663
4.8225552 -9.7824266 9.4162109
8.1682418 -9.9011106 7.3405504
6.6379304 -8.7286765 8.8565424
7.2705615 -10.556088 7.7614816
6.4906844 -9.9266821 8.54858
3.8591303 -6.0494081 10.482048
5.1687946 -7.3960174 9.8597944
4.6356422 -5.6608495 10.337376
3.6740562 -7.1445687 10.355746
5.2960166 -6.3071912 10.02134
4.3404914 -7.8645914 10.042605
0.75540618 -0.4668667 11.283532
2.280236 -1.4092633 11.165412
0.7579572 -1.2542029 11.267178
5.4313372 -3.356751 10.419242
3.8397312 -2.3730844 10.897458
4.6936071 -3.7419268 10.578087
0.77154263 -2.8666266 11.203869
2.2949455 -2.2190705 11.12183
0.76280942 -2.0568832 11.240768
1.5549365 -3.4006365 11.117179
1.5253262 -1.7347124 11.211054
3.1860305 -4.4700676 10.816687
3.1009267 -2.7288403 10.988483
3.9411753 -4.1152096 10.71039
2.3630077 -3.9378932 10.990174
3.8903247 -3.2302354 10.81211
2.332146 -3.0637456 11.062882
11.275493 -6.9686381 5.4904576
9.9635428 -6.1578081 7.1776419
11.30758 -6.0146517 5.8521902
10.572037 -7.7208343 5.9586941
7.0181145 -4.3374333 9.6598466
8.5420231 -5.2792606 8.576465
7.7299326 -3.8948497 9.3767889
6.9421043 -5.3576951 9.5057323
11.289627 -4.1564529 6.5154784
9.9595484 -5.2210885 7.4708448
11.310437 -5.0719967 6.1937072
10.595468 -3.7591059 7.3099565
10.642695 -5.6243866 6.6982573
9.0448029 -9.1772998 6.8783363
9.2269134 -6.8407096 7.6120409
9.8264244 -8.4622409 6.4251297
8.3174369 -8.6822628 7.7271363
9.9132247 -7.2888095 6.8277862
9.1138681 -2.9633754 8.7039524
9.2276272 -4.7868827 8.1970026
8.4320767 -3.4336134 9.0563931
9.8683851 -3.3601448 8.0445287
8.4938955 -4.3501872 8.8242405
9.9183672 -4.2867948 7.7672979
6.760465 -7.5227483 9.1186776
8.4724678 -6.3500685 8.3501468
6.8573667 -6.4236326 9.3264364
7.5475258 -8.1241055 8.4804513
7.7234061 -5.8641542 8.9684832
8.4143009 -7.4886525 8.0607347
0.84182702 6.4816179 11.007756
2.5067728 5.8861941 11.073333
1.4080982 7.2968587 10.936313
0.81773321 5.5333764 11.094044
5.7870569 4.4800894 10.825535
4.1571737 5.2258292 11.024844
2.6773144 9.0644588 10.710089
3.1402311 6.6742947 10.991579
2.0222002 8.1607003 10.839455
2.2798496 6.9920377 10.978427
0.78248849 3.7532674 11.21081
2.4402899 4.9368137 11.13718
0.79886314 4.6211673 11.160861
1.6348753 5.2411297 11.12844
11.196885 0.555471 7.8188267
10.084367 1.6404151 8.8867293
11.548304 1.4868948 7.7051877
10.52309 0 8.2649922
7.3575041 3.6301645 10.420917
8.8055794 2.6756273 9.7714032
12.269436 3.5053075 7.4502337
10.408586 2.6019444 8.8092819
11.906541 2.4725876 7.5831432
10.996456 2.0514902 8.2789014
9.1579334 -1.0407816 9.050107
9.3713243 1.065033 9.2609854
9.840261 -0.53367471 8.6781163
9.9637192 0.54037032 8.786994
5.8966761 13.132418 9.5410223
6.3377503 10.296043 10.254695
5.0220704 12.090555 9.9670767
7.2752893 12.907967 9.4267808
6.585792 5.1888205 10.656035
6.5302465 7.6117622 10.566161
5.750324 5.5950023 10.810643
3.4231007 10.054246 10.527754
5.4588843 9.3477304 10.523038
4.1901353 11.051772 10.289901
3.6560372 8.7529254 10.737389
5.273954 10.698077 10.297583
9.9488978 12.059528 8.9407718
7.5634251 9.9456738 10.091368
8.6489877 12.557417 9.2329814
7.4615798 11.411544 9.8273015
4.0390521 6.3314458 10.970746
5.5961971 8.0075869 10.675091
4.8939931 5.9763367 10.913493
3.860139 7.5064253 10.880242
5.6884485 6.7745506 10.763916
4.6367226 8.4013364 10.727996
0.75589307 0.46716761 11.290805
2.2941599 1.4178688 11.233592
0.75927236 1.2563791 11.286728
1.5172977 0 11.261778
5.6545729 3.4947183 10.847488
3.9112935 2.4173123 11.100557
4.8711944 3.8835063 10.97832
0.77462309 2.8780719 11.248602
2.3171438 2.2405349 11.229408
0.76498509 2.0627498 11.272829
1.5700061 3.4335936 11.224921
1.532805 1.7432179 11.266023
3.0691718 -0.94208427 11.104368
3.0865575 0.94742084 11.16727
2.2927524 -0.47202261 11.200729
2.2974581 0.47299139 11.223717
3.2746682 4.5944281 11.117615
3.1525435 2.7742635 11.171393
4.0722841 4.2521079 11.066686
2.4043889 4.0068539 11.182635
3.9906241 3.3135165 11.090865
2.3637102 3.1052116 11.212612
13.790161 8.5227883 6.7149431
11.672703 7.2141272 8.4089047
13.413412 7.1347717 6.9420547
13.086462 9.5571369 7.375894
7.5508458 4.6666794 10.393107
9.5799051 5.920707 9.6185319
8.3259332 4.1951541 10.099767
7.588442 5.856518 10.390754
12.65142 4.6578184 7.3013975
11.374364 5.9627768 8.5321249
13.02926 5.8427774 7.1349518
11.689718 4.1473286 8.0648941
12.387142 6.5462813 7.7961703
11.192317 11.356272 8.5114644
10.864607 8.0548739 8.9631096
12.219418 10.52302 7.9898186
9.9641305 10.401185 9.2569616
11.967208 8.7990237 8.2424782
9.7495711 3.1700743 9.3110634
10.329232 5.3583465 9.1755705
9.0646967 3.6912217 9.7358527
10.719452 3.6499296 8.738303
9.3242295 4.7754465 9.6868679
11.042901 4.7728269 8.6479457
7.6081168 8.4659779 10.262011
9.7166057 7.2825432 9.5763226
7.611072 7.1296654 10.351521
8.7541097 9.4228642 9.8361772
8.6418989 6.5615387 10.035045
9.8721838 8.7861553 9.4573578
6.2983826 -2.8762001 10.190997
6.4155803 -0.96040943 10.380627
7.0175582 -2.4523534 9.9636328
5.4980083 -2.3991779 10.512021
6.5675804 2.9991311 10.626568
6.5064221 0.97400841 10.527612
7.310517 2.5547307 10.37958
5.6609113 2.4702642 10.823487
8.4342155 -1.5420935 9.4018281
7.1428444 -0.5057578 10.165133
7.7340507 -2.0057563 9.6992402
8.5360666 -0.52018112 9.5078746
7.0819284 -1.4765259 10.070602
3.8943484 -1.4389606 10.957762
5.5970878 -0.49795018 10.667679
4.6896316 -1.9157353 10.76623
3.9082055 -0.48308077 11.013456
5.5531765 -1.4429375 10.595249
8.705348 1.5916668 9.7040662
7.2031087 0.51002489 10.250897
8.0297769 2.0824502 10.070109
8.6271376 0.52573091 9.6093138
7.2585115 1.5133421 10.321705
7.8792771 0 9.9114062
3.9389319 1.4554341 11.083209
5.6313648 0.50099967 10.733009
4.779719 1.9525364 10.973049
3.9231667 0.48493007 11.055617
5.652251 1.4686811 10.784279
4.766966 0 10.89109
12.411354 0 -6.5307008
13.805921 0 -4.9768135
12.787494 0.94255602 -6.3780182
12.473089 -0.91938146 -6.2212023
16.097633 0 -1.1156859
15.13657 0 -3.1881348
13.583509 2.9763102 -6.0212063
14.225754 0.99292457 -4.7626406
13.180164 1.9362934 -6.2074244
13.51205 0.96715463 -5.5946797
12.568422 -2.7538923 -5.5712451
13.839026 -0.96593179 -4.6331677
12.526827 -1.840312 -5.8997244
13.163261 -0.94218926 -5.450263
12.411354 0 6.5307008
13.805921 0 4.9768135
12.787494 0.94255602 6.3780182
12.473089 -0.91938146 6.2212023
16.097633 0 1.1156859
15.13657 0 3.1881348
13.583509 2.9763102 6.0212063
14.225754 0.99292457 4.7626406
13.180164 1.9362934 6.2074244
13.51205 0.96715463 5.5946797
12.568422 -2.7538923 5.5712451
13.839026 -0.96593179 4.6331677
12.526827 -1.840312 5.8997244
13.163261 -0.94218926 5.450263
15.411087 8.0334833 -4.9649657
16.179907 5.7010082 -3.5234168
14.935339 6.626965 -5.2832751
16.461105 8.6095044 -3.7569483
16.471552 1.102732 -0.68152586
16.557136 3.3813511 -2.0897899
16.147531 1.0862647 -1.7974581
14.028275 4.1319965 -5.7972778
15.667108 4.4212246 -3.8907131
14.469696 5.3245126 -5.5596323
14.379749 3.0918034 -5.1524129
15.34031 5.5196247 -4.5830846
18.047598 9.4691628 -0.84243297
17.027359 6.0514608 -2.2360129
17.424404 9.13247 -2.3729812
16.813149 7.3235916 -2.9917196
14.956832 1.0299864 -3.8268612
15.924228 3.2859014 -3.1772636
15.607125 1.0591146 -2.8558574
14.691475 2.0548658 -4.4939789
16.085331 2.1884987 -2.4889207
15.175014 3.1990171 -4.2025562
12.552468 -6.543344 -4.044009
13.820607 -4.869706 -3.0096438
12.599951 -5.590729 -4.4571474
13.093757 -6.8483105 -2.9884122
15.904102 -1.0647426 -0.65804712
14.969082 -3.0570338 -1.8893508
15.613241 -1.0503224 -1.7379838
12.602635 -3.7120773 -5.2081223
13.866411 -3.9130719 -3.4435346
12.613119 -4.6413355 -4.8462875
13.237091 -2.8461193 -4.7429865
13.243646 -4.7652203 -3.9566834
13.765735 -7.222567 -0.64256247
14.301372 -5.0826551 -1.8780395
13.523762 -7.0880674 -1.8417636
13.722691 -5.9774279 -2.4418058
14.521131 -0.99998237 -3.7153826
14.490909 -2.9901416 -2.8912822
15.12201 -1.0261942 -2.7670892
13.878959 -1.9412209 -4.2454382
15.069016 -2.0502235 -2.331664
13.890841 -2.9283029 -3.8469184
15.411087 8.0334833 4.9649657
16.179907 5.7010082 3.5234168
14.935339 6.626965 5.2832751
16.461105 8.6095044 3.7569483
16.471552 1.102732 0.68152586
16.557136 3.3813511 2.0897899
16.147531 1.0862647 1.7974581
16.80923 2.2647051 0
14.028275 4.1319965 5.7972778
15.667108 4.4212246 3.8907131
14.469696 5.3245126 5.5596323
14.379749 3.0918034 5.1524129
15.34031 5.5196247 4.5830846
18.047598 9.4691628 0.84243297
17.027359 6.0514608 2.2360129
17.424404 9.13247 2.3729812
17.919001 7.8430408 0
16.813149 7.3235916 2.9917196
14.956832 1.0299864 3.8268612
15.924228 3.2859014 3.1772636
15.607125 1.0591146 2.8558574
14.691475 2.0548658 4.4939789
16.085331 2.1884987 2.4889207
15.175014 3.1990171 4.2025562
17.102341 4.7269709 -1.4509468
17.102341 4.7269709 1.4509468
17.026544 3.4852777 -0.7175349
17.575275 6.2367152 -0.77090039
17.026544 3.4852777 0.7175349
17.575275 6.2367152 0.77090039
12.552468 -6.543344 4.044009
13.820607 -4.869706 3.0096438
12.599951 -5.590729 4.4571474
13.093757 -6.8483105 2.9884122
15.904102 -1.0647426 0.65804712
14.969082 -3.0570338 1.8893508
15.613241 -1.0503224 1.7379838
15.654828 -2.1091727 0
12.602635 -3.7120773 5.2081223
13.866411 -3.9130719 3.4435346
12.613119 -4.6413355 4.8462875
13.237091 -2.8461193 4.7429865
13.243646 -4.7652203 3.9566834
13.765735 -7.222567 0.64256247
14.301372 -5.0826551 1.8780395
13.523762 -7.0880674 1.8417636
14.235435 -6.230766 0
13.722691 -5.9774279 2.4418058
14.521131 -0.99998237 3.7153826
14.490909 -2.9901416 2.8912822
15.12201 -1.0261942 2.7670892
13.878959 -1.9412209 4.2454382
15.069016 -2.0502235 2.331664
13.890841 -2.9283029 3.8469184
14.848333 -4.1039784 -1.2597188
14.848333 -4.1039784 1.2597188
15.295319 -3.1309016 -0.64457737
14.598678 -5.1804477 -0.64033855
15.295319 -3.1309016 0.64457737
14.598678 -5.1804477 0.64033855
-9.3569372 13.399524 -0.66474261
-10.535208 11.955006 -1.9447103
-9.0310189 13.53542 -1.7427447
-11.771563 8.3111034 -4.1006668
-11.338118 10.217437 -3.1046285
-8.2316849 13.556371 -3.8729775
-10.13293 11.972539 -2.9929024
-8.6534129 13.587006 -2.8215637
-9.631525 12.793079 -2.3866668
-11.780465 0.90092057 -6.9366066
-11.898413 2.6935538 -6.3247778
-11.942628 6.3842268 -4.9423924
-11.962304 4.5106648 -5.6701898
-6.0389814 12.401971 -7.6648393
-7.9930817 11.095484 -6.8573863
-6.6542668 12.85735 -6.8389946
-11.184806 8.1260345 -5.0221655
-9.6858974 9.6470001 -5.962174
-11.048838 9.1083178 -4.589371
-7.7468528 13.423278 -4.94199
-8.5840487 11.443585 -5.9990643
-7.2277117 13.19865 -5.918738
-8.7431307 12.672793 -4.4961081
-7.6581245 12.167804 -6.430367
-10.543525 11.040076 -3.589682
-9.4754454 10.666811 -5.5334673
-10.839577 10.092334 -4.1096842
-9.6781722 11.872408 -4.0425065
-10.282339 9.8974084 -5.0690027
-9.1574584 11.693518 -5.0540285
-13.201566 -18.905192 -0.93787564
-15.212853 -17.263044 -2.8081641
-12.470735 -18.690763 -2.4065177
-15.273008 -10.783237 -5.3204079
-15.774423 -14.21525 -4.3193876
-10.736126 -17.680816 -5.0513078
-14.194921 -16.771975 -4.1926682
-11.626258 -18.254767 -3.7909004
-13.478504 -17.902832 -3.3399382
-12.06383 -0.92259112 -7.1034583
-12.810491 -2.9000292 -6.8096061
-14.448887 -7.7240093 -5.9795942
-13.605387 -5.1302276 -6.4490192
-6.9850173 -14.3448 -8.8655739
-9.8506031 -13.673976 -8.4509822
-7.9195216 -15.30207 -8.1393739
-14.206886 -10.32165 -6.3791303
-12.370967 -12.321286 -7.6149738
-14.488642 -11.943985 -6.0181671
-9.7902607 -16.963971 -6.2455518
-10.910386 -14.544877 -7.6248531
-8.8626955 -16.184323 -7.2576182
-11.485402 -16.647598 -5.9063064
-9.442911 -15.003607 -7.9290149
-14.577777 -15.264322 -4.9631964
-12.314668 -13.863014 -7.1915154
-14.643337 -13.633876 -5.5518304
-13.122451 -16.097575 -5.4811584
-13.5 -12.994613 -6.6552503
-12.017522 -15.345645 -6.6325061
-0.84182702 -6.4816179 -11.007756
-2.5067728 -5.8861941 -11.073333
-1.4080982 -7.2968587 -10.936313
-0.81773321 -5.5333764 -11.094044
-5.7870569 -4.4800894 -10.825535
-4.1571737 -5.2258292 -11.024844
-2.6773144 -9.0644588 -10.710089
-3.1402311 -6.6742947 -10.991579
-2.0222002 -8.1607003 -10.839455
-2.2798496 -6.9920377 -10.978427
-0.78248849 -3.7532674 -11.21081
-2.4402899 -4.9368137 -11.13718
-0.79886314 -4.6211673 -11.160861
-1.6348753 -5.2411297 -11.12844
-11.196885 -0.555471 -7.8188267
-10.084367 -1.6404151 -8.8867293
-11.548304 -1.4868948 -7.7051877
-7.3575041 -3.6301645 -10.420917
-8.8055794 -2.6756273 -9.7714032
-12.269436 -3.5053075 -7.4502337
-10.408586 -2.6019444 -8.8092819
-11.906541 -2.4725876 -7.5831432
-10.996456 -2.0514902 -8.2789014
-5.8966761 -13.132418 -9.5410223
-6.3377503 -10.296043 -10.254695
-5.0220704 -12.090555 -9.9670767
-7.2752893 -12.907967 -9.4267808
-6.585792 -5.1888205 -10.656035
-6.5302465 -7.6117622 -10.566161
-5.750324 -5.5950023 -10.810643
-3.4231007 -10.054246 -10.527754
-5.4588843 -9.3477304 -10.523038
-4.1901353 -11.051772 -10.289901
-3.6560372 -8.7529254 -10.737389
-5.273954 -10.698077 -10.297583
-9.9488978 -12.059528 -8.9407718
-7.5634251 -9.9456738 -10.091368
-8.6489877 -12.557417 -9.2329814
-7.4615798 -11.411544 -9.8273015
-4.0390521 -6.3314458 -10.970746
-5.5961971 -8.0075869 -10.675091
-4.8939931 -5.9763367 -10.913493
-3.860139 -7.5064253 -10.880242
-5.6884485 -6.7745506 -10.763916
-4.6367226 -8.4013364 -10.727996
-0.75589307 -0.46716761 -11.290805
-2.2941599 -1.4178688 -11.233592
-0.75927236 -1.2563791 -11.286728
-5.6545729 -3.4947183 -10.847488
-3.9112935 -2.4173123 -11.100557
-4.8711944 -3.8835063 -10.97832
-0.77462309 -2.8780719 -11.248602
-2.3171438 -2.2405349 -11.229408
-0.76498509 -2.0627498 -11.272829
-1.5700061 -3.4335936 -11.224921
-1.532805 -1.7432179 -11.266023
-3.2746682 -4.5944281 -11.117615
-3.1525435 -2.7742635 -11.171393
-4.0722841 -4.2521079 -11.066686
-2.4043889 -4.0068539 -11.182635
-3.9906241 -3.3135165 -11.090865
-2.3637102 -3.1052116 -11.212612
-13.790161 -8.5227883 -6.7149431
-11.672703 -7.2141272 -8.4089047
-13.413412 -7.1347717 -6.9420547
-13.086462 -9.5571369 -7.375894
-7.5508458 -4.6666794 -10.393107
-9.5799051 -5.920707 -9.6185319
-8.3259332 -4.1951541 -10.099767
-7.588442 -5.856518 -10.390754
-12.65142 -4.6578184 -7.3013975
-11.374364 -5.9627768 -8.5321249
-13.02926 -5.8427774 -7.1349518
-11.689718 -4.1473286 -8.0648941
-12.387142 -6.5462813 -7.7961703
-11.192317 -11.356272 -8.5114644
-10.864607 -8.0548739 -8.9631096
-12.219418 -10.52302 -7.9898186
-9.9641305 -10.401185 -9.2569616
-11.967208 -8.7990237 -8.2424782
-9.7495711 -3.1700743 -9.3110634
-10.329232 -5.3583465 -9.1755705
-9.0646967 -3.6912217 -9.7358527
-10.719452 -3.6499296 -8.738303
-9.3242295 -4.7754465 -9.6868679
-11.042901 -4.7728269 -8.6479457
-7.6081168 -8.4659779 -10.262011
-9.7166057 -7.2825432 -9.5763226
-7.611072 -7.1296654 -10.351521
-8.7541097 -9.4228642 -9.8361772
-8.6418989 -6.5615387 -10.035045
-9.8721838 -8.7861553 -9.4573578
-0.83426695 6.4234094 -10.9089
-2.4437882 5.738299 -10.795107
-1.3848663 7.1764692 -10.755877
-0.81147989 5.4910619 -11.009207
-5.4953206 4.2542397 -10.279799
-3.9935826 5.0201849 -10.591
-2.5779643 8.7280935 -10.312658
-3.0294441 6.4388263 -10.603797
-1.9699232 7.9497332 -10.559238
-2.2203361 6.8095167 -10.691845
-0.77844792 3.7338866 -11.152921
-2.3889311 4.8329126 -10.902784
-0.79376822 4.5916948 -11.089681
-1.6109111 5.1643047 -10.965318
-11.042549 0.54781447 -7.7110532
-9.7153906 1.580394 -8.5615728
-11.127965 1.4327743 -7.4247319
-10.52309 0 -8.2649922
-6.9504365 3.4293189 -9.8443606
-8.3563637 2.5391305 -9.2729162
-11.253201 3.2149751 -6.8331567
-9.8101454 2.4523459 -8.3027932
-11.197712 2.3253877 -7.1316978
-10.469315 1.9531473 -7.8820331
-9.3713243 -1.065033 -9.2609854
-9.1579334 1.0407816 -9.050107
-9.9637192 -0.54037032 -8.786994
-9.840261 0.53367471 -8.6781163
-5.261248 11.717263 -8.512878
-5.6858739 9.2370319 -9.1999372
-4.5876249 11.044634 -9.1048523
-6.2960405 11.170564 -8.1579427
-6.1504903 4.8458546 -9.9517024
-5.9575658 6.9442361 -9.6395439
-5.4042294 5.258256 -10.159983
-3.2472948 9.5378735 -9.9870629
-5.0102899 8.5795625 -9.658287
-3.9071993 10.305508 -9.5950824
-3.4712411 8.3105047 -10.194663
-4.8225552 9.7824266 -9.4162109
-8.1682418 9.9011106 -7.3405504
-6.6379304 8.7286765 -8.8565424
-7.2705615 10.556088 -7.7614816
-6.4906844 9.9266821 -8.54858
-3.8591303 6.0494081 -10.482048
-5.1687946 7.3960174 -9.8597944
-4.6356422 5.6608495 -10.337376
-3.6740562 7.1445687 -10.355746
-5.2960166 6.3071912 -10.02134
-4.3404914 7.8645914 -10.042605
-0.75540618 0.4668667 -11.283532
-2.280236 1.4092633 -11.165412
-0.7579572 1.2542029 -11.267178
-1.5172977 0 -11.261778
-5.4313372 3.356751 -10.419242
-3.8397312 2.3730844 -10.897458
-4.6936071 3.7419268 -10.578087
-0.77154263 2.8666266 -11.203869
-2.2949455 2.2190705 -11.12183
-0.76280942 2.0568832 -11.240768
-1.5549365 3.4006365 -11.117179
-1.5253262 1.7347124 -11.211054
-3.0865575 -0.94742084 -11.16727
-3.0691718 0.94208427 -11.104368
-2.2974581 -0.47299139 -11.223717
-2.2927524 0.47202261 -11.200729
-3.1860305 4.4700676 -10.816687
-3.1009267 2.7288403 -10.988483
-3.9411753 4.1152096 -10.71039
-2.3630077 3.9378932 -10.990174
-3.8903247 3.2302354 -10.81211
-2.332146 3.0637456 -11.062882
-11.275493 6.9686381 -5.4904576
-9.9635428 6.1578081 -7.1776419
-11.30758 6.0146517 -5.8521902
-10.572037 7.7208343 -5.9586941
-7.0181145 4.3374333 -9.6598466
-8.5420231 5.2792606 -8.576465
-7.7299326 3.8948497 -9.3767889
-6.9421043 5.3576951 -9.5057323
-11.289627 4.1564529 -6.5154784
-9.9595484 5.2210885 -7.4708448
-11.310437 5.0719967 -6.1937072
-10.595468 3.7591059 -7.3099565
-10.642695 5.6243866 -6.6982573
-9.0448029 9.1772998 -6.8783363
-9.2269134 6.8407096 -7.6120409
-9.8264244 8.4622409 -6.4251297
-8.3174369 8.6822628 -7.7271363
-9.9132247 7.2888095 -6.8277862
-9.1138681 2.9633754 -8.7039524
-9.2276272 4.7868827 -8.1970026
-8.4320767 3.4336134 -9.0563931
-9.8683851 3.3601448 -8.0445287
-8.4938955 4.3501872 -8.8242405
-9.9183672 4.2867948 -7.7672979
-6.760465 7.5227483 -9.1186776
-8.4724678 6.3500685 -8.3501468
-6.8573667 6.4236326 -9.3264364
-7.5475258 8.1241055 -8.4804513
-7.7234061 5.8641542 -8.9684832
-8.4143009 7.4886525 -8.0607347
-6.5675804 -2.9991311 -10.626568
-6.5064221 -0.97400841 -10.527612
-7.310517 -2.5547307 -10.37958
-5.6609113 -2.4702642 -10.823487
-6.2983826 2.8762001 -10.190997
-6.4155803 0.96040943 -10.380627
-7.0175582 2.4523534 -9.9636328
-5.4980083 2.3991779 -10.512021
-8.705348 -1.5916668 -9.7040662
-7.2031087 -0.51002489 -10.250897
-8.0297769 -2.0824502 -10.070109
-8.6271376 -0.52573091 -9.6093138
-7.2585115 -1.5133421 -10.321705
-3.9389319 -1.4554341 -11.083209
-5.6313648 -0.50099967 -10.733009
-4.779719 -1.9525364 -10.973049
-3.9231667 -0.48493007 -11.055617
-5.652251 -1.4686811 -10.784279
-8.4342155 1.5420935 -9.4018281
-7.1428444 0.5057578 -10.165133
-7.7340507 2.0057563 -9.6992402
-8.5360666 0.52018112 -9.5078746
-7.0819284 1.4765259 -10.070602
-7.8792771 0 -9.9114062
-3.8943484 1.4389606 -10.957762
-5.5970878 0.49795018 -10.667679
-4.6896316 1.9157353 -10.76623
-3.9082055 0.48308077 -11.013456
-5.5531765 1.4429375 -10.595249
-4.766966 0 -10.89109
-9.3569372 13.399524 0.66474261
-10.535208 11.955006 1.9447103
-9.0310189 13.53542 1.7427447
-10.043142 12.787053 0
-11.771563 8.3111034 4.1006668
-11.338118 10.217437 3.1046285
-8.2316849 13.556371 3.8729775
-10.13293 11.972539 2.9929024
-8.6534129 13.587006 2.8215637
-9.631525 12.793079 2.3866668
-11.206229 11.339744 -1.2887401
-11.206229 11.339744 1.2887401
-10.668771 12.097497 -0.6560932
-10.668771 12.097497 0.6560932
-11.780465 0.90092057 6.9366066
-11.898413 2.6935538 6.3247778
-11.942628 6.3842268 4.9423924
-11.962304 4.5106648 5.6701898
-6.0389814 12.401971 7.6648393
-7.9930817 11.095484 6.8573863
-6.6542668 12.85735 6.8389946
-11.184806 8.1260345 5.0221655
-9.6858974 9.6470001 5.962174
-11.048838 9.1083178 4.589371
-7.7468528 13.423278 4.94199
-8.5840487 11.443585 5.9990643
-7.2277117 13.19865 5.918738
-8.7431307 12.672793 4.4961081
-7.6581245 12.167804 6.430367
-10.543525 11.040076 3.589682
-9.4754454 10.666811 5.5334673
-10.839577 10.092334 4.1096842
-9.6781722 11.872408 4.0425065
-10.282339 9.8974084 5.0690027
-9.1574584 11.693518 5.0540285
-12.434258 7.6847943 -3.5093146
-13.208994 8.1636071 -1.2220882
-12.265341 8.638691 -3.0188739
-12.434258 7.6847943 3.5093146
-13.208994 8.1636071 1.2220882
-12.265341 8.638691 3.0188739
-11.671181 10.470012 -1.9143141
-12.85291 9.0314939 -0.63948593
-12.013274 9.5792318 -2.4842874
-11.840494 10.630267 -0.64780002
-12.644366 8.8918717 -1.8538848
-11.671181 10.470012 1.9143141
-12.85291 9.0314939 0.63948593
-12.013274 9.5792318 2.4842874
-11.840494 10.630267 0.64780002
-12.644366 8.8918717 1.8538848
-12.397865 9.8559389 0
-13.201566 -18.905192 0.93787564
-15.212853 -17.263044 2.8081641
-12.470735 -18.690763 2.4065177
-14.576797 -18.559359 0
-15.273008 -10.783237 5.3204079
-15.774423 -14.21525 4.3193876
-10.736126 -17.680816 5.0513078
-14.194921 -16.771975 4.1926682
-11.626258 -18.254767 3.7909004
-13.478504 -17.902832 3.3399382
-16.513104 -16.709847 -1.899042
-16.513104 -16.709847 1.899042
-15.743203 -17.851481 -0.96815359
-15.743203 -17.851481 0.96815359
-12.06383 -0.92259112 7.1034583
-12.810491 -2.9000292 6.8096061
-14.448887 -7.7240093 5.9795942
-13.605387 -5.1302276 6.4490192
-6.9850173 -14.3448 8.8655739
-9.8506031 -13.673976 8.4509822
-7.9195216 -15.30207 8.1393739
-14.206886 -10.32165 6.3791303
-12.370967 -12.321286 7.6149738
-14.488642 -11.943985 6.0181671
-9.7902607 -16.963971 6.2455518
-10.910386 -14.544877 7.6248531
-8.8626955 -16.184323 7.2576182
-11.485402 -16.647598 5.9063064
-9.442911 -15.003607 7.9290149
-14.577777 -15.264322 4.9631964
-12.314668 -13.863014 7.1915154
-14.643337 -13.633876 5.5518304
-13.122451 -16.097575 5.4811584
-13.5 -12.994613 6.6552503
-12.017522 -15.345645 6.6325061
-15.976865 -9.8742454 -4.5091426
-17.92526 -11.07842 -1.6584344
-16.41313 -11.56005 -4.0397711
-15.976865 -9.8742454 4.5091426
-17.92526 -11.07842 1.6584344
-16.41313 -11.56005 4.0397711
-16.832938 -15.100535 -2.7609488
-18.175023 -12.77124 -0.90428324
-16.74073 -13.348846 -3.4619028
-17.533647 -15.741518 -0.95927563
-17.473162 -12.287616 -2.5618705
-16.832938 -15.100535 2.7609488
-18.175023 -12.77124 0.90428324
-16.74073 -13.348846 3.4619028
-17.533647 -15.741518 0.95927563
-17.473162 -12.287616 2.5618705
-18.095173 -14.385132 0
-0.84182702 -6.4816179 11.007756
-2.5067728 -5.8861941 11.073333
-1.4080982 -7.2968587 10.936313
-0.81773321 -5.5333764 11.094044
-5.7870569 -4.4800894 10.825535
-4.1571737 -5.2258292 11.024844
-2.6773144 -9.0644588 10.710089
-3.1402311 -6.6742947 10.991579
-2.0222002 -8.1607003 10.839455
-2.2798496 -6.9920377 10.978427
-0.78248849 -3.7532674 11.21081
-2.4402899 -4.9368137 11.13718
-0.79886314 -4.6211673 11.160861
-1.6348753 -5.2411297 11.12844
-11.196885 -0.555471 7.8188267
-10.084367 -1.6404151 8.8867293
-11.548304 -1.4868948 7.7051877
-7.3575041 -3.6301645 10.420917
-8.8055794 -2.6756273 9.7714032
-12.269436 -3.5053075 7.4502337
-10.408586 -2.6019444 8.8092819
-11.906541 -2.4725876 7.5831432
-10.996456 -2.0514902 8.2789014
-5.8966761 -13.132418 9.5410223
-6.3377503 -10.296043 10.254695
-5.0220704 -12.090555 9.9670767
-7.2752893 -12.907967 9.4267808
-6.585792 -5.1888205 10.656035
-6.5302465 -7.6117622 10.566161
-5.750324 -5.5950023 10.810643
-3.4231007 -10.054246 10.527754
-5.4588843 -9.3477304 10.523038
-4.1901353 -11.051772 10.289901
-3.6560372 -8.7529254 10.737389
-5.273954 -10.698077 10.297583
-9.9488978 -12.059528 8.9407718
-7.5634251 -9.9456738 10.091368
-8.6489877 -12.557417 9.2329814
-7.4615798 -11.411544 9.8273015
-4.0390521 -6.3314458 10.970746
-5.5961971 -8.0075869 10.675091
-4.8939931 -5.9763367 10.913493
-3.860139 -7.5064253 10.880242
-5.6884485 -6.7745506 10.763916
-4.6367226 -8.4013364 10.727996
-0.75589307 -0.46716761 11.290805
-2.2941599 -1.4178688 11.233592
-0.75927236 -1.2563791 11.286728
-5.6545729 -3.4947183 10.847488
-3.9112935 -2.4173123 11.100557
-4.8711944 -3.8835063 10.97832
-0.77462309 -2.8780719 11.248602
-2.3171438 -2.2405349 11.229408
-0.76498509 -2.0627498 11.272829
-1.5700061 -3.4335936 11.224921
-1.532805 -1.7432179 11.266023
-3.2746682 -4.5944281 11.117615
-3.1525435 -2.7742635 11.171393
-4.0722841 -4.2521079 11.066686
-2.4043889 -4.0068539 11.182635
-3.9906241 -3.3135165 11.090865
-2.3637102 -3.1052116 11.212612
-13.790161 -8.5227883 6.7149431
-11.672703 -7.2141272 8.4089047
-13.413412 -7.1347717 6.9420547
-13.086462 -9.5571369 7.375894
-7.5508458 -4.6666794 10.393107
-9.5799051 -5.920707 9.6185319
-8.3259332 -4.1951541 10.099767
-7.588442 -5.856518 10.390754
-12.65142 -4.6578184 7.3013975
-11.374364 -5.9627768 8.5321249
-13.02926 -5.8427774 7.1349518
-11.689718 -4.1473286 8.0648941
-12.387142 -6.5462813 7.7961703
-11.192317 -11.356272 8.5114644
-10.864607 -8.0548739 8.9631096
-12.219418 -10.52302 7.9898186
-9.9641305 -10.401185 9.2569616
-11.967208 -8.7990237 8.2424782
-9.7495711 -3.1700743 9.3110634
-10.329232 -5.3583465 9.1755705
-9.0646967 -3.6912217 9.7358527
-10.719452 -3.6499296 8.738303
-9.3242295 -4.7754465 9.6868679
-11.042901 -4.7728269 8.6479457
-7.6081168 -8.4659779 10.262011
-9.7166057 -7.2825432 9.5763226
-7.611072 -7.1296654 10.351521
-8.7541097 -9.4228642 9.8361772
-8.6418989 -6.5615387 10.035045
-9.8721838 -8.7861553 9.4573578
-0.83426695 6.4234094 10.9089
-2.4437882 5.738299 10.795107
-1.3848663 7.1764692 10.755877
-0.81147989 5.4910619 11.009207
-5.4953206 4.2542397 10.279799
-3.9935826 5.0201849 10.591
-2.5779643 8.7280935 10.312658
-3.0294441 6.4388263 10.603797
-1.9699232 7.9497332 10.559238
-2.2203361 6.8095167 10.691845
-0.77844792 3.7338866 11.152921
-2.3889311 4.8329126 10.902784
-0.79376822 4.5916948 11.089681
-1.6109111 5.1643047 10.965318
-11.042549 0.54781447 7.7110532
-9.7153906 1.580394 8.5615728
-11.127965 1.4327743 7.4247319
-10.52309 0 8.2649922
-6.9504365 3.4293189 9.8443606
-8.3563637 2.5391305 9.2729162
-11.253201 3.2149751 6.8331567
-9.8101454 2.4523459 8.3027932
-11.197712 2.3253877 7.1316978
-10.469315 1.9531473 7.8820331
-9.3713243 -1.065033 9.2609854
-9.1579334 1.0407816 9.050107
-9.9637192 -0.54037032 8.786994
-9.840261 0.53367471 8.6781163
-5.261248 11.717263 8.512878
-5.6858739 9.2370319 9.1999372
-4.5876249 11.044634 9.1048523
-6.2960405 11.170564 8.1579427
-6.1504903 4.8458546 9.9517024
-5.9575658 6.9442361 9.6395439
-5.4042294 5.258256 10.159983
-3.2472948 9.5378735 9.9870629
-5.0102899 8.5795625 9.658287
-3.9071993 10.305508 9.5950824
-3.4712411 8.3105047 10.194663
-4.8225552 9.7824266 9.4162109
-8.1682418 9.9011106 7.3405504
