-19.67435225 24.77913474 -21.62420565
-11.94766649 17.81422874 -27.04127713
-4.297977582 2.656296228 -31.90070732
-13.07339397 8.079801824 -30.16276491
-4.301296286 7.129835782 -31.30253302
-8.81339477 0 -31.88716184
-8.715631866 9.942570956 -30.23918416
-32.833472 20.29220167 -19.66669451
-22.46253924 13.88261273 -26.40629859
-34.06986129 15.05311077 -22.44451322
-26.05906901 22.74117613 -20.69060555
-28.08233148 11.83594268 -25.88719992
-21.14279502 19.23635038 -24.22748724
-19.44612257 -5.858438217 -31.46448726
-18.55068835 5.588675132 -30.01564427
-24.48728 -3.20350925 -30.8027469
-13.89858342 -2.863265649 -31.75410264
-23.70167834 3.100734169 -29.81453224
-13.65707566 2.813512316 -31.20232972
-28.79553202 36.66282785 3.792663399
-35.47514073 28.37559124 11.08633132
-25.71482619 35.68101174 9.58919922
-33.64997795 34.05089672 0
-42.73640783 6.48264854 23.93640119
-40.14877352 18.2502802 17.84231991
-18.11423762 30.2416511 18.69036826
-30.79293891 26.19403838 16.18880602
-21.90577278 33.25207514 14.69178774
-28.55690631 30.97841835 13.05656491
-42.25993789 26.11807798 -7.868465586
-42.25993789 26.11807798 7.868465586
-38.27147185 30.42469719 -3.98026236
-38.27147185 30.42469719 3.98026236
-44.04481074 -56.0783983 5.801147952
-51.62141894 -41.29055596 16.13220249
-36.81798187 -51.08737014 13.72962665
-52.51449848 -53.1401764 0
-47.82772083 -7.254945381 26.78801453
-53.6517449 -24.38827619 23.84310932
-22.22597765 -37.10618551 22.93288384
-42.0376334 -35.75934683 22.10049176
-28.86019686 -43.808609 19.35598852
-40.03427862 -43.42902617 18.30415913
-62.55915209 -38.6636823 -11.64801843
-62.55915209 -38.6636823 11.64801843
-58.75779452 -46.71072262 -6.110855596
-58.75779452 -46.71072262 6.110855596
-4.515585431 -16.6732569 29.76868164
-14.06282187 -13.74846654 30.93678805
-7.731483089 -20.73309139 28.76852723
-4.408008915 -11.99400905 30.94703147
-36.75924255 -3.80263722 28.87125756
-24.79868718 -9.688836437 31.00329822
-40.12237102 -10.78280548 28.9156542
-15.91901457 -30.27976507 25.75750664
-18.57936288 -18.00665398 30.06204063
-11.56881983 -25.30295725 27.44854736
-23.81207486 -29.99044665 26.17200289
-13.04865731 -19.45582982 29.53316103
-4.320578089 -2.67026411 32.06845416
-13.71629614 -8.477137217 31.64606046
-4.361215266 -7.22915758 31.73859129
-9.059342586 -10.33466739 31.43170031
-43.03158172 -26.59498009 25.77518978
-25.77312952 -15.92867004 30.29813087
-42.38148689 -18.72544215 27.92003862
-33.08046229 -28.86859154 26.26551227
-32.53601872 -13.71305131 29.99275262
-25.05793893 -22.79846599 28.71384295
-4.386292095 16.19585678 28.91632435
-13.06697092 12.77487649 28.74601653
-7.305620295 19.59107865 27.18390948
-4.31254831 11.73426471 30.27683719
-34.86694614 3.606884636 27.38501973
-22.65301817 8.850524475 28.32078459
-34.84056955 9.363332093 25.10913078
-29.81452736 0 29.46348804
-13.87062311 26.38349298 22.44313963
-16.57382879 16.06294048 26.81701831
-10.53773302 23.04779677 25.00215824
-19.67435225 24.77913474 21.62420565
-11.94766649 17.81422874 27.04127713
-4.297977582 2.656296228 31.90070732
-13.07339397 8.079801824 30.16276491
-4.301296286 7.129835782 31.30253302
-8.81339477 0 31.88716184
-8.715631866 9.942570956 30.23918416
-32.833472 20.29220167 19.66669451
-22.46253924 13.88261273 26.40629859
-34.06986129 15.05311077 22.44451322
-26.05906901 22.74117613 20.69060555
-28.08233148 11.83594268 25.88719992
-21.14279502 19.23635038 24.22748724
-19.44612257 -5.858438217 31.46448726
-18.55068835 5.588675132 30.01564427
-24.48728 -3.20350925 30.8027469
-13.89858342 -2.863265649 31.75410264
-23.70167834 3.100734169 29.81453224
-13.65707566 2.813512316 31.20232972
-52.63860755 0 -23.20334031
-73.57970803 0 -10.24847255
-51.52987015 7.339771095 -19.97121209
-59.4369814 -8.466037984 -23.03573748
-52.63860755 0 23.20334031
-73.57970803 0 10.24847255
-51.52987015 7.339771095 19.97121209
-59.4369814 -8.466037984 23.03573748
-46.356162 20.0920695 -12.41758185
-67.3077555 9.068363949 -5.604557143
-49.27270015 14.20153114 -16.20074519
-50.3645813 22.04428015 -4.541371463
-60.75155077 8.347900139 -13.83749297
-64.89430626 -28.12702466 -17.38345724
-81.64535582 -11.00006672 -6.798415113
-64.18892687 -18.50073248 -21.10516463
-73.08597945 -31.98930209 -6.590158656
-72.27599898 -9.931480173 -16.46243783
-46.356162 20.0920695 12.41758185
-67.3077555 9.068363949 5.604557143
-49.27270015 14.20153114 16.20074519
-50.3645813 22.04428015 4.541371463
-60.75155077 8.347900139 13.83749297
-59.29520707 16.38879216 0
-64.89430626 -28.12702466 17.38345724
-81.64535582 -11.00006672 6.798415113
-64.18892687 -18.50073248 21.10516463
-73.08597945 -31.98930209 6.590158656
-72.27599898 -9.931480173 16.46243783
-81.14552193 -22.42807066 0
-21.87245533 41.56778705 0
-16.21943279 44.9934902 0
-3.602554961 51.97933254 0
-10.20621623 48.4568937 0
32.08319855 60.97292441 0
21.92365735 60.81728471 0
3.845266337 55.48128476 0
12.3548781 58.6582727 0
-32.08319855 -60.97292441 0
-21.92365735 -60.81728471 0
-3.845266337 -55.48128476 0
-12.3548781 -58.6582727 0
21.87245533 -41.56778705 0
16.21943279 -44.9934902 0
3.602554961 -51.97933254 0
10.20621623 -48.4568937 0
-35.04202954 -59.51200905 4.551229015
-28.73262702 -54.05291401 12.23645794
-30.01762212 -60.18329659 4.436063012
-16.43123193 -39.70386698 21.22468259
-22.10726921 -46.63933375 17.58644504
-19.9879748 -59.70301818 4.167131808
-24.09917185 -54.36640283 11.91233243
-24.93537923 -60.22294573 4.310589508
-27.19703501 -57.74719981 8.483621519
-1.409292638 -19.83724604 28.4077623
-4.426816974 -23.98168803 27.21362904
-11.74431073 -33.71375827 23.80300211
-7.816044837 -28.54423197 25.72286647
-2.242795994 -54.20532365 3.628920149
-6.523660506 -51.68612049 10.55550443
-6.215852278 -55.8403367 3.756449624
-12.82692796 -39.81435289 20.7544054
-10.06241755 -46.20769888 16.28133361
-15.25792179 -43.13275978 19.13845308
-15.01177993 -58.67175662 4.04036862
-10.52614515 -52.75631899 10.88605755
-10.49741305 -57.36786162 3.893038575
-17.45570229 -57.06524749 7.981596376
-8.48776704 -54.85451648 7.46326209
-20.85426701 -50.46323677 14.86383125
-12.36966637 -49.8101224 14.05631122
-17.95206573 -46.7226811 17.19286374
-19.39641035 -54.13298962 11.63918497
-13.91088148 -46.56192431 16.75353003
-14.83437696 -53.56546632 11.29203835
23.62301677 -40.1190572 3.068137342
20.82161198 -39.17041074 8.867368065
20.86002957 -41.82294459 3.082736043
13.89394304 -33.57284886 17.94719545
17.41992811 -36.75052913 13.85764136
15.14298897 -45.23130306 3.157039751
18.06842274 -40.76136538 8.931305172
18.02507634 -43.53345438 3.116002537
19.56111519 -41.53392556 6.101734903
1.394613279 -19.63061894 28.11186369
4.268054995 -23.12161627 26.23764796
0 -21.63386024 27.54449867
10.49229171 -30.11965493 21.26544908
7.287560768 -26.6142057 23.98360763
-2.979409921 -25.90743294 26.21610406
2.902637747 -25.23986118 25.54057858
-1.459504087 -23.73308296 26.9113389
1.441773453 -23.44476407 26.5844093
2.159107777 -52.18269345 3.493509768
5.927204029 -46.96047278 9.590417578
5.616916648 -50.45977653 3.394492579
0 -51.66813807 6.961240605
11.19185289 -34.73913489 18.10879837
8.881123894 -40.78307191 14.36996032
12.90279075 -36.47501813 16.18434402
12.02716336 -47.00673767 3.237069397
9.074722237 -45.4818867 9.385007245
8.915340798 -48.72191222 3.306316087
13.72698444 -44.87552271 6.276645159
7.45629376 -48.18833823 6.556291459
-4.069677366 -47.96937604 13.25840945
3.843790665 -45.30684456 12.52250385
-2.11438615 -50.17273547 10.27019445
2.047126973 -48.57672761 9.943496871
16.3486045 -39.56041703 11.65243057
10.54303592 -42.45465432 11.98061368
14.64469449 -38.11479974 14.0253629
15.16535087 -42.32462432 9.100257251
11.79005566 -39.46318425 14.19931956
12.15868824 -43.90381931 9.255284148
-10.21239521 -36.1847182 22.36338572
-3.253837315 -35.1692416 21.73578667
-8.215938375 -33.38042258 23.51040659
-8.950469971 -39.21657096 20.51109184
9.20127774 -32.60211098 20.14921269
3.14229365 -33.96361708 20.99066973
7.576710216 -30.78331132 21.68121639
8.113930135 -35.55126355 18.59405894
-4.643598143 -28.31106574 25.39736191
-1.617352438 -32.50686972 22.84195468
-6.358747931 -30.74901087 24.51887007
-1.5283656 -27.93547845 25.08016933
-4.834268148 -32.97198323 23.18681977
-5.931727789 -45.17042708 16.05340364
-1.767412607 -37.8636076 19.86617122
-7.519267213 -42.2574888 18.40681917
-1.937049772 -44.16158492 15.67106185
-5.25113162 -38.55818091 20.20909451
4.450453989 -27.13350543 24.34099315
1.59066147 -31.97041285 22.46499671
5.985829012 -28.94568606 23.08092181
1.506792116 -27.54115814 24.72615283
4.604129514 -31.40232946 22.08299539
0 -29.97069889 23.82582624
5.496974594 -41.85975804 14.87680404
1.731768666 -37.10000085 19.46552417
6.879036403 -38.65945916 16.83956369
1.887980594 -43.04288746 15.27408386
4.949538271 -36.34363142 19.04840594
0 -40.49978994 17.72651916
-23.62301677 40.1190572 3.068137342
-20.82161198 39.17041074 8.867368065
-20.86002957 41.82294459 3.082736043
-13.89394304 33.57284886 17.94719545
-17.41992811 36.75052913 13.85764136
-15.14298897 45.23130306 3.157039751
-18.06842274 40.76136538 8.931305172
-18.02507634 43.53345438 3.116002537
-19.56111519 41.53392556 6.101734903
-1.394613279 19.63061894 28.11186369
-4.268054995 23.12161627 26.23764796
-10.49229171 30.11965493 21.26544908
-7.287560768 26.6142057 23.98360763
-2.159107777 52.18269345 3.493509768
-5.927204029 46.96047278 9.590417578
-5.616916648 50.45977653 3.394492579
-11.19185289 34.73913489 18.10879837
-8.881123894 40.78307191 14.36996032
-12.90279075 36.47501813 16.18434402
-12.02716336 47.00673767 3.237069397
-9.074722237 45.4818867 9.385007245
-8.915340798 48.72191222 3.306316087
-13.72698444 44.87552271 6.276645159
-7.45629376 48.18833823 6.556291459
-16.3486045 39.56041703 11.65243057
-10.54303592 42.45465432 11.98061368
-14.64469449 38.11479974 14.0253629
-15.16535087 42.32462432 9.100257251
-11.79005566 39.46318425 14.19931956
-12.15868824 43.90381931 9.255284148
35.04202954 59.51200905 4.551229015
28.73262702 54.05291401 12.23645794
30.01762212 60.18329659 4.436063012
16.43123193 39.70386698 21.22468259
22.10726921 46.63933375 17.58644504
19.9879748 59.70301818 4.167131808
24.09917185 54.36640283 11.91233243
24.93537923 60.22294573 4.310589508
27.19703501 57.74719981 8.483621519
1.409292638 19.83724604 28.4077623
4.426816974 23.98168803 27.21362904
0 21.63386024 27.54449867
11.74431073 33.71375827 23.80300211
7.816044837 28.54423197 25.72286647
-2.902637747 25.23986118 25.54057858
2.979409921 25.90743294 26.21610406
-1.441773453 23.44476407 26.5844093
1.459504087 23.73308296 26.9113389
2.242795994 54.20532365 3.628920149
6.523660506 51.68612049 10.55550443
6.215852278 55.8403367 3.756449624
0 51.66813807 6.961240605
12.82692796 39.81435289 20.7544054
10.06241755 46.20769888 16.28133361
15.25792179 43.13275978 19.13845308
15.01177993 58.67175662 4.04036862
10.52614515 52.75631899 10.88605755
10.49741305 57.36786162 3.893038575
17.45570229 57.06524749 7.981596376
8.48776704 54.85451648 7.46326209
-3.843790665 45.30684456 12.52250385
4.069677366 47.96937604 13.25840945
-2.047126973 48.57672761 9.943496871
2.11438615 50.17273547 10.27019445
20.85426701 50.46323677 14.86383125
12.36966637 49.8101224 14.05631122
17.95206573 46.7226811 17.19286374
19.39641035 54.13298962 11.63918497
13.91088148 46.56192431 16.75353003
14.83437696 53.56546632 11.29203835
-9.20127774 32.60211098 20.14921269
-3.14229365 33.96361708 20.99066973
-7.576710216 30.78331132 21.68121639
-8.113930135 35.55126355 18.59405894
10.21239521 36.1847182 22.36338572
3.253837315 35.1692416 21.73578667
8.215938375 33.38042258 23.51040659
8.950469971 39.21657096 20.51109184
-4.450453989 27.13350543 24.34099315
-1.59066147 31.97041285 22.46499671
-5.985829012 28.94568606 23.08092181
-1.506792116 27.54115814 24.72615283
-4.604129514 31.40232946 22.08299539
-5.496974594 41.85975804 14.87680404
-1.731768666 37.10000085 19.46552417
-6.879036403 38.65945916 16.83956369
-1.887980594 43.04288746 15.27408386
-4.949538271 36.34363142 19.04840594
4.643598143 28.31106574 25.39736191
1.617352438 32.50686972 22.84195468
6.358747931 30.74901087 24.51887007
1.5283656 27.93547845 25.08016933
4.834268148 32.97198323 23.18681977
0 29.97069889 23.82582624
5.931727789 45.17042708 16.05340364
1.767412607 37.8636076 19.86617122
7.519267213 42.2574888 18.40681917
1.937049772 44.16158492 15.67106185
5.25113162 38.55818091 20.20909451
0 40.49978994 17.72651916
0 -15.60035757 29.64789878
0 -11.11527657 30.83431422
0 -2.222060739 32.06092213
0 -6.665512903 31.64640478
0 15.60035757 29.64789878
0 11.11527657 30.83431422
0 2.222060739 32.06092213
0 6.665512903 31.64640478
-35.04202954 -59.51200905 -4.551229015
-28.73262702 -54.05291401 -12.23645794
-30.01762212 -60.18329659 -4.436063012
-16.43123193 -39.70386698 -21.22468259
-22.10726921 -46.63933375 -17.58644504
-19.9879748 -59.70301818 -4.167131808
-24.09917185 -54.36640283 -11.91233243
-24.93537923 -60.22294573 -4.310589508
-27.19703501 -57.74719981 -8.483621519
-1.409292638 -19.83724604 -28.4077623
-4.426816974 -23.98168803 -27.21362904
-11.74431073 -33.71375827 -23.80300211
-7.816044837 -28.54423197 -25.72286647
-2.242795994 -54.20532365 -3.628920149
-6.523660506 -51.68612049 -10.55550443
-6.215852278 -55.8403367 -3.756449624
-12.82692796 -39.81435289 -20.7544054
-10.06241755 -46.20769888 -16.28133361
-15.25792179 -43.13275978 -19.13845308
-15.01177993 -58.67175662 -4.04036862
-10.52614515 -52.75631899 -10.88605755
-10.49741305 -57.36786162 -3.893038575
-17.45570229 -57.06524749 -7.981596376
-8.48776704 -54.85451648 -7.46326209
-20.85426701 -50.46323677 -14.86383125
-12.36966637 -49.8101224 -14.05631122
-17.95206573 -46.7226811 -17.19286374
-19.39641035 -54.13298962 -11.63918497
-13.91088148 -46.56192431 -16.75353003
-14.83437696 -53.56546632 -11.29203835
23.62301677 -40.1190572 -3.068137342
20.82161198 -39.17041074 -8.867368065
20.86002957 -41.82294459 -3.082736043
13.89394304 -33.57284886 -17.94719545
17.41992811 -36.75052913 -13.85764136
15.14298897 -45.23130306 -3.157039751
18.06842274 -40.76136538 -8.931305172
18.02507634 -43.53345438 -3.116002537
19.56111519 -41.53392556 -6.101734903
1.394613279 -19.63061894 -28.11186369
4.268054995 -23.12161627 -26.23764796
0 -21.63386024 -27.54449867
10.49229171 -30.11965493 -21.26544908
7.287560768 -26.6142057 -23.98360763
-2.979409921 -25.90743294 -26.21610406
2.902637747 -25.23986118 -25.54057858
-1.459504087 -23.73308296 -26.9113389
1.441773453 -23.44476407 -26.5844093
2.159107777 -52.18269345 -3.493509768
5.927204029 -46.96047278 -9.590417578
5.616916648 -50.45977653 -3.394492579
0 -51.66813807 -6.961240605
11.19185289 -34.73913489 -18.10879837
8.881123894 -40.78307191 -14.36996032
12.90279075 -36.47501813 -16.18434402
12.02716336 -47.00673767 -3.237069397
9.074722237 -45.4818867 -9.385007245
8.915340798 -48.72191222 -3.306316087
13.72698444 -44.87552271 -6.276645159
7.45629376 -48.18833823 -6.556291459
-4.069677366 -47.96937604 -13.25840945
3.843790665 -45.30684456 -12.52250385
-2.11438615 -50.17273547 -10.27019445
2.047126973 -48.57672761 -9.943496871
16.3486045 -39.56041703 -11.65243057
10.54303592 -42.45465432 -11.98061368
14.64469449 -38.11479974 -14.0253629
15.16535087 -42.32462432 -9.100257251
11.79005566 -39.46318425 -14.19931956
12.15868824 -43.90381931 -9.255284148
-10.21239521 -36.1847182 -22.36338572
-3.253837315 -35.1692416 -21.73578667
-8.215938375 -33.38042258 -23.51040659
-8.950469971 -39.21657096 -20.51109184
9.20127774 -32.60211098 -20.14921269
3.14229365 -33.96361708 -20.99066973
7.576710216 -30.78331132 -21.68121639
8.113930135 -35.55126355 -18.59405894
-4.643598143 -28.31106574 -25.39736191
-1.617352438 -32.50686972 -22.84195468
-6.358747931 -30.74901087 -24.51887007
-1.5283656 -27.93547845 -25.08016933
-4.834268148 -32.97198323 -23.18681977
-5.931727789 -45.17042708 -16.05340364
-1.767412607 -37.8636076 -19.86617122
-7.519267213 -42.2574888 -18.40681917
-1.937049772 -44.16158492 -15.67106185
-5.25113162 -38.55818091 -20.20909451
4.450453989 -27.13350543 -24.34099315
1.59066147 -31.97041285 -22.46499671
5.985829012 -28.94568606 -23.08092181
1.506792116 -27.54115814 -24.72615283
4.604129514 -31.40232946 -22.08299539
0 -29.97069889 -23.82582624
5.496974594 -41.85975804 -14.87680404
1.731768666 -37.10000085 -19.46552417
6.879036403 -38.65945916 -16.83956369
1.887980594 -43.04288746 -15.27408386
4.949538271 -36.34363142 -19.04840594
0 -40.49978994 -17.72651916
-23.62301677 40.1190572 -3.068137342
-20.82161198 39.17041074 -8.867368065
-20.86002957 41.82294459 -3.082736043
-13.89394304 33.57284886 -17.94719545
-17.41992811 36.75052913 -13.85764136
-15.14298897 45.23130306 -3.157039751
-18.06842274 40.76136538 -8.931305172
-18.02507634 43.53345438 -3.116002537
-19.56111519 41.53392556 -6.101734903
-1.394613279 19.63061894 -28.11186369
-4.268054995 23.12161627 -26.23764796
-10.49229171 30.11965493 -21.26544908
-7.287560768 26.6142057 -23.98360763
-2.159107777 52.18269345 -3.493509768
-5.927204029 46.96047278 -9.590417578
-5.616916648 50.45977653 -3.394492579
-11.19185289 34.73913489 -18.10879837
-8.881123894 40.78307191 -14.36996032
-12.90279075 36.47501813 -16.18434402
-12.02716336 47.00673767 -3.237069397
-9.074722237 45.4818867 -9.385007245
-8.915340798 48.72191222 -3.306316087
-13.72698444 44.87552271 -6.276645159
-7.45629376 48.18833823 -6.556291459
-16.3486045 39.56041703 -11.65243057
-10.54303592 42.45465432 -11.98061368
-14.64469449 38.11479974 -14.0253629
-15.16535087 42.32462432 -9.100257251
-11.79005566 39.46318425 -14.19931956
-12.15868824 43.90381931 -9.255284148
35.04202954 59.51200905 -4.551229015
28.73262702 54.05291401 -12.23645794
30.01762212 60.18329659 -4.436063012
16.43123193 39.70386698 -21.22468259
22.10726921 46.63933375 -17.58644504
19.9879748 59.70301818 -4.167131808
24.09917185 54.36640283 -11.91233243
24.93537923 60.22294573 -4.310589508
27.19703501 57.74719981 -8.483621519
1.409292638 19.83724604 -28.4077623
4.426816974 23.98168803 -27.21362904
0 21.63386024 -27.54449867
11.74431073 33.71375827 -23.80300211
7.816044837 28.54423197 -25.72286647
-2.902637747 25.23986118 -25.54057858
2.979409921 25.90743294 -26.21610406
-1.441773453 23.44476407 -26.5844093
1.459504087 23.73308296 -26.9113389
2.242795994 54.20532365 -3.628920149
6.523660506 51.68612049 -10.55550443
6.215852278 55.8403367 -3.756449624
0 51.66813807 -6.961240605
12.82692796 39.81435289 -20.7544054
10.06241755 46.20769888 -16.28133361
15.25792179 43.13275978 -19.13845308
15.01177993 58.67175662 -4.04036862
10.52614515 52.75631899 -10.88605755
10.49741305 57.36786162 -3.893038575
17.45570229 57.06524749 -7.981596376
8.48776704 54.85451648 -7.46326209
-3.843790665 45.30684456 -12.52250385
4.069677366 47.96937604 -13.25840945
-2.047126973 48.57672761 -9.943496871
2.11438615 50.17273547 -10.27019445
20.85426701 50.46323677 -14.86383125
12.36966637 49.8101224 -14.05631122
17.95206573 46.7226811 -17.19286374
19.39641035 54.13298962 -11.63918497
13.91088148 46.56192431 -16.75353003
14.83437696 53.56546632 -11.29203835
-9.20127774 32.60211098 -20.14921269
-3.14229365 33.96361708 -20.99066973
-7.576710216 30.78331132 -21.68121639
-8.113930135 35.55126355 -18.59405894
10.21239521 36.1847182 -22.36338572
3.253837315 35.1692416 -21.73578667
8.215938375 33.38042258 -23.51040659
8.950469971 39.21657096 -20.51109184
-4.450453989 27.13350543 -24.34099315
-1.59066147 31.97041285 -22.46499671
-5.985829012 28.94568606 -23.08092181
-1.506792116 27.54115814 -24.72615283
-4.604129514 31.40232946 -22.08299539
-5.496974594 41.85975804 -14.87680404
-1.731768666 37.10000085 -19.46552417
-6.879036403 38.65945916 -16.83956369
-1.887980594 43.04288746 -15.27408386
-4.949538271 36.34363142 -19.04840594
4.643598143 28.31106574 -25.39736191
1.617352438 32.50686972 -22.84195468
6.358747931 30.74901087 -24.51887007
1.5283656 27.93547845 -25.08016933
4.834268148 32.97198323 -23.18681977
0 29.97069889 -23.82582624
5.931727789 45.17042708 -16.05340364
1.767412607 37.8636076 -19.86617122
7.519267213 42.2574888 -18.40681917
1.937049772 44.16158492 -15.67106185
5.25113162 38.55818091 -20.20909451
0 40.49978994 -17.72651916
0 -15.60035757 -29.64789878
0 -11.11527657 -30.83431422
0 -2.222060739 -32.06092213
0 -6.665512903 -31.64640478
0 15.60035757 -29.64789878
0 11.11527657 -30.83431422
0 2.222060739 -32.06092213
0 6.665512903 -31.64640478
40.88950202 58.55546944 -2.904902931
46.61825992 52.90086462 -8.605336874
38.13597518 57.15705506 -7.359221427
52.62485816 37.15484937 -18.33206139
50.32357559 45.34949887 -13.77971296
30.96334548 50.9920635 -14.56814017
42.76936706 50.53404263 -12.63252962
34.65767681 54.4171514 -11.3006097
40.70064384 54.06065559 -10.08551342
45.36713002 3.469487954 -26.71320185
50.0400489 11.32802856 -26.59952913
53.71340923 28.71382937 -22.22900568
53.0428255 20.00103046 -25.14255519
17.97307185 36.91044785 -22.81191131
26.75684309 37.14213599 -22.95510246
20.75389772 40.10060434 -21.33004268
47.61231768 34.59151175 -21.37872999
36.67736549 36.53007396 -22.57682732
46.8368924 38.61087436 -19.45470423
27.21555856 47.15747352 -17.36176253
30.30495373 40.40020385 -21.17897658
23.84981885 43.55257048 -19.53050077
32.76223218 47.48745027 -16.84780229
25.39692675 40.35254786 -21.32526844
44.4678767 46.56210678 -15.13967499
35.6824267 40.16884534 -20.83781105
45.7914624 42.63475751 -17.3612363
38.57556414 47.32141991 -16.11275016
41.14016445 39.60003784 -20.28133934
34.32497134 43.83090117 -18.94405379
26.78117049 -38.35175125 -1.902608171
30.66959309 -34.80284324 -5.661347738
25.5738179 -38.32927075 -4.935061652
36.82097349 -25.99679641 -12.82672049
34.0049091 -30.64380002 -9.311299546
22.43196609 -36.94213987 -10.55415755
29.03165035 -34.30227654 -8.574903209
24.09311451 -37.82938676 -7.85588962
27.38327813 -36.37185628 -6.78550492
42.91135372 -3.281680475 -25.2671847
42.33758676 -9.584350986 -22.5051713
39.15653542 -20.93209299 -16.2047217
41.01880575 -15.46709429 -19.44311182
15.13254108 -31.07698412 -19.20663246
21.1417905 -29.34767958 -18.13786347
16.92777581 -32.70778576 -17.39770454
34.311699 -24.9282874 -15.40652889
27.44922614 -27.33899361 -16.89642727
33.19537704 -27.36523425 -13.78840929
20.59245104 -35.68135346 -13.13664917
23.11788926 -30.8189693 -16.15621127
18.76732428 -34.27133844 -15.36847067
23.86154938 -34.58629234 -12.27067387
20.00750682 -31.78943202 -16.79988519
30.58404704 -32.02441335 -10.4127421
26.41936684 -29.74112353 -15.42837259
31.94949773 -29.74700995 -12.11323576
27.19930018 -33.36592825 -11.36096226
29.7238454 -28.61110106 -14.65330542
25.1907199 -32.16701752 -13.90283325
2.212078855 -17.03182422 -28.9252104
6.540942523 -15.35889411 -28.8937375
3.619774355 -18.7579116 -28.11379494
2.185391467 -14.78794486 -29.64882655
15.3252364 -11.86413566 -28.66809172
10.86306804 -13.65556081 -28.8089068
6.554645663 -22.19175848 -26.22061878
8.016968121 -17.03938531 -28.06135462
5.075991236 -20.48444168 -27.20847246
5.83450299 -17.89375303 -28.09556661
2.152128351 -10.32285256 -30.83381184
6.489822793 -13.12919663 -29.61874362
2.167999424 -12.54118206 -30.28896893
4.354334847 -13.95925042 -29.6395406
38.64219229 -1.917016783 -26.98398655
31.43228988 -5.113062803 -27.69933289
38.73473795 -4.987267332 -25.84435121
20.09281609 -9.913719053 -28.45877766
25.37107269 -7.709150218 -28.15385233
38.27306957 -10.93439653 -23.24013178
31.50427045 -7.875456004 -26.66356453
38.59469462 -8.01481829 -24.58053056
34.93310311 -6.517092259 -26.30008408
13.0578036 -29.08088057 -21.12797005
14.62083045 -23.75238712 -23.65700062
11.37411553 -27.38300305 -22.57369428
15.96282301 -28.32156717 -20.68344322
17.13828456 -13.50292904 -27.73032692
15.96733691 -18.61178922 -25.83569383
14.80855234 -14.40855911 -27.84016457
8.157815248 -23.96093198 -25.08938038
12.91735132 -22.11952305 -24.9006523
9.730790371 -25.66563312 -23.89633323
8.903160978 -21.31507371 -26.14762935
12.18202608 -24.71092012 -23.78584007
21.94063884 -26.59528196 -19.71738465
17.46478583 -22.96566186 -23.30208479
18.93375152 -27.48980819 -20.21218922
16.74232983 -25.60527907 -22.05054779
10.30896845 -16.15989933 -28.000896
13.61550774 -19.48240184 -25.97242064
12.52519465 -15.29523625 -27.93089789
9.621707306 -18.71036965 -27.11987827
14.23557791 -16.95359335 -26.93714456
11.26480965 -20.41085149 -26.06341621
2.146352894 -1.32651904 -32.06015799
6.460347346 -3.992714239 -31.63375976
2.146647182 -3.552088572 -31.91031784
15.34327868 -9.482667724 -29.43388163
10.84131968 -6.700304045 -30.76851364
13.08859329 -10.43473743 -29.49805545
2.155646818 -8.009193883 -31.30298181
6.456045295 -6.242596971 -31.28746872
2.148172218 -5.792455081 -31.65549073
4.313315237 -9.433193952 -30.83849269
4.3063693 -4.897517864 -31.651549
8.716065648 -12.22882293 -29.59135348
8.690751016 -7.647930448 -30.79665534
10.87369601 -11.35385637 -29.54994809
6.507361373 -10.84435481 -30.2652571
10.86932515 -9.025076725 -30.2083617
6.498493021 -8.537085349 -30.82656986
35.49027584 -21.93419674 -17.2815372
30.16468608 -18.64280126 -21.73035424
36.35692843 -19.33873187 -18.81637413
31.872754 -23.27690038 -17.96437068
20.02972564 -12.37905123 -27.56923916
24.96341687 -15.4282401 -25.06407093
22.59079675 -11.38273288 -27.40374918
19.4463646 -15.00808511 -26.62765166
37.74115387 -13.89499695 -21.78120469
30.6839605 -16.08543568 -23.01661661
37.11656812 -16.64437149 -20.32540023
34.51462322 -12.24524679 -23.81210389
33.49587746 -17.70169708 -21.08150269
25.19803659 -25.56716148 -19.16244849
26.83606749 -19.89589981 -22.13928266
28.43417363 -24.4867124 -18.59203768
22.79933642 -23.79937864 -21.18123412
29.34164026 -21.57376948 -20.20921071
28.2324172 -9.179774071 -26.96260401
27.84629916 -14.44542195 -24.73617353
25.32836161 -10.31392452 -27.20368981
31.32005553 -10.66435096 -25.53154181
25.18579428 -12.89901899 -26.16532142
31.03775246 -13.41475617 -24.30636686
18.18008698 -20.23000157 -24.52173794
24.2453163 -18.17173271 -23.8952755
18.82656391 -17.63576816 -25.60527339
20.44065724 -22.0021845 -22.96726143
21.82935298 -16.57438314 -25.34842582
23.57082223 -20.97782096 -22.58038388
2.245622471 17.29009212 -29.36382774
6.821345216 16.01731226 -30.13237884
3.717563593 19.26466193 -28.87329713
2.214710344 14.98633767 -30.04659067
16.61773838 12.86473483 -31.08590534
11.58456505 14.562528 -30.72232021
6.927337727 23.45356465 -27.71150281
8.480415145 18.02440262 -29.68353287
5.28391573 21.32353241 -28.32299524
6.084774343 18.66130663 -29.30072762
2.173064488 10.42327438 -31.13376649
6.731673463 13.61847116 -30.72251998
2.19317941 12.68684021 -30.64075676
4.467277132 14.32132401 -30.40832793
39.81172635 1.97503669 -27.80067653
33.70105206 5.48212034 -29.69865267
41.96155064 5.402733613 -27.99732513
35.92265597 0 -28.21418998
21.9831642 10.84640962 -31.13620208
27.69855241 8.416368673 -30.73661741
45.7017388 13.05672474 -27.75096025
35.127587 8.781214801 -29.73014989
43.97295584 9.131702018 -28.00588515
38.51469188 7.185270645 -28.99655469
29.11044943 -3.308346719 -28.7677
30.35128737 3.449365569 -29.99392818
32.34951202 -1.754436863 -28.52900241
33.12898678 1.796710739 -29.21642043
15.00314775 33.41333359 -24.27560299
16.73396896 27.18530319 -27.07613054
12.75330863 30.70338861 -25.31091666
18.90266909 33.53750222 -24.49267793
18.97767893 14.95215295 -30.70652954
18.06801723 21.06037657 -29.23466598
16.24815497 15.80927668 -30.54662588
8.778019532 25.78258057 -26.99682015
14.45441157 24.75156724 -27.86362835
10.67446224 28.15463299 -26.21375006
9.58679846 22.95177143 -28.15539935
13.65807035 27.70503718 -26.66786911
27.50292094 33.33758612 -24.71603836
20.47606344 26.92540027 -27.31982923
23.08925547 33.52316118 -24.64827955
19.74177077 30.19254518 -26.00097264
11.0564439 17.33160996 -30.03116529
15.17216771 21.70982336 -28.94184551
13.59524786 16.60193983 -30.3170921
10.34994643 20.12650327 -29.1725032
15.76182669 18.7712506 -29.82517513
12.34775103 22.37304671 -28.56902018
2.149164555 1.328256742 -32.10215587
6.53723562 4.040233806 -32.01025116
2.154152167 3.564507179 -32.02188086
4.319303133 0 -32.0589911
16.38661126 10.12748272 -31.43536568
11.20666069 6.926097204 -31.80538001
13.9154112 11.09390894 -31.36147347
2.172294645 8.07104802 -31.54473135
6.575571872 6.358171787 -31.86672179
2.160311334 5.825187692 -31.83437289
4.39175659 9.604744709 -31.39931724
4.348038938 4.944907621 -31.95781827
8.745476078 -2.684429544 -31.6414297
8.840208004 2.71350757 -31.98417302
6.530901802 -1.344555684 -31.90525848
6.557283839 1.349987111 -32.03414202
9.131727589 12.81200535 -31.00254059
8.956603988 7.881883192 -31.73873529
11.485479 11.99265446 -31.21250658
6.712625981 11.18642314 -31.21992763
11.36117957 9.43347594 -31.57533857
6.662357878 8.752354992 -31.60388723
48.16082311 29.76502561 -23.4512986
38.15365649 23.58025651 -27.48553289
48.2393899 25.65917054 -24.96609167
42.70741834 31.1895333 -24.07108887
22.36934251 13.82501398 -30.78952576
29.51578354 18.24175743 -29.63479302
25.34796669 12.77197688 -30.74833212
22.0845803 17.04417601 -30.24012578
47.0487451 17.32173246 -27.15280913
37.89767106 19.86707519 -28.42775675
47.88784143 21.47458838 -26.22385615
41.4225475 14.69606994 -28.57797399
42.87960851 22.66075405 -26.98739818
32.43368688 32.90880648 -24.66497149
33.49321371 24.83141855 -27.63131095
37.41562718 32.22128816 -24.46467267
28.29331008 29.53433324 -26.28529242
37.92627562 27.88571873 -26.12192395
31.68475472 10.30230206 -30.25966528
33.1931182 17.21911395 -29.48581163
28.47200226 11.59404176 -30.58008764
36.27423825 12.35122994 -29.5701018
29.08455008 14.89578449 -30.21570782
37.21155677 16.08312204 -29.14121283
21.14253143 23.52647952 -28.51755415
29.21918288 21.89961867 -28.79733207
21.6703908 20.29972064 -29.47305113
24.51549897 26.38831645 -27.5457813
25.5063739 19.36623655 -29.61821302
28.87563909 25.69906051 -27.66229404
18.1324384 -8.280303773 -29.33890164
18.90399696 -2.829919692 -30.58730961
20.59426315 -7.19686392 -29.24003905
15.74424345 -6.870349923 -30.1025048
19.4120693 8.864656097 -31.40938792
19.36515666 2.898955088 -31.33348168
22.02612537 7.697241985 -31.27301818
16.540481 7.217805843 -31.62488628
25.98755141 -4.751507101 -28.96896452
21.43109239 -1.517454614 -30.4990417
23.21794108 -6.021363724 -29.11752134
26.63379619 -1.623042388 -29.66598151
21.04737281 -4.388210414 -29.92965962
11.10309351 -4.102589694 -31.24144182
16.33610098 -1.453356588 -31.13552734
13.38914782 -5.469526226 -30.7381606
11.21759271 -1.386570713 -31.61155752
16.07961893 -4.178128583 -30.67929914
27.45139963 5.019153911 -30.60075225
21.74206511 1.539473417 -30.94159358
24.72615517 6.412505452 -31.00896623
27.13686803 1.653699186 -30.22632671
21.94198084 4.574729097 -31.20180479
24.15907567 0 -30.38989603
11.33736015 4.189151144 -31.90061193
16.51188541 1.468995415 -31.47056083
13.84530733 5.655869409 -31.78538964
11.29748445 1.396445875 -31.83669516
16.57948977 4.308015032 -31.6330336
13.81201721 0 -31.55632477
40.88950202 58.55546944 2.904902931
46.61825992 52.90086462 8.605336874
38.13597518 57.15705506 7.359221427
45.01636444 57.3153925 0
52.62485816 37.15484937 18.33206139
50.32357559 45.34949887 13.77971296
30.96334548 50.9920635 14.56814017
42.76936706 50.53404263 12.63252962
34.65767681 54.4171514 11.3006097
40.70064384 54.06065559 10.08551342
51.46373633 52.07689506 -5.918439195
51.46373633 52.07689506 5.918439195
48.57050058 55.07490131 -2.986921009
48.57050058 55.07490131 2.986921009
45.36713002 3.469487954 26.71320185
50.0400489 11.32802856 26.59952913
53.71340923 28.71382937 22.22900568
53.0428255 20.00103046 25.14255519
17.97307185 36.91044785 22.81191131
26.75684309 37.14213599 22.95510246
20.75389772 40.10060434 21.33004268
47.61231768 34.59151175 21.37872999
36.67736549 36.53007396 22.57682732
46.8368924 38.61087436 19.45470423
27.21555856 47.15747352 17.36176253
30.30495373 40.40020385 21.17897658
23.84981885 43.55257048 19.53050077
32.76223218 47.48745027 16.84780229
25.39692675 40.35254786 21.32526844
44.4678767 46.56210678 15.13967499
35.6824267 40.16884534 20.83781105
45.7914624 42.63475751 17.3612363
38.57556414 47.32141991 16.11275016
41.14016445 39.60003784 20.28133934
34.32497134 43.83090117 18.94405379
58.2723158 36.01427177 -16.44616702
65.6167728 40.55339582 -6.070824791
57.17606511 40.27008749 -14.07277054
58.2723158 36.01427177 16.44616702
65.6167728 40.55339582 6.070824791
57.17606511 40.27008749 14.07277054
53.90757989 48.35954707 -8.841953892
63.08004143 44.32513679 -3.138495329
55.72915275 44.43771741 -11.52452143
55.97779718 50.2562587 -3.062576492
60.90593138 42.83075252 -8.929872434
53.90757989 48.35954707 8.841953892
63.08004143 44.32513679 3.138495329
55.72915275 44.43771741 11.52452143
55.97779718 50.2562587 3.062576492
60.90593138 42.83075252 8.929872434
59.90175731 47.62013947 0
26.78117049 -38.35175125 1.902608171
30.66959309 -34.80284324 5.661347738
25.5738179 -38.32927075 4.935061652
29.07661524 -37.02070648 0
36.82097349 -25.99679641 12.82672049
34.0049091 -30.64380002 9.311299546
22.43196609 -36.94213987 10.55415755
29.03165035 -34.30227654 8.574903209
24.09311451 -37.82938676 7.85588962
27.38327813 -36.37185628 6.78550492
33.32633889 -33.7234017 -3.832599893
33.32633889 -33.7234017 3.832599893
31.27500619 -35.46325154 -1.923306779
31.27500619 -35.46325154 1.923306779
42.91135372 -3.281680475 25.2671847
42.33758676 -9.584350986 22.5051713
39.15653542 -20.93209299 16.2047217
41.01880575 -15.46709429 19.44311182
15.13254108 -31.07698412 19.20663246
21.1417905 -29.34767958 18.13786347
16.92777581 -32.70778576 17.39770454
34.311699 -24.9282874 15.40652889
27.44922614 -27.33899361 16.89642727
33.19537704 -27.36523425 13.78840929
20.59245104 -35.68135346 13.13664917
23.11788926 -30.8189693 16.15621127
18.76732428 -34.27133844 15.36847067
23.86154938 -34.58629234 12.27067387
20.00750682 -31.78943202 16.79988519
30.58404704 -32.02441335 10.4127421
26.41936684 -29.74112353 15.42837259
31.94949773 -29.74700995 12.11323576
27.19930018 -33.36592825 11.36096226
29.7238454 -28.61110106 14.65330542
25.1907199 -32.16701752 13.90283325
40.36633191 -24.94776512 -11.39256999
43.51597339 -26.89435061 -4.026071975
38.82301584 -27.34371877 -9.555526296
40.36633191 -24.94776512 11.39256999
43.51597339 -26.89435061 4.026071975
38.82301584 -27.34371877 9.555526296
35.34781278 -31.70990461 -5.797769655
41.1515782 -28.91642573 -2.047462764
37.13952713 -29.61458644 -7.680276037
36.02695269 -32.34460707 -1.971054667
40.33476597 -28.36453429 -5.913780589
35.34781278 -31.70990461 5.797769655
41.1515782 -28.91642573 2.047462764
37.13952713 -29.61458644 7.680276037
36.02695269 -32.34460707 1.971054667
40.33476597 -28.36453429 5.913780589
38.66179154 -30.73498989 0
2.212078855 -17.03182422 28.9252104
6.540942523 -15.35889411 28.8937375
3.619774355 -18.7579116 28.11379494
2.185391467 -14.78794486 29.64882655
15.3252364 -11.86413566 28.66809172
10.86306804 -13.65556081 28.8089068
6.554645663 -22.19175848 26.22061878
8.016968121 -17.03938531 28.06135462
5.075991236 -20.48444168 27.20847246
5.83450299 -17.89375303 28.09556661
2.152128351 -10.32285256 30.83381184
6.489822793 -13.12919663 29.61874362
2.167999424 -12.54118206 30.28896893
4.354334847 -13.95925042 29.6395406
38.64219229 -1.917016783 26.98398655
31.43228988 -5.113062803 27.69933289
38.73473795 -4.987267332 25.84435121
20.09281609 -9.913719053 28.45877766
25.37107269 -7.709150218 28.15385233
38.27306957 -10.93439653 23.24013178
31.50427045 -7.875456004 26.66356453
38.59469462 -8.01481829 24.58053056
34.93310311 -6.517092259 26.30008408
13.0578036 -29.08088057 21.12797005
14.62083045 -23.75238712 23.65700062
11.37411553 -27.38300305 22.57369428
15.96282301 -28.32156717 20.68344322
17.13828456 -13.50292904 27.73032692
15.96733691 -18.61178922 25.83569383
14.80855234 -14.40855911 27.84016457
8.157815248 -23.96093198 25.08938038
12.91735132 -22.11952305 24.9006523
9.730790371 -25.66563312 23.89633323
8.903160978 -21.31507371 26.14762935
12.18202608 -24.71092012 23.78584007
21.94063884 -26.59528196 19.71738465
17.46478583 -22.96566186 23.30208479
18.93375152 -27.48980819 20.21218922
16.74232983 -25.60527907 22.05054779
10.30896845 -16.15989933 28.000896
13.61550774 -19.48240184 25.97242064
12.52519465 -15.29523625 27.93089789
9.621707306 -18.71036965 27.11987827
14.23557791 -16.95359335 26.93714456
11.26480965 -20.41085149 26.06341621
2.146352894 -1.32651904 32.06015799
6.460347346 -3.992714239 31.63375976
2.146647182 -3.552088572 31.91031784
15.34327868 -9.482667724 29.43388163
10.84131968 -6.700304045 30.76851364
13.08859329 -10.43473743 29.49805545
2.155646818 -8.009193883 31.30298181
6.456045295 -6.242596971 31.28746872
2.148172218 -5.792455081 31.65549073
4.313315237 -9.433193952 30.83849269
4.3063693 -4.897517864 31.651549
8.716065648 -12.22882293 29.59135348
8.690751016 -7.647930448 30.79665534
10.87369601 -11.35385637 29.54994809
6.507361373 -10.84435481 30.2652571
10.86932515 -9.025076725 30.2083617
6.498493021 -8.537085349 30.82656986
35.49027584 -21.93419674 17.2815372
30.16468608 -18.64280126 21.73035424
36.35692843 -19.33873187 18.81637413
31.872754 -23.27690038 17.96437068
20.02972564 -12.37905123 27.56923916
24.96341687 -15.4282401 25.06407093
22.59079675 -11.38273288 27.40374918
19.4463646 -15.00808511 26.62765166
37.74115387 -13.89499695 21.78120469
30.6839605 -16.08543568 23.01661661
37.11656812 -16.64437149 20.32540023
34.51462322 -12.24524679 23.81210389
33.49587746 -17.70169708 21.08150269
25.19803659 -25.56716148 19.16244849
26.83606749 -19.89589981 22.13928266
28.43417363 -24.4867124 18.59203768
22.79933642 -23.79937864 21.18123412
29.34164026 -21.57376948 20.20921071
28.2324172 -9.179774071 26.96260401
27.84629916 -14.44542195 24.73617353
25.32836161 -10.31392452 27.20368981
31.32005553 -10.66435096 25.53154181
25.18579428 -12.89901899 26.16532142
31.03775246 -13.41475617 24.30636686
18.18008698 -20.23000157 24.52173794
24.2453163 -18.17173271 23.8952755
18.82656391 -17.63576816 25.60527339
20.44065724 -22.0021845 22.96726143
21.82935298 -16.57438314 25.34842582
23.57082223 -20.97782096 22.58038388
2.245622471 17.29009212 29.36382774
6.821345216 16.01731226 30.13237884
3.717563593 19.26466193 28.87329713
2.214710344 14.98633767 30.04659067
16.61773838 12.86473483 31.08590534
11.58456505 14.562528 30.72232021
6.927337727 23.45356465 27.71150281
8.480415145 18.02440262 29.68353287
5.28391573 21.32353241 28.32299524
6.084774343 18.66130663 29.30072762
2.173064488 10.42327438 31.13376649
6.731673463 13.61847116 30.72251998
2.19317941 12.68684021 30.64075676
4.467277132 14.32132401 30.40832793
39.81172635 1.97503669 27.80067653
33.70105206 5.48212034 29.69865267
41.96155064 5.402733613 27.99732513
35.92265597 0 28.21418998
21.9831642 10.84640962 31.13620208
27.69855241 8.416368673 30.73661741
45.7017388 13.05672474 27.75096025
35.127587 8.781214801 29.73014989
43.97295584 9.131702018 28.00588515
38.51469188 7.185270645 28.99655469
29.11044943 -3.308346719 28.7677
30.35128737 3.449365569 29.99392818
32.34951202 -1.754436863 28.52900241
33.12898678 1.796710739 29.21642043
15.00314775 33.41333359 24.27560299
16.73396896 27.18530319 27.07613054
12.75330863 30.70338861 25.31091666
18.90266909 33.53750222 24.49267793
18.97767893 14.95215295 30.70652954
18.06801723 21.06037657 29.23466598
16.24815497 15.80927668 30.54662588
8.778019532 25.78258057 26.99682015
14.45441157 24.75156724 27.86362835
10.67446224 28.15463299 26.21375006
9.58679846 22.95177143 28.15539935
13.65807035 27.70503718 26.66786911
27.50292094 33.33758612 24.71603836
20.47606344 26.92540027 27.31982923
23.08925547 33.52316118 24.64827955
19.74177077 30.19254518 26.00097264
11.0564439 17.33160996 30.03116529
15.17216771 21.70982336 28.94184551
13.59524786 16.60193983 30.3170921
10.34994643 20.12650327 29.1725032
15.76182669 18.7712506 29.82517513
12.34775103 22.37304671 28.56902018
2.149164555 1.328256742 32.10215587
6.53723562 4.040233806 32.01025116
2.154152167 3.564507179 32.02188086
4.319303133 0 32.0589911
16.38661126 10.12748272 31.43536568
11.20666069 6.926097204 31.80538001
13.9154112 11.09390894 31.36147347
2.172294645 8.07104802 31.54473135
6.575571872 6.358171787 31.86672179
2.160311334 5.825187692 31.83437289
4.39175659 9.604744709 31.39931724
4.348038938 4.944907621 31.95781827
8.745476078 -2.684429544 31.6414297
8.840208004 2.71350757 31.98417302
6.530901802 -1.344555684 31.90525848
6.557283839 1.349987111 32.03414202
9.131727589 12.81200535 31.00254059
8.956603988 7.881883192 31.73873529
11.485479 11.99265446 31.21250658
6.712625981 11.18642314 31.21992763
11.36117957 9.43347594 31.57533857
6.662357878 8.752354992 31.60388723
48.16082311 29.76502561 23.4512986
38.15365649 23.58025651 27.48553289
48.2393899 25.65917054 24.96609167
42.70741834 31.1895333 24.07108887
22.36934251 13.82501398 30.78952576
29.51578354 18.24175743 29.63479302
25.34796669 12.77197688 30.74833212
22.0845803 17.04417601 30.24012578
47.0487451 17.32173246 27.15280913
37.89767106 19.86707519 28.42775675
47.88784143 21.47458838 26.22385615
41.4225475 14.69606994 28.57797399
42.87960851 22.66075405 26.98739818
32.43368688 32.90880648 24.66497149
33.49321371 24.83141855 27.63131095
37.41562718 32.22128816 24.46467267
28.29331008 29.53433324 26.28529242
37.92627562 27.88571873 26.12192395
31.68475472 10.30230206 30.25966528
33.1931182 17.21911395 29.48581163
28.47200226 11.59404176 30.58008764
36.27423825 12.35122994 29.5701018
29.08455008 14.89578449 30.21570782
37.21155677 16.08312204 29.14121283
21.14253143 23.52647952 28.51755415
29.21918288 21.89961867 28.79733207
21.6703908 20.29972064 29.47305113
24.51549897 26.38831645 27.5457813
25.5063739 19.36623655 29.61821302
28.87563909 25.69906051 27.66229404
18.1324384 -8.280303773 29.33890164
18.90399696 -2.829919692 30.58730961
20.59426315 -7.19686392 29.24003905
15.74424345 -6.870349923 30.1025048
19.4120693 8.864656097 31.40938792
19.36515666 2.898955088 31.33348168
22.02612537 7.697241985 31.27301818
16.540481 7.217805843 31.62488628
25.98755141 -4.751507101 28.96896452
21.43109239 -1.517454614 30.4990417
23.21794108 -6.021363724 29.11752134
26.63379619 -1.623042388 29.66598151
21.04737281 -4.388210414 29.92965962
11.10309351 -4.102589694 31.24144182
16.33610098 -1.453356588 31.13552734
13.38914782 -5.469526226 30.7381606
11.21759271 -1.386570713 31.61155752
16.07961893 -4.178128583 30.67929914
27.45139963 5.019153911 30.60075225
21.74206511 1.539473417 30.94159358
24.72615517 6.412505452 31.00896623
27.13686803 1.653699186 30.22632671
21.94198084 4.574729097 31.20180479
24.15907567 0 30.38989603
11.33736015 4.189151144 31.90061193
16.51188541 1.468995415 31.47056083
13.84530733 5.655869409 31.78538964
11.29748445 1.396445875 31.83669516
16.57948977 4.308015032 31.6330336
13.81201721 0 31.55632477
47.54435536 0 -25.01725163
58.03608729 0 -20.92108021
50.5331643 3.724759422 -25.20442575
47.43696826 -3.49654127 -23.66013609
76.81718112 0 -5.324002895
68.93253186 0 -14.51889033
55.93340606 12.25568168 -24.79378246
62.05629101 4.331384778 -20.77582706
53.42982964 7.849358133 -25.16369542
56.16274464 4.019971704 -23.25424835
46.36792662 -10.15977014 -20.55366134
57.29267315 -3.998895331 -19.18101533
47.02677317 -6.908687281 -22.14806606
52.28667078 -3.742533211 -21.64935555
47.54435536 0 25.01725163
58.03608729 0 20.92108021
50.5331643 3.724759422 25.20442575
47.43696826 -3.49654127 23.66013609
76.81718112 0 5.324002895
68.93253186 0 14.51889033
55.93340606 12.25568168 24.79378246
62.05629101 4.331384778 20.77582706
53.42982964 7.849358133 25.16369542
56.16274464 4.019971704 23.25424835
46.36792662 -10.15977014 20.55366134
57.29267315 -3.998895331 19.18101533
47.02677317 -6.908687281 22.14806606
52.28667078 -3.742533211 21.64935555
59.13555471 30.82615155 -19.0516094
70.44629933 24.82183118 -15.34073533
59.38736247 26.35078895 -21.00787746
64.05632834 33.50280765 -14.61969339
81.15419405 5.433084245 -3.357830727
79.49856994 16.23545159 -10.03406091
78.47230162 5.278930345 -8.735123453
57.93444179 17.06445764 -23.941792
70.21075272 19.81332596 -17.43588541
59.03010305 21.72170976 -22.68089641
62.31870165 13.39920261 -22.32943568
64.99636622 23.38645985 -19.41837157
70.32042763 36.89552433 -3.282445023
74.94134644 26.63387888 -9.84121019
68.03101016 35.65637905 -9.264954417
69.71549053 30.36717193 -12.40512433
68.30557207 4.703791157 -17.47669194
74.769223 15.42833313 -14.91824504
73.89663147 5.014696884 -13.521917
65.92488493 9.220775267 -20.16577892
77.69903227 10.57138553 -12.02255215
68.79977702 14.50355563 -19.05335466
42.04547353 -21.91744282 -13.54572461
51.02777867 -17.97969403 -11.11206202
43.32455854 -19.22355618 -15.3257693
44.4108162 -23.2277914 -10.1359621
73.0190546 -4.88845561 -3.021231719
61.55826533 -12.57162535 -7.769691757
70.84258329 -4.765669604 -7.885823379
45.50400183 -13.40309991 -18.80483031
52.89097386 -14.92572098 -13.13475392
44.48543547 -16.3696092 -17.09245794
50.53659301 -10.86592036 -18.10778423
47.90168084 -17.23559025 -14.31114832
47.21361421 -24.77190641 -2.203855952
53.35248629 -18.96127739 -7.00618626
46.22620354 -24.2280547 -6.295418334
48.76315252 -21.24060271 -8.676880346
62.48893148 -4.30323434 -15.98844387
58.56785173 -12.08524432 -11.68568468
67.10761515 -4.55398767 -12.27963419
56.22138207 -7.863566692 -17.19757209
64.54083927 -8.781140183 -9.986554315
54.71037775 -11.53339504 -15.15144781
59.13555471 30.82615155 19.0516094
70.44629933 24.82183118 15.34073533
59.38736247 26.35078895 21.00787746
64.05632834 33.50280765 14.61969339
81.15419405 5.433084245 3.357830727
79.49856994 16.23545159 10.03406091
78.47230162 5.278930345 8.735123453
83.44140241 11.24204781 0
57.93444179 17.06445764 23.941792
70.21075272 19.81332596 17.43588541
59.03010305 21.72170976 22.68089641
62.31870165 13.39920261 22.32943568
64.99636622 23.38645985 19.41837157
70.32042763 36.89552433 3.282445023
74.94134644 26.63387888 9.84121019
68.03101016 35.65637905 9.264954417
74.42414976 32.57501134 0
69.71549053 30.36717193 12.40512433
68.30557207 4.703791157 17.47669194
74.769223 15.42833313 14.91824504
73.89663147 5.014696884 13.521917
65.92488493 9.220775267 20.16577892
77.69903227 10.57138553 12.02255215
68.79977702 14.50355563 19.05335466
79.63934979 22.01177491 -6.756528561
79.63934979 22.01177491 6.756528561
82.70674758 16.92980005 -3.485438854
77.66664522 27.56057788 -3.406674776
82.70674758 16.92980005 3.485438854
77.66664522 27.56057788 3.406674776
42.04547353 -21.91744282 13.54572461
51.02777867 -17.97969403 11.11206202
43.32455854 -19.22355618 15.3257693
44.4108162 -23.2277914 10.1359621
73.0190546 -4.88845561 3.021231719
61.55826533 -12.57162535 7.769691757
70.84258329 -4.765669604 7.885823379
68.51714121 -9.231304308 0
45.50400183 -13.40309991 18.80483031
52.89097386 -14.92572098 13.13475392
44.48543547 -16.3696092 17.09245794
50.53659301 -10.86592036 18.10778423
47.90168084 -17.23559025 14.31114832
47.21361421 -24.77190641 2.203855952
53.35248629 -18.96127739 7.00618626
46.22620354 -24.2280547 6.295418334
50.99633887 -22.32079671 0
48.76315252 -21.24060271 8.676880346
62.48893148 -4.30323434 15.98844387
58.56785173 -12.08524432 11.68568468
67.10761515 -4.55398767 12.27963419
56.22138207 -7.863566692 17.19757209
64.54083927 -8.781140183 9.986554315
54.71037775 -11.53339504 15.15144781
58.44789087 -16.15459972 -4.958664844
58.44789087 -16.15459972 4.958664844
63.48089339 -12.99433074 -2.675220327
54.7934428 -19.44385448 -2.403392588
63.48089339 -12.99433074 2.675220327
54.7934428 -19.44385448 2.403392588
-26.78117049 38.35175125 -1.902608171
-30.66959309 34.80284324 -5.661347738
-25.5738179 38.32927075 -4.935061652
-36.82097349 25.99679641 -12.82672049
-34.0049091 30.64380002 -9.311299546
-22.43196609 36.94213987 -10.55415755
-29.03165035 34.30227654 -8.574903209
-24.09311451 37.82938676 -7.85588962
-27.38327813 36.37185628 -6.78550492
-42.91135372 3.281680475 -25.2671847
-42.33758676 9.584350986 -22.5051713
-39.15653542 20.93209299 -16.2047217
-41.01880575 15.46709429 -19.44311182
-15.13254108 31.07698412 -19.20663246
-21.1417905 29.34767958 -18.13786347
-16.92777581 32.70778576 -17.39770454
-34.311699 24.9282874 -15.40652889
-27.44922614 27.33899361 -16.89642727
