0 5.9471992 42.69838
-36.928052 -65.931895 -10.001152
-27.925142 -62.837132 -28.563644
-27.761093 -71.629379 -10.202689
-4.126454 -31.329814 -39.889507
-14.743444 -47.177532 -37.736013
-6.2305669 -74.825801 -10.081269
-17.571248 -65.595348 -28.430876
-17.080566 -74.989802 -10.304385
-23.129402 -70.345411 -20.275173
26.221483 -46.816227 -7.1015128
20.055171 -45.12813 -20.513728
20.787566 -53.636234 -7.6397956
3.9467841 -29.965683 -38.152678
12.147707 -38.871435 -31.092194
0 -36.899992 -37.339633
5.712223 -68.600766 -9.242571
13.67847 -51.063192 -22.132229
13.93484 -61.178939 -8.4066277
0 -67.512345 -18.659953
17.49276 -53.202214 -15.334108
-10.190395 -54.730551 -33.825341
8.7257328 -46.864147 -28.963636
-4.7100017 -45.288145 -36.002746
-5.6340219 -62.48226 -27.348117
4.3988033 -42.295875 -33.623979
5.1222456 -56.806575 -24.863903
-26.221483 46.816227 -7.1015128
-20.055171 45.12813 -20.513728
-20.787566 53.636234 -7.6397956
-3.9467841 29.965683 -38.152678
-12.147707 38.871435 -31.092194
-5.712223 68.600766 -9.242571
-13.67847 51.063192 -22.132229
-13.93484 61.178939 -8.4066277
-17.49276 53.202214 -15.334108
36.928052 65.931895 -10.001152
27.925142 62.837132 -28.563644
27.761093 71.629379 -10.202689
4.126454 31.329814 -39.889507
14.743444 47.177532 -37.736013
0 36.899992 -37.339633
6.2305669 74.825801 -10.081269
17.571248 65.595348 -28.430876
17.080566 74.989802 -10.304385
0 67.512345 -18.659953
23.129402 70.345411 -20.275173
-8.7257328 46.864147 -28.963636
10.190395 54.730551 -33.825341
-4.3988033 42.295875 -33.623979
-5.1222456 56.806575 -24.863903
4.7100017 45.288145 -36.002746
5.6340219 62.48226 -27.348117
0 -18.307994 -41.533129
0 -5.9471992 -42.69838
0 18.307994 -41.533129
0 5.9471992 -42.69838
44.708705 56.923677 -5.8885896
49.610415 39.682009 -15.503744
41.754598 57.93725 -15.570518
44.391081 6.7336445 -24.863174
49.607317 22.549816 -22.045745
32.090328 53.574682 -33.110974
46.193378 39.294435 -24.285296
37.548659 56.997342 -25.183176
44.789619 48.587601 -20.478359
31.523581 -40.136214 -4.1519751
36.41583 -29.128023 -11.380306
29.289514 -40.641127 -10.92222
41.020916 -6.2224271 -22.975565
39.435986 -17.926271 -17.525553
22.699834 -37.897287 -23.421811
33.480478 -28.480196 -17.601729
26.221575 -39.803288 -17.586315
31.704069 -34.392448 -14.495486
5.9970087 -22.143234 -39.534861
16.853883 -16.477138 -37.076841
9.9408005 -26.657696 -36.989306
5.8177256 -15.82979 -40.844141
36.443512 -3.7699758 -28.623278
26.811781 -10.475351 -33.520067
36.344993 -9.7676427 -26.193348
18.143785 -34.51153 -29.357261
20.889356 -20.245442 -33.799689
14.128957 -30.902408 -33.522809
24.259381 -30.553813 -26.66364
15.685713 -23.387737 -35.501636
5.7081924 -3.5278569 -42.367688
16.752161 -10.353405 -38.650369
5.7414184 -9.5169845 -41.782971
11.490877 -13.1085 -39.867992
34.985371 -21.622148 -20.955646
26.720474 -16.514161 -31.411801
35.831073 -15.831268 -23.604763
29.961866 -26.147062 -23.789382
31.493595 -13.273698 -29.031813
25.597507 -23.289381 -29.332133
6.311833 23.305685 -41.610318
18.825547 18.404728 -41.414303
11.051177 29.635332 -41.120972
6.0268908 16.398919 -42.312614
38.05944 3.9371389 -29.892452
29.712748 11.608758 -37.146852
40.906553 10.993553 -29.480803
32.985906 0 -32.597526
23.757139 45.188763 -38.439858
24.815657 24.050714 -40.152576
16.959208 37.092644 -40.237952
33.082212 41.66585 -36.36087
18.243088 27.200838 -41.289769
5.7517138 3.5547546 -42.690715
17.907882 11.06768 -41.316832
5.8621404 9.7170936 -42.661522
11.542971 0 -41.762863
12.184863 13.900182 -42.275801
45.660943 28.220015 -27.350133
31.663415 19.569067 -37.222577
43.64798 19.285018 -28.754378
40.490541 35.335205 -32.149031
36.596356 15.424374 -33.735703
32.618536 29.677325 -37.377517
22.769331 -6.8596049 -36.841551
24.10899 7.2631974 -39.009165
27.78735 -3.6352357 -34.953932
17.398126 -3.5842111 -39.74951
28.766079 3.7632763 -36.185083
17.802873 3.6675935 -40.674235
44.708705 56.923677 5.8885896
49.610415 39.682009 15.503744
41.754598 57.93725 15.570518
48.44937 49.026614 0
44.391081 6.7336445 24.863174
49.607317 22.549816 22.045745
32.090328 53.574682 33.110974
46.193378 39.294435 24.285296
37.548659 56.997342 25.183176
44.789619 48.587601 20.478359
52.701261 32.571171 -9.8125572
52.701261 32.571171 9.8125572
51.012099 40.553122 -5.3052973
51.012099 40.553122 5.3052973
31.523581 -40.136214 4.1519751
36.41583 -29.128023 11.380306
29.289514 -40.641127 10.92222
34.942747 -35.359069 0
41.020916 -6.2224271 22.975565
39.435986 -17.926271 17.525553
22.699834 -37.897287 23.421811
33.480478 -28.480196 17.601729
26.221575 -39.803288 17.586315
31.704069 -34.392448 14.495486
40.224982 -24.860406 -7.4895729
40.224982 -24.860406 7.4895729
37.886438 -30.118607 -3.9402186
37.886438 -30.118607 3.9402186
5.9970087 -22.143234 39.534861
16.853883 -16.477138 37.076841
9.9408005 -26.657696 36.989306
5.8177256 -15.82979 40.844141
36.443512 -3.7699758 28.623278
26.811781 -10.475351 33.520067
36.344993 -9.7676427 26.193348
18.143785 -34.51153 29.357261
20.889356 -20.245442 33.799689
14.128957 -30.902408 33.522809
24.259381 -30.553813 26.66364
15.685713 -23.387737 35.501636
5.7081924 -3.5278569 42.367688
16.752161 -10.353405 38.650369
5.7414184 -9.5169845 41.782971
11.490877 -13.1085 39.867992
34.985371 -21.622148 20.955646
26.720474 -16.514161 31.411801
35.831073 -15.831268 23.604763
29.961866 -26.147062 23.789382
31.493595 -13.273698 29.031813
25.597507 -23.289381 29.332133
6.311833 23.305685 41.610318
18.825547 18.404728 41.414303
11.051177 29.635332 41.120972
6.0268908 16.398919 42.312614
38.05944 3.9371389 29.892452
29.712748 11.608758 37.146852
40.906553 10.993553 29.480803
32.985906 0 32.597526
23.757139 45.188763 38.439858
24.815657 24.050714 40.152576
16.959208 37.092644 40.237952
33.082212 41.66585 36.36087
18.243088 27.200838 41.289769
5.7517138 3.5547546 42.690715
17.907882 11.06768 41.316832
5.8621404 9.7170936 42.661522
11.542971 0 41.762863
12.184863 13.900182 42.275801
45.660943 28.220015 27.350133
31.663415 19.569067 37.222577
43.64798 19.285018 28.754378
40.490541 35.335205 32.149031
36.596356 15.424374 33.735703
32.618536 29.677325 37.377517
22.769331 -6.8596049 36.841551
24.10899 7.2631974 39.009165
27.78735 -3.6352357 34.953932
17.398126 -3.5842111 39.74951
28.766079 3.7632763 36.185083
17.802873 3.6675935 40.674235
45.880803 0 -20.224469
52.373112 0 -7.294734
49.139099 6.9992363 -19.044631
45.10299 -6.4243442 -17.480374
45.880803 0 20.224469
52.373112 0 7.294734
49.139099 6.9992363 19.044631
45.10299 -6.4243442 17.480374
53.310279 23.10618 -14.280405
55.018471 7.4126305 -4.5812576
51.987377 14.983964 -17.093324
55.051497 24.095715 -4.9639904
52.960568 7.2773374 -12.062926
42.452716 -18.400206 -11.371953
50.276046 -6.7736842 -4.1863671
43.943784 -12.665614 -14.44861
44.052163 -19.281372 -3.9721811
48.411255 -6.6522141 -11.026721
53.310279 23.10618 14.280405
55.018471 7.4126305 4.5812576
51.987377 14.983964 17.093324
55.051497 24.095715 4.9639904
52.960568 7.2773374 12.062926
56.094675 15.504187 0
42.452716 -18.400206 11.371953
50.276046 -6.7736842 4.1863671
43.943784 -12.665614 14.44861
44.052163 -19.281372 3.9721811
48.411255 -6.6522141 11.026721
47.554905 -13.143852 0
-31.523581 40.136214 -4.1519751
-36.41583 29.128023 -11.380306
-29.289514 40.641127 -10.92222
-41.020916 6.2224271 -22.975565
-39.435986 17.926271 -17.525553
-22.699834 37.897287 -23.421811
-33.480478 28.480196 -17.601729
-26.221575 39.803288 -17.586315
-31.704069 34.392448 -14.495486
-44.708705 -56.923677 -5.8885896
-49.610415 -39.682009 -15.503744
-41.754598 -57.93725 -15.570518
-44.391081 -6.7336445 -24.863174
-49.607317 -22.549816 -22.045745
-32.090328 -53.574682 -33.110974
-46.193378 -39.294435 -24.285296
-37.548659 -56.997342 -25.183176
-44.789619 -48.587601 -20.478359
-6.311833 -23.305685 -41.610318
-18.825547 -18.404728 -41.414303
-11.051177 -29.635332 -41.120972
-6.0268908 -16.398919 -42.312614
-38.05944 -3.9371389 -29.892452
-29.712748 -11.608758 -37.146852
-40.906553 -10.993553 -29.480803
-23.757139 -45.188763 -38.439858
-24.815657 -24.050714 -40.152576
-16.959208 -37.092644 -40.237952
-33.082212 -41.66585 -36.36087
-18.243088 -27.200838 -41.289769
-5.7517138 -3.5547546 -42.690715
-17.907882 -11.06768 -41.316832
-5.8621404 -9.7170936 -42.661522
-12.184863 -13.900182 -42.275801
-45.660943 -28.220015 -27.350133
-31.663415 -19.569067 -37.222577
-43.64798 -19.285018 -28.754378
-40.490541 -35.335205 -32.149031
-36.596356 -15.424374 -33.735703
-32.618536 -29.677325 -37.377517
-5.9970087 22.143234 -39.534861
-16.853883 16.477138 -37.076841
-9.9408005 26.657696 -36.989306
-5.8177256 15.82979 -40.844141
-36.443512 3.7699758 -28.623278
-26.811781 10.475351 -33.520067
-36.344993 9.7676427 -26.193348
-32.985906 0 -32.597526
-18.143785 34.51153 -29.357261
-20.889356 20.245442 -33.799689
-14.128957 30.902408 -33.522809
-24.259381 30.553813 -26.66364
-15.685713 23.387737 -35.501636
-5.7081924 3.5278569 -42.367688
-16.752161 10.353405 -38.650369
-5.7414184 9.5169845 -41.782971
-11.542971 0 -41.762863
-11.490877 13.1085 -39.867992
-34.985371 21.622148 -20.955646
-26.720474 16.514161 -31.411801
-35.831073 15.831268 -23.604763
-29.961866 26.147062 -23.789382
-31.493595 13.273698 -29.031813
-25.597507 23.289381 -29.332133
-24.10899 -7.2631974 -39.009165
-22.769331 6.8596049 -36.841551
-28.766079 -3.7632763 -36.185083
-17.802873 -3.6675935 -40.674235
-27.78735 3.6352357 -34.953932
-17.398126 3.5842111 -39.74951
-31.523581 40.136214 4.1519751
-36.41583 29.128023 11.380306
-29.289514 40.641127 10.92222
-34.942747 35.359069 0
-41.020916 6.2224271 22.975565
-39.435986 17.926271 17.525553
-22.699834 37.897287 23.421811
-33.480478 28.480196 17.601729
-26.221575 39.803288 17.586315
-31.704069 34.392448 14.495486
-40.224982 24.860406 -7.4895729
-40.224982 24.860406 7.4895729
-37.886438 30.118607 -3.9402186
-37.886438 30.118607 3.9402186
-44.708705 -56.923677 5.8885896
-49.610415 -39.682009 15.503744
-41.754598 -57.93725 15.570518
-48.44937 -49.026614 0
-44.391081 -6.7336445 24.863174
-49.607317 -22.549816 22.045745
-32.090328 -53.574682 33.110974
-46.193378 -39.294435 24.285296
-37.548659 -56.997342 25.183176
-44.789619 -48.587601 20.478359
-52.701261 -32.571171 -9.8125572
-52.701261 -32.571171 9.8125572
-51.012099 -40.553122 -5.3052973
-51.012099 -40.553122 5.3052973
-6.311833 -23.305685 41.610318
-18.825547 -18.404728 41.414303
-11.051177 -29.635332 41.120972
-6.0268908 -16.398919 42.312614
-38.05944 -3.9371389 29.892452
-29.712748 -11.608758 37.146852
-40.906553 -10.993553 29.480803
-23.757139 -45.188763 38.439858
-24.815657 -24.050714 40.152576
-16.959208 -37.092644 40.237952
-33.082212 -41.66585 36.36087
-18.243088 -27.200838 41.289769
-5.7517138 -3.5547546 42.690715
-17.907882 -11.06768 41.316832
-5.8621404 -9.7170936 42.661522
-12.184863 -13.900182 42.275801
-45.660943 -28.220015 27.350133
-31.663415 -19.569067 37.222577
-43.64798 -19.285018 28.754378
-40.490541 -35.335205 32.149031
-36.596356 -15.424374 33.735703
-32.618536 -29.677325 37.377517
-5.9970087 22.143234 39.534861
-16.853883 16.477138 37.076841
-9.9408005 26.657696 36.989306
-5.8177256 15.82979 40.844141
-36.443512 3.7699758 28.623278
-26.811781 10.475351 33.520067
-36.344993 9.7676427 26.193348
-32.985906 0 32.597526
-18.143785 34.51153 29.357261
-20.889356 20.245442 33.799689
-14.128957 30.902408 33.522809
-24.259381 30.553813 26.66364
-15.685713 23.387737 35.501636
-5.7081924 3.5278569 42.367688
-16.752161 10.353405 38.650369
-5.7414184 9.5169845 41.782971
-11.542971 0 41.762863
-11.490877 13.1085 39.867992
-34.985371 21.622148 20.955646
-26.720474 16.514161 31.411801
-35.831073 15.831268 23.604763
-29.961866 26.147062 23.789382
-31.493595 13.273698 29.031813
-25.597507 23.289381 29.332133
-24.10899 -7.2631974 39.009165
-22.769331 6.8596049 36.841551
-28.766079 -3.7632763 36.185083
-17.802873 -3.6675935 40.674235
-27.78735 3.6352357 34.953932
-17.398126 3.5842111 39.74951
-45.880803 0 -20.224469
-52.373112 0 -7.294734
-45.10299 6.4243442 -17.480374
-49.139099 -6.9992363 -19.044631
-45.880803 0 20.224469
-52.373112 0 7.294734
-45.10299 6.4243442 17.480374
-49.139099 -6.9992363 19.044631
-42.452716 18.400206 -11.371953
-50.276046 6.7736842 -4.1863671
-43.943784 12.665614 -14.44861
-44.052163 19.281372 -3.9721811
-48.411255 6.6522141 -11.026721
-53.310279 -23.10618 -14.280405
-55.018471 -7.4126305 -4.5812576
-51.987377 -14.983964 -17.093324
-55.051497 -24.095715 -4.9639904
-52.960568 -7.2773374 -12.062926
-42.452716 18.400206 11.371953
-50.276046 6.7736842 4.1863671
-43.943784 12.665614 14.44861
-44.052163 19.281372 3.9721811
-48.411255 6.6522141 11.026721
-47.554905 13.143852 0
-53.310279 -23.10618 14.280405
-55.018471 -7.4126305 4.5812576
-51.987377 -14.983964 17.093324
-55.051497 -24.095715 4.9639904
-52.960568 -7.2773374 12.062926
-56.094675 -15.504187 0
-25.692003 48.826696 0
-20.133271 55.850667 0
-4.9143484 70.906496 0
-13.352023 63.392498 0
35.88534 68.198752 0
26.395319 73.221889 0
5.2655801 75.974231 0
16.039776 76.153365 0
-35.88534 -68.198752 0
-26.395319 -73.221889 0
-5.2655801 -75.974231 0
-16.039776 -76.153365 0
25.692003 -48.826696 0
20.133271 -55.850667 0
4.9143484 -70.906496 0
13.352023 -63.392498 0
-38.585395 -65.52972 5.0114384
-35.011176 -65.864361 14.910324
-34.372353 -68.914237 5.0796137
-24.889895 -60.143092 32.150975
-30.557944 -64.467579 24.309
-24.647844 -73.6218 5.1386304
-30.53614 -68.887848 15.094156
-29.634055 -71.571002 5.1228515
-32.552837 -69.119123 10.154267
-1.9926807 -28.049034 40.167384
-6.4324125 -34.846733 39.542924
-18.047359 -51.80758 36.577824
-11.706896 -42.75364 38.52779
-3.101171 -74.951079 5.0178001
-9.3089737 -73.753797 15.062236
-8.4835897 -76.212639 5.12692
-19.747479 -61.295512 31.952093
-15.051344 -69.117386 24.353587
-22.905312 -64.751237 28.730796
-19.252073 -75.244438 5.1816288
-14.758414 -73.968161 15.263037
-13.942474 -76.194953 5.1706632
-22.518173 -73.615207 10.296404
-11.680164 -75.486257 10.270325
-28.194585 -68.225368 20.095626
-17.786857 -71.624044 20.212154
-25.734324 -66.977062 24.646006
-25.54001 -71.27902 15.325769
-20.493596 -68.595312 24.681403
-20.225931 -73.033834 15.396129
27.287141 -46.341853 3.5440307
24.941583 -46.921058 10.621954
24.783145 -49.688524 3.6625017
18.17312 -43.912906 23.474728
21.830268 -46.054948 17.366089
19.015177 -56.797324 3.9643211
22.261257 -50.220167 11.003842
22.023666 -53.19069 3.8072404
23.625099 -50.162942 7.3694208
1.9534372 -27.496642 39.376336
5.9725666 -32.355579 36.716045
0 -30.705274 39.094335
14.196201 -40.752268 28.772417
10.084572 -36.828904 33.188666
-4.353223 -37.853413 38.304413
4.1199272 -35.824791 36.251621
-2.1010025 -34.164526 38.739726
2.0491264 -33.320966 37.783199
2.9720946 -71.831478 4.8089501
8.1523675 -64.590156 13.190808
7.6079051 -68.345894 4.5977142
0 -72.361487 9.7492524
15.035115 -46.668492 24.327328
12.10557 -55.590072 19.587223
16.999736 -48.05671 21.323261
15.52952 -60.695281 4.1797165
12.169815 -60.994281 12.585928
11.806363 -64.521211 4.3784718
17.541101 -57.344429 8.0206449
10.046915 -64.930935 8.8342149
-5.9680002 -70.344948 19.442866
5.4260903 -63.957445 17.677403
-3.0272609 -71.834542 14.704295
2.8879644 -68.529144 14.027691
20.612895 -49.879164 14.691794
14.064164 -56.633517 15.981859
18.882265 -49.143651 18.083724
19.232206 -53.674716 11.540651
15.636479 -52.337774 18.831749
15.865889 -57.290154 12.077233
-15.788017 -55.940348 34.573037
-4.9067388 -53.034699 32.777247
-12.579377 -51.108579 35.996652
-13.82 -60.552462 31.670212
12.607599 -44.671443 27.60847
4.5344537 -49.010839 30.290364
10.521448 -42.747445 30.107762
11.223968 -49.177926 25.72109
-6.8962578 -42.04507 37.717897
-2.404133 -48.320228 33.953699
-9.5941398 -46.394402 36.994306
-2.2390874 -40.926057 36.742969
-7.3111162 -49.865252 35.066638
-8.9068845 -67.826406 24.105255
-2.646822 -56.703358 29.750958
-11.491658 -64.581907 28.131049
-2.8695306 -65.420632 23.21499
-8.0176959 -58.872599 30.856277
6.2899096 -38.348289 34.401579
2.3151847 -46.532471 32.697476
8.3989301 -40.614724 32.385664
2.1707348 -39.676707 35.621317
6.5519799 -44.687585 31.425559
0 -43.854722 34.863217
7.7254884 -58.830011 20.90797
2.5294722 -54.189352 28.431917
9.5993995 -53.947613 23.498887
2.7307117 -62.255787 22.091922
7.0421278 -51.709166 27.101782
0 -59.782325 26.166371
-27.287141 46.341853 3.5440307
-24.941583 46.921058 10.621954
-24.783145 49.688524 3.6625017
-18.17312 43.912906 23.474728
-21.830268 46.054948 17.366089
-19.015177 56.797324 3.9643211
-22.261257 50.220167 11.003842
-22.023666 53.19069 3.8072404
-23.625099 50.162942 7.3694208
-1.9534372 27.496642 39.376336
-5.9725666 32.355579 36.716045
-14.196201 40.752268 28.772417
-10.084572 36.828904 33.188666
-2.9720946 71.831478 4.8089501
-8.1523675 64.590156 13.190808
-7.6079051 68.345894 4.5977142
-15.035115 46.668492 24.327328
-12.10557 55.590072 19.587223
-16.999736 48.05671 21.323261
-15.52952 60.695281 4.1797165
-12.169815 60.994281 12.585928
-11.806363 64.521211 4.3784718
-17.541101 57.344429 8.0206449
-10.046915 64.930935 8.8342149
-20.612895 49.879164 14.691794
-14.064164 56.633517 15.981859
-18.882265 49.143651 18.083724
-19.232206 53.674716 11.540651
-15.636479 52.337774 18.831749
-15.865889 57.290154 12.077233
38.585395 65.52972 5.0114384
35.011176 65.864361 14.910324
34.372353 68.914237 5.0796137
24.889895 60.143092 32.150975
30.557944 64.467579 24.309
24.647844 73.6218 5.1386304
30.53614 68.887848 15.094156
29.634055 71.571002 5.1228515
32.552837 69.119123 10.154267
1.9926807 28.049034 40.167384
6.4324125 34.846733 39.542924
0 30.705274 39.094335
18.047359 51.80758 36.577824
11.706896 42.75364 38.52779
-4.1199272 35.824791 36.251621
4.353223 37.853413 38.304413
-2.0491264 33.320966 37.783199
2.1010025 34.164526 38.739726
3.101171 74.951079 5.0178001
9.3089737 73.753797 15.062236
8.4835897 76.212639 5.12692
0 72.361487 9.7492524
19.747479 61.295512 31.952093
15.051344 69.117386 24.353587
22.905312 64.751237 28.730796
19.252073 75.244438 5.1816288
14.758414 73.968161 15.263037
13.942474 76.194953 5.1706632
22.518173 73.615207 10.296404
11.680164 75.486257 10.270325
-5.4260903 63.957445 17.677403
5.9680002 70.344948 19.442866
-2.8879644 68.529144 14.027691
3.0272609 71.834542 14.704295
28.194585 68.225368 20.095626
17.786857 71.624044 20.212154
25.734324 66.977062 24.646006
25.54001 71.27902 15.325769
20.493596 68.595312 24.681403
20.225931 73.033834 15.396129
-12.607599 44.671443 27.60847
-4.5344537 49.010839 30.290364
-10.521448 42.747445 30.107762
-11.223968 49.177926 25.72109
15.788017 55.940348 34.573037
4.9067388 53.034699 32.777247
12.579377 51.108579 35.996652
13.82 60.552462 31.670212
-6.2899096 38.348289 34.401579
-2.3151847 46.532471 32.697476
-8.3989301 40.614724 32.385664
-2.1707348 39.676707 35.621317
-6.5519799 44.687585 31.425559
-7.7254884 58.830011 20.90797
-2.5294722 54.189352 28.431917
-9.5993995 53.947613 23.498887
-2.7307117 62.255787 22.091922
-7.0421278 51.709166 27.101782
6.8962578 42.04507 37.717897
2.404133 48.320228 33.953699
9.5941398 46.394402 36.994306
2.2390874 40.926057 36.742969
7.3111162 49.865252 35.066638
0 43.854722 34.863217
8.9068845 67.826406 24.105255
2.646822 56.703358 29.750958
11.491658 64.581907 28.131049
2.8695306 65.420632 23.21499
8.0176959 58.872599 30.856277
0 59.782325 26.166371
0 -21.583176 41.018023
0 -15.122177 41.94965
0 -2.9663995 42.800587
0 -8.9569077 42.525449
0 21.583176 41.018023
0 15.122177 41.94965
0 2.9663995 42.800587
0 8.9569077 42.525449
-38.585395 -65.52972 -5.0114384
-35.011176 -65.864361 -14.910324
-34.372353 -68.914237 -5.0796137
-24.889895 -60.143092 -32.150975
-30.557944 -64.467579 -24.309
-24.647844 -73.6218 -5.1386304
-30.53614 -68.887848 -15.094156
-29.634055 -71.571002 -5.1228515
-32.552837 -69.119123 -10.154267
-1.9926807 -28.049034 -40.167384
-6.4324125 -34.846733 -39.542924
-18.047359 -51.80758 -36.577824
-11.706896 -42.75364 -38.52779
-3.101171 -74.951079 -5.0178001
-9.3089737 -73.753797 -15.062236
-8.4835897 -76.212639 -5.12692
-19.747479 -61.295512 -31.952093
-15.051344 -69.117386 -24.353587
-22.905312 -64.751237 -28.730796
-19.252073 -75.244438 -5.1816288
-14.758414 -73.968161 -15.263037
-13.942474 -76.194953 -5.1706632
-22.518173 -73.615207 -10.296404
-11.680164 -75.486257 -10.270325
-28.194585 -68.225368 -20.095626
-17.786857 -71.624044 -20.212154
-25.734324 -66.977062 -24.646006
-25.54001 -71.27902 -15.325769
-20.493596 -68.595312 -24.681403
-20.225931 -73.033834 -15.396129
27.287141 -46.341853 -3.5440307
24.941583 -46.921058 -10.621954
24.783145 -49.688524 -3.6625017
18.17312 -43.912906 -23.474728
21.830268 -46.054948 -17.366089
19.015177 -56.797324 -3.9643211
22.261257 -50.220167 -11.003842
22.023666 -53.19069 -3.8072404
23.625099 -50.162942 -7.3694208
1.9534372 -27.496642 -39.376336
5.9725666 -32.355579 -36.716045
0 -30.705274 -39.094335
14.196201 -40.752268 -28.772417
10.084572 -36.828904 -33.188666
-4.353223 -37.853413 -38.304413
4.1199272 -35.824791 -36.251621
-2.1010025 -34.164526 -38.739726
2.0491264 -33.320966 -37.783199
2.9720946 -71.831478 -4.8089501
8.1523675 -64.590156 -13.190808
7.6079051 -68.345894 -4.5977142
0 -72.361487 -9.7492524
15.035115 -46.668492 -24.327328
12.10557 -55.590072 -19.587223
16.999736 -48.05671 -21.323261
15.52952 -60.695281 -4.1797165
12.169815 -60.994281 -12.585928
11.806363 -64.521211 -4.3784718
17.541101 -57.344429 -8.0206449
10.046915 -64.930935 -8.8342149
-5.9680002 -70.344948 -19.442866
5.4260903 -63.957445 -17.677403
-3.0272609 -71.834542 -14.704295
2.8879644 -68.529144 -14.027691
20.612895 -49.879164 -14.691794
14.064164 -56.633517 -15.981859
18.882265 -49.143651 -18.083724
19.232206 -53.674716 -11.540651
15.636479 -52.337774 -18.831749
15.865889 -57.290154 -12.077233
-15.788017 -55.940348 -34.573037
-4.9067388 -53.034699 -32.777247
-12.579377 -51.108579 -35.996652
-13.82 -60.552462 -31.670212
12.607599 -44.671443 -27.60847
4.5344537 -49.010839 -30.290364
10.521448 -42.747445 -30.107762
11.223968 -49.177926 -25.72109
-6.8962578 -42.04507 -37.717897
-2.404133 -48.320228 -33.953699
-9.5941398 -46.394402 -36.994306
-2.2390874 -40.926057 -36.742969
-7.3111162 -49.865252 -35.066638
-8.9068845 -67.826406 -24.105255
-2.646822 -56.703358 -29.750958
-11.491658 -64.581907 -28.131049
-2.8695306 -65.420632 -23.21499
-8.0176959 -58.872599 -30.856277
6.2899096 -38.348289 -34.401579
2.3151847 -46.532471 -32.697476
8.3989301 -40.614724 -32.385664
2.1707348 -39.676707 -35.621317
6.5519799 -44.687585 -31.425559
0 -43.854722 -34.863217
7.7254884 -58.830011 -20.90797
2.5294722 -54.189352 -28.431917
9.5993995 -53.947613 -23.498887
2.7307117 -62.255787 -22.091922
7.0421278 -51.709166 -27.101782
0 -59.782325 -26.166371
-27.287141 46.341853 -3.5440307
-24.941583 46.921058 -10.621954
-24.783145 49.688524 -3.6625017
-18.17312 43.912906 -23.474728
-21.830268 46.054948 -17.366089
-19.015177 56.797324 -3.9643211
-22.261257 50.220167 -11.003842
-22.023666 53.19069 -3.8072404
-23.625099 50.162942 -7.3694208
-1.9534372 27.496642 -39.376336
-5.9725666 32.355579 -36.716045
-14.196201 40.752268 -28.772417
-10.084572 36.828904 -33.188666
-2.9720946 71.831478 -4.8089501
-8.1523675 64.590156 -13.190808
-7.6079051 68.345894 -4.5977142
-15.035115 46.668492 -24.327328
-12.10557 55.590072 -19.587223
-16.999736 48.05671 -21.323261
-15.52952 60.695281 -4.1797165
-12.169815 60.994281 -12.585928
-11.806363 64.521211 -4.3784718
-17.541101 57.344429 -8.0206449
-10.046915 64.930935 -8.8342149
-20.612895 49.879164 -14.691794
-14.064164 56.633517 -15.981859
-18.882265 49.143651 -18.083724
-19.232206 53.674716 -11.540651
-15.636479 52.337774 -18.831749
-15.865889 57.290154 -12.077233
38.585395 65.52972 -5.0114384
35.011176 65.864361 -14.910324
34.372353 68.914237 -5.0796137
24.889895 60.143092 -32.150975
30.557944 64.467579 -24.309
24.647844 73.6218 -5.1386304
30.53614 68.887848 -15.094156
29.634055 71.571002 -5.1228515
32.552837 69.119123 -10.154267
1.9926807 28.049034 -40.167384
6.4324125 34.846733 -39.542924
0 30.705274 -39.094335
18.047359 51.80758 -36.577824
11.706896 42.75364 -38.52779
-4.1199272 35.824791 -36.251621
4.353223 37.853413 -38.304413
-2.0491264 33.320966 -37.783199
2.1010025 34.164526 -38.739726
3.101171 74.951079 -5.0178001
9.3089737 73.753797 -15.062236
8.4835897 76.212639 -5.12692
0 72.361487 -9.7492524
19.747479 61.295512 -31.952093
15.051344 69.117386 -24.353587
22.905312 64.751237 -28.730796
19.252073 75.244438 -5.1816288
14.758414 73.968161 -15.263037
13.942474 76.194953 -5.1706632
22.518173 73.615207 -10.296404
11.680164 75.486257 -10.270325
-5.4260903 63.957445 -17.677403
5.9680002 70.344948 -19.442866
-2.8879644 68.529144 -14.027691
3.0272609 71.834542 -14.704295
28.194585 68.225368 -20.095626
17.786857 71.624044 -20.212154
25.734324 66.977062 -24.646006
25.54001 71.27902 -15.325769
20.493596 68.595312 -24.681403
20.225931 73.033834 -15.396129
-12.607599 44.671443 -27.60847
-4.5344537 49.010839 -30.290364
-10.521448 42.747445 -30.107762
-11.223968 49.177926 -25.72109
15.788017 55.940348 -34.573037
4.9067388 53.034699 -32.777247
12.579377 51.108579 -35.996652
13.82 60.552462 -31.670212
-6.2899096 38.348289 -34.401579
-2.3151847 46.532471 -32.697476
-8.3989301 40.614724 -32.385664
-2.1707348 39.676707 -35.621317
-6.5519799 44.687585 -31.425559
-7.7254884 58.830011 -20.90797
-2.5294722 54.189352 -28.431917
-9.5993995 53.947613 -23.498887
-2.7307117 62.255787 -22.091922
-7.0421278 51.709166 -27.101782
6.8962578 42.04507 -37.717897
2.404133 48.320228 -33.953699
9.5941398 46.394402 -36.994306
2.2390874 40.926057 -36.742969
7.3111162 49.865252 -35.066638
0 43.854722 -34.863217
8.9068845 67.826406 -24.105255
2.646822 56.703358 -29.750958
11.491658 64.581907 -28.131049
2.8695306 65.420632 -23.21499
8.0176959 58.872599 -30.856277
0 59.782325 -26.166371
0 -21.583176 -41.018023
0 -15.122177 -41.94965
0 -2.9663995 -42.800587
0 -8.9569077 -42.525449
0 21.583176 -41.018023
0 15.122177 -41.94965
0 2.9663995 -42.800587
0 8.9569077 -42.525449
42.591275 60.992479 -3.0258016
46.371099 52.620394 -8.559713
41.262218 61.842574 -7.9625025
50.1782 35.42743 -17.479759
48.772752 43.951962 -13.355063
37.673615 62.042888 -17.725297
45.069389 53.251628 -13.311873
39.594525 62.168658 -12.910336
43.40055 57.646807 -10.754543
42.84537 3.2766343 -25.228332
45.908882 10.392818 -24.403546
50.221839 26.847324 -20.784038
48.61401 18.331043 -23.043275
27.046558 55.544238 -34.328227
36.498276 50.66457 -31.312426
30.258861 58.46606 -31.098872
48.481339 35.222877 -21.768935
43.481098 43.306483 -26.764879
48.136083 39.681886 -19.994351
35.454826 61.433978 -22.617881
39.157785 52.202109 -27.365883
33.049683 60.352603 -27.064225
39.805035 57.695691 -20.469526
35.049303 55.68897 -29.430167
46.424041 48.610397 -15.805677
42.759993 48.136287 -24.970966
47.430612 44.16091 -17.982699
43.469441 53.324837 -18.156889
45.678859 43.968822 -22.518832
41.501518 52.994915 -22.904811
29.916813 -42.842122 -2.1253729
32.961946 -37.404129 -6.0844966
28.993234 -43.454188 -5.5949173
37.322161 -26.350651 -13.001311
35.394609 -31.89614 -9.6918303
26.503423 -43.647228 -12.469763
31.86065 -37.644874 -9.4104877
27.845224 -43.720696 -9.0793161
30.518449 -40.536149 -7.5623922
41.205372 -3.1512141 -24.262664
40.750678 -9.2251078 -21.661627
38.825483 -20.755121 -16.067717
39.958727 -15.067367 -18.94063
19.567177 -40.184186 -24.835193
25.634443 -35.584092 -21.992178
21.451055 -41.447649 -22.046554
35.84785 -26.044339 -16.096287
31.002719 -30.878216 -19.083787
35.048436 -28.892838 -14.558117
24.929081 -43.195604 -15.903138
27.369953 -36.487489 -19.127816
23.256712 -42.469489 -19.044809
27.85028 -40.367786 -14.321857
24.521781 -38.96205 -20.590427
33.085255 -34.643416 -11.264311
30.131339 -33.919809 -17.596089
34.127072 -31.77447 -12.938835
30.571663 -37.502873 -12.769575
32.646924 -31.424751 -16.094329
29.057888 -37.105156 -16.037135
3.0586298 -23.549814 -39.994737
8.8319557 -20.73846 -39.013981
5.0087259 -25.955551 -38.901401
2.9972417 -20.281513 -40.663058
19.404166 -15.021867 -36.298326
14.248487 -17.911246 -37.787054
9.0239502 -30.551968 -36.098604
10.787955 -22.928882 -37.760487
7.0139338 -28.305115 -37.596287
7.9657367 -24.430003 -38.358346
2.9095322 -13.955799 -41.685231
8.7115596 -17.623868 -39.758474
2.9507746 -17.069285 -41.225066
5.9117594 -18.952086 -40.24078
38.864477 -1.9280442 -27.139209
34.035297 -5.5364917 -29.993202
38.823215 -4.9986591 -25.903384
24.374656 -12.026362 -34.523429
29.228275 -8.8811839 -32.434125
38.465867 -10.989478 -23.357202
34.061415 -8.5146925 -28.827798
38.685921 -8.0337629 -24.638632
36.429953 -6.7963435 -27.427018
17.239549 -38.393997 -27.894177
18.945451 -30.777984 -30.654384
15.236289 -36.681125 -30.238776
20.471664 -36.321245 -26.525665
21.42114 -16.87731 -34.660133
20.305799 -23.668771 -32.855473
18.897733 -18.387287 -35.527847
11.157106 -32.770373 -34.313705
16.957849 -29.038424 -32.689479
13.190064 -34.789707 -32.391425
12.040709 -28.826682 -35.362271
16.153673 -32.767301 -31.540622
26.398553 -31.99893 -23.723576
22.00588 -28.937063 -29.360961
23.53725 -34.173602 -25.126523
21.284557 -32.552042 -28.032905
13.644583 -21.388667 -37.060989
17.694202 -25.318597 -33.752782
16.292865 -19.896155 -36.332716
12.869527 -25.02608 -36.274229
18.327332 -21.826591 -34.679729
14.943301 -27.075957 -34.574351
2.8598524 -1.767486 -42.717728
8.5333486 -5.2738995 -41.784425
2.8640381 -4.7391658 -42.57447
19.369049 -11.970731 -37.156746
14.066852 -8.6937925 -39.922826
16.817984 -13.407953 -37.903067
2.8970697 -10.763912 -42.06947
8.5463058 -8.2637498 -41.417348
2.8744942 -7.7509513 -42.358579
5.7845713 -12.650822 -41.35739
5.7294184 -6.5159133 -42.110872
11.544876 -16.197703 -39.195264
11.417002 -10.047053 -40.457433
14.198324 -14.825293 -38.584832
8.6850918 -14.473488 -40.393721
14.139688 -11.740542 -39.297453
8.6320785 -11.339982 -40.947551
36.662482 -22.65866 -17.852328
33.127378 -20.473845 -23.864649
37.24062 -19.808779 -19.273725
34.293565 -25.044836 -19.328807
24.361448 -15.056203 -33.531493
28.976232 -17.908296 -29.093066
26.790522 -13.498831 -32.498222
23.84474 -18.402611 -32.650289
38.128669 -14.037667 -22.004847
33.496944 -17.560084 -25.126688
37.732466 -16.920562 -20.662672
36.124819 -12.816519 -24.923
35.445269 -18.7319 -22.308403
29.237523 -29.665822 -22.234372
30.584078 -22.674625 -25.231326
31.808705 -27.392764 -20.798517
27.17839 -28.37051 -25.2495
32.51604 -23.907782 -22.395595
31.592173 -10.272199 -30.171248
31.336169 -16.255811 -27.836263
29.21135 -11.895111 -31.374178
33.928385 -11.552476 -27.657805
29.125097 -14.916551 -30.257832
33.73793 -14.581794 -26.420937
22.690889 -25.249423 -30.606015
28.400067 -21.285696 -27.990042
23.287847 -21.814872 -31.672891
24.973153 -26.880932 -28.060004
26.189554 -19.884955 -30.411527
27.84513 -24.781917 -26.675087
3.1426293 24.196565 -41.093116
9.4904118 22.284591 -41.922623
5.2636825 27.276753 -40.881579
3.0667287 20.751712 -41.605775
21.765894 16.850214 -40.716281
15.77792 19.83384 -41.843118
10.068806 34.089489 -40.278353
11.908386 25.310263 -41.68227
7.5771647 30.578065 -40.615333
8.596966 26.365911 -41.397979
2.9545231 14.171602 -42.329822
9.2493316 18.711804 -42.212798
3.0074357 17.397052 -42.016675
6.1720467 19.786523 -42.012531
39.758638 1.972403 -27.763605
36.206795 5.8897273 -31.906809
41.249786 5.3110908 -27.522426
37.270505 0 -29.272811
27.223631 13.432036 -38.55862
32.037333 9.7347329 -35.55129
44.201389 12.628083 -26.839919
37.556978 9.3885154 -31.786259
42.745494 8.8767996 -27.224128
39.477927 7.364971 -29.721745
32.326556 -3.6738511 -31.94594
33.611517 3.8198844 -33.215772
34.779364 -1.8862169 -30.671886
35.506493 1.9256519 -31.313141
22.837617 50.861388 -36.95204
24.340054 39.54183 -39.383035
19.306795 46.480802 -38.317325
28.073987 49.809442 -36.376192
24.728535 19.483144 -40.011611
24.807563 28.916102 -40.13948
21.738922 21.151733 -40.869301
12.947914 38.03029 -39.82134
20.897673 35.784933 -40.28424
15.967346 42.11498 -39.211719
13.875914 33.220351 -40.752072
20.242395 41.061167 -39.523998
36.982879 44.82869 -33.235388
28.864175 37.955512 -38.51152
32.859189 47.708073 -35.077895
28.64816 43.813742 -37.731165
15.353704 24.067811 -41.703247
21.346029 30.543988 -40.718866
18.582069 22.691635 -41.43759
14.674856 28.536721 -41.362754
21.607239 25.732734 -40.886104
17.684097 32.042039 -40.915735
2.8652952 1.7708498 -42.799028
8.6800465 5.3645638 -42.502747
2.8787325 4.763481 -42.792906
5.7362098 0 -42.575641
21.182892 13.091747 -40.636343
14.740937 9.1104003 -41.835934
18.370016 14.645294 -41.400917
2.9314145 10.891518 -42.568204
8.7798952 8.4896162 -42.549375
2.8987809 7.8164394 -42.716468
5.9487022 13.009775 -42.530861
5.8110883 6.6087943 -42.711141
11.444523 -3.5129038 -41.406674
11.618603 3.5663378 -42.036501
8.619493 -1.7745464 -42.108603
8.6690553 1.7847501 -42.350729
12.426393 17.43449 -42.188048
11.932544 10.500734 -42.284314
15.425893 16.107069 -41.920828
9.1187576 15.196181 -42.410668
15.081191 12.522296 -41.914107
8.963432 11.775281 -42.519375
48.3533 29.883983 -23.545023
42.460876 26.242265 -30.588413
47.778649 25.414096 -24.727637
46.214326 33.750653 -26.047679
28.070506 17.348527 -38.636699
35.313861 21.825166 -35.456249
30.683372 15.460306 -37.220442
28.391233 21.91145 -38.875743
45.619034 16.795362 -26.327693
41.429248 21.718432 -31.076859
46.82905 20.999789 -25.644052
42.309102 15.010605 -29.18962
44.770831 23.660216 -28.177689
40.673049 41.268867 -30.930791
39.863241 29.554071 -32.886471
43.656193 37.595488 -28.545144
37.065823 38.691633 -34.435207
43.273184 31.817093 -29.804635
35.392891 11.508003 -33.80102
37.794617 19.606167 -33.573373
33.135417 13.493024 -35.588785
38.855431 13.230116 -31.674243
34.236337 17.534295 -35.567858
40.164725 17.359504 -31.453906
28.838073 32.08974 -38.897486
35.983071 26.969116 -35.463566
28.66175 26.848871 -38.981725
32.992486 35.512887 -37.070581
32.189759 24.440734 -37.379015
36.674481 32.63996 -35.133431
22.356269 -10.209145 -36.173202
23.150315 -3.4655916 -37.457997
24.835664 -8.6790624 -35.262043
19.773219 -8.6284829 -37.805781
24.361438 11.12482 -39.417635
23.820861 3.565972 -38.542963
26.874016 9.391384 -38.156124
21.086458 9.201544 -40.316654
29.765773 -5.4423089 -33.180641
25.698751 -1.8196314 -36.572437
27.317895 -7.0846497 -34.259256
30.37745 -1.8511777 -33.835841
25.278502 -5.2703674 -35.946385
14.363458 -5.3072933 -40.415325
20.440274 -1.8184882 -38.95781
17.088798 -6.9808497 -39.231639
14.509424 -1.7934635 -40.888051
20.131237 -5.230901 -38.409631
31.459199 5.7519311 -35.068345
26.115701 1.849154 -37.165808
29.255615 7.5871801 -36.689343
30.945308 1.8857825 -34.468347
26.502475 5.5255561 -37.686892
28.293255 0 -35.590314
14.781406 5.4617249 -41.59133
20.714492 1.8428843 -39.480452
17.874457 7.3017949 -41.035317
14.649596 1.8107896 -41.283059
20.925845 5.4373721 -39.925714
17.6158 0 -40.246831
42.591275 60.992479 3.0258016
46.371099 52.620394 8.559713
41.262218 61.842574 7.9625025
44.937981 57.215593 0
50.1782 35.42743 17.479759
48.772752 43.951962 13.355063
37.673615 62.042888 17.725297
45.069389 53.251628 13.311873
39.594525 62.168658 12.910336
43.40055 57.646807 10.754543
48.261311 48.836315 -5.5501535
48.261311 48.836315 5.5501535
46.797337 53.064281 -2.8778774
46.797337 53.064281 2.8778774
42.84537 3.2766343 25.228332
45.908882 10.392818 24.403546
50.221839 26.847324 20.784038
48.61401 18.331043 23.043275
27.046558 55.544238 34.328227
36.498276 50.66457 31.312426
30.258861 58.46606 31.098872
48.481339 35.222877 21.768935
43.481098 43.306483 26.764879
48.136083 39.681886 19.994351
35.454826 61.433978 22.617881
39.157785 52.202109 27.365883
33.049683 60.352603 27.064225
39.805035 57.695691 20.469526
35.049303 55.68897 29.430167
46.424041 48.610397 15.805677
42.759993 48.136287 24.970966
47.430612 44.16091 17.982699
43.469441 53.324837 18.156889
45.678859 43.968822 22.518832
41.501518 52.994915 22.904811
51.819282 32.026078 -14.62493
53.17448 32.863636 -4.9196713
51.289242 36.123896 -12.623844
51.819282 32.026078 14.62493
53.17448 32.863636 4.9196713
51.289242 36.123896 12.623844
49.51634 44.420242 -8.1217
52.265858 36.726217 -2.6004446
50.499991 40.26805 -10.443156
49.852171 44.756738 -2.7274401
51.956233 36.537074 -7.6176904
49.51634 44.420242 8.1217
52.265858 36.726217 2.6004446
50.499991 40.26805 10.443156
49.852171 44.756738 2.7274401
51.956233 36.537074 7.6176904
51.172634 40.680742 0
29.916813 -42.842122 2.1253729
32.961946 -37.404129 6.0844966
28.993234 -43.454188 5.5949173
31.694069 -40.35328 0
37.322161 -26.350651 13.001311
35.394609 -31.89614 9.6918303
26.503423 -43.647228 12.469763
31.86065 -37.644874 9.4104877
27.845224 -43.720696 9.0793161
30.518449 -40.536149 7.5623922
34.76656 -35.180782 -3.9982284
34.76656 -35.180782 3.9982284
33.31652 -37.778158 -2.048853
33.31652 -37.778158 2.048853
41.205372 -3.1512141 24.262664
40.750678 -9.2251078 21.661627
38.825483 -20.755121 16.067717
39.958727 -15.067367 18.94063
19.567177 -40.184186 24.835193
25.634443 -35.584092 21.992178
21.451055 -41.447649 22.046554
35.84785 -26.044339 16.096287
31.002719 -30.878216 19.083787
35.048436 -28.892838 14.558117
24.929081 -43.195604 15.903138
27.369953 -36.487489 19.127816
23.256712 -42.469489 19.044809
27.85028 -40.367786 14.321857
24.521781 -38.96205 20.590427
33.085255 -34.643416 11.264311
30.131339 -33.919809 17.596089
34.127072 -31.77447 12.938835
30.571663 -37.502873 12.769575
32.646924 -31.424751 16.094329
29.057888 -37.105156 16.037135
39.32488 -24.304112 -11.098641
40.78377 -25.205756 -3.7732901
38.37828 -27.030484 -9.4460634
39.32488 -24.304112 11.098641
40.78377 -25.205756 3.7732901
38.37828 -27.030484 9.4460634
36.138874 -32.419552 -5.9275201
39.496544 -27.753465 -1.9651179
37.312243 -29.752308 -7.7159929
36.490632 -32.760894 -1.9964228
39.117273 -27.508359 -5.7352749
36.138874 -32.419552 5.9275201
39.496544 -27.753465 1.9651179
37.312243 -29.752308 7.7159929
36.490632 -32.760894 1.9964228
39.117273 -27.508359 5.7352749
38.075464 -30.268877 0
3.0586298 -23.549814 39.994737
8.8319557 -20.73846 39.013981
5.0087259 -25.955551 38.901401
2.9972417 -20.281513 40.663058
19.404166 -15.021867 36.298326
14.248487 -17.911246 37.787054
9.0239502 -30.551968 36.098604
10.787955 -22.928882 37.760487
7.0139338 -28.305115 37.596287
7.9657367 -24.430003 38.358346
2.9095322 -13.955799 41.685231
8.7115596 -17.623868 39.758474
2.9507746 -17.069285 41.225066
5.9117594 -18.952086 40.24078
38.864477 -1.9280442 27.139209
34.035297 -5.5364917 29.993202
38.823215 -4.9986591 25.903384
24.374656 -12.026362 34.523429
29.228275 -8.8811839 32.434125
38.465867 -10.989478 23.357202
34.061415 -8.5146925 28.827798
38.685921 -8.0337629 24.638632
36.429953 -6.7963435 27.427018
17.239549 -38.393997 27.894177
18.945451 -30.777984 30.654384
15.236289 -36.681125 30.238776
20.471664 -36.321245 26.525665
21.42114 -16.87731 34.660133
20.305799 -23.668771 32.855473
18.897733 -18.387287 35.527847
11.157106 -32.770373 34.313705
16.957849 -29.038424 32.689479
13.190064 -34.789707 32.391425
12.040709 -28.826682 35.362271
16.153673 -32.767301 31.540622
26.398553 -31.99893 23.723576
22.00588 -28.937063 29.360961
23.53725 -34.173602 25.126523
21.284557 -32.552042 28.032905
13.644583 -21.388667 37.060989
17.694202 -25.318597 33.752782
16.292865 -19.896155 36.332716
12.869527 -25.02608 36.274229
18.327332 -21.826591 34.679729
14.943301 -27.075957 34.574351
2.8598524 -1.767486 42.717728
8.5333486 -5.2738995 41.784425
2.8640381 -4.7391658 42.57447
19.369049 -11.970731 37.156746
14.066852 -8.6937925 39.922826
16.817984 -13.407953 37.903067
2.8970697 -10.763912 42.06947
8.5463058 -8.2637498 41.417348
2.8744942 -7.7509513 42.358579
5.7845713 -12.650822 41.35739
5.7294184 -6.5159133 42.110872
11.544876 -16.197703 39.195264
11.417002 -10.047053 40.457433
14.198324 -14.825293 38.584832
8.6850918 -14.473488 40.393721
14.139688 -11.740542 39.297453
8.6320785 -11.339982 40.947551
36.662482 -22.65866 17.852328
33.127378 -20.473845 23.864649
37.24062 -19.808779 19.273725
34.293565 -25.044836 19.328807
24.361448 -15.056203 33.531493
28.976232 -17.908296 29.093066
26.790522 -13.498831 32.498222
23.84474 -18.402611 32.650289
38.128669 -14.037667 22.004847
33.496944 -17.560084 25.126688
37.732466 -16.920562 20.662672
36.124819 -12.816519 24.923
35.445269 -18.7319 22.308403
29.237523 -29.665822 22.234372
30.584078 -22.674625 25.231326
31.808705 -27.392764 20.798517
27.17839 -28.37051 25.2495
32.51604 -23.907782 22.395595
31.592173 -10.272199 30.171248
31.336169 -16.255811 27.836263
29.21135 -11.895111 31.374178
33.928385 -11.552476 27.657805
29.125097 -14.916551 30.257832
33.73793 -14.581794 26.420937
22.690889 -25.249423 30.606015
28.400067 -21.285696 27.990042
23.287847 -21.814872 31.672891
24.973153 -26.880932 28.060004
26.189554 -19.884955 30.411527
27.84513 -24.781917 26.675087
3.1426293 24.196565 41.093116
9.4904118 22.284591 41.922623
5.2636825 27.276753 40.881579
3.0667287 20.751712 41.605775
21.765894 16.850214 40.716281
15.77792 19.83384 41.843118
10.068806 34.089489 40.278353
11.908386 25.310263 41.68227
7.5771647 30.578065 40.615333
8.596966 26.365911 41.397979
2.9545231 14.171602 42.329822
9.2493316 18.711804 42.212798
3.0074357 17.397052 42.016675
6.1720467 19.786523 42.012531
39.758638 1.972403 27.763605
36.206795 5.8897273 31.906809
41.249786 5.3110908 27.522426
37.270505 0 29.272811
27.223631 13.432036 38.55862
32.037333 9.7347329 35.55129
44.201389 12.628083 26.839919
37.556978 9.3885154 31.786259
42.745494 8.8767996 27.224128
39.477927 7.364971 29.721745
32.326556 -3.6738511 31.94594
33.611517 3.8198844 33.215772
34.779364 -1.8862169 30.671886
35.506493 1.9256519 31.313141
22.837617 50.861388 36.95204
24.340054 39.54183 39.383035
19.306795 46.480802 38.317325
28.073987 49.809442 36.376192
24.728535 19.483144 40.011611
24.807563 28.916102 40.13948
21.738922 21.151733 40.869301
12.947914 38.03029 39.82134
20.897673 35.784933 40.28424
15.967346 42.11498 39.211719
13.875914 33.220351 40.752072
20.242395 41.061167 39.523998
36.982879 44.82869 33.235388
28.864175 37.955512 38.51152
32.859189 47.708073 35.077895
28.64816 43.813742 37.731165
15.353704 24.067811 41.703247
21.346029 30.543988 40.718866
18.582069 22.691635 41.43759
14.674856 28.536721 41.362754
21.607239 25.732734 40.886104
17.684097 32.042039 40.915735
2.8652952 1.7708498 42.799028
8.6800465 5.3645638 42.502747
2.8787325 4.763481 42.792906
5.7362098 0 42.575641
21.182892 13.091747 40.636343
14.740937 9.1104003 41.835934
18.370016 14.645294 41.400917
2.9314145 10.891518 42.568204
8.7798952 8.4896162 42.549375
2.8987809 7.8164394 42.716468
5.9487022 13.009775 42.530861
5.8110883 6.6087943 42.711141
11.444523 -3.5129038 41.406674
11.618603 3.5663378 42.036501
8.619493 -1.7745464 42.108603
8.6690553 1.7847501 42.350729
12.426393 17.43449 42.188048
11.932544 10.500734 42.284314
15.425893 16.107069 41.920828
9.1187576 15.196181 42.410668
15.081191 12.522296 41.914107
8.963432 11.775281 42.519375
48.3533 29.883983 23.545023
42.460876 26.242265 30.588413
47.778649 25.414096 24.727637
46.214326 33.750653 26.047679
28.070506 17.348527 38.636699
35.313861 21.825166 35.456249
30.683372 15.460306 37.220442
28.391233 21.91145 38.875743
45.619034 16.795362 26.327693
41.429248 21.718432 31.076859
46.82905 20.999789 25.644052
42.309102 15.010605 29.18962
44.770831 23.660216 28.177689
40.673049 41.268867 30.930791
39.863241 29.554071 32.886471
43.656193 37.595488 28.545144
37.065823 38.691633 34.435207
43.273184 31.817093 29.804635
35.392891 11.508003 33.80102
37.794617 19.606167 33.573373
33.135417 13.493024 35.588785
38.855431 13.230116 31.674243
34.236337 17.534295 35.567858
40.164725 17.359504 31.453906
28.838073 32.08974 38.897486
35.983071 26.969116 35.463566
28.66175 26.848871 38.981725
32.992486 35.512887 37.070581
32.189759 24.440734 37.379015
36.674481 32.63996 35.133431
22.356269 -10.209145 36.173202
23.150315 -3.4655916 37.457997
24.835664 -8.6790624 35.262043
19.773219 -8.6284829 37.805781
24.361438 11.12482 39.417635
23.820861 3.565972 38.542963
26.874016 9.391384 38.156124
21.086458 9.201544 40.316654
29.765773 -5.4423089 33.180641
25.698751 -1.8196314 36.572437
27.317895 -7.0846497 34.259256
30.37745 -1.8511777 33.835841
25.278502 -5.2703674 35.946385
14.363458 -5.3072933 40.415325
20.440274 -1.8184882 38.95781
17.088798 -6.9808497 39.231639
14.509424 -1.7934635 40.888051
20.131237 -5.230901 38.409631
31.459199 5.7519311 35.068345
26.115701 1.849154 37.165808
29.255615 7.5871801 36.689343
30.945308 1.8857825 34.468347
26.502475 5.5255561 37.686892
28.293255 0 35.590314
14.781406 5.4617249 41.59133
20.714492 1.8428843 39.480452
17.874457 7.3017949 41.035317
14.649596 1.8107896 41.283059
20.925845 5.4373721 39.925714
17.6158 0 40.246831
43.657366 0 -22.971966
47.925828 0 -17.276494
45.258504 3.3359684 -22.573583
43.442355 -3.2021015 -21.667743
53.078831 0 -3.6787584
51.239193 0 -10.792237
48.389479 10.602717 -21.449762
49.588782 3.4611817 -16.601829
46.863519 6.8847037 -22.071179
47.539173 3.4027207 -19.683649
42.748996 -9.3668189 -18.949486
47.445994 -3.31162 -15.884445
43.139105 -6.3375512 -20.317102
45.548724 -3.2602499 -18.859501
43.657366 0 22.971966
47.925828 0 17.276494
45.258504 3.3359684 22.573583
43.442355 -3.2021015 21.667743
53.078831 0 3.6787584
51.239193 0 10.792237
48.389479 10.602717 21.449762
49.588782 3.4611817 16.601829
46.863519 6.8847037 22.071179
47.539173 3.4027207 19.683649
42.748996 -9.3668189 18.949486
47.445994 -3.31162 15.884445
43.139105 -6.3375512 20.317102
45.548724 -3.2602499 18.859501
52.008307 27.110863 -16.755435
54.303346 19.133844 -11.825366
51.706618 22.942763 -18.290866
53.263371 27.857864 -12.156397
54.376597 3.6403865 -2.2498826
55.206443 11.274436 -6.9679846
53.84728 3.6223742 -5.9939957
49.841942 14.68083 -20.597513
53.703561 15.155031 -13.336549
50.956873 18.750948 -19.578952
50.695739 10.900138 -18.164808
52.8774 19.025913 -15.797699
54.345044 28.513605 -2.5367397
55.303619 19.654703 -7.2624067
54.008006 28.306649 -7.3552004
54.441314 23.713937 -9.6872482
51.43949 3.5423262 -13.161329
54.172251 11.178229 -10.808657
52.846621 3.5862228 -9.6700974
51.234573 7.1660721 -15.672156
54.219047 7.376803 -8.3894394
52.660285 11.101219 -14.583697
40.320722 -21.018365 -12.990064
44.524302 -15.688187 -9.6958328
41.055292 -18.216659 -14.523032
41.414668 -21.660743 -9.4521457
51.921529 -3.4760254 -2.1483019
48.460843 -9.8968279 -6.116576
51.416437 -3.4588483 -5.7234071
42.266741 -12.449572 -17.467011
45.382502 -12.806846 -11.270127
41.705466 -15.346645 -16.024322
44.579816 -9.5851482 -15.973409
43.249562 -15.561703 -12.921277
42.585296 -22.343533 -1.9878135
45.370744 -16.124596 -5.9580332
42.187844 -22.111472 -5.7454453
43.443364 -18.923371 -7.730281
49.151788 -3.384786 -12.575997
47.532508 -9.8081449 -9.4838702
50.471271 -3.4250293 -9.2354459
46.895514 -6.5591771 -14.34488
49.532144 -6.7391237 -7.664224
46.200976 -9.7395436 -12.794861
52.008307 27.110863 16.755435
54.303346 19.133844 11.825366
51.706618 22.942763 18.290866
53.263371 27.857864 12.156397
54.376597 3.6403865 2.2498826
55.206443 11.274436 6.9679846
53.84728 3.6223742 5.9939957
55.358511 7.458444 0
49.841942 14.68083 20.597513
53.703561 15.155031 13.336549
50.956873 18.750948 19.578952
50.695739 10.900138 18.164808
52.8774 19.025913 15.797699
54.345044 28.513605 2.5367397
55.303619 19.654703 7.2624067
54.008006 28.306649 7.3552004
55.257628 24.185938 0
54.441314 23.713937 9.6872482
51.43949 3.5423262 13.161329
54.172251 11.178229 10.808657
52.846621 3.5862228 9.6700974
51.234573 7.1660721 15.672156
54.219047 7.376803 8.3894394
52.660285 11.101219 14.583697
55.814774 15.426824 -4.7352736
55.814774 15.426824 4.7352736
55.843385 11.430958 -2.3533594
55.798621 19.800549 -2.4474825
55.843385 11.430958 2.3533594
55.798621 19.800549 2.4474825
40.320722 -21.018365 12.990064
44.524302 -15.688187 9.6958328
41.055292 -18.216659 14.523032
41.414668 -21.660743 9.4521457
51.921529 -3.4760254 2.1483019
48.460843 -9.8968279 6.116576
51.416437 -3.4588483 5.7234071
50.580312 -6.814678 0
42.266741 -12.449572 17.467011
45.382502 -12.806846 11.270127
41.705466 -15.346645 16.024322
44.579816 -9.5851482 15.973409
43.249562 -15.561703 12.921277
42.585296 -22.343533 1.9878135
