-35.526670 -15.398262 -9.516649
-38.113498 -5.135026 -3.173621
-34.520231 -9.949528 -11.350169
-38.629859 -16.908062 -3.483252
-36.254592 -4.981761 -8.257775
-24.629089 10.674942 6.597477
-33.486609 4.511646 2.788350
-27.135622 7.821114 8.922127
-25.469283 11.147755 2.296564
-32.009730 4.398473 7.290915
-29.672489 8.201274 0.000000
-35.526670 -15.398262 9.516649
-38.113498 -5.135026 3.173621
-34.520231 -9.949528 11.350169
-38.629859 -16.908062 3.483252
-36.254592 -4.981761 8.257775
-38.940211 -10.762810 0.000000
-10.925197 20.762930 0.000000
-8.112489 22.504437 0.000000
-1.818585 26.239395 0.000000
-5.120978 24.313288 0.000000
18.308439 34.794507 0.000000
11.827796 32.810877 0.000000
1.962825 28.320555 0.000000
6.434818 30.551113 0.000000
-18.308439 -34.794507 0.000000
-11.827796 -32.810877 0.000000
-1.962825 -28.320555 0.000000
-6.434818 -30.551113 0.000000
10.925197 -20.762930 0.000000
8.112489 -22.504437 0.000000
1.818585 -26.239395 0.000000
5.120978 -24.313288 0.000000
-20.668831 -35.101952 2.684450
-17.526057 -32.970687 7.463879
-17.114088 -34.312586 2.529154
-10.896375 -26.329629 14.075153
-14.127648 -29.804862 11.238616
-10.806814 -32.279379 2.253026
-14.286236 -32.228960 7.061753
-13.806570 -33.345084 2.386748
-15.743484 -33.427986 4.910894
-1.016483 -14.308046 20.489718
-3.141038 -17.016151 19.309367
-8.005676 -22.981462 16.225654
-5.444885 -19.884745 17.919299
-1.149546 -27.782966 1.860005
-3.554532 -28.162096 5.751353
-3.212549 -28.860054 1.941452
-8.327723 -25.848972 13.474539
-5.995320 -27.531150 9.700631
-9.724785 -27.491085 12.198080
-7.959562 -31.109000 2.142288
-5.824510 -29.192043 6.023663
-5.485960 -29.980508 2.034506
-9.600598 -31.385762 4.389861
-4.512206 -29.161365 3.967566
-12.697685 -30.725908 9.050246
-7.182642 -28.923035 8.162019
-11.198516 -29.145654 10.724925
-11.204958 -31.271657 6.723748
-8.473212 -28.361183 10.204689
-8.373382 -30.235454 6.373881
11.845993 -20.118093 1.538547
10.766991 -20.255275 4.585374
10.464726 -20.981065 1.546498
8.032637 -19.409788 10.375982
9.484156 -20.008564 7.544694
7.611975 -22.736565 1.586959
9.359380 -21.114245 4.626385
9.049734 -21.856561 1.564431
9.937260 -21.099687 3.099748
0.994651 -14.000743 20.049647
2.914659 -15.789775 17.917716
0.000000 -15.298658 19.478441
6.442397 -18.493840 13.057249
4.732944 -17.284735 15.576279
-2.068159 -17.983657 18.197921
1.961115 -17.052860 17.256035
-1.022791 -16.631663 18.858921
0.997428 -16.219233 18.391259
1.098638 -26.552590 1.777634
3.121292 -24.729594 5.050357
2.845388 -25.561652 1.719564
0.000000 -26.867614 3.619870
6.511785 -20.212360 10.536289
4.913566 -22.563623 7.950317
7.277141 -20.571816 9.127928
6.057288 -23.674189 1.630298
4.751839 -23.815891 4.914315
4.501105 -24.598321 1.669266
6.999339 -22.881865 3.200438
3.828099 -24.740134 3.366033
-2.277067 -26.839832 7.418347
2.094737 -24.690706 6.824343
-1.136498 -26.968208 5.520304
1.088023 -25.817941 5.284848
8.690974 -21.030452 6.194472
5.655371 -22.773025 6.426499
8.009996 -20.847100 7.671250
7.879865 -21.991732 4.728463
6.483352 -21.700806 7.808206
6.340483 -22.894858 4.826423
-6.756279 -23.938952 14.795086
-2.081285 -22.495657 13.903081
-5.510662 -22.389191 15.769093
-5.705964 -25.000736 13.075911
5.554029 -19.679123 12.162367
1.949351 -21.069649 13.021759
4.712485 -19.146289 13.485061
4.782172 -20.953134 10.958930
-3.188695 -19.440819 17.440018
-1.050570 -21.115210 14.837254
-4.318190 -20.881480 16.650627
-1.034710 -18.912437 16.979381
-3.189958 -21.757018 15.300143
-3.473910 -26.454011 9.401658
-1.088866 -23.326987 12.239138
-4.599149 -25.846732 11.258504
-1.115210 -25.424972 9.022237
-3.288900 -24.149843 12.657403
2.927859 -17.850558 16.013423
1.017309 -20.446699 14.367504
3.832354 -18.532123 14.777279
1.005525 -18.378995 16.500462
2.902916 -19.799256 13.923390
0.000000 -19.738879 15.691830
3.078782 -23.445090 8.332299
1.049788 -22.489811 11.799891
3.953568 -22.218632 9.678151
1.070918 -24.415188 8.663908
2.957410 -21.715769 11.381658
0.000000 -23.955607 10.485228
-11.845993 20.118093 1.538547
-10.766991 20.255275 4.585374
-10.464726 20.981065 1.546498
-8.032637 19.409788 10.375982
-9.484156 20.008564 7.544694
-7.611975 22.736565 1.586959
-9.359380 21.114245 4.626385
-9.049734 21.856561 1.564431
-9.937260 21.099687 3.099748
-0.994651 14.000743 20.049647
-2.914659 15.789775 17.917716
-6.442397 18.493840 13.057249
-4.732944 17.284735 15.576279
-1.098638 26.552590 1.777634
-3.121292 24.729594 5.050357
-2.845388 25.561652 1.719564
-6.511785 20.212360 10.536289
-4.913566 22.563623 7.950317
-7.277141 20.571816 9.127928
-6.057288 23.674189 1.630298
-4.751839 23.815891 4.914315
-4.501105 24.598321 1.669266
-6.999339 22.881865 3.200438
-3.828099 24.740134 3.366033
-8.690974 21.030452 6.194472
-5.655371 22.773025 6.426499
-8.009996 20.847100 7.671250
-7.879865 21.991732 4.728463
-6.483352 21.700806 7.808206
-6.340483 22.894858 4.826423
20.668831 35.101952 2.684450
17.526057 32.970687 7.463879
17.114088 34.312586 2.529154
10.896375 26.329629 14.075153
14.127648 29.804862 11.238616
10.806814 32.279379 2.253026
14.286236 32.228960 7.061753
13.806570 33.345084 2.386748
15.743484 33.427986 4.910894
1.016483 14.308046 20.489718
3.141038 17.016151 19.309367
0.000000 15.298658 19.478441
8.005676 22.981462 16.225654
5.444885 19.884745 17.919299
-1.961115 17.052860 17.256035
2.068159 17.983657 18.197921
-0.997428 16.219233 18.391259
1.022791 16.631663 18.858921
1.149546 27.782966 1.860005
3.554532 28.162096 5.751353
3.212549 28.860054 1.941452
0.000000 26.867614 3.619870
8.327723 25.848972 13.474539
5.995320 27.531150 9.700631
9.724785 27.491085 12.198080
7.959562 31.109000 2.142288
5.824510 29.192043 6.023663
5.485960 29.980508 2.034506
9.600598 31.385762 4.389861
4.512206 29.161365 3.967566
-2.094737 24.690706 6.824343
2.277067 26.839832 7.418347
-1.088023 25.817941 5.284848
1.136498 26.968208 5.520304
12.697685 30.725908 9.050246
7.182642 28.923035 8.162019
11.198516 29.145654 10.724925
11.204958 31.271657 6.723748
8.473212 28.361183 10.204689
8.373382 30.235454 6.373881
-5.554029 19.679123 12.162367
-1.949351 21.069649 13.021759
-4.712485 19.146289 13.485061
-4.782172 20.953134 10.958930
6.756279 23.938952 14.795086
2.081285 22.495657 13.903081
5.510662 22.389191 15.769093
5.705964 25.000736 13.075911
-2.927859 17.850558 16.013423
-1.017309 20.446699 14.367504
-3.832354 18.532123 14.777279
-1.005525 18.378995 16.500462
-2.902916 19.799256 13.923390
-3.078782 23.445090 8.332299
-1.049788 22.489811 11.799891
-3.953568 22.218632 9.678151
-1.070918 24.415188 8.663908
-2.957410 21.715769 11.381658
3.188695 19.440819 17.440018
1.050570 21.115210 14.837254
4.318190 20.881480 16.650627
1.034710 18.912437 16.979381
3.189958 21.757018 15.300143
0.000000 19.738879 15.691830
3.473910 26.454011 9.401658
1.088866 23.326987 12.239138
4.599149 25.846732 11.258504
1.115210 25.424972 9.022237
3.288900 24.149843 12.657403
0.000000 23.955607 10.485228
0.000000 -11.510537 21.875347
0.000000 -8.414634 23.342602
0.000000 -1.732002 24.990132
0.000000 -5.142391 24.414954
0.000000 11.510537 21.875347
0.000000 8.414634 23.342602
0.000000 1.732002 24.990132
0.000000 5.142391 24.414954
-20.668831 -35.101952 -2.684450
-17.526057 -32.970687 -7.463879
-17.114088 -34.312586 -2.529154
-10.896375 -26.329629 -14.075153
-14.127648 -29.804862 -11.238616
-10.806814 -32.279379 -2.253026
-14.286236 -32.228960 -7.061753
-13.806570 -33.345084 -2.386748
-15.743484 -33.427986 -4.910894
-1.016483 -14.308046 -20.489718
-3.141038 -17.016151 -19.309367
-8.005676 -22.981462 -16.225654
-5.444885 -19.884745 -17.919299
-1.149546 -27.782966 -1.860005
-3.554532 -28.162096 -5.751353
-3.212549 -28.860054 -1.941452
-8.327723 -25.848972 -13.474539
-5.995320 -27.531150 -9.700631
-9.724785 -27.491085 -12.198080
-7.959562 -31.109000 -2.142288
-5.824510 -29.192043 -6.023663
-5.485960 -29.980508 -2.034506
-9.600598 -31.385762 -4.389861
-4.512206 -29.161365 -3.967566
-12.697685 -30.725908 -9.050246
-7.182642 -28.923035 -8.162019
-11.198516 -29.145654 -10.724925
-11.204958 -31.271657 -6.723748
-8.473212 -28.361183 -10.204689
-8.373382 -30.235454 -6.373881
11.845993 -20.118093 -1.538547
10.766991 -20.255275 -4.585374
10.464726 -20.981065 -1.546498
8.032637 -19.409788 -10.375982
9.484156 -20.008564 -7.544694
7.611975 -22.736565 -1.586959
9.359380 -21.114245 -4.626385
9.049734 -21.856561 -1.564431
9.937260 -21.099687 -3.099748
0.994651 -14.000743 -20.049647
2.914659 -15.789775 -17.917716
0.000000 -15.298658 -19.478441
6.442397 -18.493840 -13.057249
4.732944 -17.284735 -15.576279
-2.068159 -17.983657 -18.197921
1.961115 -17.052860 -17.256035
-1.022791 -16.631663 -18.858921
0.997428 -16.219233 -18.391259
1.098638 -26.552590 -1.777634
3.121292 -24.729594 -5.050357
2.845388 -25.561652 -1.719564
0.000000 -26.867614 -3.619870
6.511785 -20.212360 -10.536289
4.913566 -22.563623 -7.950317
7.277141 -20.571816 -9.127928
6.057288 -23.674189 -1.630298
4.751839 -23.815891 -4.914315
4.501105 -24.598321 -1.669266
6.999339 -22.881865 -3.200438
3.828099 -24.740134 -3.366033
-2.277067 -26.839832 -7.418347
2.094737 -24.690706 -6.824343
-1.136498 -26.968208 -5.520304
1.088023 -25.817941 -5.284848
8.690974 -21.030452 -6.194472
5.655371 -22.773025 -6.426499
8.009996 -20.847100 -7.671250
7.879865 -21.991732 -4.728463
6.483352 -21.700806 -7.808206
6.340483 -22.894858 -4.826423
-6.756279 -23.938952 -14.795086
-2.081285 -22.495657 -13.903081
-5.510662 -22.389191 -15.769093
-5.705964 -25.000736 -13.075911
5.554029 -19.679123 -12.162367
1.949351 -21.069649 -13.021759
4.712485 -19.146289 -13.485061
4.782172 -20.953134 -10.958930
-3.188695 -19.440819 -17.440018
-1.050570 -21.115210 -14.837254
-4.318190 -20.881480 -16.650627
-1.034710 -18.912437 -16.979381
-3.189958 -21.757018 -15.300143
-3.473910 -26.454011 -9.401658
-1.088866 -23.326987 -12.239138
-4.599149 -25.846732 -11.258504
-1.115210 -25.424972 -9.022237
-3.288900 -24.149843 -12.657403
2.927859 -17.850558 -16.013423
1.017309 -20.446699 -14.367504
3.832354 -18.532123 -14.777279
1.005525 -18.378995 -16.500462
2.902916 -19.799256 -13.923390
0.000000 -19.738879 -15.691830
3.078782 -23.445090 -8.332299
1.049788 -22.489811 -11.799891
3.953568 -22.218632 -9.678151
1.070918 -24.415188 -8.663908
2.957410 -21.715769 -11.381658
0.000000 -23.955607 -10.485228
-11.845993 20.118093 -1.538547
-10.766991 20.255275 -4.585374
-10.464726 20.981065 -1.546498
-8.032637 19.409788 -10.375982
-9.484156 20.008564 -7.544694
-7.611975 22.736565 -1.586959
-9.359380 21.114245 -4.626385
-9.049734 21.856561 -1.564431
-9.937260 21.099687 -3.099748
-0.994651 14.000743 -20.049647
-2.914659 15.789775 -17.917716
-6.442397 18.493840 -13.057249
-4.732944 17.284735 -15.576279
-1.098638 26.552590 -1.777634
-3.121292 24.729594 -5.050357
-2.845388 25.561652 -1.719564
-6.511785 20.212360 -10.536289
-4.913566 22.563623 -7.950317
-7.277141 20.571816 -9.127928
-6.057288 23.674189 -1.630298
-4.751839 23.815891 -4.914315
-4.501105 24.598321 -1.669266
-6.999339 22.881865 -3.200438
-3.828099 24.740134 -3.366033
-8.690974 21.030452 -6.194472
-5.655371 22.773025 -6.426499
-8.009996 20.847100 -7.671250
-7.879865 21.991732 -4.728463
-6.483352 21.700806 -7.808206
-6.340483 22.894858 -4.826423
20.668831 35.101952 -2.684450
17.526057 32.970687 -7.463879
17.114088 34.312586 -2.529154
10.896375 26.329629 -14.075153
14.127648 29.804862 -11.238616
10.806814 32.279379 -2.253026
14.286236 32.228960 -7.061753
13.806570 33.345084 -2.386748
15.743484 33.427986 -4.910894
1.016483 14.308046 -20.489718
3.141038 17.016151 -19.309367
0.000000 15.298658 -19.478441
8.005676 22.981462 -16.225654
5.444885 19.884745 -17.919299
-1.961115 17.052860 -17.256035
2.068159 17.983657 -18.197921
-0.997428 16.219233 -18.391259
1.022791 16.631663 -18.858921
1.149546 27.782966 -1.860005
3.554532 28.162096 -5.751353
3.212549 28.860054 -1.941452
0.000000 26.867614 -3.619870
8.327723 25.848972 -13.474539
5.995320 27.531150 -9.700631
9.724785 27.491085 -12.198080
7.959562 31.109000 -2.142288
5.824510 29.192043 -6.023663
5.485960 29.980508 -2.034506
9.600598 31.385762 -4.389861
4.512206 29.161365 -3.967566
-2.094737 24.690706 -6.824343
2.277067 26.839832 -7.418347
-1.088023 25.817941 -5.284848
1.136498 26.968208 -5.520304
12.697685 30.725908 -9.050246
7.182642 28.923035 -8.162019
11.198516 29.145654 -10.724925
11.204958 31.271657 -6.723748
8.473212 28.361183 -10.204689
8.373382 30.235454 -6.373881
-5.554029 19.679123 -12.162367
-1.949351 21.069649 -13.021759
-4.712485 19.146289 -13.485061
-4.782172 20.953134 -10.958930
6.756279 23.938952 -14.795086
2.081285 22.495657 -13.903081
5.510662 22.389191 -15.769093
5.705964 25.000736 -13.075911
-2.927859 17.850558 -16.013423
-1.017309 20.446699 -14.367504
-3.832354 18.532123 -14.777279
-1.005525 18.378995 -16.500462
-2.902916 19.799256 -13.923390
-3.078782 23.445090 -8.332299
-1.049788 22.489811 -11.799891
-3.953568 22.218632 -9.678151
-1.070918 24.415188 -8.663908
-2.957410 21.715769 -11.381658
3.188695 19.440819 -17.440018
1.050570 21.115210 -14.837254
4.318190 20.881480 -16.650627
1.034710 18.912437 -16.979381
3.189958 21.757018 -15.300143
0.000000 19.738879 -15.691830
3.473910 26.454011 -9.401658
1.088866 23.326987 -12.239138
4.599149 25.846732 -11.258504
1.115210 25.424972 -9.022237
3.288900 24.149843 -12.657403
0.000000 23.955607 -10.485228
0.000000 -11.510537 -21.875347
0.000000 -8.414634 -23.342602
0.000000 -1.732002 -24.990132
0.000000 -5.142391 -24.414954
0.000000 11.510537 -21.875347
0.000000 8.414634 -23.342602
0.000000 1.732002 -24.990132
0.000000 5.142391 -24.414954
25.052427 35.876118 -1.779793
30.368311 34.460958 -5.605734
23.431859 35.118967 -4.521721
32.454986 22.914268 -11.305813
32.483544 29.272810 -8.894716
19.698250 32.440112 -9.267954
27.950956 33.025385 -8.255705
21.608007 33.927439 -7.045586
25.968534 34.492722 -6.434935
28.386010 2.170843 -16.714330
30.162968 6.828270 -16.033572
31.919878 17.063559 -13.209870
31.207955 11.767685 -14.792721
12.286436 25.232073 -15.594279
18.593434 25.810214 -15.951589
13.988806 27.029119 -14.377146
30.071352 21.847572 -13.502542
24.844525 24.744753 -15.293098
30.071238 24.789792 -12.490732
17.700557 30.670455 -11.291808
20.735653 27.643158 -14.491358
15.809997 28.870911 -12.946729
21.572804 31.268855 -11.093699
17.321171 27.521179 -14.544225
29.236244 30.613135 -9.953865
24.192840 27.234651 -14.128126
29.852661 27.794722 -11.318247
25.520319 31.306289 -10.659663
27.292188 26.270475 -13.454543
23.089235 29.483549 -12.743018
13.395569 -19.183012 -0.951658
15.528636 -17.621384 -2.866455
12.905280 -19.342047 -2.490373
19.671834 -13.888950 -6.852755
17.611275 -15.870543 -4.822358
11.758269 -19.364135 -5.532222
14.954718 -17.669711 -4.417085
12.356374 -19.401147 -4.028965
13.945051 -18.522523 -3.455547
26.838264 -2.052478 -15.802983
25.545588 -5.782991 -13.579136
21.721980 -11.612021 -8.989525
23.728074 -8.947222 -11.247222
8.909742 -18.297516 -11.308487
12.161868 -16.882326 -10.433851
9.670473 -18.685251 -9.938933
18.878048 -13.715363 -8.476560
15.441086 -15.379077 -9.504792
17.926923 -14.778397 -7.446331
11.092036 -19.219609 -7.076000
12.907154 -17.206812 -9.020318
10.402704 -18.996560 -8.518724
12.711465 -18.424724 -6.536803
11.297380 -17.950128 -9.486174
15.982140 -16.734824 -5.441330
14.582407 -16.415881 -8.515829
16.957160 -15.788192 -6.429086
14.343482 -17.595438 -5.991175
16.228040 -15.620525 -8.000123
13.655575 -17.437339 -7.536552
1.601986 -12.334438 -20.947622
4.700804 -11.038035 -20.765172
2.571038 -13.323288 -19.968545
1.607359 -10.876560 -21.806766
10.823392 -8.379002 -20.246734
7.742940 -9.733363 -20.534311
4.454000 -15.079701 -17.817385
5.644857 -11.997666 -19.758386
3.529085 -14.241817 -18.916702
4.126239 -12.654704 -19.869564
1.625752 -7.798047 -23.292352
4.740976 -9.591203 -21.637225
1.617330 -9.355734 -22.595601
3.191979 -10.232938 -21.727498
25.139286 -1.247145 -17.554857
21.178385 -3.445069 -18.663201
24.786063 -3.191314 -16.537603
14.034952 -6.924792 -19.878626
17.466005 -5.307149 -19.381732
23.532339 -6.723054 -14.289282
20.815546 -5.203482 -17.617188
24.228438 -5.031431 -15.430822
22.758146 -4.245742 -17.133925
7.964599 -17.737864 -12.886991
9.316352 -15.134955 -15.074175
7.139468 -17.188156 -14.169380
9.621819 -17.071228 -12.467240
11.823321 -9.315370 -19.130535
10.598999 -12.354366 -17.149540
10.272618 -9.995145 -19.312582
5.403389 -15.870699 -16.618135
8.453443 -14.475578 -16.295620
6.279482 -16.562569 -15.420803
6.014464 -14.399239 -17.663835
7.811268 -15.844952 -15.251779
12.927457 -15.669980 -11.617513
11.010467 -14.478430 -14.690523
11.281306 -16.379265 -12.043038
10.325580 -15.791671 -13.599344
7.223063 -11.322565 -19.619055
9.094103 -13.012733 -17.347562
8.733793 -10.665338 -19.476160
6.623120 -12.879317 -18.668018
9.692121 -11.542649 -18.339829
7.566028 -13.708983 -17.505537
1.672178 -1.033463 -24.977392
4.961809 -3.066567 -24.296011
1.665529 -2.755976 -24.758410
11.032156 -6.818247 -21.163610
8.102298 -5.007495 -22.994955
9.452357 -7.535788 -21.302988
1.646825 -6.118692 -23.914181
4.912363 -4.749951 -23.806430
1.655662 -4.464423 -24.397859
3.251525 -7.111066 -23.247115
3.314113 -3.769052 -24.358528
6.344153 -8.900979 -21.538624
6.514747 -5.733029 -23.085738
7.884688 -8.232860 -21.427133
4.826132 -8.042628 -22.445983
8.008294 -6.649490 -22.256895
4.886285 -6.419123 -23.178819
19.995308 -12.357780 -9.736460
18.250160 -11.279219 -13.147243
20.918300 -11.126721 -10.826178
18.159253 -13.261832 -10.235060
13.718008 -8.478195 -18.881689
16.135928 -9.972552 -16.200989
15.365436 -7.742120 -18.639031
13.062066 -10.080887 -17.885715
22.688114 -8.352984 -13.093782
18.974209 -9.946839 -14.232911
21.827248 -9.788104 -11.952817
21.547927 -7.644866 -14.866205
19.993564 -10.566077 -12.583470
14.676255 -14.891247 -11.160909
16.398417 -12.157566 -13.528405
16.381050 -14.106901 -10.710953
13.753435 -14.356698 -12.777333
17.322844 -12.736815 -11.931201
18.872503 -6.136397 -18.023672
17.826962 -9.247835 -15.835886
17.090326 -6.959326 -18.355704
20.263822 -6.899749 -16.518701
16.637109 -8.520771 -17.284160
19.637016 -8.487270 -15.378192
11.720631 -13.042203 -15.809069
15.335334 -11.493750 -15.113931
12.391343 -11.607581 -16.852982
12.760035 -13.734815 -14.337262
14.241252 -10.812962 -16.537060
14.561608 -12.959701 -13.949734
1.652892 12.726384 -21.613265
5.123730 12.031114 -22.633390
2.716823 14.078755 -21.100816
1.652612 11.182773 -22.420702
12.597888 9.752741 -23.566189
8.798457 11.060215 -23.333550
4.986051 16.881040 -19.945752
6.328923 13.451590 -22.152784
3.832800 15.467474 -20.544682
4.498522 13.796452 -21.662260
1.659066 7.957842 -23.769653
5.111164 10.340110 -23.326718
1.656813 9.584132 -23.147218
3.366039 10.790943 -22.912304
25.998323 1.289762 -18.154726
23.224396 3.777892 -20.466224
27.068739 3.485219 -18.060636
24.038958 0.000000 -18.880556
16.376873 8.080287 -23.195642
19.968371 6.067507 -22.158565
28.571697 8.162770 -17.349275
23.993193 5.997833 -20.306582
27.924747 5.799029 -17.784960
25.589164 4.773894 -19.265313
20.136060 -2.288425 -19.898976
21.360914 2.427627 -21.109408
22.060683 -1.196435 -19.455294
22.763333 1.234542 -20.074961
10.404079 23.170801 -16.834153
12.107606 19.669508 -19.590517
8.937252 21.516292 -17.737361
13.265374 23.535699 -17.188289
14.241466 11.220581 -23.043176
13.388673 15.606056 -21.663328
12.249920 11.919038 -23.029921
6.265077 18.401627 -19.268258
10.548367 18.062901 -20.333983
7.552262 19.919613 -18.546424
6.985468 16.723922 -20.515571
9.790920 19.860625 -19.117121
19.354107 23.460025 -17.392947
14.850189 19.527546 -19.813604
16.302237 23.669127 -17.402990
14.126557 21.604784 -18.605434
8.309360 13.025399 -22.569623
11.231065 16.070507 -21.423949
10.253216 12.520792 -22.864437
7.672319 14.919590 -21.625305
11.790198 14.041314 -22.309896
9.085266 16.461709 -21.020601
1.676831 1.036338 -25.046885
5.085280 3.142876 -24.900600
1.677888 2.776425 -24.942119
3.362916 0.000000 -24.960436
12.478239 7.711976 -23.937713
8.655375 5.349316 -24.564632
10.641440 8.483771 -23.982851
1.673689 6.218506 -24.304291
5.102612 4.933911 -24.728422
1.675478 4.517855 -24.689864
3.376014 7.383321 -24.137158
3.381802 3.846032 -24.856037
6.706546 -2.058579 -24.264512
6.855847 2.104407 -24.804686
5.055244 -1.040753 -24.696261
5.097839 1.049522 -24.904349
6.971826 9.781619 -23.669599
6.926259 6.095163 -24.543980
8.789950 9.178096 -23.887238
5.144705 8.573522 -23.927642
8.744597 7.260861 -24.303253
5.144010 6.757697 -24.401376
29.918129 18.490420 -14.568251
25.405644 15.701552 -18.301985
29.706136 15.801087 -15.374285
27.706977 20.234604 -15.616423
16.594449 10.255934 -22.840869
20.946967 12.945938 -21.031427
18.530258 9.336766 -22.478115
16.334702 12.606603 -22.366893
29.061381 10.699403 -16.771927
25.262098 13.243136 -18.949576
29.425060 13.195229 -16.113454
26.839438 9.522212 -18.516890
27.478403 14.521619 -17.294249
22.456921 22.785892 -17.077902
23.088215 17.117293 -19.047371
25.200938 21.702341 -16.477947
20.018105 20.896154 -18.597391
25.369030 18.652863 -17.473054
22.220913 7.225133 -21.221480
22.963415 11.912399 -20.398654
20.421736 8.315905 -21.933774
24.542246 8.356534 -20.006394
20.743605 10.623931 -21.550366
24.955610 10.786007 -19.543303
15.478703 17.224021 -20.878047
20.726562 15.534445 -20.427323
15.960530 14.951014 -21.707293
17.673948 19.024118 -19.858568
18.514735 14.057691 -21.499464
20.464833 18.213518 -19.604907
12.960962 -5.918713 -20.971277
13.916375 -2.083275 -22.517167
14.635641 -5.114566 -20.779900
11.501184 -5.018797 -21.989907
14.638489 6.684767 -23.685572
14.524019 2.174239 -23.500356
16.409187 5.734349 -23.298007
12.608460 5.501981 -24.106984
18.184117 -3.324744 -20.270284
15.669678 -1.109511 -22.299851
16.385201 -4.249354 -20.548611
18.881388 -1.150617 -21.030982
15.191872 -3.167385 -21.603055
8.401089 -3.104200 -23.638649
12.248160 -1.089669 -23.344183
9.969927 -4.072759 -22.888477
8.576504 -1.060114 -24.168879
11.914867 -3.095959 -22.733112
19.759816 3.612842 -22.026755
16.056474 1.136898 -22.850309
18.133588 4.702783 -22.741256
19.422912 1.183617 -21.634158
16.302364 3.398914 -23.182191
17.508144 0.000000 -22.023635
8.757949 3.236059 -24.642767
12.494175 1.111556 -23.813070
10.636921 4.345230 -24.419732
8.698773 1.075228 -24.513439
12.612677 3.277278 -24.064507
10.514689 0.000000 -24.022916
25.052427 35.876118 1.779793
30.368311 34.460958 5.605734
23.431859 35.118967 4.521721
28.437474 36.206944 0.000000
32.454986 22.914268 11.305813
32.483544 29.272810 8.894716
19.698250 32.440112 9.267954
27.950956 33.025385 8.255705
21.608007 33.927439 7.045586
25.968534 34.492722 6.434935
33.890710 34.294497 -3.897504
33.890710 34.294497 3.897504
31.603518 35.835757 -1.943509
31.603518 35.835757 1.943509
28.386010 2.170843 16.714330
30.162968 6.828270 16.033572
31.919878 17.063559 13.209870
31.207955 11.767685 14.792721
12.286436 25.232073 15.594279
18.593434 25.810214 15.951589
13.988806 27.029119 14.377146
30.071352 21.847572 13.502542
24.844525 24.744753 15.293098
30.071238 24.789792 12.490732
17.700557 30.670455 11.291808
20.735653 27.643158 14.491358
15.809997 28.870911 12.946729
21.572804 31.268855 11.093699
17.321171 27.521179 14.544225
29.236244 30.613135 9.953865
24.192840 27.234651 14.128126
29.852661 27.794722 11.318247
25.520319 31.306289 10.659663
27.292188 26.270475 13.454543
23.089235 29.483549 12.743018
34.517817 21.333184 -9.741946
38.465625 23.773063 -3.558817
34.891716 24.574837 -8.587914
34.517817 21.333184 9.741946
38.465625 23.773063 3.558817
34.891716 24.574837 8.587914
35.001135 31.398906 -5.740907
38.743861 27.224569 -1.927669
35.140479 28.020571 -7.266883
36.825153 33.061223 -2.014725
37.187637 26.151385 -5.452356
35.001135 31.398906 5.740907
38.743861 27.224569 1.927669
35.140479 28.020571 7.266883
36.825153 33.061223 2.014725
37.187637 26.151385 5.452356
38.420045 30.542808 0.000000
13.395569 -19.183012 0.951658
15.528636 -17.621384 2.866455
12.905280 -19.342047 2.490373
14.524164 -18.492345 0.000000
19.671834 -13.888950 6.852755
17.611275 -15.870543 4.822358
11.758269 -19.364135 5.532222
14.954718 -17.669711 4.417085
12.356374 -19.401147 4.028965
13.945051 -18.522523 3.455547
16.759541 -16.959221 -1.927383
16.759541 -16.959221 1.927383
15.651285 -17.747253 -0.962501
15.651285 -17.747253 0.962501
26.838264 -2.052478 15.802983
25.545588 -5.782991 13.579136
21.721980 -11.612021 8.989525
23.728074 -8.947222 11.247222
8.909742 -18.297516 11.308487
12.161868 -16.882326 10.433851
9.670473 -18.685251 9.938933
18.878048 -13.715363 8.476560
15.441086 -15.379077 9.504792
17.926923 -14.778397 7.446331
11.092036 -19.219609 7.076000
12.907154 -17.206812 9.020318
10.402704 -18.996560 8.518724
12.711465 -18.424724 6.536803
11.297380 -17.950128 9.486174
15.982140 -16.734824 5.441330
14.582407 -16.415881 8.515829
16.957160 -15.788192 6.429086
14.343482 -17.595438 5.991175
16.228040 -15.620525 8.000123
13.655575 -17.437339 7.536552
21.269065 -13.145005 -6.002758
21.950074 -13.565892 -2.030808
20.149573 -14.191691 -4.959423
21.269065 -13.145005 6.002758
21.950074 -13.565892 2.030808
20.149573 -14.191691 4.959423
17.920080 -16.075790 -2.939262
20.648066 -14.509000 -1.027327
19.026781 -15.171713 -3.934647
18.049018 -16.204213 -0.987472
20.479776 -14.401951 -3.002693
17.920080 -16.075790 2.939262
20.648066 -14.509000 1.027327
19.026781 -15.171713 3.934647
18.049018 -16.204213 0.987472
20.479776 -14.401951 3.002693
19.352839 -15.384939 0.000000
1.601986 -12.334438 20.947622
4.700804 -11.038035 20.765172
2.571038 -13.323288 19.968545
1.607359 -10.876560 21.806766
10.823392 -8.379002 20.246734
7.742940 -9.733363 20.534311
4.454000 -15.079701 17.817385
5.644857 -11.997666 19.758386
3.529085 -14.241817 18.916702
4.126239 -12.654704 19.869564
1.625752 -7.798047 23.292352
4.740976 -9.591203 21.637225
1.617330 -9.355734 22.595601
3.191979 -10.232938 21.727498
25.139286 -1.247145 17.554857
21.178385 -3.445069 18.663201
24.786063 -3.191314 16.537603
14.034952 -6.924792 19.878626
17.466005 -5.307149 19.381732
23.532339 -6.723054 14.289282
20.815546 -5.203482 17.617188
24.228438 -5.031431 15.430822
22.758146 -4.245742 17.133925
7.964599 -17.737864 12.886991
9.316352 -15.134955 15.074175
7.139468 -17.188156 14.169380
9.621819 -17.071228 12.467240
11.823321 -9.315370 19.130535
10.598999 -12.354366 17.149540
10.272618 -9.995145 19.312582
5.403389 -15.870699 16.618135
8.453443 -14.475578 16.295620
6.279482 -16.562569 15.420803
6.014464 -14.399239 17.663835
7.811268 -15.844952 15.251779
12.927457 -15.669980 11.617513
11.010467 -14.478430 14.690523
11.281306 -16.379265 12.043038
10.325580 -15.791671 13.599344
7.223063 -11.322565 19.619055
9.094103 -13.012733 17.347562
8.733793 -10.665338 19.476160
6.623120 -12.879317 18.668018
9.692121 -11.542649 18.339829
7.566028 -13.708983 17.505537
1.672178 -1.033463 24.977392
4.961809 -3.066567 24.296011
1.665529 -2.755976 24.758410
11.032156 -6.818247 21.163610
8.102298 -5.007495 22.994955
9.452357 -7.535788 21.302988
1.646825 -6.118692 23.914181
4.912363 -4.749951 23.806430
1.655662 -4.464423 24.397859
3.251525 -7.111066 23.247115
3.314113 -3.769052 24.358528
6.344153 -8.900979 21.538624
6.514747 -5.733029 23.085738
7.884688 -8.232860 21.427133
4.826132 -8.042628 22.445983
8.008294 -6.649490 22.256895
4.886285 -6.419123 23.178819
19.995308 -12.357780 9.736460
18.250160 -11.279219 13.147243
20.918300 -11.126721 10.826178
18.159253 -13.261832 10.235060
13.718008 -8.478195 18.881689
16.135928 -9.972552 16.200989
15.365436 -7.742120 18.639031
13.062066 -10.080887 17.885715
22.688114 -8.352984 13.093782
18.974209 -9.946839 14.232911
21.827248 -9.788104 11.952817
21.547927 -7.644866 14.866205
19.993564 -10.566077 12.583470
14.676255 -14.891247 11.160909
16.398417 -12.157566 13.528405
16.381050 -14.106901 10.710953
13.753435 -14.356698 12.777333
17.322844 -12.736815 11.931201
18.872503 -6.136397 18.023672
17.826962 -9.247835 15.835886
17.090326 -6.959326 18.355704
20.263822 -6.899749 16.518701
16.637109 -8.520771 17.284160
19.637016 -8.487270 15.378192
11.720631 -13.042203 15.809069
15.335334 -11.493750 15.113931
12.391343 -11.607581 16.852982
12.760035 -13.734815 14.337262
14.241252 -10.812962 16.537060
14.561608 -12.959701 13.949734
1.652892 12.726384 21.613265
5.123730 12.031114 22.633390
2.716823 14.078755 21.100816
1.652612 11.182773 22.420702
12.597888 9.752741 23.566189
8.798457 11.060215 23.333550
4.986051 16.881040 19.945752
6.328923 13.451590 22.152784
3.832800 15.467474 20.544682
4.498522 13.796452 21.662260
1.659066 7.957842 23.769653
5.111164 10.340110 23.326718
1.656813 9.584132 23.147218
3.366039 10.790943 22.912304
25.998323 1.289762 18.154726
23.224396 3.777892 20.466224
27.068739 3.485219 18.060636
24.038958 0.000000 18.880556
16.376873 8.080287 23.195642
19.968371 6.067507 22.158565
28.571697 8.162770 17.349275
23.993193 5.997833 20.306582
27.924747 5.799029 17.784960
25.589164 4.773894 19.265313
20.136060 -2.288425 19.898976
21.360914 2.427627 21.109408
22.060683 -1.196435 19.455294
22.763333 1.234542 20.074961
10.404079 23.170801 16.834153
12.107606 19.669508 19.590517
8.937252 21.516292 17.737361
13.265374 23.535699 17.188289
14.241466 11.220581 23.043176
13.388673 15.606056 21.663328
12.249920 11.919038 23.029921
6.265077 18.401627 19.268258
10.548367 18.062901 20.333983
7.552262 19.919613 18.546424
6.985468 16.723922 20.515571
9.790920 19.860625 19.117121
19.354107 23.460025 17.392947
14.850189 19.527546 19.813604
16.302237 23.669127 17.402990
14.126557 21.604784 18.605434
8.309360 13.025399 22.569623
11.231065 16.070507 21.423949
10.253216 12.520792 22.864437
7.672319 14.919590 21.625305
11.790198 14.041314 22.309896
9.085266 16.461709 21.020601
1.676831 1.036338 25.046885
5.085280 3.142876 24.900600
1.677888 2.776425 24.942119
3.362916 0.000000 24.960436
12.478239 7.711976 23.937713
8.655375 5.349316 24.564632
10.641440 8.483771 23.982851
1.673689 6.218506 24.304291
5.102612 4.933911 24.728422
1.675478 4.517855 24.689864
3.376014 7.383321 24.137158
3.381802 3.846032 24.856037
6.706546 -2.058579 24.264512
6.855847 2.104407 24.804686
5.055244 -1.040753 24.696261
5.097839 1.049522 24.904349
6.971826 9.781619 23.669599
6.926259 6.095163 24.543980
8.789950 9.178096 23.887238
5.144705 8.573522 23.927642
8.744597 7.260861 24.303253
5.144010 6.757697 24.401376
29.918129 18.490420 14.568251
25.405644 15.701552 18.301985
29.706136 15.801087 15.374285
27.706977 20.234604 15.616423
16.594449 10.255934 22.840869
20.946967 12.945938 21.031427
18.530258 9.336766 22.478115
16.334702 12.606603 22.366893
29.061381 10.699403 16.771927
25.262098 13.243136 18.949576
29.425060 13.195229 16.113454
26.839438 9.522212 18.516890
27.478403 14.521619 17.294249
22.456921 22.785892 17.077902
23.088215 17.117293 19.047371
25.200938 21.702341 16.477947
20.018105 20.896154 18.597391
25.369030 18.652863 17.473054
22.220913 7.225133 21.221480
22.963415 11.912399 20.398654
20.421736 8.315905 21.933774
24.542246 8.356534 20.006394
20.743605 10.623931 21.550366
24.955610 10.786007 19.543303
15.478703 17.224021 20.878047
20.726562 15.534445 20.427323
15.960530 14.951014 21.707293
17.673948 19.024118 19.858568
18.514735 14.057691 21.499464
20.464833 18.213518 19.604907
12.960962 -5.918713 20.971277
13.916375 -2.083275 22.517167
14.635641 -5.114566 20.779900
11.501184 -5.018797 21.989907
14.638489 6.684767 23.685572
14.524019 2.174239 23.500356
16.409187 5.734349 23.298007
12.608460 5.501981 24.106984
18.184117 -3.324744 20.270284
15.669678 -1.109511 22.299851
16.385201 -4.249354 20.548611
18.881388 -1.150617 21.030982
15.191872 -3.167385 21.603055
8.401089 -3.104200 23.638649
12.248160 -1.089669 23.344183
9.969927 -4.072759 22.888477
8.576504 -1.060114 24.168879
11.914867 -3.095959 22.733112
19.759816 3.612842 22.026755
16.056474 1.136898 22.850309
18.133588 4.702783 22.741256
19.422912 1.183617 21.634158
16.302364 3.398914 23.182191
17.508144 0.000000 22.023635
8.757949 3.236059 24.642767
12.494175 1.111556 23.813070
10.636921 4.345230 24.419732
8.698773 1.075228 24.513439
12.612677 3.277278 24.064507
10.514689 0.000000 24.022916
29.004248 0.000000 -15.261676
32.426040 0.000000 -11.689068
30.280344 2.231940 -15.102927
28.589462 -2.107307 -14.259566
36.697373 0.000000 -2.543401
35.146864 0.000000 -7.402796
32.071067 7.027156 -14.216246
33.743403 2.355211 -11.296955
31.303055 4.598721 -14.742711
32.091451 2.297016 -13.287502
27.016320 -5.919600 -11.975612
31.780433 -2.218200 -10.639772
27.902787 -4.099189 -13.141297
30.259307 -2.165876 -12.528901
29.004248 0.000000 15.261676
32.426040 0.000000 11.689068
30.280344 2.231940 15.102927
28.589462 -2.107307 14.259566
36.697373 0.000000 2.543401
35.146864 0.000000 7.402796
32.071067 7.027156 14.216246
33.743403 2.355211 11.296955
31.303055 4.598721 14.742711
32.091451 2.297016 13.287502
27.016320 -5.919600 11.975612
31.780433 -2.218200 10.639772
27.902787 -4.099189 13.141297
30.259307 -2.165876 12.528901
34.034719 17.741601 -10.964912
36.683829 12.925588 -7.988453
33.619574 14.917354 -11.892697
36.124306 18.893772 -8.244717
37.783754 2.529534 -1.563338
37.994941 7.759448 -4.795603
37.316363 2.510319 -4.153861
32.697742 9.631045 -13.512558
36.154996 10.202863 -8.978601
33.180579 12.209684 -12.748839
33.903028 7.289522 -12.147806
35.042670 12.608766 -10.469379
39.036451 20.481535 -1.822159
38.107886 13.543403 -5.004283
37.931809 19.880801 -5.165828
37.318868 16.255619 -6.640492
35.264102 2.428425 -9.022688
36.964573 7.627493 -7.375315
36.450756 2.473584 -6.669913
34.795128 4.866721 -10.643490
37.369927 5.084386 -5.782336
35.569409 7.498322 -9.850563
22.610756 -11.786523 -7.284472
26.760715 -9.429168 -5.827546
23.741760 -10.534465 -8.398487
23.155606 -12.110869 -5.284846
35.432958 -2.372154 -1.466072
31.275096 -6.387100 -3.947445
35.014665 -2.355481 -3.897648
25.964512 -7.647788 -10.730006
28.157144 -7.945887 -6.992444
24.872920 -9.152658 -9.556821
28.358912 -6.097476 -10.161292
25.897802 -9.318335 -7.737250
23.731258 -12.451250 -1.107737
27.237027 -9.679939 -3.576735
23.536886 -12.336141 -3.205423
25.157482 -10.958276 -4.476504
33.158617 -2.283433 -8.483977
30.577079 -6.309459 -6.100857
34.236747 -2.323339 -6.264784
30.818006 -4.310450 -9.426927
32.892830 -4.475252 -5.089584
29.565440 -6.232636 -8.187829
34.034719 17.741601 10.964912
36.683829 12.925588 7.988453
33.619574 14.917354 11.892697
36.124306 18.893772 8.244717
37.783754 2.529534 1.563338
37.994941 7.759448 4.795603
37.316363 2.510319 4.153861
38.436985 5.178609 0.000000
32.697742 9.631045 13.512558
36.154996 10.202863 8.978601
33.180579 12.209684 12.748839
33.903028 7.289522 12.147806
35.042670 12.608766 10.469379
39.036451 20.481535 1.822159
38.107886 13.543403 5.004283
37.931809 19.880801 5.165828
39.147961 17.134832 0.000000
37.318868 16.255619 6.640492
35.264102 2.428425 9.022688
36.964573 7.627493 7.375315
36.450756 2.473584 6.669913
34.795128 4.866721 10.643490
37.369927 5.084386 5.782336
35.569409 7.498322 9.850563
38.563009 10.658553 -3.271650
38.563009 10.658553 3.271650
38.670844 7.915795 -1.629672
38.948756 13.821251 -1.708401
38.670844 7.915795 1.629672
38.948756 13.821251 1.708401
22.610756 -11.786523 7.284472
26.760715 -9.429168 5.827546
23.741760 -10.534465 8.398487
23.155606 -12.110869 5.284846
35.432958 -2.372154 1.466072
31.275096 -6.387100 3.947445
35.014665 -2.355481 3.897648
33.724199 -4.543656 0.000000
25.964512 -7.647788 10.730006
28.157144 -7.945887 6.992444
24.872920 -9.152658 9.556821
28.358912 -6.097476 10.161292
25.897802 -9.318335 7.737250
23.731258 -12.451250 1.107737
27.237027 -9.679939 3.576735
23.536886 -12.336141 3.205423
25.596919 -11.203621 0.000000
25.157482 -10.958276 4.476504
33.158617 -2.283433 8.483977
30.577079 -6.309459 6.100857
34.236747 -2.323339 6.264784
30.818006 -4.310450 9.426927
32.892830 -4.475252 5.089584
29.565440 -6.232636 8.187829
29.499741 -8.153528 -2.502731
29.499741 -8.153528 2.502731
31.665267 -6.481776 -1.334442
27.544062 -9.774212 -1.208159
31.665267 -6.481776 1.334442
27.544062 -9.774212 1.208159
-13.395569 19.183012 -0.951658
-15.528636 17.621384 -2.866455
-12.905280 19.342047 -2.490373
-19.671834 13.888950 -6.852755
-17.611275 15.870543 -4.822358
-11.758269 19.364135 -5.532222
-14.954718 17.669711 -4.417085
-12.356374 19.401147 -4.028965
-13.945051 18.522523 -3.455547
-26.838264 2.052478 -15.802983
-25.545588 5.782991 -13.579136
-21.721980 11.612021 -8.989525
-23.728074 8.947222 -11.247222
-8.909742 18.297516 -11.308487
-12.161868 16.882326 -10.433851
-9.670473 18.685251 -9.938933
-18.878048 13.715363 -8.476560
-15.441086 15.379077 -9.504792
-17.926923 14.778397 -7.446331
-11.092036 19.219609 -7.076000
-12.907154 17.206812 -9.020318
-10.402704 18.996560 -8.518724
-12.711465 18.424724 -6.536803
-11.297380 17.950128 -9.486174
-15.982140 16.734824 -5.441330
-14.582407 16.415881 -8.515829
-16.957160 15.788192 -6.429086
-14.343482 17.595438 -5.991175
-16.228040 15.620525 -8.000123
-13.655575 17.437339 -7.536552
-25.052427 -35.876118 -1.779793
-30.368311 -34.460958 -5.605734
-23.431859 -35.118967 -4.521721
-32.454986 -22.914268 -11.305813
-32.483544 -29.272810 -8.894716
-19.698250 -32.440112 -9.267954
-27.950956 -33.025385 -8.255705
-21.608007 -33.927439 -7.045586
-25.968534 -34.492722 -6.434935
-28.386010 -2.170843 -16.714330
-30.162968 -6.828270 -16.033572
-31.919878 -17.063559 -13.209870
-31.207955 -11.767685 -14.792721
-12.286436 -25.232073 -15.594279
-18.593434 -25.810214 -15.951589
-13.988806 -27.029119 -14.377146
-30.071352 -21.847572 -13.502542
-24.844525 -24.744753 -15.293098
-30.071238 -24.789792 -12.490732
-17.700557 -30.670455 -11.291808
-20.735653 -27.643158 -14.491358
-15.809997 -28.870911 -12.946729
-21.572804 -31.268855 -11.093699
-17.321171 -27.521179 -14.544225
-29.236244 -30.613135 -9.953865
-24.192840 -27.234651 -14.128126
-29.852661 -27.794722 -11.318247
-25.520319 -31.306289 -10.659663
-27.292188 -26.270475 -13.454543
-23.089235 -29.483549 -12.743018
-1.652892 -12.726384 -21.613265
-5.123730 -12.031114 -22.633390
-2.716823 -14.078755 -21.100816
-1.652612 -11.182773 -22.420702
-12.597888 -9.752741 -23.566189
-8.798457 -11.060215 -23.333550
-4.986051 -16.881040 -19.945752
-6.328923 -13.451590 -22.152784
-3.832800 -15.467474 -20.544682
-4.498522 -13.796452 -21.662260
-1.659066 -7.957842 -23.769653
-5.111164 -10.340110 -23.326718
-1.656813 -9.584132 -23.147218
-3.366039 -10.790943 -22.912304
-25.998323 -1.289762 -18.154726
-23.224396 -3.777892 -20.466224
-27.068739 -3.485219 -18.060636
-16.376873 -8.080287 -23.195642
-19.968371 -6.067507 -22.158565
-28.571697 -8.162770 -17.349275
-23.993193 -5.997833 -20.306582
-27.924747 -5.799029 -17.784960
-25.589164 -4.773894 -19.265313
-10.404079 -23.170801 -16.834153
-12.107606 -19.669508 -19.590517
-8.937252 -21.516292 -17.737361
-13.265374 -23.535699 -17.188289
-14.241466 -11.220581 -23.043176
-13.388673 -15.606056 -21.663328
-12.249920 -11.919038 -23.029921
-6.265077 -18.401627 -19.268258
-10.548367 -18.062901 -20.333983
-7.552262 -19.919613 -18.546424
-6.985468 -16.723922 -20.515571
-9.790920 -19.860625 -19.117121
-19.354107 -23.460025 -17.392947
-14.850189 -19.527546 -19.813604
-16.302237 -23.669127 -17.402990
-14.126557 -21.604784 -18.605434
-8.309360 -13.025399 -22.569623
-11.231065 -16.070507 -21.423949
-10.253216 -12.520792 -22.864437
-7.672319 -14.919590 -21.625305
-11.790198 -14.041314 -22.309896
-9.085266 -16.461709 -21.020601
-1.676831 -1.036338 -25.046885
-5.085280 -3.142876 -24.900600
-1.677888 -2.776425 -24.942119
-12.478239 -7.711976 -23.937713
-8.655375 -5.349316 -24.564632
-10.641440 -8.483771 -23.982851
-1.673689 -6.218506 -24.304291
-5.102612 -4.933911 -24.728422
-1.675478 -4.517855 -24.689864
-3.376014 -7.383321 -24.137158
-3.381802 -3.846032 -24.856037
-6.971826 -9.781619 -23.669599
-6.926259 -6.095163 -24.543980
-8.789950 -9.178096 -23.887238
-5.144705 -8.573522 -23.927642
-8.744597 -7.260861 -24.303253
-5.144010 -6.757697 -24.401376
-29.918129 -18.490420 -14.568251
-25.405644 -15.701552 -18.301985
-29.706136 -15.801087 -15.374285
-27.706977 -20.234604 -15.616423
-16.594449 -10.255934 -22.840869
-20.946967 -12.945938 -21.031427
-18.530258 -9.336766 -22.478115
-16.334702 -12.606603 -22.366893
-29.061381 -10.699403 -16.771927
-25.262098 -13.243136 -18.949576
-29.425060 -13.195229 -16.113454
-26.839438 -9.522212 -18.516890
-27.478403 -14.521619 -17.294249
-22.456921 -22.785892 -17.077902
-23.088215 -17.117293 -19.047371
-25.200938 -21.702341 -16.477947
-20.018105 -20.896154 -18.597391
-25.369030 -18.652863 -17.473054
-22.220913 -7.225133 -21.221480
-22.963415 -11.912399 -20.398654
-20.421736 -8.315905 -21.933774
-24.542246 -8.356534 -20.006394
-20.743605 -10.623931 -21.550366
-24.955610 -10.786007 -19.543303
-15.478703 -17.224021 -20.878047
-20.726562 -15.534445 -20.427323
-15.960530 -14.951014 -21.707293
-17.673948 -19.024118 -19.858568
-18.514735 -14.057691 -21.499464
-20.464833 -18.213518 -19.604907
-1.601986 12.334438 -20.947622
-4.700804 11.038035 -20.765172
-2.571038 13.323288 -19.968545
-1.607359 10.876560 -21.806766
-10.823392 8.379002 -20.246734
-7.742940 9.733363 -20.534311
-4.454000 15.079701 -17.817385
-5.644857 11.997666 -19.758386
-3.529085 14.241817 -18.916702
-4.126239 12.654704 -19.869564
-1.625752 7.798047 -23.292352
-4.740976 9.591203 -21.637225
-1.617330 9.355734 -22.595601
-3.191979 10.232938 -21.727498
-25.139286 1.247145 -17.554857
-21.178385 3.445069 -18.663201
-24.786063 3.191314 -16.537603
-24.038958 0.000000 -18.880556
-14.034952 6.924792 -19.878626
-17.466005 5.307149 -19.381732
-23.532339 6.723054 -14.289282
-20.815546 5.203482 -17.617188
-24.228438 5.031431 -15.430822
-22.758146 4.245742 -17.133925
-21.360914 -2.427627 -21.109408
-20.136060 2.288425 -19.898976
-22.763333 -1.234542 -20.074961
-22.060683 1.196435 -19.455294
-7.964599 17.737864 -12.886991
-9.316352 15.134955 -15.074175
-7.139468 17.188156 -14.169380
-9.621819 17.071228 -12.467240
-11.823321 9.315370 -19.130535
-10.598999 12.354366 -17.149540
-10.272618 9.995145 -19.312582
-5.403389 15.870699 -16.618135
-8.453443 14.475578 -16.295620
-6.279482 16.562569 -15.420803
-6.014464 14.399239 -17.663835
-7.811268 15.844952 -15.251779
-12.927457 15.669980 -11.617513
-11.010467 14.478430 -14.690523
-11.281306 16.379265 -12.043038
-10.325580 15.791671 -13.599344
-7.223063 11.322565 -19.619055
-9.094103 13.012733 -17.347562
-8.733793 10.665338 -19.476160
-6.623120 12.879317 -18.668018
-9.692121 11.542649 -18.339829
-7.566028 13.708983 -17.505537
-1.672178 1.033463 -24.977392
-4.961809 3.066567 -24.296011
-1.665529 2.755976 -24.758410
-3.362916 0.000000 -24.960436
-11.032156 6.818247 -21.163610
-8.102298 5.007495 -22.994955
-9.452357 7.535788 -21.302988
-1.646825 6.118692 -23.914181
-4.912363 4.749951 -23.806430
-1.655662 4.464423 -24.397859
-3.251525 7.111066 -23.247115
-3.314113 3.769052 -24.358528
-6.855847 -2.104407 -24.804686
-6.706546 2.058579 -24.264512
-5.097839 -1.049522 -24.904349
-5.055244 1.040753 -24.696261
-6.344153 8.900979 -21.538624
-6.514747 5.733029 -23.085738
-7.884688 8.232860 -21.427133
-4.826132 8.042628 -22.445983
-8.008294 6.649490 -22.256895
-4.886285 6.419123 -23.178819
-19.995308 12.357780 -9.736460
-18.250160 11.279219 -13.147243
-20.918300 11.126721 -10.826178
-18.159253 13.261832 -10.235060
-13.718008 8.478195 -18.881689
-16.135928 9.972552 -16.200989
-15.365436 7.742120 -18.639031
-13.062066 10.080887 -17.885715
-22.688114 8.352984 -13.093782
-18.974209 9.946839 -14.232911
-21.827248 9.788104 -11.952817
-21.547927 7.644866 -14.866205
-19.993564 10.566077 -12.583470
-14.676255 14.891247 -11.160909
-16.398417 12.157566 -13.528405
-16.381050 14.106901 -10.710953
-13.753435 14.356698 -12.777333
-17.322844 12.736815 -11.931201
-18.872503 6.136397 -18.023672
-17.826962 9.247835 -15.835886
-17.090326 6.959326 -18.355704
-20.263822 6.899749 -16.518701
-16.637109 8.520771 -17.284160
-19.637016 8.487270 -15.378192
-11.720631 13.042203 -15.809069
-15.335334 11.493750 -15.113931
-12.391343 11.607581 -16.852982
-12.760035 13.734815 -14.337262
-14.241252 10.812962 -16.537060
-14.561608 12.959701 -13.949734
-14.638489 -6.684767 -23.685572
-14.524019 -2.174239 -23.500356
-16.409187 -5.734349 -23.298007
-12.608460 -5.501981 -24.106984
-12.960962 5.918713 -20.971277
-13.916375 2.083275 -22.517167
-14.635641 5.114566 -20.779900
-11.501184 5.018797 -21.989907
-19.759816 -3.612842 -22.026755
-16.056474 -1.136898 -22.850309
-18.133588 -4.702783 -22.741256
-19.422912 -1.183617 -21.634158
-16.302364 -3.398914 -23.182191
-8.757949 -3.236059 -24.642767
-12.494175 -1.111556 -23.813070
-10.636921 -4.345230 -24.419732
-8.698773 -1.075228 -24.513439
-12.612677 -3.277278 -24.064507
-18.184117 3.324744 -20.270284
-15.669678 1.109511 -22.299851
-16.385201 4.249354 -20.548611
-18.881388 1.150617 -21.030982
-15.191872 3.167385 -21.603055
-17.508144 0.000000 -22.023635
-8.401089 3.104200 -23.638649
-12.248160 1.089669 -23.344183
-9.969927 4.072759 -22.888477
-8.576504 1.060114 -24.168879
-11.914867 3.095959 -22.733112
-10.514689 0.000000 -24.022916
-13.395569 19.183012 0.951658
-15.528636 17.621384 2.866455
-12.905280 19.342047 2.490373
-14.524164 18.492345 0.000000
-19.671834 13.888950 6.852755
-17.611275 15.870543 4.822358
-11.758269 19.364135 5.532222
-14.954718 17.669711 4.417085
-12.356374 19.401147 4.028965
-13.945051 18.522523 3.455547
-16.759541 16.959221 -1.927383
-16.759541 16.959221 1.927383
-15.651285 17.747253 -0.962501
-15.651285 17.747253 0.962501
-26.838264 2.052478 15.802983
-25.545588 5.782991 13.579136
-21.721980 11.612021 8.989525
-23.728074 8.947222 11.247222
-8.909742 18.297516 11.308487
-12.161868 16.882326 10.433851
-9.670473 18.685251 9.938933
-18.878048 13.715363 8.476560
-15.441086 15.379077 9.504792
-17.926923 14.778397 7.446331
-11.092036 19.219609 7.076000
-12.907154 17.206812 9.020318
-10.402704 18.996560 8.518724
-12.711465 18.424724 6.536803
-11.297380 17.950128 9.486174
-15.982140 16.734824 5.441330
-14.582407 16.415881 8.515829
-16.957160 15.788192 6.429086
-14.343482 17.595438 5.991175
-16.228040 15.620525 8.000123
-13.655575 17.437339 7.536552
-21.269065 13.145005 -6.002758
-21.950074 13.565892 -2.030808
-20.149573 14.191691 -4.959423
-21.269065 13.145005 6.002758
-21.950074 13.565892 2.030808
-20.149573 14.191691 4.959423
-17.920080 16.075790 -2.939262
-20.648066 14.509000 -1.027327
-19.026781 15.171713 -3.934647
-18.049018 16.204213 -0.987472
-20.479776 14.401951 -3.002693
-17.920080 16.075790 2.939262
-20.648066 14.509000 1.027327
-19.026781 15.171713 3.934647
-18.049018 16.204213 0.987472
-20.479776 14.401951 3.002693
-19.352839 15.384939 0.000000
-25.052427 -35.876118 1.779793
-30.368311 -34.460958 5.605734
-23.431859 -35.118967 4.521721
-28.437474 -36.206944 0.000000
-32.454986 -22.914268 11.305813
-32.483544 -29.272810 8.894716
-19.698250 -32.440112 9.267954
-27.950956 -33.025385 8.255705
-21.608007 -33.927439 7.045586
-25.968534 -34.492722 6.434935
-33.890710 -34.294497 -3.897504
-33.890710 -34.294497 3.897504
-31.603518 -35.835757 -1.943509
-31.603518 -35.835757 1.943509
-28.386010 -2.170843 16.714330
-30.162968 -6.828270 16.033572
-31.919878 -17.063559 13.209870
-31.207955 -11.767685 14.792721
-12.286436 -25.232073 15.594279
-18.593434 -25.810214 15.951589
-13.988806 -27.029119 14.377146
-30.071352 -21.847572 13.502542
-24.844525 -24.744753 15.293098
-30.071238 -24.789792 12.490732
-17.700557 -30.670455 11.291808
-20.735653 -27.643158 14.491358
-15.809997 -28.870911 12.946729
-21.572804 -31.268855 11.093699
-17.321171 -27.521179 14.544225
-29.236244 -30.613135 9.953865
-24.192840 -27.234651 14.128126
-29.852661 -27.794722 11.318247
-25.520319 -31.306289 10.659663
-27.292188 -26.270475 13.454543
-23.089235 -29.483549 12.743018
-34.517817 -21.333184 -9.741946
-38.465625 -23.773063 -3.558817
-34.891716 -24.574837 -8.587914
-34.517817 -21.333184 9.741946
-38.465625 -23.773063 3.558817
-34.891716 -24.574837 8.587914
-35.001135 -31.398906 -5.740907
-38.743861 -27.224569 -1.927669
-35.140479 -28.020571 -7.266883
-36.825153 -33.061223 -2.014725
-37.187637 -26.151385 -5.452356
-35.001135 -31.398906 5.740907
-38.743861 -27.224569 1.927669
-35.140479 -28.020571 7.266883
-36.825153 -33.061223 2.014725
-37.187637 -26.151385 5.452356
