6.468822 39.439080 35.380109
2.168316 43.580586 30.623243
8.987713 43.461903 34.655969
2.071063 37.854905 33.985723
6.704092 45.725061 32.155140
0.000000 39.824098 31.658990
7.371484 56.134249 19.949906
2.315313 49.601370 26.024708
9.670182 54.345405 23.672160
2.433987 55.490955 19.691372
7.169438 52.643982 27.591737
0.000000 50.950097 22.300557
0.000000 -20.895425 39.710977
0.000000 -14.800671 41.057778
0.000000 -2.933081 42.319848
0.000000 -8.826941 41.908395
0.000000 20.895425 39.710977
0.000000 14.800671 41.057778
0.000000 2.933081 42.319848
0.000000 8.826941 41.908395
-35.037910 -59.505012 -4.550694
-30.350371 -57.096276 -12.925412
-29.727453 -59.601528 -4.393181
-20.922529 -50.556484 -27.026217
-25.553321 -53.909412 -20.327797
-19.988203 -59.703700 -4.167179
-25.534600 -57.604649 -12.621871
-24.703210 -59.662219 -4.270454
-27.676573 -58.765399 -8.633205
-1.910576 -26.893327 -38.512363
-6.144695 -33.288062 -37.774196
-16.431718 -47.169646 -33.303293
-11.186067 -40.851567 -36.813721
-2.473524 -59.781718 -4.002247
-7.391232 -58.559774 -11.959264
-6.653213 -59.769385 -4.020762
-16.616000 -51.575506 -26.885253
-12.165328 -55.864489 -19.683914
-18.803700 -53.156354 -23.586026
-15.282955 -59.731612 -4.113354
-11.655379 -58.415960 -12.053902
-10.933912 -59.753309 -4.054917
-18.079483 -59.104478 -8.266819
-9.172567 -59.280220 -8.065404
-23.220618 -56.189343 -16.550443
-14.176206 -57.084690 -16.109179
-21.021516 -54.711341 -20.132505
-20.760374 -57.939643 -12.457657
-16.536426 -55.350039 -19.915598
-16.118609 -58.202701 -12.269605
22.155691 -37.627093 -2.877562
20.357012 -38.296388 -8.669507
19.892871 -39.883857 -2.939807
15.467096 -37.374163 -19.979282
18.119867 -38.227179 -14.414446
14.988400 -44.769555 -3.124811
17.993562 -40.592484 -8.894301
17.500842 -42.267345 -3.025378
18.996710 -40.335530 -5.925679
1.858135 -26.155166 -37.455287
5.545286 -30.040846 -34.089362
0.000000 -29.092935 -37.041485
12.441123 -35.714059 -25.215279
9.105866 -33.254665 -29.967712
-4.095467 -35.612101 -36.036397
3.798487 -33.029711 -33.423240
-1.983241 -32.249599 -36.568358
1.916150 -31.158634 -35.331295
2.371007 -57.304002 -3.836369
6.504960 -51.537959 -10.525246
5.980122 -53.722644 -3.613990
0.000000 -58.862183 -7.930493
12.752466 -39.583225 -20.633923
9.917166 -45.540690 -16.046312
14.205896 -40.158780 -17.818867
12.171380 -47.570391 -3.275885
9.684568 -48.538394 -10.015705
9.238262 -50.486659 -3.426074
13.877563 -45.367786 -6.345497
7.920139 -51.186065 -6.964149
-4.888175 -57.617021 -15.924953
4.408646 -51.964810 -14.362720
-2.472311 -58.666016 -12.008741
2.334690 -55.400380 -11.340276
16.806947 -40.669516 -11.979113
11.354224 -45.721144 -12.902410
15.568712 -40.519681 -14.910303
15.424897 -43.048985 -9.256003
12.834082 -42.957706 -15.456690
12.655204 -45.696690 -9.633236
-14.015756 -49.660847 -30.692091
-4.400099 -47.558655 -29.392865
-11.806499 -47.968463 -33.785015
-11.906505 -52.168468 -27.285207
10.898085 -38.614263 -23.864927
3.962402 -42.827796 -26.469033
9.244945 -37.561157 -26.454970
9.538522 -41.793125 -21.858684
-6.468822 -39.439080 -35.380109
-2.168316 -43.580586 -30.623243
-8.987713 -43.461903 -34.655969
-2.071063 -37.854905 -33.985723
-6.704092 -45.725061 -32.155140
-7.371484 -56.134249 -19.949906
-2.315313 -49.601370 -26.024708
-9.670182 -54.345405 -23.672160
-2.433987 -55.490955 -19.691372
-7.169438 -52.643982 -27.591737
5.708287 -34.802253 -31.220492
2.062471 -41.453227 -29.128389
7.502356 -36.279160 -28.928541
1.986143 -36.302739 -32.592205
5.788209 -39.478306 -27.762247
0.000000 -39.824098 -31.658990
6.356345 -48.403907 -17.202571
2.180052 -46.703653 -24.504341
8.021063 -45.077529 -19.635193
2.269245 -51.735085 -18.358574
6.015466 -44.170557 -23.150650
0.000000 -50.950097 -22.300557
-22.155691 37.627093 -2.877562
-20.357012 38.296388 -8.669507
-19.892871 39.883857 -2.939807
-15.467096 37.374163 -19.979282
-18.119867 38.227179 -14.414446
-14.988400 44.769555 -3.124811
-17.993562 40.592484 -8.894301
-17.500842 42.267345 -3.025378
-18.996710 40.335530 -5.925679
-1.858135 26.155166 -37.455287
-5.545286 30.040846 -34.089362
-12.441123 35.714059 -25.215279
-9.105866 33.254665 -29.967712
-2.371007 57.304002 -3.836369
-6.504960 51.537959 -10.525246
-5.980122 53.722644 -3.613990
-12.752466 39.583225 -20.633923
-9.917166 45.540690 -16.046312
-14.205896 40.158780 -17.818867
-12.171380 47.570391 -3.275885
-9.684568 48.538394 -10.015705
-9.238262 50.486659 -3.426074
-13.877563 45.367786 -6.345497
-7.920139 51.186065 -6.964149
-16.806947 40.669516 -11.979113
-11.354224 45.721144 -12.902410
-15.568712 40.519681 -14.910303
-15.424897 43.048985 -9.256003
-12.834082 42.957706 -15.456690
-12.655204 45.696690 -9.633236
35.037910 59.505012 -4.550694
30.350371 57.096276 -12.925412
29.727453 59.601528 -4.393181
20.922529 50.556484 -27.026217
25.553321 53.909412 -20.327797
19.988203 59.703700 -4.167179
25.534600 57.604649 -12.621871
24.703210 59.662219 -4.270454
27.676573 58.765399 -8.633205
1.910576 26.893327 -38.512363
6.144695 33.288062 -37.774196
0.000000 29.092935 -37.041485
16.431718 47.169646 -33.303293
11.186067 40.851567 -36.813721
-3.798487 33.029711 -33.423240
4.095467 35.612101 -36.036397
-1.916150 31.158634 -35.331295
1.983241 32.249599 -36.568358
2.473524 59.781718 -4.002247
7.391232 58.559774 -11.959264
6.653213 59.769385 -4.020762
0.000000 58.862183 -7.930493
16.616000 51.575506 -26.885253
12.165328 55.864489 -19.683914
18.803700 53.156354 -23.586026
15.282955 59.731612 -4.113354
11.655379 58.415960 -12.053902
10.933912 59.753309 -4.054917
18.079483 59.104478 -8.266819
9.172567 59.280220 -8.065404
-4.408646 51.964810 -14.362720
4.888175 57.617021 -15.924953
-2.334690 55.400380 -11.340276
2.472311 58.666016 -12.008741
23.220618 56.189343 -16.550443
14.176206 57.084690 -16.109179
21.021516 54.711341 -20.132505
20.760374 57.939643 -12.457657
16.536426 55.350039 -19.915598
16.118609 58.202701 -12.269605
-10.898085 38.614263 -23.864927
-3.962402 42.827796 -26.469033
-9.244945 37.561157 -26.454970
-9.538522 41.793125 -21.858684
14.015756 49.660847 -30.692091
4.400099 47.558655 -29.392865
11.806499 47.968463 -33.785015
11.906505 52.168468 -27.285207
-5.708287 34.802253 -31.220492
-2.062471 41.453227 -29.128389
-7.502356 36.279160 -28.928541
-1.986143 36.302739 -32.592205
-5.788209 39.478306 -27.762247
-6.356345 48.403907 -17.202571
-2.180052 46.703653 -24.504341
-8.021063 45.077529 -19.635193
-2.269245 51.735085 -18.358574
-6.015466 44.170557 -23.150650
6.468822 39.439080 -35.380109
2.168316 43.580586 -30.623243
8.987713 43.461903 -34.655969
2.071063 37.854905 -33.985723
6.704092 45.725061 -32.155140
0.000000 39.824098 -31.658990
7.371484 56.134249 -19.949906
2.315313 49.601370 -26.024708
9.670182 54.345405 -23.672160
2.433987 55.490955 -19.691372
7.169438 52.643982 -27.591737
0.000000 50.950097 -22.300557
0.000000 -20.895425 -39.710977
0.000000 -14.800671 -41.057778
0.000000 -2.933081 -42.319848
0.000000 -8.826941 -41.908395
0.000000 20.895425 -39.710977
0.000000 14.800671 -41.057778
0.000000 2.933081 -42.319848
0.000000 8.826941 -41.908395
41.675403 59.680913 -2.960736
49.347188 55.997562 -9.109074
39.070679 58.557961 -7.539594
52.568853 37.115308 -18.312552
52.086838 46.938477 -14.262533
33.523858 55.208849 -15.772852
45.446396 53.697080 -13.423227
36.278419 56.961932 -11.829075
42.672598 56.679905 -10.574159
48.187024 3.685142 -28.373620
51.990333 11.769532 -27.636232
52.508468 28.069698 -21.730347
52.283363 19.714657 -24.782566
23.338261 47.928682 -29.621555
32.726056 45.428215 -28.076181
25.723186 49.702245 -26.437283
49.564298 36.009673 -22.255202
41.807646 41.639752 -25.734782
49.166333 40.531193 -20.422287
30.768299 53.313447 -19.628181
35.497334 47.322281 -24.807733
28.207024 51.509338 -23.098595
36.267613 52.568349 -18.650426
30.616097 48.645158 -25.707696
47.351999 49.582058 -16.121613
40.471941 45.560554 -23.634790
48.486598 45.144100 -18.383062
41.911064 51.413145 -17.505966
45.040794 43.354643 -22.204277
38.595008 49.283479 -21.300700
24.617205 -35.252862 -1.748874
27.861621 -31.616449 -5.143020
23.838499 -35.728426 -4.600192
33.744347 -23.824599 -11.754967
30.884066 -27.831427 -8.456743
21.955523 -36.157509 -10.329993
26.977192 -31.874836 -7.968090
22.947987 -36.031385 -7.482505
25.449878 -33.803817 -6.306413
44.028426 -3.367110 -25.924942
41.656837 -9.430243 -22.143309
36.484044 -19.503447 -15.098725
39.124115 -14.752657 -18.545019
16.916705 -34.741037 -21.471141
22.369799 -31.052323 -19.191391
18.309563 -35.377670 -18.817851
32.572959 -23.665050 -14.625805
27.517576 -27.407069 -16.938500
31.264147 -25.773188 -12.986232
20.821785 -36.078730 -13.282949
23.648479 -31.526310 -16.527020
19.619276 -35.827103 -16.066130
23.451222 -33.991541 -12.059665
21.038047 -33.426831 -17.665208
28.493745 -29.835668 -9.701071
26.275132 -29.578754 -15.344143
29.898979 -27.837847 -11.335808
26.010372 -31.907446 -10.864355
28.770627 -27.693567 -14.183386
24.894536 -31.788809 -13.739369
2.932081 -22.575454 -38.339977
8.454189 -19.851418 -37.345245
4.754118 -24.636158 -36.923934
2.894911 -19.589069 -39.274755
18.811651 -14.563167 -35.189939
13.689121 -17.208088 -36.303613
8.371051 -28.341478 -33.486805
10.235581 -21.754858 -35.827042
6.584306 -26.571329 -35.293384
7.554388 -23.168444 -36.377532
2.843304 -13.638132 -40.736374
8.407409 -17.008559 -38.370370
2.868368 -16.592588 -40.073765
5.704010 -18.286078 -38.826652
41.578464 -2.062683 -29.034396
35.156843 -5.718933 -30.981551
40.729375 -5.244086 -27.175200
23.983007 -11.833125 -33.968712
29.368751 -8.923868 -32.590009
38.756196 -11.072423 -23.533495
34.624000 -8.655328 -29.303940
39.773569 -8.259631 -25.331342
37.586402 -7.012090 -28.297673
15.146787 -33.733232 -24.508017
17.208791 -27.956680 -27.844409
13.573412 -32.677775 -26.938539
18.022628 -31.976115 -23.352386
20.634769 -16.257743 -33.387757
19.019264 -22.169165 -30.773815
18.098577 -17.609717 -34.025430
10.213681 -29.999370 -31.412200
15.581532 -26.681635 -30.036368
11.914547 -31.425441 -29.259080
11.171346 -26.745340 -32.809046
14.620807 -29.657923 -28.547646
23.487092 -28.469811 -21.107135
20.063712 -26.383171 -26.769657
20.810225 -30.214250 -22.215366
19.076013 -29.174353 -25.124134
12.969002 -20.329655 -35.225996
16.500971 -23.611206 -31.476621
15.534280 -18.969804 -34.641090
12.091141 -23.512429 -34.080257
17.325678 -20.633690 -32.784359
13.888919 -25.165508 -32.134824
2.828331 -1.748005 -42.246889
8.426111 -5.207623 -41.259323
2.827868 -4.679315 -42.036795
18.969396 -11.723731 -36.390068
13.846536 -8.557630 -39.297553
16.376175 -13.055726 -36.907352
2.843805 -10.566011 -41.295998
8.403772 -8.125928 -40.726595
2.831122 -7.633999 -41.719440
5.652168 -12.361256 -40.410757
5.646630 -6.421761 -41.502386
11.160405 -15.658282 -37.889973
11.195067 -9.851749 -39.670982
13.765383 -14.373235 -37.408289
8.442752 -14.069635 -39.266617
13.820390 -11.475421 -38.410051
8.443983 -11.092881 -40.055293
34.075539 -21.059841 -16.592649
31.338583 -19.368309 -22.576018
35.293762 -18.773220 -18.266137
31.453404 -22.970646 -17.728013
23.672822 -14.630609 -32.583656
27.835105 -17.203041 -27.947338
26.265566 -13.234324 -31.861425
22.829698 -17.619234 -31.260406
37.612569 -13.847656 -21.706996
32.266851 -16.915234 -24.203973
36.482264 -16.359927 -19.978049
35.890559 -12.733407 -24.761381
33.877757 -17.903510 -21.321848
26.238201 -26.622563 -19.953466
28.587015 -21.194029 -23.583784
28.832795 -24.829994 -18.852681
24.661694 -25.743424 -22.911418
30.111885 -22.140101 -20.739721
31.668594 -10.297047 -30.244231
30.401503 -15.770948 -27.005989
28.939093 -11.784245 -31.081762
33.891239 -11.539828 -27.627524
28.420658 -14.555769 -29.525995
33.097107 -14.304825 -25.919094
21.051034 -23.424665 -28.394140
26.788443 -20.077792 -26.401686
21.952625 -20.564104 -29.856907
22.917461 -24.668199 -25.750215
24.898412 -18.904629 -28.912243
25.768017 -22.933304 -24.685253
3.046561 23.456889 -39.836921
9.376001 22.015942 -41.417231
5.098356 26.420018 -39.597530
2.990929 20.238797 -40.577415
22.568184 17.471312 -42.217082
15.939438 20.036877 -42.271462
9.759568 33.042513 -39.041302
11.803828 25.088034 -41.316292
7.338148 29.613500 -39.334150
8.419702 25.822261 -40.544377
2.906783 13.942613 -41.645843
9.169444 18.550188 -41.848200
2.947574 17.050770 -41.180347
6.067405 19.451058 -41.300242
43.719440 2.168896 -30.529448
39.909443 6.492034 -35.169723
46.656776 6.007264 -31.130044
40.092433 0.000000 -31.489195
29.001836 14.309396 -41.077209
34.902757 10.605409 -38.731002
49.878531 14.250010 -30.287187
42.422237 10.604736 -35.903960
49.783487 10.338354 -31.706548
44.720846 8.343086 -33.668982
33.531566 -3.810798 -33.136762
36.207606 4.114925 -35.781293
36.692440 -1.989970 -32.359026
38.282477 2.076204 -33.761279
20.578766 45.830727 -33.297143
23.985210 38.965365 -38.808886
18.303950 44.066470 -36.327025
25.158453 44.636643 -32.598460
26.074702 20.543763 -42.189755
26.118175 30.443772 -42.260095
22.536341 21.927613 -42.368452
12.585008 36.964373 -38.705223
21.265915 36.415507 -40.994097
15.605841 41.161486 -38.323955
13.677131 32.744445 -40.168269
20.056980 40.685057 -39.161967
34.234362 41.497083 -30.765380
28.345129 37.272982 -37.818992
29.753930 43.199564 -31.762963
26.835951 41.042198 -35.344390
15.431876 24.190351 -41.915577
21.933899 31.385171 -41.840265
18.953932 23.145738 -42.266836
14.627342 28.444326 -41.228831
22.335000 26.599447 -42.263202
17.773914 32.204781 -41.123547
2.836152 1.752838 -42.363714
8.639934 5.339773 -42.306329
2.848945 4.714191 -42.350106
5.682859 0.000000 -42.179659
21.871236 13.517167 -41.956833
14.862192 9.185340 -42.180063
18.762364 14.958089 -42.285160
2.892632 10.747423 -42.005025
8.742912 8.453856 -42.370146
2.865833 7.727596 -42.230944
5.885872 12.872367 -42.081653
5.764258 6.555536 -42.366944
11.346652 -3.482862 -41.052573
11.604985 3.562158 -41.987230
8.543963 -1.758997 -41.739616
8.616398 1.773909 -42.093482
12.436439 17.448585 -42.222153
11.953479 10.519157 -42.358499
15.590384 16.278824 -42.367842
9.063739 15.104495 -42.154782
15.231270 12.646910 -42.331213
8.922327 11.721282 -42.324390
49.819960 30.790429 -24.259194
44.286456 27.370535 -31.903544
49.919453 26.552819 -25.835601
46.598845 34.031470 -26.264405
30.207229 18.669094 -41.577720
38.803644 23.981971 -38.960103
33.553990 16.906712 -40.702643
30.730876 23.717111 -42.079384
49.927530 18.381602 -28.814216
44.603061 23.382238 -33.457596
49.950674 22.399635 -27.353484
47.471444 16.842124 -32.751189
47.261441 24.976438 -29.745219
38.781128 39.349231 -29.492035
40.812559 30.257883 -33.669642
42.858418 36.908467 -28.023509
35.683913 37.249109 -33.151374
43.664041 32.104475 -30.073840
39.687571 12.904419 -37.902538
41.843788 21.706697 -37.170297
36.750171 14.964982 -39.471177
44.907479 15.290813 -36.607763
38.706460 19.823689 -40.211833
44.771122 19.350424 -35.061279
29.784755 33.143166 -40.174392
37.857401 28.373917 -37.310837
31.037526 29.074377 -42.212925
32.679069 35.175528 -36.718424
35.051668 26.613696 -40.702287
36.883181 32.825701 -35.333362
22.090348 -10.087711 -35.742934
23.399058 -3.502828 -37.860471
24.768435 -8.655568 -35.166590
19.570770 -8.540140 -37.418704
25.478087 11.634745 -41.224410
24.546549 3.674607 -39.717151
28.389553 9.921003 -40.307907
21.694432 9.466847 -41.479080
30.403396 -5.558890 -33.891415
26.284298 -1.861092 -37.405742
27.547538 -7.144206 -34.547250
31.550972 -1.922691 -35.142965
25.539544 -5.324793 -36.317591
14.238704 -5.261197 -40.064298
20.612259 -1.833789 -39.285602
16.931442 -6.916569 -38.870390
14.471372 -1.788760 -40.780818
20.122005 -5.228502 -38.392017
33.745795 6.170007 -37.617270
27.031160 1.913974 -38.468617
31.176430 8.085326 -39.098229
32.674361 1.991150 -36.394248
27.726018 5.780655 -39.426787
29.362292 0.000000 -36.935064
14.872833 5.495507 -41.848583
21.060445 1.873662 -40.139815
18.157235 7.417311 -41.684506
14.684657 1.815123 -41.381863
21.416153 5.564774 -40.861203
17.716275 0.000000 -40.476386
41.675403 59.680913 2.960736
49.347188 55.997562 9.109074
39.070679 58.557961 7.539594
47.062951 59.921132 0.000000
52.568853 37.115308 18.312552
52.086838 46.938477 14.262533
33.523858 55.208849 15.772852
45.446396 53.697080 13.423227
36.278419 56.961932 11.829075
42.672598 56.679905 10.574159
55.100201 55.756686 -6.336640
55.100201 55.756686 6.336640
52.250826 59.248084 -3.213249
52.250826 59.248084 3.213249
48.187024 3.685142 28.373620
51.990333 11.769532 27.636232
52.508468 28.069698 21.730347
52.283363 19.714657 24.782566
23.338261 47.928682 29.621555
32.726056 45.428215 28.076181
25.723186 49.702245 26.437283
49.564298 36.009673 22.255202
41.807646 41.639752 25.734782
49.166333 40.531193 20.422287
30.768299 53.313447 19.628181
35.497334 47.322281 24.807733
28.207024 51.509338 23.098595
36.267613 52.568349 18.650426
30.616097 48.645158 25.707696
47.351999 49.582058 16.121613
40.471941 45.560554 23.634790
48.486598 45.144100 18.383062
41.911064 51.413145 17.505966
45.040794 43.354643 22.204277
38.595008 49.283479 21.300700
55.214442 34.124402 -15.583145
59.275371 36.634194 -5.484122
55.456025 39.058634 -13.649416
55.214442 34.124402 15.583145
59.275371 36.634194 5.484122
55.456025 39.058634 13.649416
55.718581 49.984164 -9.138995
59.676085 41.933242 -2.969134
55.658557 44.381426 -11.509923
59.152664 53.106619 -3.236275
58.027697 40.806697 -8.507873
55.718581 49.984164 9.138995
59.676085 41.933242 2.969134
55.658557 44.381426 11.509923
59.152664 53.106619 3.236275
58.027697 40.806697 8.507873
59.921132 47.635542 0.000000
24.617205 -35.252862 1.748874
27.861621 -31.616449 5.143020
23.838499 -35.728426 4.600192
26.359672 -33.561460 0.000000
33.744347 -23.824599 11.754967
30.884066 -27.831427 8.456743
21.955523 -36.157509 10.329993
26.977192 -31.874836 7.968090
22.947987 -36.031385 7.482505
25.449878 -33.803817 6.306413
29.686305 -30.039999 -3.413988
29.686305 -30.039999 3.413988
28.057060 -31.814369 -1.725414
28.057060 -31.814369 1.725414
44.028426 -3.367110 25.924942
41.656837 -9.430243 22.143309
36.484044 -19.503447 15.098725
39.124115 -14.752657 18.545019
16.916705 -34.741037 21.471141
22.369799 -31.052323 19.191391
18.309563 -35.377670 18.817851
32.572959 -23.665050 14.625805
27.517576 -27.407069 16.938500
31.264147 -25.773188 12.986232
20.821785 -36.078730 13.282949
23.648479 -31.526310 16.527020
19.619276 -35.827103 16.066130
23.451222 -33.991541 12.059665
21.038047 -33.426831 17.665208
28.493745 -29.835668 9.701071
26.275132 -29.578754 15.344143
29.898979 -27.837847 11.335808
26.010372 -31.907446 10.864355
28.770627 -27.693567 14.183386
24.894536 -31.788809 13.739369
35.955506 -22.221725 -10.147705
36.912804 -22.813368 -3.415151
34.447346 -24.261859 -8.478541
35.955506 -22.221725 10.147705
36.912804 -22.813368 3.415151
34.447346 -24.261859 8.478541
31.352442 -28.125727 -5.142447
35.162217 -24.707816 -1.749467
32.905180 -26.238172 -6.804633
31.547970 -28.323425 -1.726007
34.923091 -24.558893 -5.120335
31.352442 -28.125727 5.142447
35.162217 -24.707816 1.749467
32.905180 -26.238172 6.804633
31.547970 -28.323425 1.726007
34.923091 -24.558893 5.120335
33.382792 -26.538340 0.000000
2.932081 -22.575454 38.339977
8.454189 -19.851418 37.345245
4.754118 -24.636158 36.923934
2.894911 -19.589069 39.274755
18.811651 -14.563167 35.189939
13.689121 -17.208088 36.303613
8.371051 -28.341478 33.486805
10.235581 -21.754858 35.827042
6.584306 -26.571329 35.293384
7.554388 -23.168444 36.377532
2.843304 -13.638132 40.736374
8.407409 -17.008559 38.370370
2.868368 -16.592588 40.073765
5.704010 -18.286078 38.826652
41.578464 -2.062683 29.034396
35.156843 -5.718933 30.981551
40.729375 -5.244086 27.175200
23.983007 -11.833125 33.968712
29.368751 -8.923868 32.590009
38.756196 -11.072423 23.533495
34.624000 -8.655328 29.303940
39.773569 -8.259631 25.331342
37.586402 -7.012090 28.297673
15.146787 -33.733232 24.508017
17.208791 -27.956680 27.844409
13.573412 -32.677775 26.938539
18.022628 -31.976115 23.352386
20.634769 -16.257743 33.387757
19.019264 -22.169165 30.773815
18.098577 -17.609717 34.025430
10.213681 -29.999370 31.412200
15.581532 -26.681635 30.036368
11.914547 -31.425441 29.259080
11.171346 -26.745340 32.809046
14.620807 -29.657923 28.547646
23.487092 -28.469811 21.107135
20.063712 -26.383171 26.769657
20.810225 -30.214250 22.215366
19.076013 -29.174353 25.124134
12.969002 -20.329655 35.225996
16.500971 -23.611206 31.476621
15.534280 -18.969804 34.641090
12.091141 -23.512429 34.080257
17.325678 -20.633690 32.784359
13.888919 -25.165508 32.134824
2.828331 -1.748005 42.246889
8.426111 -5.207623 41.259323
2.827868 -4.679315 42.036795
18.969396 -11.723731 36.390068
13.846536 -8.557630 39.297553
16.376175 -13.055726 36.907352
2.843805 -10.566011 41.295998
8.403772 -8.125928 40.726595
2.831122 -7.633999 41.719440
5.652168 -12.361256 40.410757
5.646630 -6.421761 41.502386
11.160405 -15.658282 37.889973
11.195067 -9.851749 39.670982
13.765383 -14.373235 37.408289
8.442752 -14.069635 39.266617
13.820390 -11.475421 38.410051
8.443983 -11.092881 40.055293
34.075539 -21.059841 16.592649
31.338583 -19.368309 22.576018
35.293762 -18.773220 18.266137
31.453404 -22.970646 17.728013
23.672822 -14.630609 32.583656
27.835105 -17.203041 27.947338
26.265566 -13.234324 31.861425
22.829698 -17.619234 31.260406
37.612569 -13.847656 21.706996
32.266851 -16.915234 24.203973
36.482264 -16.359927 19.978049
35.890559 -12.733407 24.761381
33.877757 -17.903510 21.321848
26.238201 -26.622563 19.953466
28.587015 -21.194029 23.583784
28.832795 -24.829994 18.852681
24.661694 -25.743424 22.911418
30.111885 -22.140101 20.739721
31.668594 -10.297047 30.244231
30.401503 -15.770948 27.005989
28.939093 -11.784245 31.081762
33.891239 -11.539828 27.627524
28.420658 -14.555769 29.525995
33.097107 -14.304825 25.919094
21.051034 -23.424665 28.394140
26.788443 -20.077792 26.401686
21.952625 -20.564104 29.856907
22.917461 -24.668199 25.750215
24.898412 -18.904629 28.912243
25.768017 -22.933304 24.685253
3.046561 23.456889 39.836921
9.376001 22.015942 41.417231
5.098356 26.420018 39.597530
2.990929 20.238797 40.577415
22.568184 17.471312 42.217082
15.939438 20.036877 42.271462
9.759568 33.042513 39.041302
11.803828 25.088034 41.316292
7.338148 29.613500 39.334150
8.419702 25.822261 40.544377
2.906783 13.942613 41.645843
9.169444 18.550188 41.848200
2.947574 17.050770 41.180347
6.067405 19.451058 41.300242
43.719440 2.168896 30.529448
39.909443 6.492034 35.169723
46.656776 6.007264 31.130044
40.092433 0.000000 31.489195
29.001836 14.309396 41.077209
34.902757 10.605409 38.731002
49.878531 14.250010 30.287187
42.422237 10.604736 35.903960
49.783487 10.338354 31.706548
44.720846 8.343086 33.668982
33.531566 -3.810798 33.136762
36.207606 4.114925 35.781293
36.692440 -1.989970 32.359026
38.282477 2.076204 33.761279
20.578766 45.830727 33.297143
23.985210 38.965365 38.808886
18.303950 44.066470 36.327025
25.158453 44.636643 32.598460
26.074702 20.543763 42.189755
26.118175 30.443772 42.260095
22.536341 21.927613 42.368452
12.585008 36.964373 38.705223
21.265915 36.415507 40.994097
15.605841 41.161486 38.323955
13.677131 32.744445 40.168269
20.056980 40.685057 39.161967
34.234362 41.497083 30.765380
28.345129 37.272982 37.818992
29.753930 43.199564 31.762963
26.835951 41.042198 35.344390
15.431876 24.190351 41.915577
21.933899 31.385171 41.840265
18.953932 23.145738 42.266836
14.627342 28.444326 41.228831
22.335000 26.599447 42.263202
17.773914 32.204781 41.123547
2.836152 1.752838 42.363714
8.639934 5.339773 42.306329
2.848945 4.714191 42.350106
5.682859 0.000000 42.179659
21.871236 13.517167 41.956833
14.862192 9.185340 42.180063
18.762364 14.958089 42.285160
2.892632 10.747423 42.005025
8.742912 8.453856 42.370146
2.865833 7.727596 42.230944
5.885872 12.872367 42.081653
5.764258 6.555536 42.366944
11.346652 -3.482862 41.052573
11.604985 3.562158 41.987230
8.543963 -1.758997 41.739616
8.616398 1.773909 42.093482
12.436439 17.448585 42.222153
11.953479 10.519157 42.358499
15.590384 16.278824 42.367842
9.063739 15.104495 42.154782
15.231270 12.646910 42.331213
8.922327 11.721282 42.324390
49.819960 30.790429 24.259194
44.286456 27.370535 31.903544
49.919453 26.552819 25.835601
46.598845 34.031470 26.264405
30.207229 18.669094 41.577720
38.803644 23.981971 38.960103
33.553990 16.906712 40.702643
30.730876 23.717111 42.079384
49.927530 18.381602 28.814216
44.603061 23.382238 33.457596
49.950674 22.399635 27.353484
47.471444 16.842124 32.751189
47.261441 24.976438 29.745219
38.781128 39.349231 29.492035
40.812559 30.257883 33.669642
42.858418 36.908467 28.023509
35.683913 37.249109 33.151374
43.664041 32.104475 30.073840
39.687571 12.904419 37.902538
41.843788 21.706697 37.170297
36.750171 14.964982 39.471177
44.907479 15.290813 36.607763
38.706460 19.823689 40.211833
44.771122 19.350424 35.061279
29.784755 33.143166 40.174392
37.857401 28.373917 37.310837
31.037526 29.074377 42.212925
32.679069 35.175528 36.718424
35.051668 26.613696 40.702287
36.883181 32.825701 35.333362
22.090348 -10.087711 35.742934
23.399058 -3.502828 37.860471
24.768435 -8.655568 35.166590
19.570770 -8.540140 37.418704
25.478087 11.634745 41.224410
24.546549 3.674607 39.717151
28.389553 9.921003 40.307907
21.694432 9.466847 41.479080
30.403396 -5.558890 33.891415
26.284298 -1.861092 37.405742
27.547538 -7.144206 34.547250
31.550972 -1.922691 35.142965
25.539544 -5.324793 36.317591
14.238704 -5.261197 40.064298
20.612259 -1.833789 39.285602
16.931442 -6.916569 38.870390
14.471372 -1.788760 40.780818
20.122005 -5.228502 38.392017
33.745795 6.170007 37.617270
27.031160 1.913974 38.468617
31.176430 8.085326 39.098229
32.674361 1.991150 36.394248
27.726018 5.780655 39.426787
29.362292 0.000000 36.935064
14.872833 5.495507 41.848583
21.060445 1.873662 40.139815
18.157235 7.417311 41.684506
14.684657 1.815123 41.381863
21.416153 5.564774 40.861203
17.716275 0.000000 40.476386
48.071744 0.000000 -25.294757
53.384161 0.000000 -19.244135
51.466071 3.793523 -25.669732
46.642963 -3.438016 -23.264110
59.635357 0.000000 -4.133174
57.427620 0.000000 -12.095672
53.970962 11.825687 -23.923883
56.701546 3.957636 -18.983112
53.759868 7.897844 -25.319133
54.590153 3.907410 -22.603115
43.711087 -9.577625 -19.375955
51.219586 -3.575008 -17.147806
45.179808 -6.637350 -21.278206
49.070299 -3.512314 -20.317613
48.071744 0.000000 25.294757
53.384161 0.000000 19.244135
51.466071 3.793523 25.669732
46.642963 -3.438016 23.264110
59.635357 0.000000 4.133174
57.427620 0.000000 12.095672
53.970962 11.825687 23.923883
56.701546 3.957636 18.983112
53.759868 7.897844 25.319133
54.590153 3.907410 22.603115
43.711087 -9.577625 19.375955
51.219586 -3.575008 17.147806
45.179808 -6.637350 21.278206
49.070299 -3.512314 20.317613
54.919190 28.628247 -17.693230
57.909002 20.404301 -12.610551
54.676077 24.260343 -19.341292
57.096428 29.862633 -13.031222
59.866265 4.007907 -2.477023
59.334510 12.117483 -7.489016
59.528501 4.004557 -6.626399
54.211571 15.967894 -22.403291
57.580180 16.249005 -14.299255
54.437359 20.031687 -20.916245
55.757570 11.988488 -19.978514
56.347141 20.274367 -16.834321
59.784760 31.367700 -2.790657
59.145758 21.020185 -7.766952
58.818384 30.827862 -8.010312
58.358384 25.420162 -10.384249
57.955425 3.991039 -14.828499
58.497652 12.070759 -11.671678
58.883193 3.995870 -10.774695
56.995603 7.971855 -17.434399
59.114754 8.042891 -9.146964
57.290401 12.077285 -15.865957
37.732721 -19.669293 -12.156292
43.202782 -15.222548 -9.408052
39.217213 -17.401084 -13.872824
38.488773 -20.130438 -8.784363
56.076997 -3.754224 -2.320238
49.221373 -10.052146 -6.212568
55.543281 -3.736466 -6.182786
42.187355 -12.426189 -17.434204
45.072937 -12.719488 -11.193251
40.708834 -14.979907 -15.641390
45.517426 -9.786745 -16.309365
42.081229 -15.141323 -12.572225
39.264080 -20.600967 -1.832784
43.800073 -15.566385 -5.751774
39.005052 -20.443309 -5.311990
41.112956 -17.908275 -7.315610
53.100391 -3.656702 -13.586288
48.366130 -9.980159 -9.650198
54.534782 -3.700783 -9.979004
49.148111 -6.874243 -15.033927
51.792846 -7.046705 -8.014028
47.086524 -9.926224 -13.040104
54.919190 28.628247 17.693230
57.909002 20.404301 12.610551
54.676077 24.260343 19.341292
57.096428 29.862633 13.031222
59.866265 4.007907 2.477023
59.334510 12.117483 7.489016
59.528501 4.004557 6.626399
59.921132 8.073165 0.000000
54.211571 15.967894 22.403291
57.580180 16.249005 14.299255
54.437359 20.031687 20.916245
55.757570 11.988488 19.978514
56.347141 20.274367 16.834321
59.784760 31.367700 2.790657
59.145758 21.020185 7.766952
58.818384 30.827862 8.010312
59.921132 26.227126 0.000000
58.358384 25.420162 10.384249
57.955425 3.991039 14.828499
58.497652 12.070759 11.671678
58.883193 3.995870 10.774695
56.995603 7.971855 17.434399
59.114754 8.042891 9.146964
57.290401 12.077285 15.865957
59.626592 16.480385 -5.058665
59.626592 16.480385 5.058665
59.854396 12.251999 -2.522392
59.832122 21.231867 -2.624403
59.854396 12.251999 2.522392
59.832122 21.231867 2.624403
37.732721 -19.669293 12.156292
43.202782 -15.222548 9.408052
39.217213 -17.401084 13.872824
38.488773 -20.130438 8.784363
56.076997 -3.754224 2.320238
49.221373 -10.052146 6.212568
55.543281 -3.736466 6.182786
52.806518 -7.114614 0.000000
42.187355 -12.426189 17.434204
45.072937 -12.719488 11.193251
40.708834 -14.979907 15.641390
45.517426 -9.786745 16.309365
42.081229 -15.141323 12.572225
39.264080 -20.600967 1.832784
43.800073 -15.566385 5.751774
39.005052 -20.443309 5.311990
41.678638 -18.242494 0.000000
41.112956 -17.908275 7.315610
53.100391 -3.656702 13.586288
48.366130 -9.980159 9.650198
54.534782 -3.700783 9.979004
49.148111 -6.874243 15.033927
51.792846 -7.046705 8.014028
47.086524 -9.926224 13.040104
46.739628 -12.918516 -3.965347
46.739628 -12.918516 3.965347
49.678844 -10.169096 -2.093573
44.180613 -15.677814 -1.937884
49.678844 -10.169096 2.093573
44.180613 -15.677814 1.937884
-24.617205 35.252862 -1.748874
-27.861621 31.616449 -5.143020
-23.838499 35.728426 -4.600192
-33.744347 23.824599 -11.754967
-30.884066 27.831427 -8.456743
-21.955523 36.157509 -10.329993
-26.977192 31.874836 -7.968090
-22.947987 36.031385 -7.482505
-25.449878 33.803817 -6.306413
-44.028426 3.367110 -25.924942
-41.656837 9.430243 -22.143309
-36.484044 19.503447 -15.098725
-39.124115 14.752657 -18.545019
-16.916705 34.741037 -21.471141
-22.369799 31.052323 -19.191391
-18.309563 35.377670 -18.817851
-32.572959 23.665050 -14.625805
-27.517576 27.407069 -16.938500
-31.264147 25.773188 -12.986232
-20.821785 36.078730 -13.282949
-23.648479 31.526310 -16.527020
-19.619276 35.827103 -16.066130
-23.451222 33.991541 -12.059665
-21.038047 33.426831 -17.665208
-28.493745 29.835668 -9.701071
-26.275132 29.578754 -15.344143
-29.898979 27.837847 -11.335808
-26.010372 31.907446 -10.864355
-28.770627 27.693567 -14.183386
-24.894536 31.788809 -13.739369
-41.675403 -59.680913 -2.960736
-49.347188 -55.997562 -9.109074
-39.070679 -58.557961 -7.539594
-52.568853 -37.115308 -18.312552
-52.086838 -46.938477 -14.262533
-33.523858 -55.208849 -15.772852
-45.446396 -53.697080 -13.423227
-36.278419 -56.961932 -11.829075
-42.672598 -56.679905 -10.574159
-48.187024 -3.685142 -28.373620
-51.990333 -11.769532 -27.636232
-52.508468 -28.069698 -21.730347
-52.283363 -19.714657 -24.782566
-23.338261 -47.928682 -29.621555
-32.726056 -45.428215 -28.076181
-25.723186 -49.702245 -26.437283
-49.564298 -36.009673 -22.255202
-41.807646 -41.639752 -25.734782
-49.166333 -40.531193 -20.422287
-30.768299 -53.313447 -19.628181
-35.497334 -47.322281 -24.807733
-28.207024 -51.509338 -23.098595
-36.267613 -52.568349 -18.650426
-30.616097 -48.645158 -25.707696
-47.351999 -49.582058 -16.121613
-40.471941 -45.560554 -23.634790
-48.486598 -45.144100 -18.383062
-41.911064 -51.413145 -17.505966
-45.040794 -43.354643 -22.204277
-38.595008 -49.283479 -21.300700
-3.046561 -23.456889 -39.836921
-9.376001 -22.015942 -41.417231
-5.098356 -26.420018 -39.597530
-2.990929 -20.238797 -40.577415
-22.568184 -17.471312 -42.217082
-15.939438 -20.036877 -42.271462
-9.759568 -33.042513 -39.041302
-11.803828 -25.088034 -41.316292
-7.338148 -29.613500 -39.334150
-8.419702 -25.822261 -40.544377
-2.906783 -13.942613 -41.645843
-9.169444 -18.550188 -41.848200
-2.947574 -17.050770 -41.180347
-6.067405 -19.451058 -41.300242
-43.719440 -2.168896 -30.529448
-39.909443 -6.492034 -35.169723
-46.656776 -6.007264 -31.130044
-29.001836 -14.309396 -41.077209
-34.902757 -10.605409 -38.731002
-49.878531 -14.250010 -30.287187
-42.422237 -10.604736 -35.903960
-49.783487 -10.338354 -31.706548
-44.720846 -8.343086 -33.668982
-20.578766 -45.830727 -33.297143
-23.985210 -38.965365 -38.808886
-18.303950 -44.066470 -36.327025
-25.158453 -44.636643 -32.598460
-26.074702 -20.543763 -42.189755
-26.118175 -30.443772 -42.260095
-22.536341 -21.927613 -42.368452
-12.585008 -36.964373 -38.705223
-21.265915 -36.415507 -40.994097
-15.605841 -41.161486 -38.323955
-13.677131 -32.744445 -40.168269
-20.056980 -40.685057 -39.161967
-34.234362 -41.497083 -30.765380
-28.345129 -37.272982 -37.818992
-29.753930 -43.199564 -31.762963
-26.835951 -41.042198 -35.344390
-15.431876 -24.190351 -41.915577
-21.933899 -31.385171 -41.840265
-18.953932 -23.145738 -42.266836
-14.627342 -28.444326 -41.228831
-22.335000 -26.599447 -42.263202
-17.773914 -32.204781 -41.123547
-2.836152 -1.752838 -42.363714
-8.639934 -5.339773 -42.306329
-2.848945 -4.714191 -42.350106
-21.871236 -13.517167 -41.956833
-14.862192 -9.185340 -42.180063
-18.762364 -14.958089 -42.285160
-2.892632 -10.747423 -42.005025
-8.742912 -8.453856 -42.370146
-2.865833 -7.727596 -42.230944
-5.885872 -12.872367 -42.081653
-5.764258 -6.555536 -42.366944
-12.436439 -17.448585 -42.222153
-11.953479 -10.519157 -42.358499
-15.590384 -16.278824 -42.367842
-9.063739 -15.104495 -42.154782
-15.231270 -12.646910 -42.331213
-8.922327 -11.721282 -42.324390
-49.819960 -30.790429 -24.259194
-44.286456 -27.370535 -31.903544
-49.919453 -26.552819 -25.835601
-46.598845 -34.031470 -26.264405
-30.207229 -18.669094 -41.577720
-38.803644 -23.981971 -38.960103
-33.553990 -16.906712 -40.702643
-30.730876 -23.717111 -42.079384
-49.927530 -18.381602 -28.814216
-44.603061 -23.382238 -33.457596
-49.950674 -22.399635 -27.353484
-47.471444 -16.842124 -32.751189
-47.261441 -24.976438 -29.745219
-38.781128 -39.349231 -29.492035
-40.812559 -30.257883 -33.669642
-42.858418 -36.908467 -28.023509
-35.683913 -37.249109 -33.151374
-43.664041 -32.104475 -30.073840
-39.687571 -12.904419 -37.902538
-41.843788 -21.706697 -37.170297
-36.750171 -14.964982 -39.471177
-44.907479 -15.290813 -36.607763
-38.706460 -19.823689 -40.211833
-44.771122 -19.350424 -35.061279
-29.784755 -33.143166 -40.174392
-37.857401 -28.373917 -37.310837
-31.037526 -29.074377 -42.212925
-32.679069 -35.175528 -36.718424
-35.051668 -26.613696 -40.702287
-36.883181 -32.825701 -35.333362
-2.932081 22.575454 -38.339977
-8.454189 19.851418 -37.345245
-4.754118 24.636158 -36.923934
-2.894911 19.589069 -39.274755
-18.811651 14.563167 -35.189939
-13.689121 17.208088 -36.303613
-8.371051 28.341478 -33.486805
-10.235581 21.754858 -35.827042
-6.584306 26.571329 -35.293384
-7.554388 23.168444 -36.377532
-2.843304 13.638132 -40.736374
-8.407409 17.008559 -38.370370
-2.868368 16.592588 -40.073765
-5.704010 18.286078 -38.826652
-41.578464 2.062683 -29.034396
-35.156843 5.718933 -30.981551
-40.729375 5.244086 -27.175200
-40.092433 0.000000 -31.489195
-23.983007 11.833125 -33.968712
-29.368751 8.923868 -32.590009
-38.756196 11.072423 -23.533495
-34.624000 8.655328 -29.303940
-39.773569 8.259631 -25.331342
-37.586402 7.012090 -28.297673
-36.207606 -4.114925 -35.781293
-33.531566 3.810798 -33.136762
-38.282477 -2.076204 -33.761279
-36.692440 1.989970 -32.359026
-15.146787 33.733232 -24.508017
-17.208791 27.956680 -27.844409
-13.573412 32.677775 -26.938539
-18.022628 31.976115 -23.352386
-20.634769 16.257743 -33.387757
-19.019264 22.169165 -30.773815
-18.098577 17.609717 -34.025430
-10.213681 29.999370 -31.412200
-15.581532 26.681635 -30.036368
-11.914547 31.425441 -29.259080
-11.171346 26.745340 -32.809046
-14.620807 29.657923 -28.547646
-23.487092 28.469811 -21.107135
-20.063712 26.383171 -26.769657
-20.810225 30.214250 -22.215366
-19.076013 29.174353 -25.124134
-12.969002 20.329655 -35.225996
-16.500971 23.611206 -31.476621
-15.534280 18.969804 -34.641090
-12.091141 23.512429 -34.080257
-17.325678 20.633690 -32.784359
-13.888919 25.165508 -32.134824
-2.828331 1.748005 -42.246889
-8.426111 5.207623 -41.259323
-2.827868 4.679315 -42.036795
-5.682859 0.000000 -42.179659
-18.969396 11.723731 -36.390068
-13.846536 8.557630 -39.297553
-16.376175 13.055726 -36.907352
-2.843805 10.566011 -41.295998
-8.403772 8.125928 -40.726595
-2.831122 7.633999 -41.719440
-5.652168 12.361256 -40.410757
-5.646630 6.421761 -41.502386
-11.604985 -3.562158 -41.987230
-11.346652 3.482862 -41.052573
-8.616398 -1.773909 -42.093482
-8.543963 1.758997 -41.739616
-11.160405 15.658282 -37.889973
-11.195067 9.851749 -39.670982
-13.765383 14.373235 -37.408289
-8.442752 14.069635 -39.266617
-13.820390 11.475421 -38.410051
-8.443983 11.092881 -40.055293
-34.075539 21.059841 -16.592649
-31.338583 19.368309 -22.576018
-35.293762 18.773220 -18.266137
-31.453404 22.970646 -17.728013
-23.672822 14.630609 -32.583656
-27.835105 17.203041 -27.947338
-26.265566 13.234324 -31.861425
-22.829698 17.619234 -31.260406
-37.612569 13.847656 -21.706996
-32.266851 16.915234 -24.203973
-36.482264 16.359927 -19.978049
-35.890559 12.733407 -24.761381
-33.877757 17.903510 -21.321848
-26.238201 26.622563 -19.953466
-28.587015 21.194029 -23.583784
-28.832795 24.829994 -18.852681
-24.661694 25.743424 -22.911418
-30.111885 22.140101 -20.739721
-31.668594 10.297047 -30.244231
-30.401503 15.770948 -27.005989
-28.939093 11.784245 -31.081762
-33.891239 11.539828 -27.627524
-28.420658 14.555769 -29.525995
-33.097107 14.304825 -25.919094
-21.051034 23.424665 -28.394140
-26.788443 20.077792 -26.401686
-21.952625 20.564104 -29.856907
-22.917461 24.668199 -25.750215
-24.898412 18.904629 -28.912243
-25.768017 22.933304 -24.685253
-25.478087 -11.634745 -41.224410
-24.546549 -3.674607 -39.717151
-28.389553 -9.921003 -40.307907
-21.694432 -9.466847 -41.479080
-22.090348 10.087711 -35.742934
-23.399058 3.502828 -37.860471
-24.768435 8.655568 -35.166590
-19.570770 8.540140 -37.418704
-33.745795 -6.170007 -37.617270
-27.031160 -1.913974 -38.468617
-31.176430 -8.085326 -39.098229
-32.674361 -1.991150 -36.394248
-27.726018 -5.780655 -39.426787
-14.872833 -5.495507 -41.848583
-21.060445 -1.873662 -40.139815
-18.157235 -7.417311 -41.684506
-14.684657 -1.815123 -41.381863
-21.416153 -5.564774 -40.861203
-30.403396 5.558890 -33.891415
-26.284298 1.861092 -37.405742
-27.547538 7.144206 -34.547250
-31.550972 1.922691 -35.142965
-25.539544 5.324793 -36.317591
-29.362292 0.000000 -36.935064
-14.238704 5.261197 -40.064298
-20.612259 1.833789 -39.285602
-16.931442 6.916569 -38.870390
-14.471372 1.788760 -40.780818
-20.122005 5.228502 -38.392017
-17.716275 0.000000 -40.476386
-24.617205 35.252862 1.748874
-27.861621 31.616449 5.143020
-23.838499 35.728426 4.600192
-26.359672 33.561460 0.000000
-33.744347 23.824599 11.754967
-30.884066 27.831427 8.456743
-21.955523 36.157509 10.329993
-26.977192 31.874836 7.968090
-22.947987 36.031385 7.482505
-25.449878 33.803817 6.306413
-29.686305 30.039999 -3.413988
-29.686305 30.039999 3.413988
-28.057060 31.814369 -1.725414
-28.057060 31.814369 1.725414
-44.028426 3.367110 25.924942
-41.656837 9.430243 22.143309
-36.484044 19.503447 15.098725
-39.124115 14.752657 18.545019
-16.916705 34.741037 21.471141
-22.369799 31.052323 19.191391
-18.309563 35.377670 18.817851
-32.572959 23.665050 14.625805
-27.517576 27.407069 16.938500
-31.264147 25.773188 12.986232
-20.821785 36.078730 13.282949
-23.648479 31.526310 16.527020
-19.619276 35.827103 16.066130
-23.451222 33.991541 12.059665
-21.038047 33.426831 17.665208
-28.493745 29.835668 9.701071
-26.275132 29.578754 15.344143
-29.898979 27.837847 11.335808
-26.010372 31.907446 10.864355
-28.770627 27.693567 14.183386
-24.894536 31.788809 13.739369
-35.955506 22.221725 -10.147705
-36.912804 22.813368 -3.415151
-34.447346 24.261859 -8.478541
-35.955506 22.221725 10.147705
-36.912804 22.813368 3.415151
-34.447346 24.261859 8.478541
-31.352442 28.125727 -5.142447
-35.162217 24.707816 -1.749467
-32.905180 26.238172 -6.804633
-31.547970 28.323425 -1.726007
-34.923091 24.558893 -5.120335
-31.352442 28.125727 5.142447
-35.162217 24.707816 1.749467
-32.905180 26.238172 6.804633
-31.547970 28.323425 1.726007
-34.923091 24.558893 5.120335
-33.382792 26.538340 0.000000
-41.675403 -59.680913 2.960736
-49.347188 -55.997562 9.109074
-39.070679 -58.557961 7.539594
-47.062951 -59.921132 0.000000
-52.568853 -37.115308 18.312552
-52.086838 -46.938477 14.262533
-33.523858 -55.208849 15.772852
-45.446396 -53.697080 13.423227
-36.278419 -56.961932 11.829075
-42.672598 -56.679905 10.574159
-55.100201 -55.756686 -6.336640
-55.100201 -55.756686 6.336640
-52.250826 -59.248084 -3.213249
-52.250826 -59.248084 3.213249
-48.187024 -3.685142 28.373620
-51.990333 -11.769532 27.636232
-52.508468 -28.069698 21.730347
-52.283363 -19.714657 24.782566
-23.338261 -47.928682 29.621555
-32.726056 -45.428215 28.076181
-25.723186 -49.702245 26.437283
-49.564298 -36.009673 22.255202
-41.807646 -41.639752 25.734782
-49.166333 -40.531193 20.422287
-30.768299 -53.313447 19.628181
-35.497334 -47.322281 24.807733
-28.207024 -51.509338 23.098595
-36.267613 -52.568349 18.650426
-30.616097 -48.645158 25.707696
-47.351999 -49.582058 16.121613
-40.471941 -45.560554 23.634790
-48.486598 -45.144100 18.383062
-41.911064 -51.413145 17.505966
-45.040794 -43.354643 22.204277
-38.595008 -49.283479 21.300700
-55.214442 -34.124402 -15.583145
-59.275371 -36.634194 -5.484122
-55.456025 -39.058634 -13.649416
-55.214442 -34.124402 15.583145
-59.275371 -36.634194 5.484122
-55.456025 -39.058634 13.649416
-55.718581 -49.984164 -9.138995
-59.676085 -41.933242 -2.969134
-55.658557 -44.381426 -11.509923
-59.152664 -53.106619 -3.236275
-58.027697 -40.806697 -8.507873
-55.718581 -49.984164 9.138995
-59.676085 -41.933242 2.969134
-55.658557 -44.381426 11.509923
-59.152664 -53.106619 3.236275
-58.027697 -40.806697 8.507873
-59.921132 -47.635542 0.000000
-3.046561 -23.456889 39.836921
-9.376001 -22.015942 41.417231
-5.098356 -26.420018 39.597530
-2.990929 -20.238797 40.577415
-22.568184 -17.471312 42.217082
-15.939438 -20.036877 42.271462
-9.759568 -33.042513 39.041302
-11.803828 -25.088034 41.316292
-7.338148 -29.613500 39.334150
-8.419702 -25.822261 40.544377
-2.906783 -13.942613 41.645843
-9.169444 -18.550188 41.848200
-2.947574 -17.050770 41.180347
-6.067405 -19.451058 41.300242
-43.719440 -2.168896 30.529448
-39.909443 -6.492034 35.169723
-46.656776 -6.007264 31.130044
-29.001836 -14.309396 41.077209
-34.902757 -10.605409 38.731002
-49.878531 -14.250010 30.287187
-42.422237 -10.604736 35.903960
-49.783487 -10.338354 31.706548
-44.720846 -8.343086 33.668982
-20.578766 -45.830727 33.297143
-23.985210 -38.965365 38.808886
-18.303950 -44.066470 36.327025
-25.158453 -44.636643 32.598460
-26.074702 -20.543763 42.189755
-26.118175 -30.443772 42.260095
-22.536341 -21.927613 42.368452
-12.585008 -36.964373 38.705223
-21.265915 -36.415507 40.994097
-15.605841 -41.161486 38.323955
-13.677131 -32.744445 40.168269
-20.056980 -40.685057 39.161967
-34.234362 -41.497083 30.765380
-28.345129 -37.272982 37.818992
-29.753930 -43.199564 31.762963
-26.835951 -41.042198 35.344390
-15.431876 -24.190351 41.915577
-21.933899 -31.385171 41.840265
-18.953932 -23.145738 42.266836
-14.627342 -28.444326 41.228831
-22.335000 -26.599447 42.263202
-17.773914 -32.204781 41.123547
-2.836152 -1.752838 42.363714
-8.639934 -5.339773 42.306329
-2.848945 -4.714191 42.350106
-21.871236 -13.517167 41.956833
-14.862192 -9.185340 42.180063
-18.762364 -14.958089 42.285160
-2.892632 -10.747423 42.005025
-8.742912 -8.453856 42.370146
-2.865833 -7.727596 42.230944
-5.885872 -12.872367 42.081653
-5.764258 -6.555536 42.366944
-12.436439 -17.448585 42.222153
-11.953479 -10.519157 42.358499
-15.590384 -16.278824 42.367842
-9.063739 -15.104495 42.154782
-15.231270 -12.646910 42.331213
-8.922327 -11.721282 42.324390
-49.819960 -30.790429 24.259194
-44.286456 -27.370535 31.903544
-49.919453 -26.552819 25.835601
-46.598845 -34.031470 26.264405
-30.207229 -18.669094 41.577720
-38.803644 -23.981971 38.960103
-33.553990 -16.906712 40.702643
-30.730876 -23.717111 42.079384
-49.927530 -18.381602 28.814216
-44.603061 -23.382238 33.457596
-49.950674 -22.399635 27.353484
-47.471444 -16.842124 32.751189
-47.261441 -24.976438 29.745219
-38.781128 -39.349231 29.492035
-40.812559 -30.257883 33.669642
-42.858418 -36.908467 28.023509
-35.683913 -37.249109 33.151374
-43.664041 -32.104475 30.073840
-39.687571 -12.904419 37.902538
-41.843788 -21.706697 37.170297
-36.750171 -14.964982 39.471177
-44.907479 -15.290813 36.607763
-38.706460 -19.823689 40.211833
-44.771122 -19.350424 35.061279
-29.784755 -33.143166 40.174392
-37.857401 -28.373917 37.310837
-31.037526 -29.074377 42.212925
-32.679069 -35.175528 36.718424
-35.051668 -26.613696 40.702287
-36.883181 -32.825701 35.333362
-2.932081 22.575454 38.339977
-8.454189 19.851418 37.345245
-4.754118 24.636158 36.923934
-2.894911 19.589069 39.274755
-18.811651 14.563167 35.189939
-13.689121 17.208088 36.303613
-8.371051 28.341478 33.486805
-10.235581 21.754858 35.827042
-6.584306 26.571329 35.293384
-7.554388 23.168444 36.377532
-2.843304 13.638132 40.736374
-8.407409 17.008559 38.370370
-2.868368 16.592588 40.073765
-5.704010 18.286078 38.826652
-41.578464 2.062683 29.034396
-35.156843 5.718933 30.981551
-40.729375 5.244086 27.175200
-40.092433 0.000000 31.489195
-23.983007 11.833125 33.968712
-29.368751 8.923868 32.590009
-38.756196 11.072423 23.533495
-34.624000 8.655328 29.303940
-39.773569 8.259631 25.331342
-37.586402 7.012090 28.297673
-36.207606 -4.114925 35.781293
-33.531566 3.810798 33.136762
-38.282477 -2.076204 33.761279
-36.692440 1.989970 32.359026
-15.146787 33.733232 24.508017
-17.208791 27.956680 27.844409
-13.573412 32.677775 26.938539
-18.022628 31.976115 23.352386
-20.634769 16.257743 33.387757
-19.019264 22.169165 30.773815
-18.098577 17.609717 34.025430
-10.213681 29.999370 31.412200
-15.581532 26.681635 30.036368
-11.914547 31.425441 29.259080
-11.171346 26.745340 32.809046
-14.620807 29.657923 28.547646
-23.487092 28.469811 21.107135
-20.063712 26.383171 26.769657
-20.810225 30.214250 22.215366
-19.076013 29.174353 25.124134
-12.969002 20.329655 35.225996
-16.500971 23.611206 31.476621
-15.534280 18.969804 34.641090
-12.091141 23.512429 34.080257
-17.325678 20.633690 32.784359
-13.888919 25.165508 32.134824
-2.828331 1.748005 42.246889
-8.426111 5.207623 41.259323
-2.827868 4.679315 42.036795
-5.682859 0.000000 42.179659
-18.969396 11.723731 36.390068
-13.846536 8.557630 39.297553
-16.376175 13.055726 36.907352
-2.843805 10.566011 41.295998
-8.403772 8.125928 40.726595
-2.831122 7.633999 41.719440
-5.652168 12.361256 40.410757
-5.646630 6.421761 41.502386
-11.604985 -3.562158 41.987230
-11.346652 3.482862 41.052573
-8.616398 -1.773909 42.093482
-8.543963 1.758997 41.739616
-11.160405 15.658282 37.889973
-11.195067 9.851749 39.670982
-13.765383 14.373235 37.408289
-8.442752 14.069635 39.266617
-13.820390 11.475421 38.410051
-8.443983 11.092881 40.055293
-34.075539 21.059841 16.592649
-31.338583 19.368309 22.576018
-35.293762 18.773220 18.266137
-31.453404 22.970646 17.728013
-23.672822 14.630609 32.583656
-27.835105 17.203041 27.947338
-26.265566 13.234324 31.861425
-22.829698 17.619234 31.260406
-37.612569 13.847656 21.706996
-32.266851 16.915234 24.203973
-36.482264 16.359927 19.978049
-35.890559 12.733407 24.761381
-33.877757 17.903510 21.321848
-26.238201 26.622563 19.953466
-28.587015 21.194029 23.583784
-28.832795 24.829994 18.852681
-24.661694 25.743424 22.911418
-30.111885 22.140101 20.739721
-31.668594 10.297047 30.244231
-30.401503 15.770948 27.005989
-28.939093 11.784245 31.081762
-33.891239 11.539828 27.627524
-28.420658 14.555769 29.525995
-33.097107 14.304825 25.919094
-21.051034 23.424665 28.394140
-26.788443 20.077792 26.401686
