-5.561992 -42.354869 15.052765
-1.735505 -37.180039 19.507518
-7.382530 -41.489042 18.072093
-1.788757 -40.780756 14.471350
-5.273416 -38.721809 20.294855
4.274170 -26.058737 23.376837
1.559154 -31.337154 22.020018
5.629994 -27.224973 21.708847
1.491462 -27.260947 24.474582
4.372744 -29.824169 20.973189
0.000000 -29.999338 23.848594
4.849342 -36.928002 13.124076
1.652619 -35.404363 18.575862
6.129114 -34.444973 15.003788
1.708044 -38.940628 13.818367
4.579263 -33.624760 17.623392
0.000000 -38.260435 16.746367
-16.948530 28.783752 2.201261
-15.534056 29.223259 6.615539
-15.330736 30.737086 2.265606
-11.632202 28.107655 15.025641
-13.732485 28.971192 10.924262
-11.624894 34.722940 2.423580
-13.827376 31.193798 6.834936
-13.554034 32.735168 2.343091
-14.629450 31.062569 4.563391
-1.376928 19.381686 27.755381
-4.118281 22.310237 25.316921
-9.298194 26.691823 18.845289
-6.778346 24.754552 22.307766
-1.738609 42.019810 2.813128
-4.938860 39.129946 7.991243
-4.499867 40.424720 2.719422
-9.661033 29.987521 15.631879
-7.606963 34.931988 12.308325
-10.801715 30.535469 13.548904
-9.407191 36.766889 2.531913
-7.438619 37.281851 7.692962
-7.072382 38.650232 2.622842
-10.742749 35.119621 4.912108
-6.036281 39.011117 5.307679
-12.874560 31.153911 9.176313
-8.737617 35.184600 9.929020
-11.883038 30.927215 11.380498
-11.903773 33.221963 7.143085
-9.838962 32.932566 11.849526
-9.769509 35.276729 7.436623
29.716220 50.467167 3.859517
25.799818 48.535601 10.987453
24.752063 49.626209 3.657908
17.169284 41.487271 22.178045
21.631045 45.634651 17.207606
16.029218 47.878421 3.341802
21.240365 47.917093 10.499211
20.185530 48.751297 3.489481
23.023658 48.885908 7.181812
1.417038 19.946275 28.563896
4.565596 24.733504 28.066765
0.000000 21.638839 27.550838
12.540884 36.000439 25.417473
8.252734 30.139024 27.160026
-2.837965 24.677500 24.971517
3.058862 26.598306 26.915209
-1.428611 23.230736 26.341719
1.479266 24.054434 27.275725
1.807369 43.681646 2.924384
5.592232 44.306532 9.048421
4.997007 44.890792 3.019860
0.000000 42.562144 5.734391
13.258712 41.154596 21.453047
9.515484 43.696119 15.396376
15.340087 43.365035 19.241516
12.008818 46.935038 3.232132
9.052684 45.371430 9.362215
8.411585 45.968914 3.119495
14.440714 47.208809 6.602997
7.003538 45.262278 6.158185
-3.329608 39.246159 10.847372
3.629993 42.786806 11.825982
-1.731517 41.087539 8.410485
1.804880 42.828402 8.766834
19.283839 46.663109 13.744512
11.213748 45.155475 12.742780
17.364206 45.192696 16.629865
16.896089 47.154901 10.138820
13.305548 44.535776 16.024498
12.824756 46.308924 9.762300
-8.223302 29.136931 18.007614
-3.005164 32.481448 20.074639
-6.955493 28.259377 19.903566
-7.256397 31.793974 16.628918
10.738866 38.050118 23.516266
3.293503 35.597974 22.000758
8.662654 35.195378 24.788711
9.145130 40.069474 20.957178
-4.274170 26.058737 23.376837
-1.559154 31.337154 22.020018
-5.629994 27.224973 21.708847
-1.491462 27.260947 24.474582
-4.372744 29.824169 20.973189
-4.849342 36.928002 13.124076
-1.652619 35.404363 18.575862
-6.129114 34.444973 15.003788
-1.708044 38.940628 13.818367
-4.579263 33.624760 17.623392
4.826325 29.425114 26.396755
1.632662 32.814573 23.058172
6.671645 32.262090 25.725380
1.553903 28.402246 25.499228
5.000093 34.102988 23.982174
0.000000 29.999338 23.848594
5.561992 42.354869 15.052765
1.735505 37.180039 19.507518
7.382530 41.489042 18.072093
1.788757 40.780756 14.471350
5.273416 38.721809 20.294855
0.000000 38.260435 16.746367
0.000000 -15.417583 29.300542
0.000000 -10.876268 30.171292
0.000000 -2.147401 30.983699
0.000000 -6.470190 30.719056
0.000000 15.417583 29.300542
0.000000 10.876268 30.171292
0.000000 2.147401 30.983699
0.000000 6.470190 30.719056
-29.716220 -50.467167 -3.859517
-25.799818 -48.535601 -10.987453
-24.752063 -49.626209 -3.657908
-17.169284 -41.487271 -22.178045
-21.631045 -45.634651 -17.207606
-16.029218 -47.878421 -3.341802
-21.240365 -47.917093 -10.499211
-20.185530 -48.751297 -3.489481
-23.023658 -48.885908 -7.181812
-1.417038 -19.946275 -28.563896
-4.565596 -24.733504 -28.066765
-12.540884 -36.000439 -25.417473
-8.252734 -30.139024 -27.160026
-1.807369 -43.681646 -2.924384
-5.592232 -44.306532 -9.048421
-4.997007 -44.890792 -3.019860
-13.258712 -41.154596 -21.453047
-9.515484 -43.696119 -15.396376
-15.340087 -43.365035 -19.241516
-12.008818 -46.935038 -3.232132
-9.052684 -45.371430 -9.362215
-8.411585 -45.968914 -3.119495
-14.440714 -47.208809 -6.602997
-7.003538 -45.262278 -6.158185
-19.283839 -46.663109 -13.744512
-11.213748 -45.155475 -12.742780
-17.364206 -45.192696 -16.629865
-16.896089 -47.154901 -10.138820
-13.305548 -44.535776 -16.024498
-12.824756 -46.308924 -9.762300
16.948530 -28.783752 -2.201261
15.534056 -29.223259 -6.615539
15.330736 -30.737086 -2.265606
11.632202 -28.107655 -15.025641
13.732485 -28.971192 -10.924262
11.624894 -34.722940 -2.423580
13.827376 -31.193798 -6.834936
13.554034 -32.735168 -2.343091
14.629450 -31.062569 -4.563391
1.376928 -19.381686 -27.755381
4.118281 -22.310237 -25.316921
0.000000 -21.638839 -27.550838
9.298194 -26.691823 -18.845289
6.778346 -24.754552 -22.307766
-3.058862 -26.598306 -26.915209
2.837965 -24.677500 -24.971517
-1.479266 -24.054434 -27.275725
1.428611 -23.230736 -26.341719
1.738609 -42.019810 -2.813128
4.938860 -39.129946 -7.991243
4.499867 -40.424720 -2.719422
0.000000 -42.562144 -5.734391
9.661033 -29.987521 -15.631879
7.606963 -34.931988 -12.308325
10.801715 -30.535469 -13.548904
9.407191 -36.766889 -2.531913
7.438619 -37.281851 -7.692962
7.072382 -38.650232 -2.622842
10.742749 -35.119621 -4.912108
6.036281 -39.011117 -5.307679
-3.629993 -42.786806 -11.825982
3.329608 -39.246159 -10.847372
-1.804880 -42.828402 -8.766834
1.731517 -41.087539 -8.410485
12.874560 -31.153911 -9.176313
8.737617 -35.184600 -9.929020
11.883038 -30.927215 -11.380498
11.903773 -33.221963 -7.143085
9.838962 -32.932566 -11.849526
9.769509 -35.276729 -7.436623
-10.738866 -38.050118 -23.516266
-3.293503 -35.597974 -22.000758
-8.662654 -35.195378 -24.788711
-9.145130 -40.069474 -20.957178
8.223302 -29.136931 -18.007614
3.005164 -32.481448 -20.074639
6.955493 -28.259377 -19.903566
7.256397 -31.793974 -16.628918
-4.826325 -29.425114 -26.396755
-1.632662 -32.814573 -23.058172
-6.671645 -32.262090 -25.725380
-1.553903 -28.402246 -25.499228
-5.000093 -34.102988 -23.982174
-5.561992 -42.354869 -15.052765
-1.735505 -37.180039 -19.507518
-7.382530 -41.489042 -18.072093
-1.788757 -40.780756 -14.471350
-5.273416 -38.721809 -20.294855
4.274170 -26.058737 -23.376837
1.559154 -31.337154 -22.020018
5.629994 -27.224973 -21.708847
1.491462 -27.260947 -24.474582
4.372744 -29.824169 -20.973189
0.000000 -29.999338 -23.848594
4.849342 -36.928002 -13.124076
1.652619 -35.404363 -18.575862
6.129114 -34.444973 -15.003788
1.708044 -38.940628 -13.818367
4.579263 -33.624760 -17.623392
0.000000 -38.260435 -16.746367
-16.948530 28.783752 -2.201261
-15.534056 29.223259 -6.615539
-15.330736 30.737086 -2.265606
-11.632202 28.107655 -15.025641
-13.732485 28.971192 -10.924262
-11.624894 34.722940 -2.423580
-13.827376 31.193798 -6.834936
-13.554034 32.735168 -2.343091
-14.629450 31.062569 -4.563391
-1.376928 19.381686 -27.755381
-4.118281 22.310237 -25.316921
-9.298194 26.691823 -18.845289
-6.778346 24.754552 -22.307766
-1.738609 42.019810 -2.813128
-4.938860 39.129946 -7.991243
-4.499867 40.424720 -2.719422
-9.661033 29.987521 -15.631879
-7.606963 34.931988 -12.308325
-10.801715 30.535469 -13.548904
-9.407191 36.766889 -2.531913
-7.438619 37.281851 -7.692962
-7.072382 38.650232 -2.622842
-10.742749 35.119621 -4.912108
-6.036281 39.011117 -5.307679
-12.874560 31.153911 -9.176313
-8.737617 35.184600 -9.929020
-11.883038 30.927215 -11.380498
-11.903773 33.221963 -7.143085
-9.838962 32.932566 -11.849526
-9.769509 35.276729 -7.436623
29.716220 50.467167 -3.859517
25.799818 48.535601 -10.987453
24.752063 49.626209 -3.657908
17.169284 41.487271 -22.178045
21.631045 45.634651 -17.207606
16.029218 47.878421 -3.341802
21.240365 47.917093 -10.499211
20.185530 48.751297 -3.489481
23.023658 48.885908 -7.181812
1.417038 19.946275 -28.563896
4.565596 24.733504 -28.066765
0.000000 21.638839 -27.550838
12.540884 36.000439 -25.417473
8.252734 30.139024 -27.160026
-2.837965 24.677500 -24.971517
3.058862 26.598306 -26.915209
-1.428611 23.230736 -26.341719
1.479266 24.054434 -27.275725
1.807369 43.681646 -2.924384
5.592232 44.306532 -9.048421
4.997007 44.890792 -3.019860
0.000000 42.562144 -5.734391
13.258712 41.154596 -21.453047
9.515484 43.696119 -15.396376
15.340087 43.365035 -19.241516
12.008818 46.935038 -3.232132
9.052684 45.371430 -9.362215
8.411585 45.968914 -3.119495
14.440714 47.208809 -6.602997
7.003538 45.262278 -6.158185
-3.329608 39.246159 -10.847372
3.629993 42.786806 -11.825982
-1.731517 41.087539 -8.410485
1.804880 42.828402 -8.766834
19.283839 46.663109 -13.744512
11.213748 45.155475 -12.742780
17.364206 45.192696 -16.629865
16.896089 47.154901 -10.138820
13.305548 44.535776 -16.024498
12.824756 46.308924 -9.762300
-8.223302 29.136931 -18.007614
-3.005164 32.481448 -20.074639
-6.955493 28.259377 -19.903566
-7.256397 31.793974 -16.628918
10.738866 38.050118 -23.516266
3.293503 35.597974 -22.000758
8.662654 35.195378 -24.788711
9.145130 40.069474 -20.957178
-4.274170 26.058737 -23.376837
-1.559154 31.337154 -22.020018
-5.629994 27.224973 -21.708847
-1.491462 27.260947 -24.474582
-4.372744 29.824169 -20.973189
-4.849342 36.928002 -13.124076
-1.652619 35.404363 -18.575862
-6.129114 34.444973 -15.003788
-1.708044 38.940628 -13.818367
-4.579263 33.624760 -17.623392
4.826325 29.425114 -26.396755
1.632662 32.814573 -23.058172
6.671645 32.262090 -25.725380
1.553903 28.402246 -25.499228
5.000093 34.102988 -23.982174
0.000000 29.999338 -23.848594
5.561992 42.354869 -15.052765
1.735505 37.180039 -19.507518
7.382530 41.489042 -18.072093
1.788757 40.780756 -14.471350
5.273416 38.721809 -20.294855
0.000000 38.260435 -16.746367
0.000000 -15.417583 -29.300542
0.000000 -10.876268 -30.171292
0.000000 -2.147401 -30.983699
0.000000 -6.470190 -30.719056
0.000000 15.417583 -29.300542
0.000000 10.876268 -30.171292
0.000000 2.147401 -30.983699
0.000000 6.470190 -30.719056
35.842666 51.328190 -2.546362
42.263814 47.959583 -7.801543
33.736936 50.563907 -6.510325
38.463120 27.156205 -13.398768
41.648299 37.531703 -11.404229
29.122495 47.960454 -13.702027
39.578136 46.763451 -11.689955
31.457205 49.391986 -10.257052
37.355948 49.618061 -9.256706
27.655907 2.115008 -16.284429
29.910882 6.771203 -15.899573
35.263699 18.851081 -14.593692
32.419372 12.224478 -15.366939
19.139571 39.306031 -24.292463
27.553735 38.248331 -23.638768
21.703897 41.936189 -22.306414
35.962846 26.127886 -16.147921
33.254138 33.120594 -20.469653
37.478967 30.896492 -15.567690
26.666904 46.206799 -17.011757
30.562903 40.744082 -21.359248
24.231239 44.249088 -19.842844
31.937946 46.292683 -16.423918
26.325748 41.828329 -22.105180
39.869754 41.747434 -13.574183
33.951878 38.220711 -19.827206
38.911781 36.229338 -14.752895
36.685310 45.002607 -15.323204
36.091428 34.740306 -17.792406
33.653919 42.974008 -18.573698
18.650292 -26.707994 -1.324968
20.658949 -23.443094 -3.813467
18.069909 -27.082637 -3.487008
23.550237 -16.627228 -8.203811
22.272206 -20.070779 -6.098625
16.571255 -27.290414 -7.796715
19.965703 -23.590428 -5.897149
17.369590 -27.272561 -5.663592
19.077140 -25.339223 -4.727265
26.413397 -2.019986 -15.552811
25.948256 -5.874147 -13.793180
24.554124 -13.126013 -10.161592
25.338791 -9.554580 -12.010709
12.572330 -25.819199 -15.957143
16.290523 -22.613461 -13.975887
13.655345 -26.384807 -14.034428
22.619765 -16.433811 -10.156654
19.584484 -19.505835 -12.055269
22.083441 -18.204900 -9.172829
15.653742 -27.123858 -9.986073
17.289004 -23.048353 -12.082626
14.690400 -26.826397 -12.029898
17.469749 -25.321652 -8.983725
15.540438 -24.691817 -13.048981
20.777905 -21.756448 -7.074112
18.993629 -21.381734 -11.091893
21.469615 -19.989574 -8.139925
19.178034 -23.526080 -8.010534
20.562937 -19.793141 -10.137147
18.275720 -23.336983 -10.086424
2.163124 -16.654898 -28.285075
6.164687 -14.475403 -27.231680
3.507922 -18.178283 -27.245064
2.130271 -14.414959 -28.901014
13.146248 -10.177257 -24.591975
9.800080 -12.319317 -25.989857
6.175652 -20.908617 -24.704526
7.446229 -15.826328 -26.063628
4.857926 -19.604430 -26.039596
5.539359 -16.988581 -26.674326
2.084598 -9.998938 -29.866296
6.116206 -12.373353 -27.913603
2.106357 -12.184598 -29.427762
4.177254 -13.391559 -28.434167
25.101088 -1.245251 -17.528183
22.175681 -3.607299 -19.542056
24.948796 -3.212267 -16.646181
16.276158 -8.030594 -23.052993
19.261313 -5.852664 -21.373955
24.530638 -7.008262 -14.895467
22.065213 -5.515875 -18.674841
24.756214 -5.141032 -15.766957
23.495479 -4.383298 -17.689041
11.219310 -24.986394 -18.153225
12.445948 -20.219164 -20.137966
10.033764 -24.156128 -19.913559
13.217974 -23.451599 -17.126871
14.333838 -11.293359 -23.192638
13.459505 -15.688619 -21.777936
12.739958 -12.395839 -23.951195
7.535827 -22.134045 -23.176455
11.272613 -19.303091 -21.730105
8.796302 -23.200855 -21.601468
8.172126 -19.564902 -24.000659
10.689389 -21.683145 -20.871413
16.838570 -20.410824 -15.132311
14.333867 -18.848599 -19.124712
15.094901 -21.916203 -16.114133
13.804620 -21.112423 -18.181426
9.342090 -14.644261 -25.374690
11.817102 -16.909067 -22.541851
11.069222 -13.517265 -24.684113
8.774022 -17.061961 -24.730580
12.296405 -14.644172 -23.267762
10.058644 -18.225384 -23.272707
2.067880 -1.278020 -30.888006
6.101857 -3.771155 -29.878376
2.067913 -3.421805 -30.739914
13.208771 -8.163469 -25.339134
9.851887 -6.088801 -27.960427
11.553968 -9.211275 -26.039437
2.082319 -7.736749 -30.238165
6.088423 -5.887129 -29.505889
2.071323 -5.585235 -30.523043
4.125261 -9.021921 -29.493983
4.114428 -4.679228 -30.240789
8.047872 -11.291334 -27.322814
8.047154 -7.081560 -28.515996
9.826711 -10.260639 -26.704701
6.129608 -10.214839 -28.508355
9.845709 -8.175142 -27.363496
6.122114 -8.042635 -29.041158
23.174573 -14.322674 -11.284563
21.107665 -13.045254 -15.205762
23.578935 -12.541948 -12.203178
21.685976 -15.837424 -12.222819
16.163901 -9.989840 -22.248255
18.775432 -11.603855 -18.851136
17.657195 -8.896859 -21.419047
15.744902 -12.151414 -21.559287
24.244404 -8.925957 -13.991950
21.411816 -11.224705 -16.061407
23.936879 -10.734136 -13.108072
23.097494 -8.194628 -15.935272
22.522710 -11.902665 -14.175254
18.569767 -18.841795 -14.121823
19.555497 -14.498183 -16.132940
20.146619 -17.349702 -13.173117
17.397965 -18.161088 -16.163206
20.653316 -15.185581 -14.225081
20.574039 -6.689651 -19.648677
20.201451 -10.479615 -17.945171
19.132393 -7.790873 -20.548968
21.869755 -7.446562 -17.827828
18.968549 -9.714829 -19.706275
21.650341 -9.357444 -16.954872
14.847165 -16.521273 -20.026213
18.327039 -13.736016 -18.062444
15.305581 -14.337491 -20.816523
16.148497 -17.382133 -18.144561
17.081751 -12.969669 -19.835471
17.893702 -15.925235 -17.141814
2.250966 17.331234 -29.433698
6.853029 16.091710 -30.272339
3.769476 19.533674 -29.276484
2.204214 14.915310 -29.904186
15.512000 12.008720 -29.017461
11.378563 14.303571 -30.176002
7.195528 24.361563 -28.784346
8.593629 18.265030 -30.079810
5.422530 21.882918 -29.066000
6.187261 18.975622 -29.794244
2.133728 10.234595 -30.570190
6.687230 13.528560 -30.519686
2.167525 12.538436 -30.282336
4.454362 14.279919 -30.320412
25.797374 1.279793 -18.014402
23.975583 3.900087 -21.128198
26.829101 3.454364 -17.900746
24.277940 0.000000 -19.068257
18.987678 9.368448 -26.893498
21.761432 6.612340 -24.148294
29.022268 8.291496 -17.622870
24.948001 6.236516 -21.114681
27.905807 5.795096 -17.772897
25.927260 4.836969 -19.519855
21.277510 -2.418148 -21.026987
22.376544 2.543051 -22.113080
22.766346 -1.234705 -20.077618
23.367150 1.267289 -20.607466
16.102846 35.862459 -26.054953
17.505093 28.438039 -28.323836
13.655378 32.875105 -27.101212
20.173984 35.793095 -26.139954
17.563522 13.837965 -28.418375
17.807456 20.756662 -28.813069
15.568492 15.147972 -29.268856
9.230265 27.110904 -28.387701
15.029451 25.736257 -28.972126
11.342259 29.915993 -27.853688
9.964483 23.855987 -29.264618
14.478382 29.369019 -28.269558
27.462565 33.288669 -24.679772
20.820598 27.378453 -27.779518
24.104275 34.996863 -25.731835
20.700076 31.658152 -27.263112
11.082543 17.372522 -30.102055
15.371085 21.994454 -29.321293
13.379773 16.338811 -29.836587
10.580085 20.574030 -29.821174
15.531716 18.497204 -29.389750
12.733579 23.072133 -29.461710
2.073959 1.281777 -30.978808
6.263296 3.870930 -30.668876
2.084287 3.448901 -30.983328
4.140112 0.000000 -30.728988
15.041110 9.295917 -28.854214
10.569409 6.532254 -29.996809
13.152731 10.485870 -29.642604
2.120174 7.877397 -30.787870
6.344195 6.134444 -30.745416
2.098268 5.657891 -30.920105
4.304360 9.413609 -30.774468
4.204828 4.782038 -30.905229
8.144877 -2.500075 -29.468442
8.334524 2.558288 -30.154591
6.185562 -1.273459 -30.218180
6.240257 1.284719 -30.485380
8.978227 12.596640 -30.481400
8.602666 7.570415 -30.484515
11.109665 11.600245 -30.191208
6.596001 10.992071 -30.677515
10.839848 9.000601 -30.126438
6.482137 8.515598 -30.748981
34.204214 21.139367 -16.655306
29.233212 18.067119 -21.059329
32.807172 17.450570 -16.979213
33.230047 24.268141 -18.729379
19.676657 12.160843 -27.083270
24.421037 15.093031 -24.519504
21.231099 10.697628 -25.754369
20.055602 15.478275 -27.461873
30.238525 11.132787 -17.451282
28.118442 14.740515 -21.092173
31.480180 14.116817 -17.238858
28.075098 9.960604 -19.369389
30.426263 16.079486 -19.149561
30.135553 30.577007 -22.917301
27.918925 20.698716 -23.032621
31.929034 27.496388 -20.877195
26.915940 28.096548 -25.005677
30.541109 22.455692 -21.035351
23.826049 7.747043 -22.754422
25.763149 13.364776 -22.885688
22.612262 9.207906 -24.286489
25.936763 8.831362 -21.143180
23.500603 12.035941 -24.414590
26.994802 11.667362 -21.140241
20.680076 23.011879 -27.893783
25.193279 18.882226 -24.829552
20.405331 19.114677 -27.752492
23.723452 25.535762 -26.655832
22.619926 17.174642 -26.266446
26.090015 23.219880 -24.993721
15.114351 -6.902073 -24.455533
15.827985 -2.369442 -25.610217
16.672112 -5.826230 -23.671310
13.556481 -5.915671 -25.919570
17.080117 7.799754 -27.636210
16.486155 2.467970 -26.675159
18.611088 6.503824 -26.424298
14.887120 6.496325 -28.463711
19.717006 -3.605014 -21.979033
17.450138 -1.235578 -24.833661
18.212762 -4.723316 -22.840547
20.230401 -1.232825 -22.533577
17.064681 -3.557851 -24.266216
10.108613 -3.735129 -28.443212
14.173008 -1.260915 -27.012815
11.877743 -4.852111 -27.268351
10.264804 -1.268800 -28.926566
13.879288 -3.606395 -26.481152
21.220543 3.879918 -23.655063
17.846514 1.263644 -25.397752
19.994912 5.185500 -25.075534
20.733530 1.263485 -23.093986
18.228504 3.800499 -25.921189
19.083754 0.000000 -24.005608
10.555238 3.900157 -29.699907
14.451604 1.285700 -27.543801
12.697434 5.186958 -29.150157
10.414969 1.287361 -29.349737
14.685901 3.815985 -28.020138
12.379043 0.000000 -28.282407
35.842666 51.328190 2.546362
42.263814 47.959583 7.801543
33.736936 50.563907 6.510325
40.324547 51.341713 0.000000
38.463120 27.156205 13.398768
41.648299 37.531703 11.404229
29.122495 47.960454 13.702027
39.578136 46.763451 11.689955
31.457205 49.391986 10.257052
37.355948 49.618061 9.256706
44.997003 45.533114 -5.174751
44.997003 45.533114 5.174751
43.724907 49.580402 -2.688933
43.724907 49.580402 2.688933
27.655907 2.115008 16.284429
29.910882 6.771203 15.899573
35.263699 18.851081 14.593692
32.419372 12.224478 15.366939
19.139571 39.306031 24.292463
27.553735 38.248331 23.638768
21.703897 41.936189 22.306414
35.962846 26.127886 16.147921
33.254138 33.120594 20.469653
37.478967 30.896492 15.567690
26.666904 46.206799 17.011757
30.562903 40.744082 21.359248
24.231239 44.249088 19.842844
31.937946 46.292683 16.423918
26.325748 41.828329 22.105180
39.869754 41.747434 13.574183
33.951878 38.220711 19.827206
38.911781 36.229338 14.752895
36.685310 45.002607 15.323204
36.091428 34.740306 17.792406
33.653919 42.974008 18.573698
39.573550 24.457799 -11.168824
44.883302 27.739406 -4.152577
41.354757 29.126867 -10.178665
39.573550 24.457799 11.168824
44.883302 27.739406 4.152577
41.354757 29.126867 10.178665
44.472338 39.895357 -7.294380
46.171810 32.444046 -2.297240
43.079271 34.350862 -8.908587
46.423274 41.678311 -2.539843
44.172880 31.063604 -6.476515
44.472338 39.895357 7.294380
46.171810 32.444046 2.297240
43.079271 34.350862 8.908587
46.423274 41.678311 2.539843
44.172880 31.063604 6.476515
46.760063 37.172878 0.000000
18.650292 -26.707994 1.324968
20.658949 -23.443094 3.813467
18.069909 -27.082637 3.487008
19.809658 -25.221902 0.000000
23.550237 -16.627228 8.203811
22.272206 -20.070779 6.098625
16.571255 -27.290414 7.796715
19.965703 -23.590428 5.897149
17.369590 -27.272561 5.663592
19.077140 -25.339223 4.727265
21.841438 -22.101666 -2.511812
21.841438 -22.101666 2.511812
20.879017 -23.675066 -1.283989
20.879017 -23.675066 1.283989
26.413397 -2.019986 15.552811
25.948256 -5.874147 13.793180
24.554124 -13.126013 10.161592
25.338791 -9.554580 12.010709
12.572330 -25.819199 15.957143
16.290523 -22.613461 13.975887
13.655345 -26.384807 14.034428
22.619765 -16.433811 10.156654
19.584484 -19.505835 12.055269
22.083441 -18.204900 9.172829
15.653742 -27.123858 9.986073
17.289004 -23.048353 12.082626
14.690400 -26.826397 12.029898
17.469749 -25.321652 8.983725
15.540438 -24.691817 13.048981
20.777905 -21.756448 7.074112
18.993629 -21.381734 11.091893
21.469615 -19.989574 8.139925
19.178034 -23.526080 8.010534
20.562937 -19.793141 10.137147
18.275720 -23.336983 10.086424
24.871046 -15.371152 -7.019343
25.899950 -16.007049 -2.396248
24.244584 -17.075878 -5.967330
24.871046 -15.371152 7.019343
25.899950 -16.007049 2.396248
24.244584 -17.075878 5.967330
22.755277 -20.413361 -3.732334
25.023576 -17.583587 -1.245027
23.536586 -18.767775 -4.867253
22.989420 -20.639652 -1.257764
24.753410 -17.407290 -3.629282
22.755277 -20.413361 3.732334
25.023576 -17.583587 1.245027
23.536586 -18.767775 4.867253
22.989420 -20.639652 1.257764
24.753410 -17.407290 3.629282
24.058064 -19.125455 0.000000
2.163124 -16.654898 28.285075
6.164687 -14.475403 27.231680
3.507922 -18.178283 27.245064
2.130271 -14.414959 28.901014
13.146248 -10.177257 24.591975
9.800080 -12.319317 25.989857
6.175652 -20.908617 24.704526
7.446229 -15.826328 26.063628
4.857926 -19.604430 26.039596
5.539359 -16.988581 26.674326
2.084598 -9.998938 29.866296
6.116206 -12.373353 27.913603
2.106357 -12.184598 29.427762
4.177254 -13.391559 28.434167
25.101088 -1.245251 17.528183
22.175681 -3.607299 19.542056
24.948796 -3.212267 16.646181
16.276158 -8.030594 23.052993
19.261313 -5.852664 21.373955
24.530638 -7.008262 14.895467
22.065213 -5.515875 18.674841
24.756214 -5.141032 15.766957
23.495479 -4.383298 17.689041
11.219310 -24.986394 18.153225
12.445948 -20.219164 20.137966
10.033764 -24.156128 19.913559
13.217974 -23.451599 17.126871
14.333838 -11.293359 23.192638
13.459505 -15.688619 21.777936
12.739958 -12.395839 23.951195
7.535827 -22.134045 23.176455
11.272613 -19.303091 21.730105
8.796302 -23.200855 21.601468
8.172126 -19.564902 24.000659
10.689389 -21.683145 20.871413
16.838570 -20.410824 15.132311
14.333867 -18.848599 19.124712
15.094901 -21.916203 16.114133
13.804620 -21.112423 18.181426
9.342090 -14.644261 25.374690
11.817102 -16.909067 22.541851
11.069222 -13.517265 24.684113
8.774022 -17.061961 24.730580
12.296405 -14.644172 23.267762
10.058644 -18.225384 23.272707
2.067880 -1.278020 30.888006
6.101857 -3.771155 29.878376
2.067913 -3.421805 30.739914
13.208771 -8.163469 25.339134
9.851887 -6.088801 27.960427
11.553968 -9.211275 26.039437
2.082319 -7.736749 30.238165
6.088423 -5.887129 29.505889
2.071323 -5.585235 30.523043
4.125261 -9.021921 29.493983
4.114428 -4.679228 30.240789
8.047872 -11.291334 27.322814
8.047154 -7.081560 28.515996
9.826711 -10.260639 26.704701
6.129608 -10.214839 28.508355
9.845709 -8.175142 27.363496
6.122114 -8.042635 29.041158
23.174573 -14.322674 11.284563
21.107665 -13.045254 15.205762
23.578935 -12.541948 12.203178
21.685976 -15.837424 12.222819
16.163901 -9.989840 22.248255
18.775432 -11.603855 18.851136
17.657195 -8.896859 21.419047
15.744902 -12.151414 21.559287
24.244404 -8.925957 13.991950
21.411816 -11.224705 16.061407
23.936879 -10.734136 13.108072
23.097494 -8.194628 15.935272
22.522710 -11.902665 14.175254
18.569767 -18.841795 14.121823
19.555497 -14.498183 16.132940
20.146619 -17.349702 13.173117
17.397965 -18.161088 16.163206
20.653316 -15.185581 14.225081
20.574039 -6.689651 19.648677
20.201451 -10.479615 17.945171
19.132393 -7.790873 20.548968
21.869755 -7.446562 17.827828
18.968549 -9.714829 19.706275
21.650341 -9.357444 16.954872
14.847165 -16.521273 20.026213
18.327039 -13.736016 18.062444
15.305581 -14.337491 20.816523
16.148497 -17.382133 18.144561
17.081751 -12.969669 19.835471
17.893702 -15.925235 17.141814
2.250966 17.331234 29.433698
6.853029 16.091710 30.272339
3.769476 19.533674 29.276484
2.204214 14.915310 29.904186
15.512000 12.008720 29.017461
11.378563 14.303571 30.176002
7.195528 24.361563 28.784346
8.593629 18.265030 30.079810
5.422530 21.882918 29.066000
6.187261 18.975622 29.794244
2.133728 10.234595 30.570190
6.687230 13.528560 30.519686
2.167525 12.538436 30.282336
4.454362 14.279919 30.320412
25.797374 1.279793 18.014402
23.975583 3.900087 21.128198
26.829101 3.454364 17.900746
24.277940 0.000000 19.068257
18.987678 9.368448 26.893498
21.761432 6.612340 24.148294
29.022268 8.291496 17.622870
24.948001 6.236516 21.114681
27.905807 5.795096 17.772897
25.927260 4.836969 19.519855
21.277510 -2.418148 21.026987
22.376544 2.543051 22.113080
22.766346 -1.234705 20.077618
23.367150 1.267289 20.607466
16.102846 35.862459 26.054953
17.505093 28.438039 28.323836
13.655378 32.875105 27.101212
20.173984 35.793095 26.139954
17.563522 13.837965 28.418375
17.807456 20.756662 28.813069
15.568492 15.147972 29.268856
9.230265 27.110904 28.387701
15.029451 25.736257 28.972126
11.342259 29.915993 27.853688
9.964483 23.855987 29.264618
14.478382 29.369019 28.269558
27.462565 33.288669 24.679772
20.820598 27.378453 27.779518
24.104275 34.996863 25.731835
20.700076 31.658152 27.263112
11.082543 17.372522 30.102055
15.371085 21.994454 29.321293
13.379773 16.338811 29.836587
10.580085 20.574030 29.821174
15.531716 18.497204 29.389750
12.733579 23.072133 29.461710
2.073959 1.281777 30.978808
6.263296 3.870930 30.668876
2.084287 3.448901 30.983328
4.140112 0.000000 30.728988
15.041110 9.295917 28.854214
10.569409 6.532254 29.996809
13.152731 10.485870 29.642604
2.120174 7.877397 30.787870
6.344195 6.134444 30.745416
2.098268 5.657891 30.920105
4.304360 9.413609 30.774468
4.204828 4.782038 30.905229
8.144877 -2.500075 29.468442
8.334524 2.558288 30.154591
6.185562 -1.273459 30.218180
6.240257 1.284719 30.485380
8.978227 12.596640 30.481400
8.602666 7.570415 30.484515
11.109665 11.600245 30.191208
6.596001 10.992071 30.677515
10.839848 9.000601 30.126438
6.482137 8.515598 30.748981
34.204214 21.139367 16.655306
29.233212 18.067119 21.059329
32.807172 17.450570 16.979213
33.230047 24.268141 18.729379
19.676657 12.160843 27.083270
24.421037 15.093031 24.519504
21.231099 10.697628 25.754369
20.055602 15.478275 27.461873
30.238525 11.132787 17.451282
28.118442 14.740515 21.092173
31.480180 14.116817 17.238858
28.075098 9.960604 19.369389
30.426263 16.079486 19.149561
30.135553 30.577007 22.917301
27.918925 20.698716 23.032621
31.929034 27.496388 20.877195
26.915940 28.096548 25.005677
30.541109 22.455692 21.035351
23.826049 7.747043 22.754422
25.763149 13.364776 22.885688
22.612262 9.207906 24.286489
25.936763 8.831362 21.143180
23.500603 12.035941 24.414590
26.994802 11.667362 21.140241
20.680076 23.011879 27.893783
25.193279 18.882226 24.829552
20.405331 19.114677 27.752492
23.723452 25.535762 26.655832
22.619926 17.174642 26.266446
26.090015 23.219880 24.993721
15.114351 -6.902073 24.455533
15.827985 -2.369442 25.610217
16.672112 -5.826230 23.671310
13.556481 -5.915671 25.919570
17.080117 7.799754 27.636210
16.486155 2.467970 26.675159
18.611088 6.503824 26.424298
14.887120 6.496325 28.463711
19.717006 -3.605014 21.979033
17.450138 -1.235578 24.833661
18.212762 -4.723316 22.840547
20.230401 -1.232825 22.533577
17.064681 -3.557851 24.266216
10.108613 -3.735129 28.443212
14.173008 -1.260915 27.012815
11.877743 -4.852111 27.268351
10.264804 -1.268800 28.926566
13.879288 -3.606395 26.481152
21.220543 3.879918 23.655063
17.846514 1.263644 25.397752
19.994912 5.185500 25.075534
20.733530 1.263485 23.093986
18.228504 3.800499 25.921189
19.083754 0.000000 24.005608
10.555238 3.900157 29.699907
14.451604 1.285700 27.543801
12.697434 5.186958 29.150157
10.414969 1.287361 29.349737
14.685901 3.815985 28.020138
12.379043 0.000000 28.282407
27.999749 0.000000 -14.733122
30.768471 0.000000 -11.091541
29.118829 2.146326 -14.523598
27.758883 -2.046085 -13.845298
35.318235 0.000000 -2.447817
33.403789 0.000000 -7.035661
31.547007 6.912328 -13.983944
32.057079 2.237509 -10.732390
30.305461 4.452165 -14.272877
30.594804 2.189890 -12.667813
27.183815 -5.956301 -12.049858
30.390404 -2.121180 -10.174404
27.487990 -4.038251 -12.945941
29.093764 -2.082450 -12.046306
27.999749 0.000000 14.733122
30.768471 0.000000 11.091541
29.118829 2.146326 14.523598
27.758883 -2.046085 13.845298
35.318235 0.000000 2.447817
33.403789 0.000000 7.035661
31.547007 6.912328 13.983944
32.057079 2.237509 10.732390
30.305461 4.452165 14.272877
30.594804 2.189890 12.667813
27.183815 -5.956301 12.049858
30.390404 -2.121180 10.174404
27.487990 -4.038251 12.945941
29.093764 -2.082450 12.046306
37.515454 19.556037 -12.086295
38.407782 13.533024 -8.363869
35.888758 15.924214 -12.695405
40.195519 21.023102 -9.173897
36.803804 2.463929 -1.522792
38.305681 7.822908 -4.834823
36.093161 2.428032 -4.017701
32.937350 9.701621 -13.611578
36.671697 10.348675 -9.106917
34.354136 12.641526 -13.199750
33.276016 7.154707 -11.923141
36.367088 13.085307 -10.865063
44.812308 23.511996 -2.091767
40.721086 14.472124 -5.347446
42.870685 22.469362 -5.838440
40.615499 17.691590 -7.227093
33.571182 2.311844 -8.589537
36.761299 7.585548 -7.334757
34.934653 2.370699 -6.392490
33.496697 4.685113 -10.246313
36.578359 4.976689 -5.659855
35.041487 7.387032 -9.704361
25.528608 -13.307540 -8.224512
28.415305 -10.012164 -6.187858
26.014997 -11.543124 -9.202629
26.285303 -13.747767 -5.999143
34.252810 -2.293146 -1.417242
31.341380 -6.400637 -3.955811
33.716450 -2.268148 -3.753138
26.835771 -7.904415 -11.090060
28.982593 -8.178827 -7.197433
26.450433 -9.733146 -10.162942
28.381904 -6.102420 -10.169530
27.493568 -9.892510 -8.214002
27.159174 -14.249799 -1.267747
29.084080 -10.336375 -3.819287
26.853556 -14.074473 -3.657111
27.698210 -12.064985 -4.928600
31.680339 -2.181633 -8.105745
30.555435 -6.304993 -6.096539
32.805822 -2.226235 -6.002948
29.997797 -4.195729 -9.176033
32.113847 -4.369268 -4.969050
29.527435 -6.224625 -8.177304
37.515454 19.556037 12.086295
38.407782 13.533024 8.363869
35.888758 15.924214 12.695405
40.195519 21.023102 9.173897
36.803804 2.463929 1.522792
38.305681 7.822908 4.834823
36.093161 2.428032 4.017701
38.298691 5.159977 0.000000
32.937350 9.701621 13.611578
36.671697 10.348675 9.106917
34.354136 12.641526 13.199750
33.276016 7.154707 11.923141
36.367088 13.085307 10.865063
44.812308 23.511996 2.091767
40.721086 14.472124 5.347446
42.870685 22.469362 5.838440
43.990171 19.254238 0.000000
40.615499 17.691590 7.227093
33.571182 2.311844 8.589537
36.761299 7.585548 7.334757
34.934653 2.370699 6.392490
33.496697 4.685113 10.246313
36.578359 4.976689 5.659855
35.041487 7.387032 9.704361
40.371425 11.158387 -3.425074
40.371425 11.158387 3.425074
39.546348 8.095008 -1.666567
42.378342 15.038265 -1.858832
39.546348 8.095008 1.666567
42.378342 15.038265 1.858832
25.528608 -13.307540 8.224512
28.415305 -10.012164 6.187858
26.014997 -11.543124 9.202629
26.285303 -13.747767 5.999143
34.252810 -2.293146 1.417242
31.341380 -6.400637 3.955811
33.716450 -2.268148 3.753138
33.117320 -4.461892 0.000000
26.835771 -7.904415 11.090060
28.982593 -8.178827 7.197433
26.450433 -9.733146 10.162942
28.381904 -6.102420 10.169530
27.493568 -9.892510 8.214002
27.159174 -14.249799 1.267747
29.084080 -10.336375 3.819287
26.853556 -14.074473 3.657111
28.364918 -12.415157 0.000000
27.698210 -12.064985 4.928600
31.680339 -2.181633 8.105745
30.555435 -6.304993 6.096539
32.805822 -2.226235 6.002948
29.997797 -4.195729 9.176033
32.113847 -4.369268 4.969050
29.527435 -6.224625 8.177304
30.517871 -8.434932 -2.589108
30.517871 -8.434932 2.589108
31.846645 -6.518904 -1.342086
29.497177 -10.467289 -1.293828
31.846645 -6.518904 1.342086
29.497177 -10.467289 1.293828
-18.650292 26.707994 -1.324968
-20.658949 23.443094 -3.813467
-18.069909 27.082637 -3.487008
-23.550237 16.627228 -8.203811
-22.272206 20.070779 -6.098625
-16.571255 27.290414 -7.796715
-19.965703 23.590428 -5.897149
-17.369590 27.272561 -5.663592
-19.077140 25.339223 -4.727265
-26.413397 2.019986 -15.552811
-25.948256 5.874147 -13.793180
-24.554124 13.126013 -10.161592
-25.338791 9.554580 -12.010709
-12.572330 25.819199 -15.957143
-16.290523 22.613461 -13.975887
-13.655345 26.384807 -14.034428
-22.619765 16.433811 -10.156654
-19.584484 19.505835 -12.055269
-22.083441 18.204900 -9.172829
-15.653742 27.123858 -9.986073
-17.289004 23.048353 -12.082626
-14.690400 26.826397 -12.029898
-17.469749 25.321652 -8.983725
-15.540438 24.691817 -13.048981
-20.777905 21.756448 -7.074112
-18.993629 21.381734 -11.091893
-21.469615 19.989574 -8.139925
-19.178034 23.526080 -8.010534
-20.562937 19.793141 -10.137147
-18.275720 23.336983 -10.086424
-35.842666 -51.328190 -2.546362
-42.263814 -47.959583 -7.801543
-33.736936 -50.563907 -6.510325
-38.463120 -27.156205 -13.398768
-41.648299 -37.531703 -11.404229
-29.122495 -47.960454 -13.702027
-39.578136 -46.763451 -11.689955
-31.457205 -49.391986 -10.257052
-37.355948 -49.618061 -9.256706
-27.655907 -2.115008 -16.284429
-29.910882 -6.771203 -15.899573
-35.263699 -18.851081 -14.593692
-32.419372 -12.224478 -15.366939
-19.139571 -39.306031 -24.292463
-27.553735 -38.248331 -23.638768
-21.703897 -41.936189 -22.306414
-35.962846 -26.127886 -16.147921
-33.254138 -33.120594 -20.469653
-37.478967 -30.896492 -15.567690
-26.666904 -46.206799 -17.011757
-30.562903 -40.744082 -21.359248
-24.231239 -44.249088 -19.842844
-31.937946 -46.292683 -16.423918
-26.325748 -41.828329 -22.105180
-39.869754 -41.747434 -13.574183
-33.951878 -38.220711 -19.827206
-38.911781 -36.229338 -14.752895
-36.685310 -45.002607 -15.323204
-36.091428 -34.740306 -17.792406
-33.653919 -42.974008 -18.573698
-2.250966 -17.331234 -29.433698
-6.853029 -16.091710 -30.272339
-3.769476 -19.533674 -29.276484
-2.204214 -14.915310 -29.904186
-15.512000 -12.008720 -29.017461
-11.378563 -14.303571 -30.176002
-7.195528 -24.361563 -28.784346
-8.593629 -18.265030 -30.079810
-5.422530 -21.882918 -29.066000
-6.187261 -18.975622 -29.794244
-2.133728 -10.234595 -30.570190
-6.687230 -13.528560 -30.519686
-2.167525 -12.538436 -30.282336
-4.454362 -14.279919 -30.320412
-25.797374 -1.279793 -18.014402
-23.975583 -3.900087 -21.128198
-26.829101 -3.454364 -17.900746
-18.987678 -9.368448 -26.893498
-21.761432 -6.612340 -24.148294
-29.022268 -8.291496 -17.622870
-24.948001 -6.236516 -21.114681
-27.905807 -5.795096 -17.772897
-25.927260 -4.836969 -19.519855
-16.102846 -35.862459 -26.054953
-17.505093 -28.438039 -28.323836
-13.655378 -32.875105 -27.101212
-20.173984 -35.793095 -26.139954
-17.563522 -13.837965 -28.418375
-17.807456 -20.756662 -28.813069
-15.568492 -15.147972 -29.268856
-9.230265 -27.110904 -28.387701
-15.029451 -25.736257 -28.972126
-11.342259 -29.915993 -27.853688
-9.964483 -23.855987 -29.264618
-14.478382 -29.369019 -28.269558
-27.462565 -33.288669 -24.679772
-20.820598 -27.378453 -27.779518
-24.104275 -34.996863 -25.731835
-20.700076 -31.658152 -27.263112
-11.082543 -17.372522 -30.102055
-15.371085 -21.994454 -29.321293
-13.379773 -16.338811 -29.836587
-10.580085 -20.574030 -29.821174
-15.531716 -18.497204 -29.389750
-12.733579 -23.072133 -29.461710
-2.073959 -1.281777 -30.978808
-6.263296 -3.870930 -30.668876
-2.084287 -3.448901 -30.983328
-15.041110 -9.295917 -28.854214
-10.569409 -6.532254 -29.996809
-13.152731 -10.485870 -29.642604
-2.120174 -7.877397 -30.787870
-6.344195 -6.134444 -30.745416
-2.098268 -5.657891 -30.920105
-4.304360 -9.413609 -30.774468
-4.204828 -4.782038 -30.905229
-8.978227 -12.596640 -30.481400
-8.602666 -7.570415 -30.484515
-11.109665 -11.600245 -30.191208
-6.596001 -10.992071 -30.677515
-10.839848 -9.000601 -30.126438
-6.482137 -8.515598 -30.748981
-34.204214 -21.139367 -16.655306
-29.233212 -18.067119 -21.059329
-32.807172 -17.450570 -16.979213
-33.230047 -24.268141 -18.729379
-19.676657 -12.160843 -27.083270
-24.421037 -15.093031 -24.519504
-21.231099 -10.697628 -25.754369
-20.055602 -15.478275 -27.461873
-30.238525 -11.132787 -17.451282
-28.118442 -14.740515 -21.092173
-31.480180 -14.116817 -17.238858
-28.075098 -9.960604 -19.369389
-30.426263 -16.079486 -19.149561
-30.135553 -30.577007 -22.917301
-27.918925 -20.698716 -23.032621
-31.929034 -27.496388 -20.877195
-26.915940 -28.096548 -25.005677
-30.541109 -22.455692 -21.035351
-23.826049 -7.747043 -22.754422
-25.763149 -13.364776 -22.885688
-22.612262 -9.207906 -24.286489
-25.936763 -8.831362 -21.143180
-23.500603 -12.035941 -24.414590
-26.994802 -11.667362 -21.140241
-20.680076 -23.011879 -27.893783
-25.193279 -18.882226 -24.829552
-20.405331 -19.114677 -27.752492
-23.723452 -25.535762 -26.655832
-22.619926 -17.174642 -26.266446
-26.090015 -23.219880 -24.993721
-2.163124 16.654898 -28.285075
-6.164687 14.475403 -27.231680
-3.507922 18.178283 -27.245064
-2.130271 14.414959 -28.901014
-13.146248 10.177257 -24.591975
-9.800080 12.319317 -25.989857
-6.175652 20.908617 -24.704526
-7.446229 15.826328 -26.063628
-4.857926 19.604430 -26.039596
-5.539359 16.988581 -26.674326
-2.084598 9.998938 -29.866296
-6.116206 12.373353 -27.913603
-2.106357 12.184598 -29.427762
-4.177254 13.391559 -28.434167
-25.101088 1.245251 -17.528183
-22.175681 3.607299 -19.542056
-24.948796 3.212267 -16.646181
-24.277940 0.000000 -19.068257
-16.276158 8.030594 -23.052993
-19.261313 5.852664 -21.373955
-24.530638 7.008262 -14.895467
-22.065213 5.515875 -18.674841
-24.756214 5.141032 -15.766957
-23.495479 4.383298 -17.689041
-22.376544 -2.543051 -22.113080
-21.277510 2.418148 -21.026987
-23.367150 -1.267289 -20.607466
-22.766346 1.234705 -20.077618
-11.219310 24.986394 -18.153225
-12.445948 20.219164 -20.137966
-10.033764 24.156128 -19.913559
-13.217974 23.451599 -17.126871
-14.333838 11.293359 -23.192638
-13.459505 15.688619 -21.777936
-12.739958 12.395839 -23.951195
-7.535827 22.134045 -23.176455
-11.272613 19.303091 -21.730105
-8.796302 23.200855 -21.601468
-8.172126 19.564902 -24.000659
-10.689389 21.683145 -20.871413
-16.838570 20.410824 -15.132311
-14.333867 18.848599 -19.124712
-15.094901 21.916203 -16.114133
-13.804620 21.112423 -18.181426
-9.342090 14.644261 -25.374690
-11.817102 16.909067 -22.541851
-11.069222 13.517265 -24.684113
-8.774022 17.061961 -24.730580
-12.296405 14.644172 -23.267762
-10.058644 18.225384 -23.272707
-2.067880 1.278020 -30.888006
-6.101857 3.771155 -29.878376
-2.067913 3.421805 -30.739914
-4.140112 0.000000 -30.728988
-13.208771 8.163469 -25.339134
-9.851887 6.088801 -27.960427
-11.553968 9.211275 -26.039437
-2.082319 7.736749 -30.238165
-6.088423 5.887129 -29.505889
-2.071323 5.585235 -30.523043
-4.125261 9.021921 -29.493983
-4.114428 4.679228 -30.240789
-8.334524 -2.558288 -30.154591
-8.144877 2.500075 -29.468442
-6.240257 -1.284719 -30.485380
-6.185562 1.273459 -30.218180
-8.047872 11.291334 -27.322814
-8.047154 7.081560 -28.515996
-9.826711 10.260639 -26.704701
-6.129608 10.214839 -28.508355
-9.845709 8.175142 -27.363496
-6.122114 8.042635 -29.041158
-23.174573 14.322674 -11.284563
-21.107665 13.045254 -15.205762
-23.578935 12.541948 -12.203178
-21.685976 15.837424 -12.222819
-16.163901 9.989840 -22.248255
-18.775432 11.603855 -18.851136
-17.657195 8.896859 -21.419047
-15.744902 12.151414 -21.559287
-24.244404 8.925957 -13.991950
-21.411816 11.224705 -16.061407
-23.936879 10.734136 -13.108072
-23.097494 8.194628 -15.935272
-22.522710 11.902665 -14.175254
-18.569767 18.841795 -14.121823
-19.555497 14.498183 -16.132940
-20.146619 17.349702 -13.173117
-17.397965 18.161088 -16.163206
-20.653316 15.185581 -14.225081
-20.574039 6.689651 -19.648677
-20.201451 10.479615 -17.945171
-19.132393 7.790873 -20.548968
-21.869755 7.446562 -17.827828
-18.968549 9.714829 -19.706275
-21.650341 9.357444 -16.954872
-14.847165 16.521273 -20.026213
-18.327039 13.736016 -18.062444
-15.305581 14.337491 -20.816523
-16.148497 17.382133 -18.144561
-17.081751 12.969669 -19.835471
-17.893702 15.925235 -17.141814
-17.080117 -7.799754 -27.636210
-16.486155 -2.467970 -26.675159
-18.611088 -6.503824 -26.424298
-14.887120 -6.496325 -28.463711
-15.114351 6.902073 -24.455533
-15.827985 2.369442 -25.610217
-16.672112 5.826230 -23.671310
-13.556481 5.915671 -25.919570
-21.220543 -3.879918 -23.655063
-17.846514 -1.263644 -25.397752
-19.994912 -5.185500 -25.075534
-20.733530 -1.263485 -23.093986
-18.228504 -3.800499 -25.921189
-10.555238 -3.900157 -29.699907
-14.451604 -1.285700 -27.543801
-12.697434 -5.186958 -29.150157
-10.414969 -1.287361 -29.349737
-14.685901 -3.815985 -28.020138
-19.717006 3.605014 -21.979033
-17.450138 1.235578 -24.833661
-18.212762 4.723316 -22.840547
-20.230401 1.232825 -22.533577
-17.064681 3.557851 -24.266216
-19.083754 0.000000 -24.005608
-10.108613 3.735129 -28.443212
-14.173008 1.260915 -27.012815
-11.877743 4.852111 -27.268351
-10.264804 1.268800 -28.926566
-13.879288 3.606395 -26.481152
-12.379043 0.000000 -28.282407
-18.650292 26.707994 1.324968
-20.658949 23.443094 3.813467
-18.069909 27.082637 3.487008
-19.809658 25.221902 0.000000
-23.550237 16.627228 8.203811
-22.272206 20.070779 6.098625
-16.571255 27.290414 7.796715
-19.965703 23.590428 5.897149
-17.369590 27.272561 5.663592
-19.077140 25.339223 4.727265
-21.841438 22.101666 -2.511812
-21.841438 22.101666 2.511812
-20.879017 23.675066 -1.283989
-20.879017 23.675066 1.283989
-26.413397 2.019986 15.552811
-25.948256 5.874147 13.793180
-24.554124 13.126013 10.161592
-25.338791 9.554580 12.010709
-12.572330 25.819199 15.957143
-16.290523 22.613461 13.975887
-13.655345 26.384807 14.034428
-22.619765 16.433811 10.156654
-19.584484 19.505835 12.055269
-22.083441 18.204900 9.172829
-15.653742 27.123858 9.986073
-17.289004 23.048353 12.082626
-14.690400 26.826397 12.029898
-17.469749 25.321652 8.983725
-15.540438 24.691817 13.048981
-20.777905 21.756448 7.074112
-18.993629 21.381734 11.091893
-21.469615 19.989574 8.139925
-19.178034 23.526080 8.010534
-20.562937 19.793141 10.137147
-18.275720 23.336983 10.086424
-24.871046 15.371152 -7.019343
-25.899950 16.007049 -2.396248
-24.244584 17.075878 -5.967330
-24.871046 15.371152 7.019343
-25.899950 16.007049 2.396248
-24.244584 17.075878 5.967330
-22.755277 20.413361 -3.732334
-25.023576 17.583587 -1.245027
-23.536586 18.767775 -4.867253
-22.989420 20.639652 -1.257764
-24.753410 17.407290 -3.629282
-22.755277 20.413361 3.732334
-25.023576 17.583587 1.245027
-23.536586 18.767775 4.867253
-22.989420 20.639652 1.257764
-24.753410 17.407290 3.629282
-24.058064 19.125455 0.000000
-35.842666 -51.328190 2.546362
-42.263814 -47.959583 7.801543
-33.736936 -50.563907 6.510325
-40.324547 -51.341713 0.000000
-38.463120 -27.156205 13.398768
-41.648299 -37.531703 11.404229
-29.122495 -47.960454 13.702027
-39.578136 -46.763451 11.689955
-31.457205 -49.391986 10.257052
-37.355948 -49.618061 9.256706
-44.997003 -45.533114 -5.174751
-44.997003 -45.533114 5.174751
-43.724907 -49.580402 -2.688933
-43.724907 -49.580402 2.688933
-27.655907 -2.115008 16.284429
-29.910882 -6.771203 15.899573
-35.263699 -18.851081 14.593692
-32.419372 -12.224478 15.366939
-19.139571 -39.306031 24.292463
-27.553735 -38.248331 23.638768
-21.703897 -41.936189 22.306414
-35.962846 -26.127886 16.147921
-33.254138 -33.120594 20.469653
-37.478967 -30.896492 15.567690
-26.666904 -46.206799 17.011757
-30.562903 -40.744082 21.359248
-24.231239 -44.249088 19.842844
-31.937946 -46.292683 16.423918
-26.325748 -41.828329 22.105180
-39.869754 -41.747434 13.574183
-33.951878 -38.220711 19.827206
-38.911781 -36.229338 14.752895
-36.685310 -45.002607 15.323204
-36.091428 -34.740306 17.792406
-33.653919 -42.974008 18.573698
-39.573550 -24.457799 -11.168824
-44.883302 -27.739406 -4.152577
-41.354757 -29.126867 -10.178665
-39.573550 -24.457799 11.168824
-44.883302 -27.739406 4.152577
-41.354757 -29.126867 10.178665
-44.472338 -39.895357 -7.294380
-46.171810 -32.444046 -2.297240
-43.079271 -34.350862 -8.908587
-46.423274 -41.678311 -2.539843
-44.172880 -31.063604 -6.476515
-44.472338 -39.895357 7.294380
-46.171810 -32.444046 2.297240
-43.079271 -34.350862 8.908587
-46.423274 -41.678311 2.539843
-44.172880 -31.063604 6.476515
-46.760063 -37.172878 0.000000
-2.250966 -17.331234 29.433698
-6.853029 -16.091710 30.272339
-3.769476 -19.533674 29.276484
-2.204214 -14.915310 29.904186
-15.512000 -12.008720 29.017461
-11.378563 -14.303571 30.176002
-7.195528 -24.361563 28.784346
-8.593629 -18.265030 30.079810
-5.422530 -21.882918 29.066000
-6.187261 -18.975622 29.794244
-2.133728 -10.234595 30.570190
-6.687230 -13.528560 30.519686
-2.167525 -12.538436 30.282336
-4.454362 -14.279919 30.320412
-25.797374 -1.279793 18.014402
-23.975583 -3.900087 21.128198
-26.829101 -3.454364 17.900746
-18.987678 -9.368448 26.893498
-21.761432 -6.612340 24.148294
-29.022268 -8.291496 17.622870
-24.948001 -6.236516 21.114681
-27.905807 -5.795096 17.772897
-25.927260 -4.836969 19.519855
-16.102846 -35.862459 26.054953
-17.505093 -28.438039 28.323836
-13.655378 -32.875105 27.101212
-20.173984 -35.793095 26.139954
-17.563522 -13.837965 28.418375
-17.807456 -20.756662 28.813069
-15.568492 -15.147972 29.268856
-9.230265 -27.110904 28.387701
-15.029451 -25.736257 28.972126
-11.342259 -29.915993 27.853688
-9.964483 -23.855987 29.264618
-14.478382 -29.369019 28.269558
-27.462565 -33.288669 24.679772
-20.820598 -27.378453 27.779518
-24.104275 -34.996863 25.731835
-20.700076 -31.658152 27.263112
-11.082543 -17.372522 30.102055
-15.371085 -21.994454 29.321293
-13.379773 -16.338811 29.836587
-10.580085 -20.574030 29.821174
-15.531716 -18.497204 29.389750
-12.733579 -23.072133 29.461710
-2.073959 -1.281777 30.978808
-6.263296 -3.870930 30.668876
-2.084287 -3.448901 30.983328
-15.041110 -9.295917 28.854214
-10.569409 -6.532254 29.996809
-13.152731 -10.485870 29.642604
-2.120174 -7.877397 30.787870
-6.344195 -6.134444 30.745416
-2.098268 -5.657891 30.920105
-4.304360 -9.413609 30.774468
-4.204828 -4.782038 30.905229
-8.978227 -12.596640 30.481400
-8.602666 -7.570415 30.484515
-11.109665 -11.600245 30.191208
-6.596001 -10.992071 30.677515
-10.839848 -9.000601 30.126438
-6.482137 -8.515598 30.748981
-34.204214 -21.139367 16.655306
-29.233212 -18.067119 21.059329
-32.807172 -17.450570 16.979213
-33.230047 -24.268141 18.729379
-19.676657 -12.160843 27.083270
-24.421037 -15.093031 24.519504
-21.231099 -10.697628 25.754369
-20.055602 -15.478275 27.461873
-30.238525 -11.132787 17.451282
-28.118442 -14.740515 21.092173
-31.480180 -14.116817 17.238858
-28.075098 -9.960604 19.369389
-30.426263 -16.079486 19.149561
-30.135553 -30.577007 22.917301
-27.918925 -20.698716 23.032621
-31.929034 -27.496388 20.877195
-26.915940 -28.096548 25.005677
-30.541109 -22.455692 21.035351
-23.826049 -7.747043 22.754422
-25.763149 -13.364776 22.885688
-22.612262 -9.207906 24.286489
-25.936763 -8.831362 21.143180
-23.500603 -12.035941 24.414590
-26.994802 -11.667362 21.140241
-20.680076 -23.011879 27.893783
-25.193279 -18.882226 24.829552
-20.405331 -19.114677 27.752492
-23.723452 -25.535762 26.655832
-22.619926 -17.174642 26.266446
-26.090015 -23.219880 24.993721
-2.163124 16.654898 28.285075
-6.164687 14.475403 27.231680
-3.507922 18.178283 27.245064
-2.130271 14.414959 28.901014
-13.146248 10.177257 24.591975
-9.800080 12.319317 25.989857
-6.175652 20.908617 24.704526
-7.446229 15.826328 26.063628
