-2.620173 -9.568884 8.623077
-0.579387 -14.002995 0.937468
-1.731288 -13.716773 2.801283
-1.558418 -14.000107 0.941805
-3.892056 -12.080810 6.297478
-2.849551 -13.085442 4.610670
-4.404492 -12.451101 5.524682
-3.579809 -13.991259 0.963493
-2.730102 -13.683086 2.823451
-2.561110 -13.996341 0.949805
-4.234855 -13.844362 1.936382
-2.148540 -13.885527 1.889203
-5.439091 -13.161534 3.876700
-3.320569 -13.371256 3.773340
-4.923984 -12.815333 4.715746
-4.862815 -13.571516 2.918025
-3.873417 -12.964939 4.664938
-3.775549 -13.633134 2.873976
5.189648 -8.813598 0.674027
4.768333 -8.970370 2.030706
4.659615 -9.342212 0.688607
3.622942 -8.754352 4.679855
4.244314 -8.954159 3.376374
3.510814 -10.486615 0.731941
4.214729 -9.508197 2.083360
4.099317 -9.900509 0.708651
4.449702 -9.448009 1.388004
0.435241 -6.126466 8.773355
1.298902 -7.036630 7.984936
0.000000 -6.814596 8.676428
2.914152 -8.365497 5.906311
2.132916 -7.789420 7.019499
-0.959303 -8.341615 8.441000
0.889740 -7.736728 7.828906
-0.464545 -7.553998 8.565604
0.448830 -7.298455 8.275840
0.555374 -13.422626 0.898614
1.523692 -12.072015 2.465385
1.400756 -12.583746 0.846524
0.000000 -13.787608 1.857602
2.987079 -9.271793 4.833196
2.322952 -10.667242 3.758615
3.327524 -9.406608 4.173810
2.850968 -11.142670 0.767328
2.268469 -11.369411 2.346033
2.163928 -11.825763 0.802508
3.250617 -10.626742 1.486340
1.855177 -11.989589 1.631250
-1.144984 -13.495947 3.730188
1.032661 -12.171999 3.364258
-0.579103 -13.741659 2.812872
0.546867 -12.976731 2.656294
3.936782 -9.526241 2.805932
2.659561 -10.709511 3.022201
3.646744 -9.491144 3.492521
3.613057 -10.083597 2.168084
3.006197 -10.062216 3.620504
2.964297 -10.703783 2.256445
-3.282986 -11.632329 7.189175
-1.030659 -11.139921 6.884850
-2.765500 -11.235913 7.913647
-2.788925 -12.219703 6.391162
2.552717 -9.044828 5.590011
0.928135 -10.031786 6.199985
2.165493 -8.798153 6.196691
2.234260 -9.789430 5.120078
-1.515227 -9.238029 8.287274
-0.507896 -10.208116 7.173048
-2.105241 -10.180317 8.117655
-0.485116 -8.866959 7.960660
-1.570336 -10.710428 7.531873
-1.726663 -13.148629 4.672974
-0.542328 -11.618397 6.095908
-2.265099 -12.729618 5.544858
-0.570126 -12.997947 4.612417
-1.679336 -12.331085 6.462962
1.337083 -8.151920 7.312945
0.483104 -9.709814 6.822900
1.757318 -8.497864 6.776089
0.465225 -8.503387 7.634248
1.355803 -9.247217 6.502902
0.000000 -9.328214 7.415656
1.488881 -11.337909 4.029451
0.510645 -10.939649 5.739784
1.878817 -10.558754 4.599257
0.531537 -12.118189 4.300228
1.409035 -10.346309 5.422702
0.000000 -11.934317 5.223580
-5.189648 8.813598 0.674027
-4.768333 8.970370 2.030706
-4.659615 9.342212 0.688607
-3.622942 8.754352 4.679855
-4.244314 8.954159 3.376374
-3.510814 10.486615 0.731941
-4.214729 9.508197 2.083360
-4.099317 9.900509 0.708651
-4.449702 9.448009 1.388004
-0.435241 6.126466 8.773355
-1.298902 7.036630 7.984936
-2.914152 8.365497 5.906311
-2.132916 7.789420 7.019499
-0.555374 13.422626 0.898614
-1.523692 12.072015 2.465385
-1.400756 12.583746 0.846524
-2.987079 9.271793 4.833196
-2.322952 10.667242 3.758615
-3.327524 9.406608 4.173810
-2.850968 11.142670 0.767328
-2.268469 11.369411 2.346033
-2.163928 11.825763 0.802508
-3.250617 10.626742 1.486340
-1.855177 11.989589 1.631250
-3.936782 9.526241 2.805932
-2.659561 10.709511 3.022201
-3.646744 9.491144 3.492521
-3.613057 10.083597 2.168084
-3.006197 10.062216 3.620504
-2.964297 10.703783 2.256445
8.207119 13.938181 1.065934
7.109132 13.373970 3.027589
6.963222 13.960789 1.029039
4.900797 11.842119 6.330497
5.985493 12.627493 4.761490
4.681945 13.984721 0.976101
5.981108 13.493049 2.956489
5.786366 13.975004 1.000292
6.482834 13.764937 2.022202
0.447525 6.299369 9.020959
1.439305 7.797243 8.848054
0.000000 6.814596 8.676428
3.848890 11.048801 7.800811
2.620173 9.568884 8.623077
-0.889740 7.736728 7.828906
0.959303 8.341615 8.441000
-0.448830 7.298455 8.275840
0.464545 7.553998 8.565604
0.579387 14.002995 0.937468
1.731288 13.716773 2.801283
1.558418 14.000107 0.941805
0.000000 13.787608 1.857602
3.892056 12.080810 6.297478
2.849551 13.085442 4.610670
4.404492 12.451101 5.524682
3.579809 13.991259 0.963493
2.730102 13.683086 2.823451
2.561110 13.996341 0.949805
4.234855 13.844362 1.936382
2.148540 13.885527 1.889203
-1.032661 12.171999 3.364258
1.144984 13.495947 3.730188
-0.546867 12.976731 2.656294
0.579103 13.741659 2.812872
5.439091 13.161534 3.876700
3.320569 13.371256 3.773340
4.923984 12.815333 4.715746
4.862815 13.571516 2.918025
3.873417 12.964939 4.664938
3.775549 13.633134 2.873976
-2.552717 9.044828 5.590011
-0.928135 10.031786 6.199985
-2.165493 8.798153 6.196691
-2.234260 9.789430 5.120078
3.282986 11.632329 7.189175
1.030659 11.139921 6.884850
2.765500 11.235913 7.913647
2.788925 12.219703 6.391162
-1.337083 8.151920 7.312945
-0.483104 9.709814 6.822900
-1.757318 8.497864 6.776089
-0.465225 8.503387 7.634248
-1.355803 9.247217 6.502902
-1.488881 11.337909 4.029451
-0.510645 10.939649 5.739784
-1.878817 10.558754 4.599257
-0.531537 12.118189 4.300228
-1.409035 10.346309 5.422702
1.515227 9.238029 8.287274
0.507896 10.208116 7.173048
2.105241 10.180317 8.117655
0.485116 8.866959 7.960660
1.570336 10.710428 7.531873
0.000000 9.328214 7.415656
1.726663 13.148629 4.672974
0.542328 11.618397 6.095908
2.265099 12.729618 5.544858
0.570126 12.997947 4.612417
1.679336 12.331085 6.462962
0.000000 11.934317 5.223580
0.000000 -4.894448 9.301717
0.000000 -3.466841 9.617185
0.000000 -0.687031 9.912807
0.000000 -2.067582 9.816430
0.000000 4.894448 9.301717
0.000000 3.466841 9.617185
0.000000 0.687031 9.912807
0.000000 2.067582 9.816430
-8.207119 -13.938181 -1.065934
-7.109132 -13.373970 -3.027589
-6.963222 -13.960789 -1.029039
-4.900797 -11.842119 -6.330497
-5.985493 -12.627493 -4.761490
-4.681945 -13.984721 -0.976101
-5.981108 -13.493049 -2.956489
-5.786366 -13.975004 -1.000292
-6.482834 -13.764937 -2.022202
-0.447525 -6.299369 -9.020959
-1.439305 -7.797243 -8.848054
-3.848890 -11.048801 -7.800811
-2.620173 -9.568884 -8.623077
-0.579387 -14.002995 -0.937468
-1.731288 -13.716773 -2.801283
-1.558418 -14.000107 -0.941805
-3.892056 -12.080810 -6.297478
-2.849551 -13.085442 -4.610670
-4.404492 -12.451101 -5.524682
-3.579809 -13.991259 -0.963493
-2.730102 -13.683086 -2.823451
-2.561110 -13.996341 -0.949805
-4.234855 -13.844362 -1.936382
-2.148540 -13.885527 -1.889203
-5.439091 -13.161534 -3.876700
-3.320569 -13.371256 -3.773340
-4.923984 -12.815333 -4.715746
-4.862815 -13.571516 -2.918025
-3.873417 -12.964939 -4.664938
-3.775549 -13.633134 -2.873976
5.189648 -8.813598 -0.674027
4.768333 -8.970370 -2.030706
4.659615 -9.342212 -0.688607
3.622942 -8.754352 -4.679855
4.244314 -8.954159 -3.376374
3.510814 -10.486615 -0.731941
4.214729 -9.508197 -2.083360
4.099317 -9.900509 -0.708651
4.449702 -9.448009 -1.388004
0.435241 -6.126466 -8.773355
1.298902 -7.036630 -7.984936
0.000000 -6.814596 -8.676428
2.914152 -8.365497 -5.906311
2.132916 -7.789420 -7.019499
-0.959303 -8.341615 -8.441000
0.889740 -7.736728 -7.828906
-0.464545 -7.553998 -8.565604
0.448830 -7.298455 -8.275840
0.555374 -13.422626 -0.898614
1.523692 -12.072015 -2.465385
1.400756 -12.583746 -0.846524
0.000000 -13.787608 -1.857602
2.987079 -9.271793 -4.833196
2.322952 -10.667242 -3.758615
3.327524 -9.406608 -4.173810
2.850968 -11.142670 -0.767328
2.268469 -11.369411 -2.346033
2.163928 -11.825763 -0.802508
3.250617 -10.626742 -1.486340
1.855177 -11.989589 -1.631250
-1.144984 -13.495947 -3.730188
1.032661 -12.171999 -3.364258
-0.579103 -13.741659 -2.812872
0.546867 -12.976731 -2.656294
3.936782 -9.526241 -2.805932
2.659561 -10.709511 -3.022201
3.646744 -9.491144 -3.492521
3.613057 -10.083597 -2.168084
3.006197 -10.062216 -3.620504
2.964297 -10.703783 -2.256445
-3.282986 -11.632329 -7.189175
-1.030659 -11.139921 -6.884850
-2.765500 -11.235913 -7.913647
-2.788925 -12.219703 -6.391162
2.552717 -9.044828 -5.590011
0.928135 -10.031786 -6.199985
2.165493 -8.798153 -6.196691
2.234260 -9.789430 -5.120078
-1.515227 -9.238029 -8.287274
-0.507896 -10.208116 -7.173048
-2.105241 -10.180317 -8.117655
-0.485116 -8.866959 -7.960660
-1.570336 -10.710428 -7.531873
-1.726663 -13.148629 -4.672974
-0.542328 -11.618397 -6.095908
-2.265099 -12.729618 -5.544858
-0.570126 -12.997947 -4.612417
-1.679336 -12.331085 -6.462962
1.337083 -8.151920 -7.312945
0.483104 -9.709814 -6.822900
1.757318 -8.497864 -6.776089
0.465225 -8.503387 -7.634248
1.355803 -9.247217 -6.502902
0.000000 -9.328214 -7.415656
1.488881 -11.337909 -4.029451
0.510645 -10.939649 -5.739784
1.878817 -10.558754 -4.599257
0.531537 -12.118189 -4.300228
1.409035 -10.346309 -5.422702
0.000000 -11.934317 -5.223580
-5.189648 8.813598 -0.674027
-4.768333 8.970370 -2.030706
-4.659615 9.342212 -0.688607
-3.622942 8.754352 -4.679855
-4.244314 8.954159 -3.376374
-3.510814 10.486615 -0.731941
-4.214729 9.508197 -2.083360
-4.099317 9.900509 -0.708651
-4.449702 9.448009 -1.388004
-0.435241 6.126466 -8.773355
-1.298902 7.036630 -7.984936
-2.914152 8.365497 -5.906311
-2.132916 7.789420 -7.019499
-0.555374 13.422626 -0.898614
-1.523692 12.072015 -2.465385
-1.400756 12.583746 -0.846524
-2.987079 9.271793 -4.833196
-2.322952 10.667242 -3.758615
-3.327524 9.406608 -4.173810
-2.850968 11.142670 -0.767328
-2.268469 11.369411 -2.346033
-2.163928 11.825763 -0.802508
-3.250617 10.626742 -1.486340
-1.855177 11.989589 -1.631250
-3.936782 9.526241 -2.805932
-2.659561 10.709511 -3.022201
-3.646744 9.491144 -3.492521
-3.613057 10.083597 -2.168084
-3.006197 10.062216 -3.620504
-2.964297 10.703783 -2.256445
8.207119 13.938181 -1.065934
7.109132 13.373970 -3.027589
6.963222 13.960789 -1.029039
4.900797 11.842119 -6.330497
5.985493 12.627493 -4.761490
4.681945 13.984721 -0.976101
5.981108 13.493049 -2.956489
5.786366 13.975004 -1.000292
6.482834 13.764937 -2.022202
0.447525 6.299369 -9.020959
1.439305 7.797243 -8.848054
0.000000 6.814596 -8.676428
3.848890 11.048801 -7.800811
2.620173 9.568884 -8.623077
-0.889740 7.736728 -7.828906
0.959303 8.341615 -8.441000
-0.448830 7.298455 -8.275840
0.464545 7.553998 -8.565604
0.579387 14.002995 -0.937468
1.731288 13.716773 -2.801283
1.558418 14.000107 -0.941805
0.000000 13.787608 -1.857602
3.892056 12.080810 -6.297478
2.849551 13.085442 -4.610670
4.404492 12.451101 -5.524682
3.579809 13.991259 -0.963493
2.730102 13.683086 -2.823451
2.561110 13.996341 -0.949805
4.234855 13.844362 -1.936382
2.148540 13.885527 -1.889203
-1.032661 12.171999 -3.364258
1.144984 13.495947 -3.730188
-0.546867 12.976731 -2.656294
0.579103 13.741659 -2.812872
5.439091 13.161534 -3.876700
3.320569 13.371256 -3.773340
4.923984 12.815333 -4.715746
4.862815 13.571516 -2.918025
3.873417 12.964939 -4.664938
3.775549 13.633134 -2.873976
-2.552717 9.044828 -5.590011
-0.928135 10.031786 -6.199985
-2.165493 8.798153 -6.196691
-2.234260 9.789430 -5.120078
3.282986 11.632329 -7.189175
1.030659 11.139921 -6.884850
2.765500 11.235913 -7.913647
2.788925 12.219703 -6.391162
-1.337083 8.151920 -7.312945
-0.483104 9.709814 -6.822900
-1.757318 8.497864 -6.776089
-0.465225 8.503387 -7.634248
-1.355803 9.247217 -6.502902
-1.488881 11.337909 -4.029451
-0.510645 10.939649 -5.739784
-1.878817 10.558754 -4.599257
-0.531537 12.118189 -4.300228
-1.409035 10.346309 -5.422702
1.515227 9.238029 -8.287274
0.507896 10.208116 -7.173048
2.105241 10.180317 -8.117655
0.485116 8.866959 -7.960660
1.570336 10.710428 -7.531873
0.000000 9.328214 -7.415656
1.726663 13.148629 -4.672974
0.542328 11.618397 -6.095908
2.265099 12.729618 -5.544858
0.570126 12.997947 -4.612417
1.679336 12.331085 -6.462962
0.000000 11.934317 -5.223580
0.000000 -4.894448 -9.301717
0.000000 -3.466841 -9.617185
0.000000 -0.687031 -9.912807
0.000000 -2.067582 -9.816430
0.000000 4.894448 -9.301717
0.000000 3.466841 -9.617185
0.000000 0.687031 -9.912807
0.000000 2.067582 -9.816430
9.761855 13.979383 -0.693509
11.558859 13.116612 -2.133668
9.151737 13.716348 -1.766040
12.313487 8.693720 -4.289448
12.200582 10.994654 -3.340790
7.852475 12.931868 -3.694560
10.645155 12.577758 -3.144195
8.497691 13.342502 -2.770788
9.995434 13.276441 -2.476842
11.287107 0.863191 -6.646107
12.177977 2.756841 -6.473384
12.299343 6.574917 -5.090017
12.246615 4.617871 -5.804955
5.466647 11.226595 -6.938417
7.665601 10.640897 -6.576436
6.025281 11.642026 -6.192548
11.609714 8.434741 -5.212956
9.792831 9.753505 -6.027997
11.516496 9.493841 -4.783623
7.207025 12.487897 -4.597615
8.314733 11.084554 -5.810850
6.607084 12.065311 -5.410509
8.495159 12.313369 -4.368590
7.171374 11.394419 -6.021653
11.091515 11.613874 -3.776253
9.479962 10.671895 -5.536105
11.357278 10.574347 -4.305964
9.817056 12.042779 -4.100517
10.550149 10.155193 -5.201028
9.040318 11.543936 -4.989378
5.766221 -8.257469 -0.409648
6.526178 -7.405692 -1.204677
5.583821 -8.368863 -1.077528
7.904121 -5.580565 -2.753429
7.234142 -6.519106 -1.980869
5.142761 -8.469369 -2.419650
6.319014 -7.466215 -1.866409
5.375231 -8.439826 -1.752668
5.961263 -7.918051 -1.477185
10.313017 -0.788696 -6.072540
9.757506 -2.208897 -5.186747
8.545855 -4.568398 -3.536656
9.164253 -3.455595 -4.343900
3.962491 -8.137581 -5.029302
5.239799 -7.273554 -4.495303
4.288748 -8.286703 -4.407807
7.629740 -5.543193 -3.425882
6.445591 -6.419706 -3.967596
7.323170 -6.036993 -3.041835
4.877199 -8.450916 -3.111337
5.539311 -7.384578 -3.871213
4.595529 -8.391976 -3.763257
5.493107 -7.962023 -2.824801
4.927855 -7.829748 -4.137817
6.674244 -6.988570 -2.272334
6.154566 -6.928392 -3.594142
7.003400 -6.520609 -2.655248
6.092550 -7.473854 -2.544817
6.739100 -6.486814 -3.322251
5.831182 -7.446065 -3.218247
0.686797 -5.287971 -8.980580
1.980270 -4.649905 -8.747579
1.113583 -5.770660 -8.648893
0.678091 -4.588454 -9.199538
4.406355 -3.411209 -8.242730
3.206477 -4.030743 -8.503592
1.960797 -6.638578 -7.843796
2.397535 -5.095758 -8.391962
1.542278 -6.223946 -8.266960
1.769505 -5.426870 -8.520906
0.666003 -3.194533 -9.541901
1.969313 -3.984007 -8.987699
0.671873 -3.886572 -9.386695
1.336081 -4.283247 -9.094577
9.739149 -0.483154 -6.800884
8.234978 -1.339576 -7.256976
9.540262 -1.228350 -6.365394
5.617670 -2.771737 -7.956675
6.879202 -2.090286 -7.633734
9.078074 -2.593554 -5.512378
8.110167 -2.027384 -6.864021
9.316378 -1.934698 -5.933497
8.804066 -1.642480 -6.628317
3.547914 -7.901517 -5.740646
4.030908 -6.548444 -6.522147
3.179374 -7.654292 -6.309960
4.221538 -7.489939 -5.469956
4.833394 -3.808139 -7.820595
4.454985 -5.192804 -7.208317
4.239328 -4.124819 -7.969961
2.392406 -7.026915 -7.357850
3.649747 -6.249784 -7.035581
2.790809 -7.360951 -6.853513
2.616725 -6.264706 -7.685040
3.424711 -6.946936 -6.686870
5.501509 -6.668638 -4.944038
4.699632 -6.179873 -6.270402
4.874492 -7.077247 -5.203625
4.468278 -6.833667 -5.884962
3.037800 -4.761925 -8.251176
3.865112 -5.530581 -7.372939
3.638679 -4.443400 -8.114170
2.832173 -5.507443 -7.982803
4.058287 -4.833141 -7.679258
3.253277 -5.894653 -7.527114
0.662495 -0.409445 -9.895717
1.973693 -1.219810 -9.664394
0.662387 -1.096061 -9.846506
4.443304 -2.746113 -8.523843
3.243349 -2.004500 -9.204879
3.835880 -3.058113 -8.645009
0.666120 -2.474934 -9.672985
1.968461 -1.903380 -9.539611
0.663149 -1.788153 -9.772170
1.323938 -2.895444 -9.465630
1.322641 -1.504204 -9.721328
2.614162 -3.667724 -8.875173
2.622281 -2.307628 -9.292349
3.224340 -3.366721 -8.762346
1.977592 -3.295607 -9.197632
3.237225 -2.687950 -8.996994
1.977880 -2.598345 -9.382368
7.981698 -4.932961 -3.886586
7.340606 -4.536744 -5.288103
8.267049 -4.397353 -4.278576
7.367501 -5.380539 -4.152528
5.545013 -3.427007 -7.632246
6.519967 -4.029561 -6.546256
6.152326 -3.099947 -7.463074
5.347524 -4.127049 -7.322294
8.810196 -3.243612 -5.084547
7.558039 -3.962147 -5.669428
8.545438 -3.832074 -4.679567
8.406840 -2.982615 -5.799992
7.935370 -4.193636 -4.994332
6.145916 -6.235947 -4.673808
6.696091 -4.964392 -5.524157
6.753662 -5.816064 -4.415966
5.776642 -6.030022 -5.366665
7.053270 -5.185996 -4.857977
7.417906 -2.411933 -7.084270
7.121109 -3.694114 -6.325759
6.778560 -2.760288 -7.280449
7.938528 -2.703037 -6.471344
6.657125 -3.409477 -6.916034
7.752515 -3.350697 -6.071170
4.930898 -5.486886 -6.650913
6.274802 -4.702930 -6.184210
5.142082 -4.816841 -6.993545
5.368081 -5.778166 -6.031612
5.832090 -4.428134 -6.772271
6.035782 -5.371792 -5.782160
0.713612 5.494434 -9.331218
2.196192 5.156913 -9.701382
1.194215 6.188504 -9.275144
0.700581 4.740643 -9.504667
5.286268 4.092400 -9.888736
3.733581 4.693346 -9.901473
2.286036 7.739727 -9.144856
2.764874 5.876506 -9.677739
1.718854 6.936530 -9.213451
1.972192 6.048488 -9.496929
0.680872 3.265854 -9.754931
2.147808 4.345111 -9.802330
0.690426 3.993894 -9.645896
1.421201 4.556127 -9.673979
10.240641 0.508032 -7.151078
9.348205 1.520664 -8.237995
10.928669 1.407114 -7.291759
9.391068 0.000000 -7.375885
6.793257 3.351767 -9.621737
8.175462 2.484162 -9.072172
11.683318 3.337857 -7.094332
9.936790 2.484005 -8.409979
11.661056 2.421609 -7.426796
10.475206 1.954246 -7.886468
7.854280 -0.892624 -7.761803
8.481103 0.963861 -8.381246
8.594669 -0.466122 -7.579630
8.967112 0.486321 -7.908087
4.820276 10.735179 -7.799370
5.618186 9.127068 -9.090415
4.287433 10.321928 -8.509076
5.893001 10.455482 -7.635714
6.107619 4.812077 -9.882335
6.117801 7.131010 -9.898811
5.278809 5.136223 -9.924192
2.947855 8.658365 -9.066134
4.981230 8.529801 -9.602269
3.655441 9.641478 -8.976828
3.203669 7.669909 -9.408831
4.698055 9.529881 -9.173120
8.018900 9.720086 -7.206341
6.639433 8.730652 -8.858547
6.969424 10.118868 -7.440011
6.285930 9.613536 -8.278908
3.614692 5.666237 -9.818112
5.137696 7.351518 -9.800472
4.439682 5.421551 -9.900390
3.426242 6.662668 -9.657252
5.231648 6.230532 -9.899539
4.163280 7.543500 -9.632591
0.664327 0.410577 -9.923082
2.023778 1.250764 -9.909641
0.667324 1.104230 -9.919894
1.331127 0.000000 -9.879970
5.123018 3.166199 -9.827776
3.481252 2.151532 -9.880064
4.394810 3.503714 -9.904682
0.677557 2.517427 -9.839064
2.047900 1.980192 -9.924589
0.671280 1.810077 -9.891983
1.378680 3.015164 -9.857013
1.350194 1.535539 -9.923839
2.657788 -0.815810 -9.615967
2.718298 0.834383 -9.834896
2.001299 -0.412019 -9.776896
2.018266 0.415512 -9.859784
2.913054 4.087076 -9.889924
2.799928 2.463959 -9.921860
3.651820 3.813077 -9.924049
2.123049 3.538008 -9.874143
3.567703 2.962354 -9.915469
2.089925 2.745539 -9.913871
11.669599 7.212209 -5.682362
10.373456 6.411149 -7.472940
11.692904 6.219610 -6.051613
10.915100 7.971375 -6.152054
7.075603 4.372963 -9.738974
9.089188 5.617427 -9.125836
7.859533 3.960151 -9.534000
7.198259 5.555387 -9.856482
11.694796 4.305622 -6.749310
10.447616 5.476948 -7.836954
11.700217 5.246788 -6.407154
11.119493 3.945022 -7.671488
11.070303 5.850366 -6.967384
9.083914 9.216983 -6.908079
9.559746 7.087468 -7.886622
10.038959 8.645270 -6.564098
8.358436 8.725060 -7.765226
10.227665 7.520005 -7.044358
9.296235 3.022672 -8.878117
9.801297 5.084477 -8.706600
8.608191 3.505329 -9.245548
10.518922 3.581650 -8.574834
9.066424 4.643410 -9.419035
10.486982 4.532555 -8.212593
6.976644 7.763303 -9.410265
8.867544 6.646176 -8.739519
7.270088 6.810249 -9.887762
7.654595 8.239354 -8.600755
8.210342 6.233870 -9.533917
8.639347 7.688942 -8.276324
5.174342 -2.362899 -8.372261
5.480888 -0.820486 -8.868263
5.801645 -2.027441 -8.237261
4.584167 -2.000403 -8.764786
5.967870 2.725269 -9.656217
5.749671 0.860723 -9.303163
6.649839 2.323850 -9.441539
5.081604 2.217471 -9.715870
7.121552 -1.302089 -7.938570
6.156714 -0.435934 -8.761749
6.452609 -1.673426 -8.092189
7.390355 -0.450362 -8.231727
5.982266 -1.247255 -8.506866
3.335209 -1.232359 -9.384477
4.828121 -0.429538 -9.202079
3.965943 -1.620105 -9.104822
3.389708 -0.418991 -9.552312
4.713286 -1.224700 -8.992770
7.904460 1.445234 -8.811297
6.331655 0.448321 -9.010712
7.302624 1.893870 -9.158190
7.653492 0.466398 -8.524822
6.494415 1.354034 -9.235150
6.877689 0.000000 -8.651500
3.483744 1.287242 -9.802420
4.933102 0.438878 -9.402166
4.253068 1.737397 -9.763988
3.439667 0.425166 -9.693098
5.016421 1.303467 -9.571141
4.149779 0.000000 -9.481003
9.761855 13.979383 0.693509
11.558859 13.116612 2.133668
9.151737 13.716348 1.766040
11.023810 14.035651 0.000000
12.313487 8.693720 4.289448
12.200582 10.994654 3.340790
7.852475 12.931868 3.694560
10.645155 12.577758 3.144195
8.497691 13.342502 2.770788
9.995434 13.276441 2.476842
12.906418 13.060190 -1.484266
12.906418 13.060190 1.484266
12.238994 13.877999 -0.752657
12.238994 13.877999 0.752657
11.287107 0.863191 6.646107
12.177977 2.756841 6.473384
12.299343 6.574917 5.090017
12.246615 4.617871 5.804955
5.466647 11.226595 6.938417
7.665601 10.640897 6.576436
6.025281 11.642026 6.192548
11.609714 8.434741 5.212956
9.792831 9.753505 6.027997
11.516496 9.493841 4.783623
7.207025 12.487897 4.597615
8.314733 11.084554 5.810850
6.607084 12.065311 5.410509
8.495159 12.313369 4.368590
7.171374 11.394419 6.021653
11.091515 11.613874 3.776253
9.479962 10.671895 5.536105
11.357278 10.574347 4.305964
9.817056 12.042779 4.100517
10.550149 10.155193 5.201028
9.040318 11.543936 4.989378
12.933178 7.993143 -3.650124
13.884391 8.581026 -1.284576
12.989765 9.148915 -3.197177
12.933178 7.993143 3.650124
13.884391 8.581026 1.284576
12.989765 9.148915 3.197177
13.051265 11.708061 -2.140676
13.978252 9.822250 -0.695476
13.037205 10.395702 -2.696032
13.855649 12.439451 -0.758050
13.592141 9.558374 -1.992845
13.051265 11.708061 2.140676
13.978252 9.822250 0.695476
13.037205 10.395702 2.696032
13.855649 12.439451 0.758050
13.592141 9.558374 1.992845
14.035651 11.157931 0.000000
5.766221 -8.257469 0.409648
6.526178 -7.405692 1.204677
5.583821 -8.368863 1.077528
6.174369 -7.861282 0.000000
7.904121 -5.580565 2.753429
7.234142 -6.519106 1.980869
5.142761 -8.469369 2.419650
6.319014 -7.466215 1.866409
5.375231 -8.439826 1.752668
5.961263 -7.918051 1.477185
6.953584 -7.036432 -0.799677
6.953584 -7.036432 0.799677
6.571957 -7.452052 -0.404153
6.571957 -7.452052 0.404153
10.313017 -0.788696 6.072540
9.757506 -2.208897 5.186747
8.545855 -4.568398 3.536656
9.164253 -3.455595 4.343900
3.962491 -8.137581 5.029302
5.239799 -7.273554 4.495303
4.288748 -8.286703 4.407807
7.629740 -5.543193 3.425882
6.445591 -6.419706 3.967596
7.323170 -6.036993 3.041835
4.877199 -8.450916 3.111337
5.539311 -7.384578 3.871213
4.595529 -8.391976 3.763257
5.493107 -7.962023 2.824801
4.927855 -7.829748 4.137817
6.674244 -6.988570 2.272334
6.154566 -6.928392 3.594142
7.003400 -6.520609 2.655248
6.092550 -7.473854 2.544817
6.739100 -6.486814 3.322251
5.831182 -7.446065 3.218247
8.422053 -5.205115 -2.376952
8.646286 -5.343699 -0.799949
8.068788 -5.682987 -1.985974
8.422053 -5.205115 2.376952
8.646286 -5.343699 0.799949
8.068788 -5.682987 1.985974
7.343852 -6.588041 -1.204543
8.236236 -5.787445 -0.409787
7.707558 -6.145909 -1.593886
7.389652 -6.634349 -0.404292
8.180225 -5.752562 -1.199364
7.343852 -6.588041 1.204543
8.236236 -5.787445 0.409787
7.707558 -6.145909 1.593886
7.389652 -6.634349 0.404292
8.180225 -5.752562 1.199364
7.819432 -6.216219 0.000000
0.686797 -5.287971 8.980580
1.980270 -4.649905 8.747579
1.113583 -5.770660 8.648893
0.678091 -4.588454 9.199538
4.406355 -3.411209 8.242730
3.206477 -4.030743 8.503592
1.960797 -6.638578 7.843796
2.397535 -5.095758 8.391962
1.542278 -6.223946 8.266960
1.769505 -5.426870 8.520906
0.666003 -3.194533 9.541901
1.969313 -3.984007 8.987699
0.671873 -3.886572 9.386695
1.336081 -4.283247 9.094577
9.739149 -0.483154 6.800884
8.234978 -1.339576 7.256976
9.540262 -1.228350 6.365394
5.617670 -2.771737 7.956675
6.879202 -2.090286 7.633734
9.078074 -2.593554 5.512378
8.110167 -2.027384 6.864021
9.316378 -1.934698 5.933497
8.804066 -1.642480 6.628317
3.547914 -7.901517 5.740646
4.030908 -6.548444 6.522147
3.179374 -7.654292 6.309960
4.221538 -7.489939 5.469956
4.833394 -3.808139 7.820595
4.454985 -5.192804 7.208317
4.239328 -4.124819 7.969961
2.392406 -7.026915 7.357850
3.649747 -6.249784 7.035581
2.790809 -7.360951 6.853513
2.616725 -6.264706 7.685040
3.424711 -6.946936 6.686870
5.501509 -6.668638 4.944038
4.699632 -6.179873 6.270402
4.874492 -7.077247 5.203625
4.468278 -6.833667 5.884962
3.037800 -4.761925 8.251176
3.865112 -5.530581 7.372939
3.638679 -4.443400 8.114170
2.832173 -5.507443 7.982803
4.058287 -4.833141 7.679258
3.253277 -5.894653 7.527114
0.662495 -0.409445 9.895717
1.973693 -1.219810 9.664394
0.662387 -1.096061 9.846506
4.443304 -2.746113 8.523843
3.243349 -2.004500 9.204879
3.835880 -3.058113 8.645009
0.666120 -2.474934 9.672985
1.968461 -1.903380 9.539611
0.663149 -1.788153 9.772170
1.323938 -2.895444 9.465630
1.322641 -1.504204 9.721328
2.614162 -3.667724 8.875173
2.622281 -2.307628 9.292349
3.224340 -3.366721 8.762346
1.977592 -3.295607 9.197632
3.237225 -2.687950 8.996994
1.977880 -2.598345 9.382368
7.981698 -4.932961 3.886586
7.340606 -4.536744 5.288103
8.267049 -4.397353 4.278576
7.367501 -5.380539 4.152528
5.545013 -3.427007 7.632246
6.519967 -4.029561 6.546256
6.152326 -3.099947 7.463074
5.347524 -4.127049 7.322294
8.810196 -3.243612 5.084547
7.558039 -3.962147 5.669428
8.545438 -3.832074 4.679567
8.406840 -2.982615 5.799992
7.935370 -4.193636 4.994332
6.145916 -6.235947 4.673808
6.696091 -4.964392 5.524157
6.753662 -5.816064 4.415966
5.776642 -6.030022 5.366665
7.053270 -5.185996 4.857977
7.417906 -2.411933 7.084270
7.121109 -3.694114 6.325759
6.778560 -2.760288 7.280449
7.938528 -2.703037 6.471344
6.657125 -3.409477 6.916034
7.752515 -3.350697 6.071170
4.930898 -5.486886 6.650913
6.274802 -4.702930 6.184210
5.142082 -4.816841 6.993545
5.368081 -5.778166 6.031612
5.832090 -4.428134 6.772271
6.035782 -5.371792 5.782160
0.713612 5.494434 9.331218
2.196192 5.156913 9.701382
1.194215 6.188504 9.275144
0.700581 4.740643 9.504667
5.286268 4.092400 9.888736
3.733581 4.693346 9.901473
2.286036 7.739727 9.144856
2.764874 5.876506 9.677739
1.718854 6.936530 9.213451
1.972192 6.048488 9.496929
0.680872 3.265854 9.754931
2.147808 4.345111 9.802330
0.690426 3.993894 9.645896
1.421201 4.556127 9.673979
10.240641 0.508032 7.151078
9.348205 1.520664 8.237995
10.928669 1.407114 7.291759
9.391068 0.000000 7.375885
6.793257 3.351767 9.621737
8.175462 2.484162 9.072172
11.683318 3.337857 7.094332
9.936790 2.484005 8.409979
11.661056 2.421609 7.426796
10.475206 1.954246 7.886468
7.854280 -0.892624 7.761803
8.481103 0.963861 8.381246
8.594669 -0.466122 7.579630
8.967112 0.486321 7.908087
4.820276 10.735179 7.799370
5.618186 9.127068 9.090415
4.287433 10.321928 8.509076
5.893001 10.455482 7.635714
6.107619 4.812077 9.882335
6.117801 7.131010 9.898811
5.278809 5.136223 9.924192
2.947855 8.658365 9.066134
4.981230 8.529801 9.602269
3.655441 9.641478 8.976828
3.203669 7.669909 9.408831
4.698055 9.529881 9.173120
8.018900 9.720086 7.206341
6.639433 8.730652 8.858547
6.969424 10.118868 7.440011
6.285930 9.613536 8.278908
3.614692 5.666237 9.818112
5.137696 7.351518 9.800472
4.439682 5.421551 9.900390
3.426242 6.662668 9.657252
5.231648 6.230532 9.899539
4.163280 7.543500 9.632591
0.664327 0.410577 9.923082
2.023778 1.250764 9.909641
0.667324 1.104230 9.919894
1.331127 0.000000 9.879970
5.123018 3.166199 9.827776
3.481252 2.151532 9.880064
4.394810 3.503714 9.904682
0.677557 2.517427 9.839064
2.047900 1.980192 9.924589
0.671280 1.810077 9.891983
1.378680 3.015164 9.857013
1.350194 1.535539 9.923839
2.657788 -0.815810 9.615967
2.718298 0.834383 9.834896
2.001299 -0.412019 9.776896
2.018266 0.415512 9.859784
2.913054 4.087076 9.889924
2.799928 2.463959 9.921860
3.651820 3.813077 9.924049
2.123049 3.538008 9.874143
3.567703 2.962354 9.915469
2.089925 2.745539 9.913871
11.669599 7.212209 5.682362
10.373456 6.411149 7.472940
11.692904 6.219610 6.051613
10.915100 7.971375 6.152054
7.075603 4.372963 9.738974
9.089188 5.617427 9.125836
7.859533 3.960151 9.534000
7.198259 5.555387 9.856482
11.694796 4.305622 6.749310
10.447616 5.476948 7.836954
11.700217 5.246788 6.407154
11.119493 3.945022 7.671488
11.070303 5.850366 6.967384
9.083914 9.216983 6.908079
9.559746 7.087468 7.886622
10.038959 8.645270 6.564098
8.358436 8.725060 7.765226
10.227665 7.520005 7.044358
9.296235 3.022672 8.878117
9.801297 5.084477 8.706600
8.608191 3.505329 9.245548
10.518922 3.581650 8.574834
9.066424 4.643410 9.419035
10.486982 4.532555 8.212593
6.976644 7.763303 9.410265
8.867544 6.646176 8.739519
7.270088 6.810249 9.887762
7.654595 8.239354 8.600755
8.210342 6.233870 9.533917
8.639347 7.688942 8.276324
5.174342 -2.362899 8.372261
5.480888 -0.820486 8.868263
5.801645 -2.027441 8.237261
4.584167 -2.000403 8.764786
5.967870 2.725269 9.656217
5.749671 0.860723 9.303163
6.649839 2.323850 9.441539
5.081604 2.217471 9.715870
7.121552 -1.302089 7.938570
6.156714 -0.435934 8.761749
6.452609 -1.673426 8.092189
7.390355 -0.450362 8.231727
5.982266 -1.247255 8.506866
3.335209 -1.232359 9.384477
4.828121 -0.429538 9.202079
3.965943 -1.620105 9.104822
3.389708 -0.418991 9.552312
4.713286 -1.224700 8.992770
7.904460 1.445234 8.811297
6.331655 0.448321 9.010712
7.302624 1.893870 9.158190
7.653492 0.466398 8.524822
6.494415 1.354034 9.235150
6.877689 0.000000 8.651500
3.483744 1.287242 9.802420
4.933102 0.438878 9.402166
4.253068 1.737397 9.763988
3.439667 0.425166 9.693098
5.016421 1.303467 9.571141
4.149779 0.000000 9.481003
11.260105 0.000000 -5.924928
12.504461 0.000000 -4.507658
12.055176 0.888577 -6.012760
10.925434 -0.805305 -5.449278
13.968712 0.000000 -0.968136
13.451582 0.000000 -2.833235
12.641910 2.769995 -5.603821
13.281510 0.927019 -4.446517
12.592465 1.849955 -5.930637
12.786947 0.915254 -5.294450
10.238684 -2.243419 -4.538535
11.997441 -0.837393 -4.016623
10.582711 -1.554703 -4.984109
11.494002 -0.822708 -4.759105
11.260105 0.000000 5.924928
12.504461 0.000000 4.507658
12.055176 0.888577 6.012760
10.925434 -0.805305 5.449278
13.968712 0.000000 0.968136
13.451582 0.000000 2.833235
12.641910 2.769995 5.603821
13.281510 0.927019 4.446517
12.592465 1.849955 5.930637
12.786947 0.915254 5.294450
10.238684 -2.243419 4.538535
11.997441 -0.837393 4.016623
10.582711 -1.554703 4.984109
11.494002 -0.822708 4.759105
12.864019 6.705749 -4.144381
13.564339 4.779410 -2.953838
12.807074 5.682631 -4.530416
13.374005 6.994886 -3.052374
14.022799 0.938794 -0.580206
13.898243 2.838344 -1.754193
13.943683 0.938009 -1.552137
12.698270 3.740246 -5.247644
13.487317 3.806092 -3.349392
12.751157 4.692130 -4.899325
13.060398 2.808128 -4.679676
13.198496 4.748975 -3.943194
14.003708 7.347426 -0.653671
13.854031 4.923672 -1.819295
13.777348 7.220977 -1.876299
13.669600 5.954302 -2.432359
13.575213 0.934843 -3.473360
13.702222 2.827399 -2.733920
13.792529 0.935974 -2.523815
13.350389 1.867291 -4.083754
13.846769 1.883930 -2.142543
13.419441 2.828928 -3.716369
8.838339 -4.607245 -2.847434
10.119622 -3.565660 -2.203699
9.186060 -4.075950 -3.249507
9.015434 -4.715262 -2.057609
13.135219 -0.879372 -0.543482
11.529389 -2.354569 -1.455203
13.010203 -0.875213 -1.448227
9.881772 -2.910654 -4.083708
10.557678 -2.979354 -2.621856
9.535451 -3.508825 -3.663767
10.661793 -2.292402 -3.820231
9.856914 -3.546634 -2.944860
9.197038 -4.825476 -0.429303
10.259528 -3.646199 -1.347269
9.136365 -4.788547 -1.244256
9.630110 -4.194752 -1.713575
12.437992 -0.856529 -3.182390
11.329060 -2.337707 -2.260418
12.773977 -0.866854 -2.337436
11.512228 -1.610191 -3.521478
12.131719 -1.650588 -1.877169
11.029331 -2.325073 -3.054454
12.864019 6.705749 4.144381
13.564339 4.779410 2.953838
12.807074 5.682631 4.530416
13.374005 6.994886 3.052374
14.022799 0.938794 0.580206
13.898243 2.838344 1.754193
13.943683 0.938009 1.552137
14.035651 1.891021 0.000000
12.698270 3.740246 5.247644
13.487317 3.806092 3.349392
12.751157 4.692130 4.899325
13.060398 2.808128 4.679676
13.198496 4.748975 3.943194
14.003708 7.347426 0.653671
13.854031 4.923672 1.819295
13.777348 7.220977 1.876299
14.035651 6.143322 0.000000
13.669600 5.954302 2.432359
13.575213 0.934843 3.473360
13.702222 2.827399 2.733920
13.792529 0.935974 2.523815
13.350389 1.867291 4.083754
13.846769 1.883930 2.142543
13.419441 2.828928 3.716369
13.966659 3.860290 -1.184918
13.966659 3.860290 1.184918
14.020019 2.869852 -0.590834
14.014802 4.973255 -0.614728
14.020019 2.869852 0.590834
14.014802 4.973255 0.614728
8.838339 -4.607245 2.847434
10.119622 -3.565660 2.203699
9.186060 -4.075950 3.249507
9.015434 -4.715262 2.057609
13.135219 -0.879372 0.543482
11.529389 -2.354569 1.455203
13.010203 -0.875213 1.448227
12.369156 -1.666495 0.000000
9.881772 -2.910654 4.083708
10.557678 -2.979354 2.621856
9.535451 -3.508825 3.663767
10.661793 -2.292402 3.820231
9.856914 -3.546634 2.944860
9.197038 -4.825476 0.429303
10.259528 -3.646199 1.347269
9.136365 -4.788547 1.244256
9.762613 -4.273038 0.000000
9.630110 -4.194752 1.713575
12.437992 -0.856529 3.182390
11.329060 -2.337707 2.260418
12.773977 -0.866854 2.337436
11.512228 -1.610191 3.521478
12.131719 -1.650588 1.877169
11.029331 -2.325073 3.054454
10.948076 -3.025974 -0.928825
10.948076 -3.025974 0.928825
11.636545 -2.381963 -0.490389
10.348664 -3.672299 -0.453921
11.636545 -2.381963 0.490389
10.348664 -3.672299 0.453921
-5.766221 8.257469 -0.409648
-6.526178 7.405692 -1.204677
-5.583821 8.368863 -1.077528
-7.904121 5.580565 -2.753429
-7.234142 6.519106 -1.980869
-5.142761 8.469369 -2.419650
-6.319014 7.466215 -1.866409
-5.375231 8.439826 -1.752668
-5.961263 7.918051 -1.477185
-10.313017 0.788696 -6.072540
-9.757506 2.208897 -5.186747
-8.545855 4.568398 -3.536656
-9.164253 3.455595 -4.343900
-3.962491 8.137581 -5.029302
-5.239799 7.273554 -4.495303
-4.288748 8.286703 -4.407807
-7.629740 5.543193 -3.425882
-6.445591 6.419706 -3.967596
-7.323170 6.036993 -3.041835
-4.877199 8.450916 -3.111337
-5.539311 7.384578 -3.871213
-4.595529 8.391976 -3.763257
-5.493107 7.962023 -2.824801
-4.927855 7.829748 -4.137817
-6.674244 6.988570 -2.272334
-6.154566 6.928392 -3.594142
-7.003400 6.520609 -2.655248
-6.092550 7.473854 -2.544817
-6.739100 6.486814 -3.322251
-5.831182 7.446065 -3.218247
-9.761855 -13.979383 -0.693509
-11.558859 -13.116612 -2.133668
-9.151737 -13.716348 -1.766040
-12.313487 -8.693720 -4.289448
-12.200582 -10.994654 -3.340790
-7.852475 -12.931868 -3.694560
-10.645155 -12.577758 -3.144195
-8.497691 -13.342502 -2.770788
-9.995434 -13.276441 -2.476842
-11.287107 -0.863191 -6.646107
-12.177977 -2.756841 -6.473384
-12.299343 -6.574917 -5.090017
-12.246615 -4.617871 -5.804955
-5.466647 -11.226595 -6.938417
-7.665601 -10.640897 -6.576436
-6.025281 -11.642026 -6.192548
-11.609714 -8.434741 -5.212956
-9.792831 -9.753505 -6.027997
-11.516496 -9.493841 -4.783623
-7.207025 -12.487897 -4.597615
-8.314733 -11.084554 -5.810850
-6.607084 -12.065311 -5.410509
-8.495159 -12.313369 -4.368590
-7.171374 -11.394419 -6.021653
-11.091515 -11.613874 -3.776253
-9.479962 -10.671895 -5.536105
-11.357278 -10.574347 -4.305964
-9.817056 -12.042779 -4.100517
-10.550149 -10.155193 -5.201028
-9.040318 -11.543936 -4.989378
-0.713612 -5.494434 -9.331218
-2.196192 -5.156913 -9.701382
-1.194215 -6.188504 -9.275144
-0.700581 -4.740643 -9.504667
-5.286268 -4.092400 -9.888736
-3.733581 -4.693346 -9.901473
-2.286036 -7.739727 -9.144856
-2.764874 -5.876506 -9.677739
-1.718854 -6.936530 -9.213451
-1.972192 -6.048488 -9.496929
-0.680872 -3.265854 -9.754931
-2.147808 -4.345111 -9.802330
-0.690426 -3.993894 -9.645896
-1.421201 -4.556127 -9.673979
-10.240641 -0.508032 -7.151078
-9.348205 -1.520664 -8.237995
-10.928669 -1.407114 -7.291759
-6.793257 -3.351767 -9.621737
-8.175462 -2.484162 -9.072172
-11.683318 -3.337857 -7.094332
-9.936790 -2.484005 -8.409979
-11.661056 -2.421609 -7.426796
-10.475206 -1.954246 -7.886468
-4.820276 -10.735179 -7.799370
-5.618186 -9.127068 -9.090415
-4.287433 -10.321928 -8.509076
-5.893001 -10.455482 -7.635714
-6.107619 -4.812077 -9.882335
-6.117801 -7.131010 -9.898811
-5.278809 -5.136223 -9.924192
-2.947855 -8.658365 -9.066134
-4.981230 -8.529801 -9.602269
-3.655441 -9.641478 -8.976828
-3.203669 -7.669909 -9.408831
-4.698055 -9.529881 -9.173120
-8.018900 -9.720086 -7.206341
-6.639433 -8.730652 -8.858547
-6.969424 -10.118868 -7.440011
-6.285930 -9.613536 -8.278908
-3.614692 -5.666237 -9.818112
-5.137696 -7.351518 -9.800472
-4.439682 -5.421551 -9.900390
-3.426242 -6.662668 -9.657252
-5.231648 -6.230532 -9.899539
-4.163280 -7.543500 -9.632591
-0.664327 -0.410577 -9.923082
-2.023778 -1.250764 -9.909641
-0.667324 -1.104230 -9.919894
-5.123018 -3.166199 -9.827776
-3.481252 -2.151532 -9.880064
-4.394810 -3.503714 -9.904682
-0.677557 -2.517427 -9.839064
-2.047900 -1.980192 -9.924589
-0.671280 -1.810077 -9.891983
-1.378680 -3.015164 -9.857013
-1.350194 -1.535539 -9.923839
-2.913054 -4.087076 -9.889924
-2.799928 -2.463959 -9.921860
-3.651820 -3.813077 -9.924049
-2.123049 -3.538008 -9.874143
-3.567703 -2.962354 -9.915469
-2.089925 -2.745539 -9.913871
-11.669599 -7.212209 -5.682362
-10.373456 -6.411149 -7.472940
-11.692904 -6.219610 -6.051613
-10.915100 -7.971375 -6.152054
-7.075603 -4.372963 -9.738974
-9.089188 -5.617427 -9.125836
-7.859533 -3.960151 -9.534000
-7.198259 -5.555387 -9.856482
-11.694796 -4.305622 -6.749310
-10.447616 -5.476948 -7.836954
-11.700217 -5.246788 -6.407154
-11.119493 -3.945022 -7.671488
-11.070303 -5.850366 -6.967384
-9.083914 -9.216983 -6.908079
-9.559746 -7.087468 -7.886622
-10.038959 -8.645270 -6.564098
-8.358436 -8.725060 -7.765226
-10.227665 -7.520005 -7.044358
-9.296235 -3.022672 -8.878117
-9.801297 -5.084477 -8.706600
-8.608191 -3.505329 -9.245548
-10.518922 -3.581650 -8.574834
-9.066424 -4.643410 -9.419035
-10.486982 -4.532555 -8.212593
-6.976644 -7.763303 -9.410265
-8.867544 -6.646176 -8.739519
-7.270088 -6.810249 -9.887762
-7.654595 -8.239354 -8.600755
-8.210342 -6.233870 -9.533917
-8.639347 -7.688942 -8.276324
-0.686797 5.287971 -8.980580
-1.980270 4.649905 -8.747579
-1.113583 5.770660 -8.648893
-0.678091 4.588454 -9.199538
-4.406355 3.411209 -8.242730
-3.206477 4.030743 -8.503592
-1.960797 6.638578 -7.843796
-2.397535 5.095758 -8.391962
-1.542278 6.223946 -8.266960
-1.769505 5.426870 -8.520906
-0.666003 3.194533 -9.541901
-1.969313 3.984007 -8.987699
-0.671873 3.886572 -9.386695
-1.336081 4.283247 -9.094577
-9.739149 0.483154 -6.800884
-8.234978 1.339576 -7.256976
-9.540262 1.228350 -6.365394
-9.391068 0.000000 -7.375885
-5.617670 2.771737 -7.956675
-6.879202 2.090286 -7.633734
-9.078074 2.593554 -5.512378
-8.110167 2.027384 -6.864021
-9.316378 1.934698 -5.933497
-8.804066 1.642480 -6.628317
-8.481103 -0.963861 -8.381246
-7.854280 0.892624 -7.761803
-8.967112 -0.486321 -7.908087
-8.594669 0.466122 -7.579630
-3.547914 7.901517 -5.740646
-4.030908 6.548444 -6.522147
-3.179374 7.654292 -6.309960
-4.221538 7.489939 -5.469956
-4.833394 3.808139 -7.820595
-4.454985 5.192804 -7.208317
-4.239328 4.124819 -7.969961
-2.392406 7.026915 -7.357850
-3.649747 6.249784 -7.035581
-2.790809 7.360951 -6.853513
-2.616725 6.264706 -7.685040
-3.424711 6.946936 -6.686870
-5.501509 6.668638 -4.944038
-4.699632 6.179873 -6.270402
-4.874492 7.077247 -5.203625
-4.468278 6.833667 -5.884962
-3.037800 4.761925 -8.251176
-3.865112 5.530581 -7.372939
-3.638679 4.443400 -8.114170
-2.832173 5.507443 -7.982803
-4.058287 4.833141 -7.679258
-3.253277 5.894653 -7.527114
-0.662495 0.409445 -9.895717
-1.973693 1.219810 -9.664394
-0.662387 1.096061 -9.846506
-1.331127 0.000000 -9.879970
-4.443304 2.746113 -8.523843
-3.243349 2.004500 -9.204879
-3.835880 3.058113 -8.645009
-0.666120 2.474934 -9.672985
-1.968461 1.903380 -9.539611
-0.663149 1.788153 -9.772170
-1.323938 2.895444 -9.465630
-1.322641 1.504204 -9.721328
-2.718298 -0.834383 -9.834896
-2.657788 0.815810 -9.615967
-2.018266 -0.415512 -9.859784
-2.001299 0.412019 -9.776896
-2.614162 3.667724 -8.875173
-2.622281 2.307628 -9.292349
-3.224340 3.366721 -8.762346
-1.977592 3.295607 -9.197632
-3.237225 2.687950 -8.996994
-1.977880 2.598345 -9.382368
-7.981698 4.932961 -3.886586
-7.340606 4.536744 -5.288103
-8.267049 4.397353 -4.278576
-7.367501 5.380539 -4.152528
-5.545013 3.427007 -7.632246
-6.519967 4.029561 -6.546256
-6.152326 3.099947 -7.463074
-5.347524 4.127049 -7.322294
-8.810196 3.243612 -5.084547
-7.558039 3.962147 -5.669428
-8.545438 3.832074 -4.679567
-8.406840 2.982615 -5.799992
-7.935370 4.193636 -4.994332
-6.145916 6.235947 -4.673808
-6.696091 4.964392 -5.524157
-6.753662 5.816064 -4.415966
-5.776642 6.030022 -5.366665
-7.053270 5.185996 -4.857977
-7.417906 2.411933 -7.084270
-7.121109 3.694114 -6.325759
-6.778560 2.760288 -7.280449
-7.938528 2.703037 -6.471344
-6.657125 3.409477 -6.916034
-7.752515 3.350697 -6.071170
-4.930898 5.486886 -6.650913
-6.274802 4.702930 -6.184210
-5.142082 4.816841 -6.993545
-5.368081 5.778166 -6.031612
-5.832090 4.428134 -6.772271
-6.035782 5.371792 -5.782160
-5.967870 -2.725269 -9.656217
-5.749671 -0.860723 -9.303163
-6.649839 -2.323850 -9.441539
-5.081604 -2.217471 -9.715870
-5.174342 2.362899 -8.372261
-5.480888 0.820486 -8.868263
-5.801645 2.027441 -8.237261
-4.584167 2.000403 -8.764786
-7.904460 -1.445234 -8.811297
-6.331655 -0.448321 -9.010712
-7.302624 -1.893870 -9.158190
-7.653492 -0.466398 -8.524822
-6.494415 -1.354034 -9.235150
-3.483744 -1.287242 -9.802420
-4.933102 -0.438878 -9.402166
-4.253068 -1.737397 -9.763988
-3.439667 -0.425166 -9.693098
-5.016421 -1.303467 -9.571141
-7.121552 1.302089 -7.938570
-6.156714 0.435934 -8.761749
-6.452609 1.673426 -8.092189
-7.390355 0.450362 -8.231727
-5.982266 1.247255 -8.506866
-6.877689 0.000000 -8.651500
-3.335209 1.232359 -9.384477
-4.828121 0.429538 -9.202079
-3.965943 1.620105 -9.104822
-3.389708 0.418991 -9.552312
-4.713286 1.224700 -8.992770
-4.149779 0.000000 -9.481003
-5.766221 8.257469 0.409648
-6.526178 7.405692 1.204677
-5.583821 8.368863 1.077528
-6.174369 7.861282 0.000000
-7.904121 5.580565 2.753429
-7.234142 6.519106 1.980869
-5.142761 8.469369 2.419650
-6.319014 7.466215 1.866409
-5.375231 8.439826 1.752668
-5.961263 7.918051 1.477185
-6.953584 7.036432 -0.799677
-6.953584 7.036432 0.799677
-6.571957 7.452052 -0.404153
-6.571957 7.452052 0.404153
-10.313017 0.788696 6.072540
-9.757506 2.208897 5.186747
-8.545855 4.568398 3.536656
-9.164253 3.455595 4.343900
-3.962491 8.137581 5.029302
-5.239799 7.273554 4.495303
-4.288748 8.286703 4.407807
-7.629740 5.543193 3.425882
-6.445591 6.419706 3.967596
-7.323170 6.036993 3.041835
-4.877199 8.450916 3.111337
-5.539311 7.384578 3.871213
-4.595529 8.391976 3.763257
-5.493107 7.962023 2.824801
-4.927855 7.829748 4.137817
-6.674244 6.988570 2.272334
-6.154566 6.928392 3.594142
-7.003400 6.520609 2.655248
-6.092550 7.473854 2.544817
-6.739100 6.486814 3.322251
-5.831182 7.446065 3.218247
-8.422053 5.205115 -2.376952
-8.646286 5.343699 -0.799949
-8.068788 5.682987 -1.985974
-8.422053 5.205115 2.376952
-8.646286 5.343699 0.799949
-8.068788 5.682987 1.985974
-7.343852 6.588041 -1.204543
-8.236236 5.787445 -0.409787
-7.707558 6.145909 -1.593886
-7.389652 6.634349 -0.404292
-8.180225 5.752562 -1.199364
-7.343852 6.588041 1.204543
-8.236236 5.787445 0.409787
-7.707558 6.145909 1.593886
-7.389652 6.634349 0.404292
-8.180225 5.752562 1.199364
-7.819432 6.216219 0.000000
-9.761855 -13.979383 0.693509
-11.558859 -13.116612 2.133668
-9.151737 -13.716348 1.766040
-11.023810 -14.035651 0.000000
-12.313487 -8.693720 4.289448
-12.200582 -10.994654 3.340790
-7.852475 -12.931868 3.694560
-10.645155 -12.577758 3.144195
-8.497691 -13.342502 2.770788
-9.995434 -13.276441 2.476842
-12.906418 -13.060190 -1.484266
-12.906418 -13.060190 1.484266
-12.238994 -13.877999 -0.752657
-12.238994 -13.877999 0.752657
-11.287107 -0.863191 6.646107
-12.177977 -2.756841 6.473384
-12.299343 -6.574917 5.090017
-12.246615 -4.617871 5.804955
-5.466647 -11.226595 6.938417
-7.665601 -10.640897 6.576436
-6.025281 -11.642026 6.192548
-11.609714 -8.434741 5.212956
-9.792831 -9.753505 6.027997
-11.516496 -9.493841 4.783623
-7.207025 -12.487897 4.597615
-8.314733 -11.084554 5.810850
-6.607084 -12.065311 5.410509
-8.495159 -12.313369 4.368590
-7.171374 -11.394419 6.021653
-11.091515 -11.613874 3.776253
-9.479962 -10.671895 5.536105
-11.357278 -10.574347 4.305964
-9.817056 -12.042779 4.100517
-10.550149 -10.155193 5.201028
-9.040318 -11.543936 4.989378
-12.933178 -7.993143 -3.650124
-13.884391 -8.581026 -1.284576
-12.989765 -9.148915 -3.197177
-12.933178 -7.993143 3.650124
-13.884391 -8.581026 1.284576
-12.989765 -9.148915 3.197177
-13.051265 -11.708061 -2.140676
-13.978252 -9.822250 -0.695476
-13.037205 -10.395702 -2.696032
-13.855649 -12.439451 -0.758050
-13.592141 -9.558374 -1.992845
-13.051265 -11.708061 2.140676
-13.978252 -9.822250 0.695476
-13.037205 -10.395702 2.696032
-13.855649 -12.439451 0.758050
-13.592141 -9.558374 1.992845
-14.035651 -11.157931 0.000000
-0.713612 -5.494434 9.331218
-2.196192 -5.156913 9.701382
-1.194215 -6.188504 9.275144
-0.700581 -4.740643 9.504667
-5.286268 -4.092400 9.888736
-3.733581 -4.693346 9.901473
-2.286036 -7.739727 9.144856
-2.764874 -5.876506 9.677739
-1.718854 -6.936530 9.213451
-1.972192 -6.048488 9.496929
-0.680872 -3.265854 9.754931
-2.147808 -4.345111 9.802330
-0.690426 -3.993894 9.645896
-1.421201 -4.556127 9.673979
-10.240641 -0.508032 7.151078
-9.348205 -1.520664 8.237995
-10.928669 -1.407114 7.291759
-6.793257 -3.351767 9.621737
-8.175462 -2.484162 9.072172
-11.683318 -3.337857 7.094332
-9.936790 -2.484005 8.409979
-11.661056 -2.421609 7.426796
-10.475206 -1.954246 7.886468
-4.820276 -10.735179 7.799370
-5.618186 -9.127068 9.090415
-4.287433 -10.321928 8.509076
-5.893001 -10.455482 7.635714
-6.107619 -4.812077 9.882335
-6.117801 -7.131010 9.898811
-5.278809 -5.136223 9.924192
-2.947855 -8.658365 9.066134
-4.981230 -8.529801 9.602269
-3.655441 -9.641478 8.976828
-3.203669 -7.669909 9.408831
-4.698055 -9.529881 9.173120
-8.018900 -9.720086 7.206341
-6.639433 -8.730652 8.858547
-6.969424 -10.118868 7.440011
-6.285930 -9.613536 8.278908
-3.614692 -5.666237 9.818112
-5.137696 -7.351518 9.800472
-4.439682 -5.421551 9.900390
-3.426242 -6.662668 9.657252
-5.231648 -6.230532 9.899539
-4.163280 -7.543500 9.632591
-0.664327 -0.410577 9.923082
-2.023778 -1.250764 9.909641
-0.667324 -1.104230 9.919894
-5.123018 -3.166199 9.827776
-3.481252 -2.151532 9.880064
-4.394810 -3.503714 9.904682
-0.677557 -2.517427 9.839064
-2.047900 -1.980192 9.924589
-0.671280 -1.810077 9.891983
-1.378680 -3.015164 9.857013
-1.350194 -1.535539 9.923839
-2.913054 -4.087076 9.889924
-2.799928 -2.463959 9.921860
-3.651820 -3.813077 9.924049
-2.123049 -3.538008 9.874143
-3.567703 -2.962354 9.915469
-2.089925 -2.745539 9.913871
-11.669599 -7.212209 5.682362
-10.373456 -6.411149 7.472940
-11.692904 -6.219610 6.051613
-10.915100 -7.971375 6.152054
-7.075603 -4.372963 9.738974
-9.089188 -5.617427 9.125836
-7.859533 -3.960151 9.534000
-7.198259 -5.555387 9.856482
-11.694796 -4.305622 6.749310
-10.447616 -5.476948 7.836954
-11.700217 -5.246788 6.407154
-11.119493 -3.945022 7.671488
-11.070303 -5.850366 6.967384
-9.083914 -9.216983 6.908079
-9.559746 -7.087468 7.886622
-10.038959 -8.645270 6.564098
-8.358436 -8.725060 7.765226
-10.227665 -7.520005 7.044358
-9.296235 -3.022672 8.878117
-9.801297 -5.084477 8.706600
-8.608191 -3.505329 9.245548
-10.518922 -3.581650 8.574834
-9.066424 -4.643410 9.419035
-10.486982 -4.532555 8.212593
-6.976644 -7.763303 9.410265
-8.867544 -6.646176 8.739519
-7.270088 -6.810249 9.887762
-7.654595 -8.239354 8.600755
-8.210342 -6.233870 9.533917
-8.639347 -7.688942 8.276324
-0.686797 5.287971 8.980580
-1.980270 4.649905 8.747579
-1.113583 5.770660 8.648893
-0.678091 4.588454 9.199538
-4.406355 3.411209 8.242730
-3.206477 4.030743 8.503592
-1.960797 6.638578 7.843796
-2.397535 5.095758 8.391962
-1.542278 6.223946 8.266960
-1.769505 5.426870 8.520906
-0.666003 3.194533 9.541901
-1.969313 3.984007 8.987699
-0.671873 3.886572 9.386695
-1.336081 4.283247 9.094577
-9.739149 0.483154 6.800884
-8.234978 1.339576 7.256976
-9.540262 1.228350 6.365394
-9.391068 0.000000 7.375885
-5.617670 2.771737 7.956675
-6.879202 2.090286 7.633734
-9.078074 2.593554 5.512378
-8.110167 2.027384 6.864021
-9.316378 1.934698 5.933497
-8.804066 1.642480 6.628317
-8.481103 -0.963861 8.381246
-7.854280 0.892624 7.761803
-8.967112 -0.486321 7.908087
-8.594669 0.466122 7.579630
-3.547914 7.901517 5.740646
-4.030908 6.548444 6.522147
-3.179374 7.654292 6.309960
-4.221538 7.489939 5.469956
-4.833394 3.808139 7.820595
-4.454985 5.192804 7.208317
-4.239328 4.124819 7.969961
