-26.54081855 7.132790918 19.12761165
-24.39346253 0 24.10625138
-12.89435396 24.52651872 20.86350298
-15.23646786 14.76680371 24.65312287
-10.16038218 22.22246693 24.10684371
-17.32646653 21.82205764 19.04362954
-11.45002419 17.07223332 25.91495817
-4.398971448 2.71871387 32.65031006
-12.52654506 7.741830606 28.90108219
-4.388916934 7.27507591 31.94018921
-8.852655724 0 32.0292093
-8.635079811 9.850679222 29.95970604
-25.26757096 15.61621766 15.13484772
-19.48271914 12.04098262 22.90330997
-26.02223976 11.49742449 17.14290819
-21.52116039 18.78104312 17.08755752
-22.9715195 9.681873751 21.17588841
-18.49180211 16.82439736 21.18971968
-18.20973405 -5.485957498 29.46396863
-16.93602283 5.102232749 27.40306057
-21.48261758 -2.810429094 27.02315783
-13.55374676 -2.792225391 30.96625411
-20.59625036 2.694471519 25.90818935
-13.13827405 2.706633306 30.01702334
-33.81594816 0 -14.90622548
-39.15130711 0 -5.453148797
-33.053631 4.708067082 -12.81045485
-36.73380619 -5.23226098 -14.23676466
-33.81594816 0 14.90622548
-39.15130711 0 5.453148797
-33.053631 4.708067082 12.81045485
-36.73380619 -5.23226098 14.23676466
-30.84054848 13.36716451 -8.261362
-37.10863624 4.999641076 -3.089948116
-32.05852567 9.240008145 -10.54076607
-32.03592164 14.02193393 -2.888677252
-35.60665146 4.892727295 -8.110192792
-44.40992711 -19.24851635 -11.89623734
-42.55378924 -5.733265734 -3.54335309
-40.26138519 -11.60426187 -13.23784653
-49.84453091 -21.81665716 -4.494478548
-40.26995827 -5.533514552 -9.172362801
-30.84054848 13.36716451 8.261362
-37.10863624 4.999641076 3.089948116
-32.05852567 9.240008145 10.54076607
-32.03592164 14.02193393 2.888677252
-35.60665146 4.892727295 8.110192792
-34.8210794 9.624309642 0
-44.40992711 -19.24851635 11.89623734
-42.55378924 -5.733265734 3.54335309
-40.26138519 -11.60426187 13.23784653
-49.84453091 -21.81665716 4.494478548
-40.26995827 -5.533514552 9.172362801
-46.44615714 -12.83740211 0
-17.59239314 33.43368822 0
-13.41281821 37.20780574 0
-3.053289262 44.05427249 0
-8.590591103 40.78625716 0
27.53987429 52.3385058 0
18.42345696 51.10755972 0
3.251279834 46.91097221 0
10.37997617 49.28186807 0
-27.53987429 -52.3385058 0
-18.42345696 -51.10755972 0
-3.251279834 -46.91097221 0
-10.37997617 -49.28186807 0
17.59239314 -33.43368822 0
13.41281821 -37.20780574 0
3.053289262 -44.05427249 0
8.590591103 -40.78625716 0
-30.89915172 -52.47614425 4.013155566
-27.10653866 -50.99385457 11.54395037
-25.9641639 -52.05638777 3.837035015
-17.52018142 -42.3351673 22.63130916
-22.56722043 -47.60968511 17.95233857
-16.97637239 -50.7075219 3.53926709
-22.38041752 -50.48898783 11.06274419
-21.30632712 -51.45820202 3.683233741
-24.23645139 -51.46102142 7.560121186
-1.477552711 -20.7980769 29.78371211
-4.7010763 -25.46745119 28.8996241
-12.6638234 -36.35335363 25.66664168
-8.389287907 -30.63771832 27.6094287
-1.912238007 -46.21618744 3.09406609
-5.868972908 -46.49911512 9.496197645
-5.290065717 -47.52349921 3.196965514
-13.48246916 -41.84913073 21.81509335
-9.837796506 -45.17621499 15.91788912
-15.76860053 -44.5764022 19.7790122
-12.73229925 -49.76267744 3.426854282
-9.516517018 -47.6961319 9.841907976
-8.914163203 -48.71547672 3.305879368
-15.27625622 -49.94031908 6.985047596
-7.394943034 -47.79184238 6.502345993
-20.23932571 -48.97519941 14.42553324
-11.71387214 -47.16937286 13.31109728
-18.06310495 -47.01167569 17.29920705
-17.81409944 -49.71695496 10.68968921
-13.79339742 -46.16868653 16.61203843
-13.5063671 -48.77015421 10.28114734
18.8392091 -31.99469886 2.446820468
17.1752997 -32.31082899 7.314501119
16.91676941 -33.91697539 2.49999333
12.61604659 -30.48498358 16.29650081
15.061036 -31.77401416 11.9811307
12.61595806 -37.68319609 2.630199441
15.15854272 -34.19683651 7.492937981
14.83455525 -35.82783352 2.564455813
16.09514505 -34.17466489 5.020588416
1.442067276 -20.29858284 29.06841582
4.322788807 -23.41812937 26.57412125
0 -22.52499604 28.67910381
9.956285233 -28.58097009 20.1790879
7.172483803 -26.19394409 23.60488546
-3.140929078 -27.31192137 27.63732609
2.958872923 -25.72885366 26.03539711
-1.529591847 -24.87278421 28.20366516
1.487009993 -24.18035814 27.41851169
1.841576417 -44.50839308 2.979733236
5.224923812 -41.39639723 8.454104316
4.781624161 -42.95589586 2.889697097
0 -44.90352291 6.049845004
10.35957376 -32.15576848 16.76214246
8.079922918 -37.10387124 13.07358991
11.65698911 -32.95324997 14.62169895
10.12228431 -39.56174445 2.724377794
7.927630359 -39.73274072 8.198693735
7.555989155 -41.29312033 2.802191084
11.61053833 -37.95655036 5.308903022
6.421387425 -41.49997292 5.646302155
-3.779405353 -44.54793349 12.31274599
3.494433614 -41.18896537 11.38435004
-1.893182139 -44.92373668 9.195741605
1.820861902 -43.20763382 8.844460974
14.04920018 -33.99630946 10.01353538
9.341973255 -37.61822004 10.61578215
12.90036111 -33.57493602 12.35479828
12.92641276 -36.07602411 7.756739848
10.56500462 -35.36274434 12.72393287
10.50587202 -37.93566359 7.997148115
-10.84290402 -38.41874687 23.74409137
-3.346814205 -36.17418635 22.35687668
-8.744822227 -35.52921748 25.02383985
-9.275840458 -40.6421849 21.25671793
8.748984635 -30.99953899 19.15876873
3.115604192 -33.67514291 20.8123829
7.353160462 -29.87505411 21.0415152
7.678984936 -33.64554695 17.59732905
-4.920193861 -29.99741311 26.91015465
-1.666340111 -33.49146398 23.5338102
-6.760624107 -32.69236435 26.06847541
-1.594162022 -29.13810595 26.15987525
-5.066185742 -34.55377033 24.29917665
-5.738038777 -43.69547481 15.52921103
-1.773475257 -37.99348888 19.93431697
-7.547298962 -42.41502427 18.4754396
-1.849050355 -42.1553413 14.9591316
-5.35740215 -39.33850764 20.61807897
4.471413051 -27.26128853 24.45562514
1.608035944 -32.31961923 22.71037734
5.917594407 -28.61572383 22.81781413
1.543810747 -28.21778497 25.33362105
4.56385524 -31.12763997 21.88982606
0 -30.82299094 24.50337341
5.091856029 -38.77475832 13.78040649
1.705593684 -36.53924936 19.17131066
6.455155039 -36.27729059 15.80192167
1.776451365 -40.50020239 14.37179344
4.782503793 -35.11712519 18.40557011
0 -39.42242553 17.25496311
-18.8392091 31.99469886 2.446820468
-17.1752997 32.31082899 7.314501119
-16.91676941 33.91697539 2.49999333
-12.61604659 30.48498358 16.29650081
-15.061036 31.77401416 11.9811307
-12.61595806 37.68319609 2.630199441
-15.15854272 34.19683651 7.492937981
-14.83455525 35.82783352 2.564455813
-16.09514505 34.17466489 5.020588416
-1.442067276 20.29858284 29.06841582
-4.322788807 23.41812937 26.57412125
-9.956285233 28.58097009 20.1790879
-7.172483803 26.19394409 23.60488546
-1.841576417 44.50839308 2.979733236
-5.224923812 41.39639723 8.454104316
-4.781624161 42.95589586 2.889697097
-10.35957376 32.15576848 16.76214246
-8.079922918 37.10387124 13.07358991
-11.65698911 32.95324997 14.62169895
-10.12228431 39.56174445 2.724377794
-7.927630359 39.73274072 8.198693735
-7.555989155 41.29312033 2.802191084
-11.61053833 37.95655036 5.308903022
-6.421387425 41.49997292 5.646302155
-14.04920018 33.99630946 10.01353538
-9.341973255 37.61822004 10.61578215
-12.90036111 33.57493602 12.35479828
-12.92641276 36.07602411 7.756739848
-10.56500462 35.36274434 12.72393287
-10.50587202 37.93566359 7.997148115
30.89915172 52.47614425 4.013155566
27.10653866 50.99385457 11.54395037
25.9641639 52.05638777 3.837035015
17.52018142 42.3351673 22.63130916
22.56722043 47.60968511 17.95233857
16.97637239 50.7075219 3.53926709
22.38041752 50.48898783 11.06274419
21.30632712 51.45820202 3.683233741
24.23645139 51.46102142 7.560121186
1.477552711 20.7980769 29.78371211
4.7010763 25.46745119 28.8996241
0 22.52499604 28.67910381
12.6638234 36.35335363 25.66664168
8.389287907 30.63771832 27.6094287
-2.958872923 25.72885366 26.03539711
3.140929078 27.31192137 27.63732609
-1.487009993 24.18035814 27.41851169
1.529591847 24.87278421 28.20366516
1.912238007 46.21618744 3.09406609
5.868972908 46.49911512 9.496197645
5.290065717 47.52349921 3.196965514
0 44.90352291 6.049845004
13.48246916 41.84913073 21.81509335
9.837796506 45.17621499 15.91788912
15.76860053 44.5764022 19.7790122
12.73229925 49.76267744 3.426854282
9.516517018 47.6961319 9.841907976
8.914163203 48.71547672 3.305879368
15.27625622 49.94031908 6.985047596
7.394943034 47.79184238 6.502345993
-3.494433614 41.18896537 11.38435004
3.779405353 44.54793349 12.31274599
-1.820861902 43.20763382 8.844460974
1.893182139 44.92373668 9.195741605
20.23932571 48.97519941 14.42553324
11.71387214 47.16937286 13.31109728
18.06310495 47.01167569 17.29920705
17.81409944 49.71695496 10.68968921
13.79339742 46.16868653 16.61203843
13.5063671 48.77015421 10.28114734
-8.748984635 30.99953899 19.15876873
-3.115604192 33.67514291 20.8123829
-7.353160462 29.87505411 21.0415152
-7.678984936 33.64554695 17.59732905
10.84290402 38.41874687 23.74409137
3.346814205 36.17418635 22.35687668
8.744822227 35.52921748 25.02383985
9.275840458 40.6421849 21.25671793
-4.471413051 27.26128853 24.45562514
-1.608035944 32.31961923 22.71037734
-5.917594407 28.61572383 22.81781413
-1.543810747 28.21778497 25.33362105
-4.56385524 31.12763997 21.88982606
-5.091856029 38.77475832 13.78040649
-1.705593684 36.53924936 19.17131066
-6.455155039 36.27729059 15.80192167
-1.776451365 40.50020239 14.37179344
-4.782503793 35.11712519 18.40557011
4.920193861 29.99741311 26.91015465
1.666340111 33.49146398 23.5338102
6.760624107 32.69236435 26.06847541
1.594162022 29.13810595 26.15987525
5.066185742 34.55377033 24.29917665
0 30.82299094 24.50337341
5.738038777 43.69547481 15.52921103
1.773475257 37.99348888 19.93431697
7.547298962 42.41502427 18.4754396
1.849050355 42.1553413 14.9591316
5.35740215 39.33850764 20.61807897
0 39.42242553 17.25496311
0 -16.23420906 30.85250993
0 -11.53811229 32.00728096
0 -2.297076779 33.14328833
0 -6.90135966 32.76615386
0 16.23420906 30.85250993
0 11.53811229 32.00728096
0 2.297076779 33.14328833
0 6.90135966 32.76615386
-30.89915172 -52.47614425 -4.013155566
-27.10653866 -50.99385457 -11.54395037
-25.9641639 -52.05638777 -3.837035015
-17.52018142 -42.3351673 -22.63130916
-22.56722043 -47.60968511 -17.95233857
-16.97637239 -50.7075219 -3.53926709
-22.38041752 -50.48898783 -11.06274419
-21.30632712 -51.45820202 -3.683233741
-24.23645139 -51.46102142 -7.560121186
-1.477552711 -20.7980769 -29.78371211
-4.7010763 -25.46745119 -28.8996241
-12.6638234 -36.35335363 -25.66664168
-8.389287907 -30.63771832 -27.6094287
-1.912238007 -46.21618744 -3.09406609
-5.868972908 -46.49911512 -9.496197645
-5.290065717 -47.52349921 -3.196965514
-13.48246916 -41.84913073 -21.81509335
-9.837796506 -45.17621499 -15.91788912
-15.76860053 -44.5764022 -19.7790122
-12.73229925 -49.76267744 -3.426854282
-9.516517018 -47.6961319 -9.841907976
-8.914163203 -48.71547672 -3.305879368
-15.27625622 -49.94031908 -6.985047596
-7.394943034 -47.79184238 -6.502345993
-20.23932571 -48.97519941 -14.42553324
-11.71387214 -47.16937286 -13.31109728
-18.06310495 -47.01167569 -17.29920705
-17.81409944 -49.71695496 -10.68968921
-13.79339742 -46.16868653 -16.61203843
-13.5063671 -48.77015421 -10.28114734
18.8392091 -31.99469886 -2.446820468
17.1752997 -32.31082899 -7.314501119
16.91676941 -33.91697539 -2.49999333
12.61604659 -30.48498358 -16.29650081
15.061036 -31.77401416 -11.9811307
12.61595806 -37.68319609 -2.630199441
15.15854272 -34.19683651 -7.492937981
14.83455525 -35.82783352 -2.564455813
16.09514505 -34.17466489 -5.020588416
1.442067276 -20.29858284 -29.06841582
4.322788807 -23.41812937 -26.57412125
0 -22.52499604 -28.67910381
9.956285233 -28.58097009 -20.1790879
7.172483803 -26.19394409 -23.60488546
-3.140929078 -27.31192137 -27.63732609
2.958872923 -25.72885366 -26.03539711
-1.529591847 -24.87278421 -28.20366516
1.487009993 -24.18035814 -27.41851169
1.841576417 -44.50839308 -2.979733236
5.224923812 -41.39639723 -8.454104316
4.781624161 -42.95589586 -2.889697097
0 -44.90352291 -6.049845004
10.35957376 -32.15576848 -16.76214246
8.079922918 -37.10387124 -13.07358991
11.65698911 -32.95324997 -14.62169895
10.12228431 -39.56174445 -2.724377794
7.927630359 -39.73274072 -8.198693735
7.555989155 -41.29312033 -2.802191084
11.61053833 -37.95655036 -5.308903022
6.421387425 -41.49997292 -5.646302155
-3.779405353 -44.54793349 -12.31274599
3.494433614 -41.18896537 -11.38435004
-1.893182139 -44.92373668 -9.195741605
1.820861902 -43.20763382 -8.844460974
14.04920018 -33.99630946 -10.01353538
9.341973255 -37.61822004 -10.61578215
12.90036111 -33.57493602 -12.35479828
12.92641276 -36.07602411 -7.756739848
10.56500462 -35.36274434 -12.72393287
10.50587202 -37.93566359 -7.997148115
-10.84290402 -38.41874687 -23.74409137
-3.346814205 -36.17418635 -22.35687668
-8.744822227 -35.52921748 -25.02383985
-9.275840458 -40.6421849 -21.25671793
8.748984635 -30.99953899 -19.15876873
3.115604192 -33.67514291 -20.8123829
7.353160462 -29.87505411 -21.0415152
7.678984936 -33.64554695 -17.59732905
-4.920193861 -29.99741311 -26.91015465
-1.666340111 -33.49146398 -23.5338102
-6.760624107 -32.69236435 -26.06847541
-1.594162022 -29.13810595 -26.15987525
-5.066185742 -34.55377033 -24.29917665
-5.738038777 -43.69547481 -15.52921103
-1.773475257 -37.99348888 -19.93431697
-7.547298962 -42.41502427 -18.4754396
-1.849050355 -42.1553413 -14.9591316
-5.35740215 -39.33850764 -20.61807897
4.471413051 -27.26128853 -24.45562514
1.608035944 -32.31961923 -22.71037734
5.917594407 -28.61572383 -22.81781413
1.543810747 -28.21778497 -25.33362105
4.56385524 -31.12763997 -21.88982606
0 -30.82299094 -24.50337341
5.091856029 -38.77475832 -13.78040649
1.705593684 -36.53924936 -19.17131066
6.455155039 -36.27729059 -15.80192167
1.776451365 -40.50020239 -14.37179344
4.782503793 -35.11712519 -18.40557011
0 -39.42242553 -17.25496311
-18.8392091 31.99469886 -2.446820468
-17.1752997 32.31082899 -7.314501119
-16.91676941 33.91697539 -2.49999333
-12.61604659 30.48498358 -16.29650081
-15.061036 31.77401416 -11.9811307
-12.61595806 37.68319609 -2.630199441
-15.15854272 34.19683651 -7.492937981
-14.83455525 35.82783352 -2.564455813
-16.09514505 34.17466489 -5.020588416
-1.442067276 20.29858284 -29.06841582
-4.322788807 23.41812937 -26.57412125
-9.956285233 28.58097009 -20.1790879
-7.172483803 26.19394409 -23.60488546
-1.841576417 44.50839308 -2.979733236
-5.224923812 41.39639723 -8.454104316
-4.781624161 42.95589586 -2.889697097
-10.35957376 32.15576848 -16.76214246
-8.079922918 37.10387124 -13.07358991
-11.65698911 32.95324997 -14.62169895
-10.12228431 39.56174445 -2.724377794
-7.927630359 39.73274072 -8.198693735
-7.555989155 41.29312033 -2.802191084
-11.61053833 37.95655036 -5.308903022
-6.421387425 41.49997292 -5.646302155
-14.04920018 33.99630946 -10.01353538
-9.341973255 37.61822004 -10.61578215
-12.90036111 33.57493602 -12.35479828
-12.92641276 36.07602411 -7.756739848
-10.56500462 35.36274434 -12.72393287
-10.50587202 37.93566359 -7.997148115
30.89915172 52.47614425 -4.013155566
27.10653866 50.99385457 -11.54395037
25.9641639 52.05638777 -3.837035015
17.52018142 42.3351673 -22.63130916
22.56722043 47.60968511 -17.95233857
16.97637239 50.7075219 -3.53926709
22.38041752 50.48898783 -11.06274419
21.30632712 51.45820202 -3.683233741
24.23645139 51.46102142 -7.560121186
1.477552711 20.7980769 -29.78371211
4.7010763 25.46745119 -28.8996241
0 22.52499604 -28.67910381
12.6638234 36.35335363 -25.66664168
8.389287907 30.63771832 -27.6094287
-2.958872923 25.72885366 -26.03539711
3.140929078 27.31192137 -27.63732609
-1.487009993 24.18035814 -27.41851169
1.529591847 24.87278421 -28.20366516
1.912238007 46.21618744 -3.09406609
5.868972908 46.49911512 -9.496197645
5.290065717 47.52349921 -3.196965514
0 44.90352291 -6.049845004
13.48246916 41.84913073 -21.81509335
9.837796506 45.17621499 -15.91788912
15.76860053 44.5764022 -19.7790122
12.73229925 49.76267744 -3.426854282
9.516517018 47.6961319 -9.841907976
8.914163203 48.71547672 -3.305879368
15.27625622 49.94031908 -6.985047596
7.394943034 47.79184238 -6.502345993
-3.494433614 41.18896537 -11.38435004
3.779405353 44.54793349 -12.31274599
-1.820861902 43.20763382 -8.844460974
1.893182139 44.92373668 -9.195741605
20.23932571 48.97519941 -14.42553324
11.71387214 47.16937286 -13.31109728
18.06310495 47.01167569 -17.29920705
17.81409944 49.71695496 -10.68968921
13.79339742 46.16868653 -16.61203843
13.5063671 48.77015421 -10.28114734
-8.748984635 30.99953899 -19.15876873
-3.115604192 33.67514291 -20.8123829
-7.353160462 29.87505411 -21.0415152
-7.678984936 33.64554695 -17.59732905
10.84290402 38.41874687 -23.74409137
3.346814205 36.17418635 -22.35687668
8.744822227 35.52921748 -25.02383985
9.275840458 40.6421849 -21.25671793
-4.471413051 27.26128853 -24.45562514
-1.608035944 32.31961923 -22.71037734
-5.917594407 28.61572383 -22.81781413
-1.543810747 28.21778497 -25.33362105
-4.56385524 31.12763997 -21.88982606
-5.091856029 38.77475832 -13.78040649
-1.705593684 36.53924936 -19.17131066
-6.455155039 36.27729059 -15.80192167
-1.776451365 40.50020239 -14.37179344
-4.782503793 35.11712519 -18.40557011
4.920193861 29.99741311 -26.91015465
1.666340111 33.49146398 -23.5338102
6.760624107 32.69236435 -26.06847541
1.594162022 29.13810595 -26.15987525
5.066185742 34.55377033 -24.29917665
0 30.82299094 -24.50337341
5.738038777 43.69547481 -15.52921103
1.773475257 37.99348888 -19.93431697
7.547298962 42.41502427 -18.4754396
1.849050355 42.1553413 -14.9591316
5.35740215 39.33850764 -20.61807897
0 39.42242553 -17.25496311
0 -16.23420906 -30.85250993
0 -11.53811229 -32.00728096
0 -2.297076779 -33.14328833
0 -6.90135966 -32.76615386
0 16.23420906 -30.85250993
0 11.53811229 -32.00728096
0 2.297076779 -33.14328833
0 6.90135966 -32.76615386
36.8730399 52.80372845 -2.619562391
45.1743255 51.26233545 -8.338798782
34.95360143 52.38740879 -6.745108559
44.83027008 31.65161845 -15.61678818
48.14838393 43.38930724 -13.18409716
30.54381517 50.30115896 -14.37075271
42.26629305 49.93963674 -12.48393968
32.8502225 51.5792083 -10.71126449
38.94350608 51.72673627 -9.650099261
31.62893143 2.418848107 -18.62383689
34.28107759 7.760524513 -18.22261453
40.76318201 21.7909656 -16.86962376
37.2703628 14.05365673 -17.66633178
19.49132508 40.02841274 -24.73891959
28.65020782 39.77038364 -24.57944884
22.29863077 43.08533182 -22.91765877
41.16395794 29.90662089 -18.4833082
36.27052535 36.12486763 -22.32639603
42.83088662 35.30844804 -17.79072411
27.91131341 48.36303543 -17.80560903
32.07538159 42.76040038 -22.4162611
25.16116768 45.94724747 -20.60435796
33.54339857 48.61971745 -17.24951292
27.26719425 43.32416956 -22.89569296
44.1150428 46.19265605 -15.01954804
36.53207633 41.12532301 -21.33398914
44.06837032 41.03044942 -16.70794839
39.1152982 47.98352253 -16.3381934
40.07599736 38.57570901 -19.75672467
35.65885534 45.53418993 -19.68022833
20.87505824 -29.89395259 -1.483021677
23.30764876 -26.4487515 -4.30239502
20.18977422 -30.25982766 -3.896085477
26.85787453 -18.96252678 -9.356038606
25.28170464 -22.78281347 -6.922692375
18.42616612 -30.34517809 -8.669443393
22.50248481 -26.58775672 -6.64642302
19.36623279 -30.40755522 -6.314625161
21.41412146 -28.4433202 -5.30636346
30.23222389 -2.312033769 -17.8014236
29.75478383 -6.735865542 -15.81659604
28.09683631 -15.01985771 -11.62772468
29.0500017 -10.95397848 -13.76984096
13.71391653 -28.16362197 -17.40607562
18.13643041 -25.17583118 -15.55951936
14.98339313 -28.95085674 -15.39934423
25.78323731 -18.73215168 -11.57710642
22.12607419 -22.03721875 -13.6197502
25.12006412 -20.70819796 -10.43415549
17.343045 -30.05097925 -11.06373871
19.33524584 -25.77624372 -13.51266603
16.20426093 -29.59088373 -13.26959054
19.52319285 -28.29803064 -10.03969728
17.22872037 -27.37428706 -14.46659631
23.50374662 -24.61066373 -8.002160466
21.39884594 -24.0893631 -12.49649056
24.35954036 -22.68027798 -9.235602319
21.58169477 -26.47469877 -9.014526777
23.29571569 -22.42361535 -11.4843565
20.51421497 -26.19540508 -11.32185626
2.278100498 -17.54015556 -29.78851141
6.559172774 -15.40170086 -28.97426719
3.695121979 -19.148368 -28.69899928
2.25101411 -15.23199529 -30.53911755
14.31885086 -11.08503547 -26.78550067
10.54714978 -13.25843165 -27.9710901
6.53631401 -22.12969386 -26.14728648
7.943456981 -16.88314362 -27.8040476
5.12576909 -20.68532295 -27.47529312
5.871353924 -18.00677062 -28.27301924
2.216044098 -10.62942945 -31.74954073
6.517961242 -13.18612194 -29.747164
2.232820792 -12.9161529 -31.19458374
4.431943838 -14.20805154 -30.16781758
28.55921546 -1.416806141 -19.94300634
24.99305007 -4.065597356 -22.02482913
28.44962212 -3.663013577 -18.98198012
17.94139425 -8.852215696 -25.41157732
21.47784569 -6.52617021 -23.83360386
28.0466776 -8.012774981 -17.03047314
24.93308945 -6.232788325 -21.10206109
28.27564604 -5.871899423 -18.00844361
26.67658969 -4.976763604 -20.08400312
12.14610573 -27.05044897 -19.6528119
13.56598178 -22.03872427 -21.95021961
10.79324984 -25.9845781 -21.42087634
14.47385226 -25.6798048 -18.75414525
15.70710944 -12.37533333 -25.41463693
14.72755532 -17.1666795 -23.82968508
13.86919082 -13.49457064 -26.07415943
8.012988776 -23.53555127 -24.64396622
12.20966826 -20.90769476 -23.53645855
9.404073632 -24.80389511 -23.09400045
8.724258577 -20.88676315 -25.62221218
11.54280176 -23.41427037 -22.53773181
18.79832748 -22.78633833 -16.89348503
15.78079236 -20.7512617 -21.05524599
16.70119381 -24.2483701 -17.82888558
15.16319328 -23.19018915 -19.97074012
10.0349458 -15.7303531 -27.25660428
12.82993553 -18.35832819 -24.4738932
11.96973137 -14.61692806 -26.69222746
9.398630317 -18.2765742 -26.49111036
13.37218081 -15.92534684 -25.30338914
10.83097653 -19.62478375 -25.05965551
2.212842155 -1.367611664 -33.05331071
6.535818281 -4.039357842 -32.00331101
2.21125461 -3.658995429 -32.87071951
14.37205485 -8.882418385 -27.57072787
10.6053836 -6.554487531 -30.0989086
12.50363542 -9.968386188 -28.17972282
2.219276806 -8.245607804 -32.2269775
6.516014167 -6.300583165 -31.57809156
2.211840739 -5.964134543 -32.5937108
4.396763301 -9.615694355 -31.43511324
4.399664946 -5.00362049 -32.33726625
8.619445192 -12.0932624 -29.26332359
8.631383792 -7.595686816 -30.58628089
10.57803927 -11.04514403 -28.74648245
6.543113899 -10.9039355 -30.43153946
10.5994589 -8.800999927 -29.45834115
6.544577926 -8.597627196 -31.04518048
26.46446013 -16.35593585 -12.88653134
23.95304819 -14.80379792 -17.25554912
26.95420274 -14.33729751 -13.95003332
24.67663493 -18.02152312 -13.90843782
17.84778133 -11.03053548 -24.56597562
21.0488729 -13.00891888 -21.13374327
19.61712201 -9.884399483 -23.79653525
17.38676237 -13.41854968 -23.80746537
27.73224929 -10.21006196 -16.00485773
24.2946477 -12.73596976 -18.22387276
27.37884179 -12.27763332 -14.99292487
26.3073678 -9.33344134 -18.14980773
25.67260887 -13.56730379 -16.15772489
20.89693363 -21.20305186 -15.89157206
22.0656666 -16.3591887 -18.20378601
22.81259494 -19.64556659 -14.91629862
19.4663878 -20.32023764 -18.08482975
23.42073483 -17.22035748 -16.13115562
23.12264213 -7.518330053 -22.08265197
22.77893062 -11.81669645 -20.23477437
21.38275402 -8.707239517 -22.9659469
24.75884066 -8.430284101 -20.18295832
21.2378745 -10.87707394 -22.06385895
24.54427939 -10.60822699 -19.22118105
16.37316288 -18.21933586 -22.08451531
20.54353154 -15.39726517 -20.24693511
16.89480761 -15.82619705 -22.97796719
17.94346671 -19.31422559 -20.16140117
19.01002019 -14.433747 -22.07459318
20.04784172 -17.84239981 -19.20543787
2.358713228 18.16083048 -30.84260592
7.202964463 16.91339866 -31.81813075
3.929293065 20.36185815 -30.51774189
2.321026366 15.70574904 -31.48896167
16.5700817 12.82784109 -30.99675657
12.03933277 15.13419966 -31.9283663
7.41288522 25.09746017 -29.65384361
8.994965292 19.11803529 -31.48458458
5.620055287 22.68004207 -30.12478004
6.458553761 19.80764533 -31.10063149
2.265200385 10.86521144 -32.453809
7.06584542 14.29451571 -32.24763921
2.292459283 13.26114247 -32.02778895
4.696425277 15.05593365 -31.96811742
29.3172937 1.454413964 -20.47237519
26.86276631 4.369742443 -23.6724944
30.51374242 3.928778116 -20.35918965
27.46096901 0 -21.56825479
20.56193811 10.14518207 -29.12322605
23.96870056 7.283031168 -26.59766358
33.05305416 9.44306806 -20.07043969
27.94478538 6.985653839 -23.65100279
31.7601728 6.595518279 -20.22769984
29.28056945 5.462560023 -22.04446127
23.82419136 -2.707573632 -23.54368287
24.94352873 2.834784177 -24.64984105
25.62276153 -1.389619643 -22.59668786
26.24759522 1.423506747 -23.14772807
16.32063012 36.34748306 -26.40733425
18.0297348 29.29034995 -29.17272371
13.85122478 33.34660435 -27.48990133
20.59032252 36.53177147 -26.67941419
18.76789926 14.78687153 -30.36709891
18.72646176 21.8278703 -30.30005162
16.52598886 16.07960601 -31.06895521
9.449762533 27.7556074 -29.06276736
15.52690409 26.58809103 -29.93106174
11.54924382 30.46192996 -28.36198996
10.29136815 24.63858299 -30.22464499
14.80857391 30.03880344 -28.91426831
28.83031832 34.94658702 -25.90893
21.66210088 28.48500342 -28.90227893
24.87731982 36.11924184 -26.55707692
21.30114635 32.5774132 -28.05475405
11.64520661 18.25452928 -31.63034407
16.04546432 22.95942168 -30.60771267
14.12389762 17.24750448 -31.49596898
11.02600569 21.44116794 -31.07805325
16.36018607 19.48385543 -30.95741529
13.21077979 23.93677946 -30.56581182
2.219285969 1.37159416 -33.14956221
6.701751992 4.141910515 -32.81582261
2.228504361 3.687538845 -33.12714033
4.432666449 0 -32.90040312
16.13209961 9.970185867 -30.94712155
11.31341052 6.992072233 -32.10834441
14.03929967 11.19267767 -31.6406837
2.258020697 8.38955872 -32.78959254
6.776149859 6.552118309 -32.83876848
2.239890584 6.039769757 -33.00705364
4.576499036 10.0087753 -32.72015244
4.493452435 5.110282476 -33.02659852
8.742667684 -2.683567506 -31.63126883
8.935025552 2.742611878 -32.32722614
6.628537099 -1.364656445 -32.38223387
6.685098033 1.376300982 -32.65854965
9.514298541 13.34876042 -32.3013826
9.18405552 8.08204236 -32.54473542
11.81172828 12.33331024 -32.09910937
7.00106386 11.66709764 -32.56143091
11.56929499 9.606279465 -32.15373935
6.905101606 9.07124799 -32.75537827
39.10936012 24.17091383 -19.04380413
32.55231504 20.11843711 -23.45037954
37.46425547 19.92773379 -19.38946654
37.397263 27.31148885 -21.07813762
21.22582991 13.11828432 -29.21557647
26.66309612 16.47869965 -26.77060339
23.11025629 11.64447085 -28.03387919
21.49132134 16.58631762 -29.42778406
34.46258649 12.68794102 -19.88907528
31.38238617 16.45157099 -23.54051887
35.90936964 16.10302133 -19.66432639
31.70586651 11.24874398 -21.87430477
34.33305788 18.14412508 -21.60840399
32.40597401 32.88068764 -24.64389658
30.57775908 22.66993968 -25.22611227
35.1771156 30.2935448 -23.00099406
28.615424 29.87057597 -26.58454544
33.86311613 24.89823523 -23.32340125
26.43691723 8.595967026 -25.24786048
28.46598738 14.76688865 -25.28664939
24.85171004 10.11982795 -26.69174665
29.02595821 9.883220195 -23.66143524
25.75314855 13.18959206 -26.75474126
30.1733542 13.04115657 -23.62943701
21.76688719 24.22123517 -29.3597002
27.31540751 20.47274938 -26.92104239
21.68760908 20.31584986 -29.49646904
25.04689891 26.96031173 -28.14286588
24.35428496 18.49148944 -28.28039778
28.04610864 24.96078583 -26.86762019
16.55352653 -7.559282714 -26.78416856
17.29374635 -2.588865912 -27.98186939
18.36091592 -6.416399188 -26.06909966
14.74523232 -6.434409253 -28.19242653
18.44909164 8.424905671 -29.85125734
17.9333536 2.684614825 -29.01677566
20.24502094 7.074817861 -28.7441798
16.03263462 6.996195808 -30.65389976
21.95408264 -4.014036486 -24.4727574
19.15585778 -1.356353855 -27.26110713
20.16939599 -5.230751036 -25.29435389
22.48611258 -1.370285842 -25.04609539
18.76732577 -3.912838677 -26.68740071
10.88356811 -4.021475124 -30.62374999
15.38242603 -1.368511999 -29.317886
12.84428405 -5.246946962 -29.48728861
11.04635538 -1.365404615 -31.1290049
15.08366783 -3.919340623 -28.77906245
23.45579461 4.288606221 -26.14675277
19.54300608 1.383766362 -27.81206607
21.92191334 5.685250612 -27.49217845
22.98946636 1.400959822 -25.60675464
19.90214563 4.149439625 -28.30113049
21.05146656 0 -26.48080948
11.32742996 4.185481945 -31.87267078
15.65383352 1.392658022 -29.83517072
13.64581877 5.574377446 -31.3274134
11.19619561 1.383925886 -31.55125978
15.86770254 4.123064221 -30.27497074
13.36189138 0 -30.527922
36.8730399 52.80372845 2.619562391
45.1743255 51.26233545 8.338798782
34.95360143 52.38740879 6.745108559
41.51194187 52.85351829 0
44.83027008 31.65161845 15.61678818
48.14838393 43.38930724 13.18409716
30.54381517 50.30115896 14.37075271
42.26629305 49.93963674 12.48393968
32.8502225 51.5792083 10.71126449
38.94350608 51.72673627 9.650099261
50.17890289 50.77675362 -5.770680615
50.17890289 50.77675362 5.770680615
46.21186351 52.40040337 -2.841872831
46.21186351 52.40040337 2.841872831
31.62893143 2.418848107 18.62383689
34.28107759 7.760524513 18.22261453
40.76318201 21.7909656 16.86962376
37.2703628 14.05365673 17.66633178
19.49132508 40.02841274 24.73891959
28.65020782 39.77038364 24.57944884
22.29863077 43.08533182 22.91765877
41.16395794 29.90662089 18.4833082
36.27052535 36.12486763 22.32639603
42.83088662 35.30844804 17.79072411
27.91131341 48.36303543 17.80560903
32.07538159 42.76040038 22.4162611
25.16116768 45.94724747 20.60435796
33.54339857 48.61971745 17.24951292
27.26719425 43.32416956 22.89569296
44.1150428 46.19265605 15.01954804
36.53207633 41.12532301 21.33398914
44.06837032 41.03044942 16.70794839
39.1152982 47.98352253 16.3381934
40.07599736 38.57570901 19.75672467
35.65885534 45.53418993 19.68022833
46.63526324 28.82217776 -13.1618474
54.20897094 33.50298653 -5.015381748
49.15158743 34.61830965 -12.09770225
46.63526324 28.82217776 13.1618474
54.20897094 33.50298653 5.015381748
49.15158743 34.61830965 12.09770225
52.15389978 46.78635132 -8.554314219
56.75751649 39.88241963 -2.823923326
51.37435319 40.96525564 -10.62396977
54.80258007 49.20116153 -2.998279709
53.53590078 37.6479411 -7.84929733
52.15389978 46.78635132 8.554314219
56.75751649 39.88241963 2.823923326
51.37435319 40.96525564 10.62396977
54.80258007 49.20116153 2.998279709
53.53590078 37.6479411 7.84929733
57.37524853 45.61163912 0
20.87505824 -29.89395259 1.483021677
23.30764876 -26.4487515 4.30239502
20.18977422 -30.25982766 3.896085477
22.26442373 -28.34733992 0
26.85787453 -18.96252678 9.356038606
25.28170464 -22.78281347 6.922692375
18.42616612 -30.34517809 8.669443393
22.50248481 -26.58775672 6.64642302
19.36623279 -30.40755522 6.314625161
21.41412146 -28.4433202 5.30636346
24.70757298 -25.0019485 -2.841423471
24.70757298 -25.0019485 2.841423471
23.54884103 -26.7024239 -1.448173833
23.54884103 -26.7024239 1.448173833
30.23222389 -2.312033769 17.8014236
29.75478383 -6.735865542 15.81659604
28.09683631 -15.01985771 11.62772468
29.0500017 -10.95397848 13.76984096
13.71391653 -28.16362197 17.40607562
18.13643041 -25.17583118 15.55951936
14.98339313 -28.95085674 15.39934423
25.78323731 -18.73215168 11.57710642
22.12607419 -22.03721875 13.6197502
25.12006412 -20.70819796 10.43415549
17.343045 -30.05097925 11.06373871
19.33524584 -25.77624372 13.51266603
16.20426093 -29.59088373 13.26959054
19.52319285 -28.29803064 10.03969728
17.22872037 -27.37428706 14.46659631
23.50374662 -24.61066373 8.002160466
21.39884594 -24.0893631 12.49649056
24.35954036 -22.68027798 9.235602319
21.58169477 -26.47469877 9.014526777
23.29571569 -22.42361535 11.4843565
20.51421497 -26.19540508 11.32185626
28.3889296 -17.5453234 -8.012193631
29.45855144 -18.20638605 -2.725487657
27.62132357 -19.45417396 -6.798448755
28.3889296 -17.5453234 8.012193631
29.45855144 -18.20638605 2.725487657
27.62132357 -19.45417396 6.798448755
25.81096651 -23.15456662 -4.233530354
28.43528043 -19.98092687 -1.414773878
26.75849421 -21.33688286 -5.53352823
26.05855336 -23.39508636 -1.425677983
28.15853165 -19.80186614 -4.128532146
25.81096651 -23.15456662 4.233530354
28.43528043 -19.98092687 1.414773878
26.75849421 -21.33688286 5.53352823
26.05855336 -23.39508636 1.425677983
28.15853165 -19.80186614 4.128532146
27.30877749 -21.70967683 0
2.278100498 -17.54015556 29.78851141
6.559172774 -15.40170086 28.97426719
3.695121979 -19.148368 28.69899928
2.25101411 -15.23199529 30.53911755
14.31885086 -11.08503547 26.78550067
10.54714978 -13.25843165 27.9710901
6.53631401 -22.12969386 26.14728648
7.943456981 -16.88314362 27.8040476
5.12576909 -20.68532295 27.47529312
5.871353924 -18.00677062 28.27301924
2.216044098 -10.62942945 31.74954073
6.517961242 -13.18612194 29.747164
2.232820792 -12.9161529 31.19458374
4.431943838 -14.20805154 30.16781758
28.55921546 -1.416806141 19.94300634
24.99305007 -4.065597356 22.02482913
28.44962212 -3.663013577 18.98198012
17.94139425 -8.852215696 25.41157732
21.47784569 -6.52617021 23.83360386
28.0466776 -8.012774981 17.03047314
24.93308945 -6.232788325 21.10206109
28.27564604 -5.871899423 18.00844361
26.67658969 -4.976763604 20.08400312
12.14610573 -27.05044897 19.6528119
13.56598178 -22.03872427 21.95021961
10.79324984 -25.9845781 21.42087634
14.47385226 -25.6798048 18.75414525
15.70710944 -12.37533333 25.41463693
14.72755532 -17.1666795 23.82968508
13.86919082 -13.49457064 26.07415943
8.012988776 -23.53555127 24.64396622
12.20966826 -20.90769476 23.53645855
9.404073632 -24.80389511 23.09400045
8.724258577 -20.88676315 25.62221218
11.54280176 -23.41427037 22.53773181
18.79832748 -22.78633833 16.89348503
15.78079236 -20.7512617 21.05524599
16.70119381 -24.2483701 17.82888558
15.16319328 -23.19018915 19.97074012
10.0349458 -15.7303531 27.25660428
12.82993553 -18.35832819 24.4738932
11.96973137 -14.61692806 26.69222746
9.398630317 -18.2765742 26.49111036
13.37218081 -15.92534684 25.30338914
10.83097653 -19.62478375 25.05965551
2.212842155 -1.367611664 33.05331071
6.535818281 -4.039357842 32.00331101
2.21125461 -3.658995429 32.87071951
14.37205485 -8.882418385 27.57072787
10.6053836 -6.554487531 30.0989086
12.50363542 -9.968386188 28.17972282
2.219276806 -8.245607804 32.2269775
6.516014167 -6.300583165 31.57809156
2.211840739 -5.964134543 32.5937108
4.396763301 -9.615694355 31.43511324
4.399664946 -5.00362049 32.33726625
8.619445192 -12.0932624 29.26332359
8.631383792 -7.595686816 30.58628089
10.57803927 -11.04514403 28.74648245
6.543113899 -10.9039355 30.43153946
10.5994589 -8.800999927 29.45834115
6.544577926 -8.597627196 31.04518048
26.46446013 -16.35593585 12.88653134
23.95304819 -14.80379792 17.25554912
26.95420274 -14.33729751 13.95003332
24.67663493 -18.02152312 13.90843782
17.84778133 -11.03053548 24.56597562
21.0488729 -13.00891888 21.13374327
19.61712201 -9.884399483 23.79653525
17.38676237 -13.41854968 23.80746537
27.73224929 -10.21006196 16.00485773
24.2946477 -12.73596976 18.22387276
27.37884179 -12.27763332 14.99292487
26.3073678 -9.33344134 18.14980773
25.67260887 -13.56730379 16.15772489
20.89693363 -21.20305186 15.89157206
22.0656666 -16.3591887 18.20378601
22.81259494 -19.64556659 14.91629862
19.4663878 -20.32023764 18.08482975
23.42073483 -17.22035748 16.13115562
23.12264213 -7.518330053 22.08265197
22.77893062 -11.81669645 20.23477437
21.38275402 -8.707239517 22.9659469
24.75884066 -8.430284101 20.18295832
21.2378745 -10.87707394 22.06385895
24.54427939 -10.60822699 19.22118105
16.37316288 -18.21933586 22.08451531
20.54353154 -15.39726517 20.24693511
16.89480761 -15.82619705 22.97796719
17.94346671 -19.31422559 20.16140117
19.01002019 -14.433747 22.07459318
20.04784172 -17.84239981 19.20543787
2.358713228 18.16083048 30.84260592
7.202964463 16.91339866 31.81813075
3.929293065 20.36185815 30.51774189
2.321026366 15.70574904 31.48896167
16.5700817 12.82784109 30.99675657
12.03933277 15.13419966 31.9283663
7.41288522 25.09746017 29.65384361
8.994965292 19.11803529 31.48458458
5.620055287 22.68004207 30.12478004
6.458553761 19.80764533 31.10063149
2.265200385 10.86521144 32.453809
7.06584542 14.29451571 32.24763921
2.292459283 13.26114247 32.02778895
4.696425277 15.05593365 31.96811742
29.3172937 1.454413964 20.47237519
26.86276631 4.369742443 23.6724944
30.51374242 3.928778116 20.35918965
27.46096901 0 21.56825479
20.56193811 10.14518207 29.12322605
23.96870056 7.283031168 26.59766358
33.05305416 9.44306806 20.07043969
27.94478538 6.985653839 23.65100279
31.7601728 6.595518279 20.22769984
29.28056945 5.462560023 22.04446127
23.82419136 -2.707573632 23.54368287
24.94352873 2.834784177 24.64984105
25.62276153 -1.389619643 22.59668786
26.24759522 1.423506747 23.14772807
16.32063012 36.34748306 26.40733425
18.0297348 29.29034995 29.17272371
13.85122478 33.34660435 27.48990133
20.59032252 36.53177147 26.67941419
18.76789926 14.78687153 30.36709891
18.72646176 21.8278703 30.30005162
16.52598886 16.07960601 31.06895521
9.449762533 27.7556074 29.06276736
15.52690409 26.58809103 29.93106174
11.54924382 30.46192996 28.36198996
10.29136815 24.63858299 30.22464499
14.80857391 30.03880344 28.91426831
28.83031832 34.94658702 25.90893
21.66210088 28.48500342 28.90227893
24.87731982 36.11924184 26.55707692
21.30114635 32.5774132 28.05475405
11.64520661 18.25452928 31.63034407
16.04546432 22.95942168 30.60771267
14.12389762 17.24750448 31.49596898
11.02600569 21.44116794 31.07805325
16.36018607 19.48385543 30.95741529
13.21077979 23.93677946 30.56581182
2.219285969 1.37159416 33.14956221
6.701751992 4.141910515 32.81582261
2.228504361 3.687538845 33.12714033
4.432666449 0 32.90040312
16.13209961 9.970185867 30.94712155
11.31341052 6.992072233 32.10834441
14.03929967 11.19267767 31.6406837
2.258020697 8.38955872 32.78959254
6.776149859 6.552118309 32.83876848
2.239890584 6.039769757 33.00705364
4.576499036 10.0087753 32.72015244
4.493452435 5.110282476 33.02659852
8.742667684 -2.683567506 31.63126883
8.935025552 2.742611878 32.32722614
6.628537099 -1.364656445 32.38223387
6.685098033 1.376300982 32.65854965
9.514298541 13.34876042 32.3013826
9.18405552 8.08204236 32.54473542
11.81172828 12.33331024 32.09910937
7.00106386 11.66709764 32.56143091
11.56929499 9.606279465 32.15373935
6.905101606 9.07124799 32.75537827
39.10936012 24.17091383 19.04380413
32.55231504 20.11843711 23.45037954
37.46425547 19.92773379 19.38946654
37.397263 27.31148885 21.07813762
21.22582991 13.11828432 29.21557647
26.66309612 16.47869965 26.77060339
23.11025629 11.64447085 28.03387919
21.49132134 16.58631762 29.42778406
34.46258649 12.68794102 19.88907528
31.38238617 16.45157099 23.54051887
35.90936964 16.10302133 19.66432639
31.70586651 11.24874398 21.87430477
34.33305788 18.14412508 21.60840399
32.40597401 32.88068764 24.64389658
30.57775908 22.66993968 25.22611227
35.1771156 30.2935448 23.00099406
28.615424 29.87057597 26.58454544
33.86311613 24.89823523 23.32340125
26.43691723 8.595967026 25.24786048
28.46598738 14.76688865 25.28664939
24.85171004 10.11982795 26.69174665
29.02595821 9.883220195 23.66143524
25.75314855 13.18959206 26.75474126
30.1733542 13.04115657 23.62943701
21.76688719 24.22123517 29.3597002
27.31540751 20.47274938 26.92104239
21.68760908 20.31584986 29.49646904
25.04689891 26.96031173 28.14286588
24.35428496 18.49148944 28.28039778
28.04610864 24.96078583 26.86762019
16.55352653 -7.559282714 26.78416856
17.29374635 -2.588865912 27.98186939
18.36091592 -6.416399188 26.06909966
14.74523232 -6.434409253 28.19242653
18.44909164 8.424905671 29.85125734
17.9333536 2.684614825 29.01677566
20.24502094 7.074817861 28.7441798
16.03263462 6.996195808 30.65389976
21.95408264 -4.014036486 24.4727574
19.15585778 -1.356353855 27.26110713
20.16939599 -5.230751036 25.29435389
22.48611258 -1.370285842 25.04609539
18.76732577 -3.912838677 26.68740071
10.88356811 -4.021475124 30.62374999
15.38242603 -1.368511999 29.317886
12.84428405 -5.246946962 29.48728861
11.04635538 -1.365404615 31.1290049
15.08366783 -3.919340623 28.77906245
23.45579461 4.288606221 26.14675277
19.54300608 1.383766362 27.81206607
21.92191334 5.685250612 27.49217845
22.98946636 1.400959822 25.60675464
19.90214563 4.149439625 28.30113049
21.05146656 0 26.48080948
11.32742996 4.185481945 31.87267078
15.65383352 1.392658022 29.83517072
13.64581877 5.574377446 31.3274134
11.19619561 1.383925886 31.55125978
15.86770254 4.123064221 30.27497074
13.36189138 0 30.527922
32.13246013 0 -16.90770302
35.41108585 0 -12.76512945
33.45307971 2.465799947 -16.68539217
31.88368223 -2.350120905 -15.9026238
39.79934128 0 -2.758390833
38.14852109 0 -8.035018869
36.33817812 7.96213167 -16.10774217
36.91247548 2.576404935 -12.3579285
34.85818844 5.121004629 -16.4170622
35.23606644 2.522098786 -14.58953342
31.22715839 -6.842245805 -13.84216386
34.92985536 -2.438022662 -11.69416706
31.5823159 -4.639747306 -14.8742338
33.4680382 -2.395548284 -13.85747931
32.13246013 0 16.90770302
35.41108585 0 12.76512945
33.45307971 2.465799947 16.68539217
31.88368223 -2.350120905 15.9026238
39.79934128 0 2.758390833
38.14852109 0 8.035018869
36.33817812 7.96213167 16.10774217
36.91247548 2.576404935 12.3579285
34.85818844 5.121004629 16.4170622
35.23606644 2.522098786 14.58953342
31.22715839 -6.842245805 13.84216386
34.92985536 -2.438022662 11.69416706
31.5823159 -4.639747306 14.8742338
33.4680382 -2.395548284 13.85747931
43.81598934 22.84037639 -14.11612893
44.53394478 15.69158451 -9.697932562
41.69051486 18.49851404 -14.74773742
47.35738797 24.76891045 -10.80846358
41.36067079 2.769000561 -1.711336461
43.53455255 8.890765217 -5.49479509
40.81168784 2.745453529 -4.542942214
38.01555233 11.1973942 -15.71017893
42.3804255 11.95966646 -10.5246022
39.75571552 14.62918188 -15.27517688
38.42618818 8.262050834 -13.76850086
42.22854477 15.19432892 -12.6162372
52.96891918 27.79158365 -2.472504377
46.892777 16.66552047 -6.157904771
50.71643952 26.58147494 -6.906931107
47.42108059 20.65601341 -8.438073029
38.51866943 2.652547533 -9.855402704
42.15926254 8.699396906 -8.411779393
39.82288455 2.702419462 -7.286959218
38.59364104 5.398011558 -11.80541815
41.62093675 5.662759957 -6.44010444
40.41645304 8.520118818 -11.19289985
29.19875611 -15.22071257 -9.406917702
32.44888437 -11.43340015 -7.066229902
29.79944919 -13.22232481 -10.54135343
30.0031514 -15.69227953 -6.847674314
38.59561384 -2.583886439 -1.596929643
35.58321414 -7.26691752 -4.491202021
38.16010675 -2.567078336 -4.247782168
30.80802821 -9.074434414 -12.73162182
33.14671605 -9.353933181 -8.231536061
30.33648874 -11.16312474 -11.65606569
32.59359342 -7.007979151 -11.6786218
31.48719115 -11.32946308 -9.407140939
30.87238536 -16.19803638 -1.441073541
33.08887308 -11.75966379 -4.345192213
30.57623335 -16.02560014 -4.164092339
31.57902368 -13.75541697 -5.619148798
36.28236055 -2.498546481 -9.28321979
34.85422059 -7.19203042 -6.954249121
37.36296534 -2.535486965 -6.836832834
34.42224267 -4.814566824 -10.5294281
36.5022482 -4.966333908 -5.648077844
33.82438485 -7.130456935 -9.367297809
43.81598934 22.84037639 14.11612893
44.53394478 15.69158451 9.697932562
41.69051486 18.49851404 14.74773742
47.35738797 24.76891045 10.80846358
41.36067079 2.769000561 1.711336461
43.53455255 8.890765217 5.49479509
40.81168784 2.745453529 4.542942214
42.97895669 5.790548482 0
38.01555233 11.1973942 15.71017893
42.3804255 11.95966646 10.5246022
39.75571552 14.62918188 15.27517688
38.42618818 8.262050834 13.76850086
42.22854477 15.19432892 12.6162372
52.96891918 27.79158365 2.472504377
46.892777 16.66552047 6.157904771
50.71643952 26.58147494 6.906931107
50.84504555 22.25457651 0
47.42108059 20.65601341 8.438073029
38.51866943 2.652547533 9.855402704
42.15926254 8.699396906 8.411779393
39.82288455 2.702419462 7.286959218
38.59364104 5.398011558 11.80541815
41.62093675 5.662759957 6.44010444
40.41645304 8.520118818 11.19289985
45.84103767 12.6701512 -3.889111113
45.84103767 12.6701512 3.889111113
44.51311241 9.111688162 -1.875877556
48.3319785 17.15095655 -2.119974818
44.51311241 9.111688162 1.875877556
48.3319785 17.15095655 2.119974818
29.19875611 -15.22071257 9.406917702
32.44888437 -11.43340015 7.066229902
29.79944919 -13.22232481 10.54135343
30.0031514 -15.69227953 6.847674314
38.59561384 -2.583886439 1.596929643
35.58321414 -7.26691752 4.491202021
38.16010675 -2.567078336 4.247782168
37.35902742 -5.033376242 0
30.80802821 -9.074434414 12.73162182
33.14671605 -9.353933181 8.231536061
30.33648874 -11.16312474 11.65606569
32.59359342 -7.007979151 11.6786218
31.48719115 -11.32946308 9.407140939
30.87238536 -16.19803638 1.441073541
33.08887308 -11.75966379 4.345192213
30.57623335 -16.02560014 4.164092339
32.21164685 -14.09884782 0
31.57902368 -13.75541697 5.619148798
36.28236055 -2.498546481 9.28321979
34.85422059 -7.19203042 6.954249121
37.36296534 -2.535486965 6.836832834
34.42224267 -4.814566824 10.5294281
36.5022482 -4.966333908 5.648077844
33.82438485 -7.130456935 9.367297809
34.61825479 -9.568250298 -2.936980624
34.61825479 -9.568250298 2.936980624
36.01713518 -7.37258948 -1.517838944
33.46918349 -11.87678489 -1.468051348
36.01713518 -7.37258948 1.517838944
33.46918349 -11.87678489 1.468051348
-20.87505824 29.89395259 -1.483021677
-23.30764876 26.4487515 -4.30239502
-20.18977422 30.25982766 -3.896085477
-26.85787453 18.96252678 -9.356038606
-25.28170464 22.78281347 -6.922692375
-18.42616612 30.34517809 -8.669443393
-22.50248481 26.58775672 -6.64642302
-19.36623279 30.40755522 -6.314625161
-21.41412146 28.4433202 -5.30636346
-30.23222389 2.312033769 -17.8014236
-29.75478383 6.735865542 -15.81659604
-28.09683631 15.01985771 -11.62772468
-29.0500017 10.95397848 -13.76984096
-13.71391653 28.16362197 -17.40607562
-18.13643041 25.17583118 -15.55951936
-14.98339313 28.95085674 -15.39934423
-25.78323731 18.73215168 -11.57710642
-22.12607419 22.03721875 -13.6197502
-25.12006412 20.70819796 -10.43415549
-17.343045 30.05097925 -11.06373871
-19.33524584 25.77624372 -13.51266603
-16.20426093 29.59088373 -13.26959054
-19.52319285 28.29803064 -10.03969728
-17.22872037 27.37428706 -14.46659631
-23.50374662 24.61066373 -8.002160466
-21.39884594 24.0893631 -12.49649056
-24.35954036 22.68027798 -9.235602319
-21.58169477 26.47469877 -9.014526777
-23.29571569 22.42361535 -11.4843565
-20.51421497 26.19540508 -11.32185626
-36.8730399 -52.80372845 -2.619562391
-45.1743255 -51.26233545 -8.338798782
-34.95360143 -52.38740879 -6.745108559
-44.83027008 -31.65161845 -15.61678818
-48.14838393 -43.38930724 -13.18409716
-30.54381517 -50.30115896 -14.37075271
-42.26629305 -49.93963674 -12.48393968
-32.8502225 -51.5792083 -10.71126449
-38.94350608 -51.72673627 -9.650099261
-31.62893143 -2.418848107 -18.62383689
-34.28107759 -7.760524513 -18.22261453
-40.76318201 -21.7909656 -16.86962376
-37.2703628 -14.05365673 -17.66633178
-19.49132508 -40.02841274 -24.73891959
-28.65020782 -39.77038364 -24.57944884
-22.29863077 -43.08533182 -22.91765877
-41.16395794 -29.90662089 -18.4833082
-36.27052535 -36.12486763 -22.32639603
-42.83088662 -35.30844804 -17.79072411
-27.91131341 -48.36303543 -17.80560903
-32.07538159 -42.76040038 -22.4162611
-25.16116768 -45.94724747 -20.60435796
-33.54339857 -48.61971745 -17.24951292
-27.26719425 -43.32416956 -22.89569296
-44.1150428 -46.19265605 -15.01954804
-36.53207633 -41.12532301 -21.33398914
-44.06837032 -41.03044942 -16.70794839
-39.1152982 -47.98352253 -16.3381934
-40.07599736 -38.57570901 -19.75672467
-35.65885534 -45.53418993 -19.68022833
-2.358713228 -18.16083048 -30.84260592
-7.202964463 -16.91339866 -31.81813075
-3.929293065 -20.36185815 -30.51774189
-2.321026366 -15.70574904 -31.48896167
-16.5700817 -12.82784109 -30.99675657
-12.03933277 -15.13419966 -31.9283663
-7.41288522 -25.09746017 -29.65384361
-8.994965292 -19.11803529 -31.48458458
-5.620055287 -22.68004207 -30.12478004
-6.458553761 -19.80764533 -31.10063149
-2.265200385 -10.86521144 -32.453809
-7.06584542 -14.29451571 -32.24763921
-2.292459283 -13.26114247 -32.02778895
-4.696425277 -15.05593365 -31.96811742
-29.3172937 -1.454413964 -20.47237519
-26.86276631 -4.369742443 -23.6724944
-30.51374242 -3.928778116 -20.35918965
-20.56193811 -10.14518207 -29.12322605
-23.96870056 -7.283031168 -26.59766358
-33.05305416 -9.44306806 -20.07043969
-27.94478538 -6.985653839 -23.65100279
-31.7601728 -6.595518279 -20.22769984
-29.28056945 -5.462560023 -22.04446127
-16.32063012 -36.34748306 -26.40733425
-18.0297348 -29.29034995 -29.17272371
-13.85122478 -33.34660435 -27.48990133
-20.59032252 -36.53177147 -26.67941419
-18.76789926 -14.78687153 -30.36709891
-18.72646176 -21.8278703 -30.30005162
-16.52598886 -16.07960601 -31.06895521
-9.449762533 -27.7556074 -29.06276736
