23.514304 0 -23.237444
15.072995 28.67054 -24.388618
17.657739 17.11344 -28.570822
11.353268 24.831509 -26.937122
21.07187 26.539258 -23.160226
12.478634 18.605913 -28.243021
3.8471456 2.3776668 -28.554515
12.300527 7.6021438 -28.379616
3.9182966 6.4949748 -28.515266
7.7508566 0 -28.042863
8.2321312 9.3910057 -28.561662
31.727364 19.60859 -19.004155
23.688815 14.640493 -27.847872
31.970419 14.125513 -21.061445
26.914665 23.487836 -21.369939
28.331901 11.941129 -26.117261
22.875895 20.813177 -26.213443
15.350786 -4.6246562 -24.838093
16.88947 5.0882079 -27.327736
19.169824 -2.5078615 -24.113876
11.716825 -2.4137986 -26.769437
20.409235 2.6700055 -25.672941
12.14509 2.5020261 -27.747895
31.037477 39.5173 4.0879503
35.368416 28.290225 11.052979
26.567064 36.863548 9.9070035
39.933132 40.408911 0
34.816621 5.281303 19.500577
35.342154 16.065353 15.706234
18.904991 31.561811 19.506272
30.976566 26.350241 16.285344
22.45777 34.089984 15.062002
29.52866 32.032573 13.500863
38.818029 23.990861 -7.2276095
38.818029 23.990861 7.2276095
39.475348 31.381743 -4.1054664
39.475348 31.381743 4.1054664
17.71675 -22.557185 2.3334755
21.803301 -17.439862 6.8137464
16.526385 -22.931445 6.1627792
20.084806 -20.324104 0
28.909281 -4.3852237 16.191912
25.502043 -11.59237 11.333238
13.282452 -22.175004 13.704906
20.261025 -17.235057 10.651851
15.018117 -22.796892 10.072367
18.512722 -20.082527 8.4642417
24.649805 -15.234417 -4.5895984
24.649805 -15.234417 4.5895984
22.437099 -17.836836 -2.3334755
22.437099 -17.836836 2.3334755
3.8715605 -14.295272 25.522992
10.961356 -10.71633 24.113876
6.2919966 -16.8729 23.412258
3.8110723 -10.369769 26.756156
25.809203 -2.6698873 20.270933
17.963879 -7.0184797 22.458426
24.830026 -6.673019 17.894667
10.933982 -20.797671 17.691555
13.385338 -12.972735 21.657932
8.7317203 -19.097743 20.717155
14.734393 -18.557434 16.194665
9.9629914 -14.855035 22.549341
3.8047541 -2.3514673 28.239874
11.095213 -6.8572191 25.598733
3.8015888 -6.3015198 27.665929
7.5483545 -8.6109706 26.189275
22.125366 -13.674228 13.25272
17.418336 -10.765124 20.476482
23.539526 -10.400485 15.507348
18.506317 -16.150056 14.693806
20.950664 -8.830138 19.312999
16.133114 -14.678392 18.486903
4.1641153 15.375496 27.451639
12.988177 12.697844 28.572677
7.3146246 19.615225 27.217414
4.0101233 10.911379 28.153621
28.308829 2.9284664 22.234177
21.607984 8.4422299 27.014283
32.03061 8.6081612 23.084031
23.514304 0 23.237444
15.072995 28.67054 24.388618
17.657739 17.11344 28.570822
11.353268 24.831509 26.937122
21.07187 26.539258 23.160226
12.478634 18.605913 28.243021
3.8471456 2.3776668 28.554515
12.300527 7.6021438 28.379616
3.9182966 6.4949748 28.515266
7.7508566 0 28.042863
8.2321312 9.3910057 28.561662
31.727364 19.60859 19.004155
23.688815 14.640493 27.847872
31.970419 14.125513 21.061445
26.914665 23.487836 21.369939
28.331901 11.941129 26.117261
22.875895 20.813177 26.213443
15.350786 -4.6246562 24.838093
16.88947 5.0882079 27.327736
19.169824 -2.5078615 24.113876
11.716825 -2.4137986 26.769437
20.409235 2.6700055 25.672941
12.14509 2.5020261 27.747895
34.291449 0 -15.115829
39.647076 0 -5.5222014
37.412302 5.3289041 -14.499727
31.890516 -4.5423962 -12.359671
34.291449 0 15.115829
39.647076 0 5.5222014
37.412302 5.3289041 14.499727
31.890516 -4.5423962 12.359671
38.212057 16.562184 -10.235993
40.248393 5.4226601 -3.3513882
37.793164 10.892864 -12.426301
40.122473 17.56137 -3.6178412
39.2666 5.3956427 -8.9438261
27.254655 -11.812937 -7.3007967
35.420818 -4.7722416 -2.9494075
29.504717 -8.5039415 -9.70108
27.996839 -12.254051 -2.5244734
34.182753 -4.6970687 -7.7858688
38.212057 16.562184 10.235993
40.248393 5.4226601 3.3513882
37.793164 10.892864 12.426301
40.122473 17.56137 3.6178412
39.2666 5.3956427 8.9438261
40.408911 11.168748 0
27.254655 -11.812937 7.3007967
35.420818 -4.7722416 2.9494075
29.504717 -8.5039415 9.70108
27.996839 -12.254051 2.5244734
34.182753 -4.6970687 7.7858688
31.65867 -8.750241 0
-17.71675 22.557185 -2.3334755
-21.803301 17.439862 -6.8137464
-16.526385 22.931445 -6.1627792
-28.909281 4.3852237 -16.191912
-25.502043 11.59237 -11.333238
-13.282452 22.175004 -13.704906
-20.261025 17.235057 -10.651851
-15.018117 22.796892 -10.072367
-18.512722 20.082527 -8.4642417
-31.037477 -39.5173 -4.0879503
-35.368416 -28.290225 -11.052979
-26.567064 -36.863548 -9.9070035
-34.816621 -5.281303 -19.500577
-35.342154 -16.065353 -15.706234
-18.904991 -31.561811 -19.506272
-30.976566 -26.350241 -16.285344
-22.45777 -34.089984 -15.062002
-29.52866 -32.032573 -13.500863
-4.1641153 -15.375496 -27.451639
-12.988177 -12.697844 -28.572677
-7.3146246 -19.615225 -27.217414
-4.0101233 -10.911379 -28.153621
-28.308829 -2.9284664 -22.234177
-21.607984 -8.4422299 -27.014283
-32.03061 -8.6081612 -23.084031
-15.072995 -28.67054 -24.388618
-17.657739 -17.11344 -28.570822
-11.353268 -24.831509 -26.937122
-21.07187 -26.539258 -23.160226
-12.478634 -18.605913 -28.243021
-3.8471456 -2.3776668 -28.554515
-12.300527 -7.6021438 -28.379616
-3.9182966 -6.4949748 -28.515266
-8.2321312 -9.3910057 -28.561662
-31.727364 -19.60859 -19.004155
-23.688815 -14.640493 -27.847872
-31.970419 -14.125513 -21.061445
-26.914665 -23.487836 -21.369939
-28.331901 -11.941129 -26.117261
-22.875895 -20.813177 -26.213443
-3.8715605 14.295272 -25.522992
-10.961356 10.71633 -24.113876
-6.2919966 16.8729 -23.412258
-3.8110723 10.369769 -26.756156
-25.809203 2.6698873 -20.270933
-17.963879 7.0184797 -22.458426
-24.830026 6.673019 -17.894667
-23.514304 0 -23.237444
-10.933982 20.797671 -17.691555
-13.385338 12.972735 -21.657932
-8.7317203 19.097743 -20.717155
-14.734393 18.557434 -16.194665
-9.9629914 14.855035 -22.549341
-3.8047541 2.3514673 -28.239874
-11.095213 6.8572191 -25.598733
-3.8015888 6.3015198 -27.665929
-7.7508566 0 -28.042863
-7.5483545 8.6109706 -26.189275
-22.125366 13.674228 -13.25272
-17.418336 10.765124 -20.476482
-23.539526 10.400485 -15.507348
-18.506317 16.150056 -14.693806
-20.950664 8.830138 -19.312999
-16.133114 14.678392 -18.486903
-16.88947 -5.0882079 -27.327736
-15.350786 4.6246562 -24.838093
-20.409235 -2.6700055 -25.672941
-12.14509 -2.5020261 -27.747895
-19.169824 2.5078615 -24.113876
-11.716825 2.4137986 -26.769437
-17.71675 22.557185 2.3334755
-21.803301 17.439862 6.8137464
-16.526385 22.931445 6.1627792
-20.084806 20.324104 0
-28.909281 4.3852237 16.191912
-25.502043 11.59237 11.333238
-13.282452 22.175004 13.704906
-20.261025 17.235057 10.651851
-15.018117 22.796892 10.072367
-18.512722 20.082527 8.4642417
-24.649805 15.234417 -4.5895984
-24.649805 15.234417 4.5895984
-22.437099 17.836836 -2.3334755
-22.437099 17.836836 2.3334755
-31.037477 -39.5173 4.0879503
-35.368416 -28.290225 11.052979
-26.567064 -36.863548 9.9070035
-39.933132 -40.408911 0
-34.816621 -5.281303 19.500577
-35.342154 -16.065353 15.706234
-18.904991 -31.561811 19.506272
-30.976566 -26.350241 16.285344
-22.45777 -34.089984 15.062002
-29.52866 -32.032573 13.500863
-38.818029 -23.990861 -7.2276095
-38.818029 -23.990861 7.2276095
-39.475348 -31.381743 -4.1054664
-39.475348 -31.381743 4.1054664
-4.1641153 -15.375496 27.451639
-12.988177 -12.697844 28.572677
-7.3146246 -19.615225 27.217414
-4.0101233 -10.911379 28.153621
-28.308829 -2.9284664 22.234177
-21.607984 -8.4422299 27.014283
-32.03061 -8.6081612 23.084031
-15.072995 -28.67054 24.388618
-17.657739 -17.11344 28.570822
-11.353268 -24.831509 26.937122
-21.07187 -26.539258 23.160226
-12.478634 -18.605913 28.243021
-3.8471456 -2.3776668 28.554515
-12.300527 -7.6021438 28.379616
-3.9182966 -6.4949748 28.515266
-8.2321312 -9.3910057 28.561662
-31.727364 -19.60859 19.004155
-23.688815 -14.640493 27.847872
-31.970419 -14.125513 21.061445
-26.914665 -23.487836 21.369939
-28.331901 -11.941129 26.117261
-22.875895 -20.813177 26.213443
-3.8715605 14.295272 25.522992
-10.961356 10.71633 24.113876
-6.2919966 16.8729 23.412258
-3.8110723 10.369769 26.756156
-25.809203 2.6698873 20.270933
-17.963879 7.0184797 22.458426
-24.830026 6.673019 17.894667
-23.514304 0 23.237444
-10.933982 20.797671 17.691555
-13.385338 12.972735 21.657932
-8.7317203 19.097743 20.717155
-14.734393 18.557434 16.194665
-9.9629914 14.855035 22.549341
-3.8047541 2.3514673 28.239874
-11.095213 6.8572191 25.598733
-3.8015888 6.3015198 27.665929
-7.7508566 0 28.042863
-7.5483545 8.6109706 26.189275
-22.125366 13.674228 13.25272
-17.418336 10.765124 20.476482
-23.539526 10.400485 15.507348
-18.506317 16.150056 14.693806
-20.950664 8.830138 19.312999
-16.133114 14.678392 18.486903
-16.88947 -5.0882079 27.327736
-15.350786 4.6246562 24.838093
-20.409235 -2.6700055 25.672941
-12.14509 -2.5020261 27.747895
-19.169824 2.5078615 24.113876
-11.716825 2.4137986 26.769437
-34.291449 0 -15.115829
-39.647076 0 -5.5222014
-31.890516 4.5423962 -12.359671
-37.412302 -5.3289041 -14.499727
-34.291449 0 15.115829
-39.647076 0 5.5222014
-31.890516 4.5423962 12.359671
-37.412302 -5.3289041 14.499727
-27.254655 11.812937 -7.3007967
-35.420818 4.7722416 -2.9494075
-29.504717 8.5039415 -9.70108
-27.996839 12.254051 -2.5244734
-34.182753 4.6970687 -7.7858688
-38.212057 -16.562184 -10.235993
-40.248393 -5.4226601 -3.3513882
-37.793164 -10.892864 -12.426301
-40.122473 -17.56137 -3.6178412
-39.2666 -5.3956427 -8.9438261
-27.254655 11.812937 7.3007967
-35.420818 4.7722416 2.9494075
-29.504717 8.5039415 9.70108
-27.996839 12.254051 2.5244734
-34.182753 4.6970687 7.7858688
-31.65867 8.750241 0
-38.212057 -16.562184 10.235993
-40.248393 -5.4226601 3.3513882
-37.793164 -10.892864 12.426301
-40.122473 -17.56137 3.6178412
-39.2666 -5.3956427 8.9438261
-40.408911 -11.168748 0
-13.931884 26.477027 0
-10.707046 29.701864 0
-2.6191144 37.789796 0
-7.030348 33.378563 0
21.262669 40.408911 0
14.566765 40.408911 0
2.8006385 40.408911 0
8.5111126 40.408911 0
-21.262669 -40.408911 0
-14.566765 -40.408911 0
-2.8006385 -40.408911 0
-8.5111126 -40.408911 0
13.931884 -26.477027 0
10.707046 -29.701864 0
2.6191144 -37.789796 0
7.030348 -33.378563 0
-23.628455 -40.128292 3.0688436
-20.467328 -38.503917 8.7164878
-20.047252 -40.19338 2.9626221
-14.10949 -34.093689 18.225623
-17.232349 -36.354797 13.708421
-13.47941 -40.262281 2.8102136
-17.219724 -38.846748 8.5117895
-16.659061 -40.234308 2.8798589
-18.664203 -39.629521 5.8219594
-1.2884319 -18.136006 25.971516
-4.1437874 -22.448413 25.473719
-11.081029 -31.809713 22.458684
-7.5435284 -27.549001 24.826006
-1.6680665 -40.314894 2.6989883
-4.9844121 -39.490854 8.0649482
-4.4867159 -40.306577 2.7114741
-11.205304 -34.780885 18.130562
-8.2039113 -37.673239 13.274207
-12.680619 -35.846959 15.905668
-10.30634 -40.281104 2.7739157
-7.8600176 -39.39387 8.1287691
-7.3734836 -40.295736 2.7345076
-12.19223 -39.858185 5.5748807
-6.1856878 -39.9767 5.4390524
-15.659248 -37.89231 11.161094
-9.5599838 -38.496104 10.863519
-14.176243 -36.895593 13.576723
-14.000137 -39.072657 8.4010488
-11.151641 -37.326311 13.430447
-10.869879 -39.250055 8.2742326
14.941095 -25.374518 1.9405368
13.728123 -25.825869 5.8464408
13.415121 -26.896408 1.9825129
10.430519 -25.20395 13.473394
12.219464 -25.779197 9.7206453
10.107702 -30.191167 2.1072733
12.134288 -27.374284 5.9980347
11.802013 -28.503757 2.0402189
12.810779 -27.201002 3.9960899
1.2530674 -17.638214 25.258657
3.7395652 -20.258594 22.988784
0 -19.619352 24.979602
8.3898985 -24.084428 17.004384
6.1407072 -22.425891 20.209274
-2.7618533 -24.015671 24.301803
2.5615792 -22.274189 22.539573
-1.3374348 -21.748106 24.660541
1.2921909 -21.012394 23.826304
1.5989317 -38.644001 2.5871258
4.3867387 -34.755565 7.0978923
4.0328045 -36.228847 2.43716
0 -39.694789 5.3480731
8.5998584 -26.693671 13.914863
6.6878224 -30.711196 10.821124
9.5800059 -27.081807 12.016479
8.2079925 -32.079963 2.2091528
6.5309657 -32.732753 6.754274
6.2299905 -34.046601 2.3104353
9.3585883 -30.594596 4.2792019
5.3410905 -34.518258 4.6964011
-3.2964299 -38.855091 10.739283
2.9730512 -35.04342 9.6857629
-1.6672482 -39.5625 8.0983141
1.574441 -37.360259 7.6475225
11.334072 -27.426231 8.0783338
7.6569286 -30.832889 8.7009762
10.499046 -27.325187 10.055036
10.402061 -29.03087 6.2419546
8.6548977 -28.969314 10.423501
8.5342684 -30.816398 6.4963487
-9.4517815 -33.4897 20.697773
-2.9672868 -32.072048 19.821616
-7.9619286 -32.34841 22.783542
-8.0293695 -35.18076 18.400278
7.3493225 -26.040234 16.09375
2.6721183 -28.881707 17.849876
6.2344973 -25.330053 17.840393
6.4324764 -28.183958 14.740803
-4.3623682 -26.596464 23.859223
-1.4622435 -29.389364 20.651343
-6.0610285 -29.309329 23.370886
-1.3966592 -25.528147 22.918893
-4.5210269 -30.83553 21.684406
-4.971095 -37.855157 13.453584
-1.5613734 -33.449591 17.550237
-6.5212642 -36.648817 15.963754
-1.6414039 -37.42134 13.279236
-4.8348413 -35.501431 18.606992
3.8494874 -23.469535 21.05411
1.3908651 -27.954741 19.643261
5.059351 -24.465515 19.50849
1.3393919 -24.481415 21.979149
3.9033842 -26.622917 18.721979
0 -26.856109 21.349818
4.2865172 -32.64206 11.600868
1.4701578 -31.495462 16.52495
5.4091505 -30.398856 13.241351
1.5303065 -34.8885 12.38044
4.0566391 -29.787222 15.612064
0 -34.359129 15.038788
-14.941095 25.374518 1.9405368
-13.728123 25.825869 5.8464408
-13.415121 26.896408 1.9825129
-10.430519 25.20395 13.473394
-12.219464 25.779197 9.7206453
-10.107702 30.191167 2.1072733
-12.134288 27.374284 5.9980347
-11.802013 28.503757 2.0402189
-12.810779 27.201002 3.9960899
-1.2530674 17.638214 25.258657
-3.7395652 20.258594 22.988784
-8.3898985 24.084428 17.004384
-6.1407072 22.425891 20.209274
-1.5989317 38.644001 2.5871258
-4.3867387 34.755565 7.0978923
-4.0328045 36.228847 2.43716
-8.5998584 26.693671 13.914863
-6.6878224 30.711196 10.821124
-9.5800059 27.081807 12.016479
-8.2079925 32.079963 2.2091528
-6.5309657 32.732753 6.754274
-6.2299905 34.046601 2.3104353
-9.3585883 30.594596 4.2792019
-5.3410905 34.518258 4.6964011
-11.334072 27.426231 8.0783338
-7.6569286 30.832889 8.7009762
-10.499046 27.325187 10.055036
-10.402061 29.03087 6.2419546
-8.6548977 28.969314 10.423501
-8.5342684 30.816398 6.4963487
23.628455 40.128292 3.0688436
20.467328 38.503917 8.7164878
20.047252 40.19338 2.9626221
14.10949 34.093689 18.225623
17.232349 36.354797 13.708421
13.47941 40.262281 2.8102136
17.219724 38.846748 8.5117895
16.659061 40.234308 2.8798589
18.664203 39.629521 5.8219594
1.2884319 18.136006 25.971516
4.1437874 22.448413 25.473719
0 19.619352 24.979602
11.081029 31.809713 22.458684
7.5435284 27.549001 24.826006
-2.5615792 22.274189 22.539573
2.7618533 24.015671 24.301803
-1.2921909 21.012394 23.826304
1.3374348 21.748106 24.660541
1.6680665 40.314894 2.6989883
4.9844121 39.490854 8.0649482
4.4867159 40.306577 2.7114741
0 39.694789 5.3480731
11.205304 34.780885 18.130562
8.2039113 37.673239 13.274207
12.680619 35.846959 15.905668
10.30634 40.281104 2.7739157
7.8600176 39.39387 8.1287691
7.3734836 40.295736 2.7345076
12.19223 39.858185 5.5748807
6.1856878 39.9767 5.4390524
-2.9730512 35.04342 9.6857629
3.2964299 38.855091 10.739283
-1.574441 37.360259 7.6475225
1.6672482 39.5625 8.0983141
15.659248 37.89231 11.161094
9.5599838 38.496104 10.863519
14.176243 36.895593 13.576723
14.000137 39.072657 8.4010488
11.151641 37.326311 13.430447
10.869879 39.250055 8.2742326
-7.3493225 26.040234 16.09375
-2.6721183 28.881707 17.849876
-6.2344973 25.330053 17.840393
-6.4324764 28.183958 14.740803
9.4517815 33.4897 20.697773
2.9672868 32.072048 19.821616
7.9619286 32.34841 22.783542
8.0293695 35.18076 18.400278
-3.8494874 23.469535 21.05411
-1.3908651 27.954741 19.643261
-5.059351 24.465515 19.50849
-1.3393919 24.481415 21.979149
-3.9033842 26.622917 18.721979
-4.2865172 32.64206 11.600868
-1.4701578 31.495462 16.52495
-5.4091505 30.398856 13.241351
-1.5303065 34.8885 12.38044
-4.0566391 29.787222 15.612064
4.3623682 26.596464 23.859223
1.4622435 29.389364 20.651343
6.0610285 29.309329 23.370886
1.3966592 25.528147 22.918893
4.5210269 30.83553 21.684406
0 26.856109 21.349818
4.971095 37.855157 13.453584
1.5613734 33.449591 17.550237
6.5212642 36.648817 15.963754
1.6414039 37.42134 13.279236
4.8348413 35.501431 18.606992
0 34.359129 15.038788
0 -14.091211 26.779823
0 -9.9811033 27.688063
0 -1.9779766 28.539163
0 -5.952609 28.261692
0 14.091211 26.779823
0 9.9811033 27.688063
0 1.9779766 28.539163
0 5.952609 28.261692
-23.628455 -40.128292 -3.0688436
-20.467328 -38.503917 -8.7164878
-20.047252 -40.19338 -2.9626221
-14.10949 -34.093689 -18.225623
-17.232349 -36.354797 -13.708421
-13.47941 -40.262281 -2.8102136
-17.219724 -38.846748 -8.5117895
-16.659061 -40.234308 -2.8798589
-18.664203 -39.629521 -5.8219594
-1.2884319 -18.136006 -25.971516
-4.1437874 -22.448413 -25.473719
-11.081029 -31.809713 -22.458684
-7.5435284 -27.549001 -24.826006
-1.6680665 -40.314894 -2.6989883
-4.9844121 -39.490854 -8.0649482
-4.4867159 -40.306577 -2.7114741
-11.205304 -34.780885 -18.130562
-8.2039113 -37.673239 -13.274207
-12.680619 -35.846959 -15.905668
-10.30634 -40.281104 -2.7739157
-7.8600176 -39.39387 -8.1287691
-7.3734836 -40.295736 -2.7345076
-12.19223 -39.858185 -5.5748807
-6.1856878 -39.9767 -5.4390524
-15.659248 -37.89231 -11.161094
-9.5599838 -38.496104 -10.863519
-14.176243 -36.895593 -13.576723
-14.000137 -39.072657 -8.4010488
-11.151641 -37.326311 -13.430447
-10.869879 -39.250055 -8.2742326
14.941095 -25.374518 -1.9405368
13.728123 -25.825869 -5.8464408
13.415121 -26.896408 -1.9825129
10.430519 -25.20395 -13.473394
12.219464 -25.779197 -9.7206453
10.107702 -30.191167 -2.1072733
12.134288 -27.374284 -5.9980347
11.802013 -28.503757 -2.0402189
12.810779 -27.201002 -3.9960899
1.2530674 -17.638214 -25.258657
3.7395652 -20.258594 -22.988784
0 -19.619352 -24.979602
8.3898985 -24.084428 -17.004384
6.1407072 -22.425891 -20.209274
-2.7618533 -24.015671 -24.301803
2.5615792 -22.274189 -22.539573
-1.3374348 -21.748106 -24.660541
1.2921909 -21.012394 -23.826304
1.5989317 -38.644001 -2.5871258
4.3867387 -34.755565 -7.0978923
4.0328045 -36.228847 -2.43716
0 -39.694789 -5.3480731
8.5998584 -26.693671 -13.914863
6.6878224 -30.711196 -10.821124
9.5800059 -27.081807 -12.016479
8.2079925 -32.079963 -2.2091528
6.5309657 -32.732753 -6.754274
6.2299905 -34.046601 -2.3104353
9.3585883 -30.594596 -4.2792019
5.3410905 -34.518258 -4.6964011
-3.2964299 -38.855091 -10.739283
2.9730512 -35.04342 -9.6857629
-1.6672482 -39.5625 -8.0983141
1.574441 -37.360259 -7.6475225
11.334072 -27.426231 -8.0783338
7.6569286 -30.832889 -8.7009762
10.499046 -27.325187 -10.055036
10.402061 -29.03087 -6.2419546
8.6548977 -28.969314 -10.423501
8.5342684 -30.816398 -6.4963487
-9.4517815 -33.4897 -20.697773
-2.9672868 -32.072048 -19.821616
-7.9619286 -32.34841 -22.783542
-8.0293695 -35.18076 -18.400278
7.3493225 -26.040234 -16.09375
2.6721183 -28.881707 -17.849876
6.2344973 -25.330053 -17.840393
6.4324764 -28.183958 -14.740803
-4.3623682 -26.596464 -23.859223
-1.4622435 -29.389364 -20.651343
-6.0610285 -29.309329 -23.370886
-1.3966592 -25.528147 -22.918893
-4.5210269 -30.83553 -21.684406
-4.971095 -37.855157 -13.453584
-1.5613734 -33.449591 -17.550237
-6.5212642 -36.648817 -15.963754
-1.6414039 -37.42134 -13.279236
-4.8348413 -35.501431 -18.606992
3.8494874 -23.469535 -21.05411
1.3908651 -27.954741 -19.643261
5.059351 -24.465515 -19.50849
1.3393919 -24.481415 -21.979149
3.9033842 -26.622917 -18.721979
0 -26.856109 -21.349818
4.2865172 -32.64206 -11.600868
1.4701578 -31.495462 -16.52495
5.4091505 -30.398856 -13.241351
1.5303065 -34.8885 -12.38044
4.0566391 -29.787222 -15.612064
0 -34.359129 -15.038788
-14.941095 25.374518 -1.9405368
-13.728123 25.825869 -5.8464408
-13.415121 26.896408 -1.9825129
-10.430519 25.20395 -13.473394
-12.219464 25.779197 -9.7206453
-10.107702 30.191167 -2.1072733
-12.134288 27.374284 -5.9980347
-11.802013 28.503757 -2.0402189
-12.810779 27.201002 -3.9960899
-1.2530674 17.638214 -25.258657
-3.7395652 20.258594 -22.988784
-8.3898985 24.084428 -17.004384
-6.1407072 22.425891 -20.209274
-1.5989317 38.644001 -2.5871258
-4.3867387 34.755565 -7.0978923
-4.0328045 36.228847 -2.43716
-8.5998584 26.693671 -13.914863
-6.6878224 30.711196 -10.821124
-9.5800059 27.081807 -12.016479
-8.2079925 32.079963 -2.2091528
-6.5309657 32.732753 -6.754274
-6.2299905 34.046601 -2.3104353
-9.3585883 30.594596 -4.2792019
-5.3410905 34.518258 -4.6964011
-11.334072 27.426231 -8.0783338
-7.6569286 30.832889 -8.7009762
-10.499046 27.325187 -10.055036
-10.402061 29.03087 -6.2419546
-8.6548977 28.969314 -10.423501
-8.5342684 30.816398 -6.4963487
23.628455 40.128292 -3.0688436
20.467328 38.503917 -8.7164878
20.047252 40.19338 -2.9626221
14.10949 34.093689 -18.225623
17.232349 36.354797 -13.708421
13.47941 40.262281 -2.8102136
17.219724 38.846748 -8.5117895
16.659061 40.234308 -2.8798589
18.664203 39.629521 -5.8219594
1.2884319 18.136006 -25.971516
4.1437874 22.448413 -25.473719
0 19.619352 -24.979602
11.081029 31.809713 -22.458684
7.5435284 27.549001 -24.826006
-2.5615792 22.274189 -22.539573
2.7618533 24.015671 -24.301803
-1.2921909 21.012394 -23.826304
1.3374348 21.748106 -24.660541
1.6680665 40.314894 -2.6989883
4.9844121 39.490854 -8.0649482
4.4867159 40.306577 -2.7114741
0 39.694789 -5.3480731
11.205304 34.780885 -18.130562
8.2039113 37.673239 -13.274207
12.680619 35.846959 -15.905668
10.30634 40.281104 -2.7739157
7.8600176 39.39387 -8.1287691
7.3734836 40.295736 -2.7345076
12.19223 39.858185 -5.5748807
6.1856878 39.9767 -5.4390524
-2.9730512 35.04342 -9.6857629
3.2964299 38.855091 -10.739283
-1.574441 37.360259 -7.6475225
1.6672482 39.5625 -8.0983141
15.659248 37.89231 -11.161094
9.5599838 38.496104 -10.863519
14.176243 36.895593 -13.576723
14.000137 39.072657 -8.4010488
11.151641 37.326311 -13.430447
10.869879 39.250055 -8.2742326
-7.3493225 26.040234 -16.09375
-2.6721183 28.881707 -17.849876
-6.2344973 25.330053 -17.840393
-6.4324764 28.183958 -14.740803
9.4517815 33.4897 -20.697773
2.9672868 32.072048 -19.821616
7.9619286 32.34841 -22.783542
8.0293695 35.18076 -18.400278
-3.8494874 23.469535 -21.05411
-1.3908651 27.954741 -19.643261
-5.059351 24.465515 -19.50849
-1.3393919 24.481415 -21.979149
-3.9033842 26.622917 -18.721979
-4.2865172 32.64206 -11.600868
-1.4701578 31.495462 -16.52495
-5.4091505 30.398856 -13.241351
-1.5303065 34.8885 -12.38044
-4.0566391 29.787222 -15.612064
4.3623682 26.596464 -23.859223
1.4622435 29.389364 -20.651343
6.0610285 29.309329 -23.370886
1.3966592 25.528147 -22.918893
4.5210269 30.83553 -21.684406
0 26.856109 -21.349818
4.971095 37.855157 -13.453584
1.5613734 33.449591 -17.550237
6.5212642 36.648817 -15.963754
1.6414039 37.42134 -13.279236
4.8348413 35.501431 -18.606992
0 34.359129 -15.038788
0 -14.091211 -26.779823
0 -9.9811033 -27.688063
0 -1.9779766 -28.539163
0 -5.952609 -28.261692
0 14.091211 -26.779823
0 9.9811033 -27.688063
0 1.9779766 -28.539163
0 5.952609 -28.261692
28.10457 40.246914 -1.9966261
33.278178 37.762979 -6.1428705
26.348026 39.489631 -5.0844631
35.450767 25.029386 -12.349404
35.125711 31.65382 -9.6182001
22.607426 37.231096 -10.636711
30.647608 36.211607 -9.0521988
24.465015 38.41332 -7.9771529
28.777046 38.22313 -7.1308771
32.4958 2.4851426 -19.134269
35.060631 7.9369993 -18.636998
35.410045 18.929314 -14.654257
35.258241 13.294939 -16.712576
15.738583 32.321583 -19.975837
22.069414 30.635347 -18.933686
17.346901 33.517617 -17.828465
33.42459 24.283781 -15.008202
28.19375 28.080528 -17.354721
33.156215 27.33295 -13.772143
20.749165 35.952897 -13.236622
23.938276 31.912645 -16.729548
19.021922 34.736264 -15.576959
24.457728 35.450427 -12.577255
20.646524 32.804751 -17.336455
31.932686 33.436567 -10.871904
27.292993 30.724592 -15.938552
32.697823 30.443749 -12.396954
28.263492 34.671394 -11.805468
30.374082 29.236996 -14.97386
26.027249 33.235215 -14.364516
16.601062 -23.773412 -1.1793852
18.788993 -21.32113 -3.4682894
16.075927 -24.094117 -3.1022232
22.756117 -16.066554 -7.9271765
20.827234 -18.768631 -5.7029594
14.806109 -24.383477 -6.9662196
18.192562 -21.495378 -5.3734272
15.475395 -24.298423 -5.0459641
17.162591 -22.796222 -4.2528452
29.691374 -2.2706718 -17.482959
28.09205 -6.359457 -14.932745
24.603682 -13.152506 -10.182101
26.384062 -9.948724 -12.506173
11.408089 -23.428253 -14.479457
15.085483 -20.940701 -12.942065
12.347389 -23.857578 -12.690162
21.96617 -15.958959 -9.8631792
18.55698 -18.482458 -11.422787
21.083549 -17.380621 -8.7575027
14.041551 -24.330351 -8.9575997
15.947784 -21.260343 -11.145298
13.230618 -24.160662 -10.834488
15.81476 -22.922817 -8.1326557
14.187391 -22.541995 -11.912856
19.215278 -20.120228 -6.5420948
17.719116 -19.946973 -10.347603
20.162923 -18.772961 -7.6445094
17.54057 -21.517369 -7.3265764
19.401998 -18.675663 -9.5648257
16.788085 -21.437364 -9.2653943
1.9773023 -15.22417 -25.855265
5.7012365 -13.387167 -25.184449
3.2060266 -16.613843 -24.900329
1.9522361 -13.210247 -26.485649
12.685981 -9.8209379 -23.730978
9.231509 -11.604588 -24.482005
5.6451714 -19.112594 -22.582439
6.9025508 -14.670786 -24.160621
4.4402471 -17.918861 -23.800739
5.0944398 -15.624064 -24.531853
1.9174341 -9.1971233 -27.471318
5.6696902 -11.470032 -25.875761
1.9343362 -11.189515 -27.024476
3.8466035 -12.331551 -26.183462
28.039197 -1.3910083 -19.579876
23.70866 -3.8566667 -20.892975
27.466598 -3.5364449 -18.326093
16.173379 -7.9798839 -22.907422
19.805354 -6.0179738 -21.977668
26.135949 -7.4668908 -15.870243
23.349327 -5.8368785 -19.761648
26.822033 -5.570033 -17.082654
25.347077 -4.7287308 -19.083053
10.214513 -22.748621 -16.527429
11.605063 -18.853098 -18.777386
9.1534785 -22.036855 -18.166496
12.153888 -21.563677 -15.748108
13.915433 -10.963706 -22.515644
12.825988 -14.950182 -20.752885
12.205106 -11.875435 -22.945671
6.8877824 -20.230623 -21.183391
10.507691 -17.993248 -20.255573
8.0347922 -21.192321 -19.731395
7.5336014 -18.036209 -22.12538
9.8598082 -20.000362 -19.251627
15.83895 -19.199137 -14.233982
13.530331 -17.791974 -18.052607
14.033756 -20.375532 -14.981338
12.864258 -19.674258 -16.942919
8.7458836 -13.709674 -23.755294
11.127732 -15.922648 -21.226834
10.475826 -12.792634 -23.360852
8.1538817 -15.856036 -22.982644
11.683888 -13.914706 -22.108732
9.3662463 -16.97082 -21.670706
1.9073366 -1.1787988 -28.489962
5.6823016 -3.5118555 -27.823978
1.9070245 -3.1555814 -28.348281
12.792359 -7.9061125 -24.540307
9.3376648 -5.7709942 -26.501023
11.043573 -8.8043674 -24.889147
1.9177721 -7.1253827 -27.848711
5.667237 -5.4798681 -27.464724
1.9092186 -5.1481267 -28.134267
3.8116427 -8.3360391 -27.251733
3.8079084 -4.3306317 -27.987892
7.5262231 -10.559449 -25.551796
7.5495982 -6.6437068 -26.752852
9.2829379 -9.6928536 -25.226964
5.6935243 -9.4881157 -26.480161
9.3200325 -7.7386597 -25.90252
5.6943545 -7.4806867 -27.012019
22.979462 -14.202089 -11.189556
21.133746 -13.061373 -15.22455
23.800994 -12.660064 -12.318103
21.211178 -15.490675 -11.95521
15.9642 -9.8664183 -21.973384
18.771112 -11.601185 -18.846798
17.712664 -8.9248081 -21.486334
15.395624 -11.881853 -21.081026
25.364723 -9.3384201 -14.638509
21.759741 -11.407097 -16.322391
24.602482 -11.032616 -13.472563
24.203455 -8.5870059 -16.69829
22.846084 -12.073559 -14.378778
17.69421 -17.953412 -13.455985
19.278176 -14.292581 -15.904156
19.443922 -16.74456 -12.71365
16.631064 -17.360549 -15.450733
20.3065 -14.930582 -13.98621
21.356295 -6.9440021 -20.39575
20.501809 -10.635427 -18.211982
19.515606 -7.946921 -20.960554
22.855176 -7.7820942 -18.631126
19.16599 -9.8159489 -19.911395
22.319639 -9.6467203 -17.479015
14.196149 -15.796851 -19.148107
18.065276 -13.539826 -17.804459
14.804154 -13.867779 -20.134551
15.454808 -16.635451 -17.365128
16.790699 -12.748682 -19.4975
17.377133 -15.465493 -16.646951
2.0545039 15.818582 -26.864756
6.3228779 14.846853 -27.930466
3.4381693 17.816822 -26.703318
2.0169876 13.648402 -27.364121
15.219267 11.782099 -28.469861
10.749051 13.512234 -28.506533
6.5815428 22.282823 -26.328215
7.9601269 16.918574 -27.862396
4.9486143 19.970405 -26.525703
5.6779797 17.413714 -27.341842
1.9602422 9.4024558 -28.084636
6.183582 12.509658 -28.221099
1.9877502 11.498498 -27.77072
4.0916651 13.117176 -27.851573
29.483004 1.4626347 -20.588091
26.913662 4.3780216 -23.717346
31.46385 4.0511086 -20.993114
27.037065 0 -21.235314
19.557918 9.6498026 -27.701167
23.537312 7.1519511 -26.118959
33.636499 9.6097549 -20.424718
28.608211 7.1514974 -24.212492
33.572405 6.9718578 -21.38189
30.15832 5.6263124 -22.705293
22.612624 -2.5698813 -22.346381
24.417261 2.7749748 -24.129769
24.744218 -1.3419729 -21.821901
25.816488 1.4001262 -22.767535
13.877667 30.906789 -22.454537
16.174865 26.277006 -26.171481
12.343603 29.717029 -24.497793
16.966063 30.101536 -21.983367
17.583952 13.854062 -28.451432
17.613269 20.530314 -28.498868
15.197794 14.787287 -28.57194
8.4869304 24.927601 -26.101575
14.341058 24.557462 -27.645118
10.524084 27.758 -25.84446
9.2234235 22.081815 -27.088206
13.525791 27.436712 -26.409588
23.086568 27.984317 -20.747196
19.115056 25.135716 -25.503928
20.065106 29.132416 -21.419935
18.097314 27.677557 -23.835135
10.406768 16.313205 -28.266535
14.791526 21.165163 -28.215747
12.781931 15.608751 -28.503413
9.8642157 19.181951 -27.803416
15.062015 17.937823 -28.500963
11.986164 21.717882 -27.732415
1.9126109 1.1820585 -28.568745
5.8264971 3.6009732 -28.530046
1.921238 3.1791007 -28.559568
3.8323399 0 -28.444624
14.749268 9.1155488 -28.294357
10.022591 6.1943016 -28.444896
12.652743 10.087261 -28.515771
1.9506991 7.2477213 -28.326857
5.8959424 5.7010121 -28.573082
1.9326267 5.2112457 -28.479209
3.9692456 8.6807158 -28.378532
3.887233 4.4208455 -28.570923
7.6518223 -2.3487318 -27.684553
7.8260337 2.4022061 -28.314856
5.7617773 -1.1862114 -28.147873
5.8106253 1.1962681 -28.386509
8.3867399 11.766772 -28.473281
8.0610468 7.0937857 -28.565228
10.51366 10.977922 -28.571529
6.1122983 10.185992 -28.427848
10.271485 8.5286752 -28.546827
6.0169346 7.9044609 -28.542226
33.597001 20.764088 -16.359631
29.865381 18.457821 -21.514738
33.664096 17.906378 -17.42271
31.424783 22.949744 -17.711882
20.370797 12.589845 -28.038695
26.167947 16.17268 -26.273457
22.627746 11.401351 -27.448571
20.723928 15.994068 -28.377002
33.669543 12.395969 -19.431393
30.078889 15.76824 -22.562741
33.68515 15.105603 -18.446322
32.013236 11.357794 -22.086363
31.871617 16.843318 -20.059232
26.152763 26.535873 -19.888493
27.522695 20.404956 -22.705738
28.902357 24.889899 -18.898165
24.064099 25.119617 -22.356235
29.445644 21.650239 -20.280844
26.764039 8.7023308 -25.560269
28.218123 14.638308 -25.066469
24.783149 10.091909 -26.61811
30.284179 10.311639 -24.687114
26.102408 13.368467 -27.117585
30.192224 13.049312 -23.644214
20.085894 22.350699 -27.092336
25.529831 19.134469 -25.161245
20.930723 19.606837 -28.467058
22.037727 23.72126 -24.76174
23.637733 17.947432 -27.448331
24.872847 22.136611 -23.827698
14.89703 -6.802832 -24.103901
15.779582 -2.3621963 -25.531901
16.703047 -5.8370408 -23.715233
13.197906 -5.7591992 -25.233987
17.181613 7.8461029 -27.800434
16.553414 2.4780385 -26.783986
19.145014 6.6904098 -27.182374
14.630037 6.3841411 -27.972176
20.503086 -3.7487394 -22.855295
17.725297 -1.2550613 -25.225246
18.577186 -4.8178256 -23.29757
21.276975 -1.2966019 -23.699301
17.223059 -3.5908712 -24.491431
9.6021304 -3.5479843 -27.018092
13.900254 -1.2366491 -26.492963
11.418028 -4.6643149 -26.212958
9.7590341 -1.206283 -27.50129
13.569642 -3.525936 -25.890358
22.757094 4.1608573 -25.367894
18.228957 1.2907235 -25.942015
21.024396 5.4524875 -26.366605
22.034553 1.3427681 -24.543126
18.697547 3.8982904 -26.588175
19.800998 0 -24.907835
10.029766 3.7059957 -28.221357
14.202496 1.2635384 -27.069018
12.244663 5.0019993 -28.110709
9.9028669 1.2240617 -27.906616
14.442374 3.7527069 -27.555499
11.947294 0 -27.295991
28.10457 40.246914 1.9966261
33.278178 37.762979 6.1428705
26.348026 39.489631 5.0844631
31.737761 40.408911 0
35.450767 25.029386 12.349404
35.125711 31.65382 9.6182001
22.607426 37.231096 10.636711
30.647608 36.211607 9.0521988
24.465015 38.41332 7.9771529
28.777046 38.22313 7.1308771
37.157828 37.60054 -4.2732293
37.157828 37.60054 4.2732293
35.2363 39.955028 -2.1669129
35.2363 39.955028 2.1669129
32.4958 2.4851426 19.134269
35.060631 7.9369993 18.636998
35.410045 18.929314 14.654257
35.258241 13.294939 16.712576
15.738583 32.321583 19.975837
22.069414 30.635347 18.933686
17.346901 33.517617 17.828465
33.42459 24.283781 15.008202
28.19375 28.080528 17.354721
33.156215 27.33295 13.772143
20.749165 35.952897 13.236622
23.938276 31.912645 16.729548
19.021922 34.736264 15.576959
24.457728 35.450427 12.577255
20.646524 32.804751 17.336455
31.932686 33.436567 10.871904
27.292993 30.724592 15.938552
32.697823 30.443749 12.396954
28.263492 34.671394 11.805468
30.374082 29.236996 14.97386
26.027249 33.235215 14.364516
37.234868 23.012414 -10.508779
39.97343 24.704938 -3.698318
37.397784 26.339904 -9.2047334
37.234868 23.012414 10.508779
39.97343 24.704938 3.698318
37.397784 26.339904 9.2047334
37.574843 33.707735 -6.1630485
40.243659 28.278448 -2.00229
37.534365 29.929425 -7.7619267
39.89068 35.813419 -2.1824413
39.132038 27.518742 -5.7374396
37.574843 33.707735 6.1630485
40.243659 28.278448 2.00229
37.534365 29.929425 7.7619267
39.89068 35.813419 2.1824413
39.132038 27.518742 5.7374396
40.408911 32.123898 0
16.601062 -23.773412 1.1793852
18.788993 -21.32113 3.4682894
16.075927 -24.094117 3.1022232
17.776126 -22.632784 0
22.756117 -16.066554 7.9271765
20.827234 -18.768631 5.7029594
14.806109 -24.383477 6.9662196
18.192562 -21.495378 5.3734272
15.475395 -24.298423 5.0459641
17.162591 -22.796222 4.2528452
20.019502 -20.258023 -2.3022854
20.019502 -20.258023 2.3022854
18.920791 -21.454601 -1.1635645
18.920791 -21.454601 1.1635645
29.691374 -2.2706718 17.482959
28.09205 -6.359457 14.932745
24.603682 -13.152506 10.182101
26.384062 -9.948724 12.506173
11.408089 -23.428253 14.479457
15.085483 -20.940701 12.942065
12.347389 -23.857578 12.690162
21.96617 -15.958959 9.8631792
18.55698 -18.482458 11.422787
21.083549 -17.380621 8.7575027
14.041551 -24.330351 8.9575997
15.947784 -21.260343 11.145298
13.230618 -24.160662 10.834488
15.81476 -22.922817 8.1326557
14.187391 -22.541995 11.912856
19.215278 -20.120228 6.5420948
17.719116 -19.946973 10.347603
20.162923 -18.772961 7.6445094
17.54057 -21.517369 7.3265764
19.401998 -18.675663 9.5648257
16.788085 -21.437364 9.2653943
24.247253 -14.985626 -6.8432902
24.892824 -15.384611 -2.3030693
23.230197 -16.361428 -5.7176589
24.247253 -14.985626 6.8432902
24.892824 -15.384611 2.3030693
23.230197 -16.361428 5.7176589
21.143092 -18.967098 -3.4679028
23.712283 -16.662167 -1.1797851
22.190209 -17.694191 -4.5888288
21.27495 -19.100419 -1.1639644
23.551025 -16.561738 -3.4529912
21.143092 -18.967098 3.4679028
23.712283 -16.662167 1.1797851
22.190209 -17.694191 4.5888288
21.27495 -19.100419 1.1639644
23.551025 -16.561738 3.4529912
22.512296 -17.896615 0
1.9773023 -15.22417 25.855265
5.7012365 -13.387167 25.184449
3.2060266 -16.613843 24.900329
1.9522361 -13.210247 26.485649
12.685981 -9.8209379 23.730978
9.231509 -11.604588 24.482005
5.6451714 -19.112594 22.582439
6.9025508 -14.670786 24.160621
4.4402471 -17.918861 23.800739
5.0944398 -15.624064 24.531853
1.9174341 -9.1971233 27.471318
5.6696902 -11.470032 25.875761
1.9343362 -11.189515 27.024476
3.8466035 -12.331551 26.183462
28.039197 -1.3910083 19.579876
23.70866 -3.8566667 20.892975
27.466598 -3.5364449 18.326093
16.173379 -7.9798839 22.907422
19.805354 -6.0179738 21.977668
26.135949 -7.4668908 15.870243
23.349327 -5.8368785 19.761648
26.822033 -5.570033 17.082654
25.347077 -4.7287308 19.083053
10.214513 -22.748621 16.527429
11.605063 -18.853098 18.777386
9.1534785 -22.036855 18.166496
12.153888 -21.563677 15.748108
13.915433 -10.963706 22.515644
12.825988 -14.950182 20.752885
12.205106 -11.875435 22.945671
6.8877824 -20.230623 21.183391
10.507691 -17.993248 20.255573
8.0347922 -21.192321 19.731395
7.5336014 -18.036209 22.12538
9.8598082 -20.000362 19.251627
15.83895 -19.199137 14.233982
13.530331 -17.791974 18.052607
14.033756 -20.375532 14.981338
12.864258 -19.674258 16.942919
8.7458836 -13.709674 23.755294
11.127732 -15.922648 21.226834
10.475826 -12.792634 23.360852
8.1538817 -15.856036 22.982644
11.683888 -13.914706 22.108732
9.3662463 -16.97082 21.670706
1.9073366 -1.1787988 28.489962
5.6823016 -3.5118555 27.823978
1.9070245 -3.1555814 28.348281
12.792359 -7.9061125 24.540307
9.3376648 -5.7709942 26.501023
11.043573 -8.8043674 24.889147
1.9177721 -7.1253827 27.848711
5.667237 -5.4798681 27.464724
1.9092186 -5.1481267 28.134267
3.8116427 -8.3360391 27.251733
3.8079084 -4.3306317 27.987892
7.5262231 -10.559449 25.551796
7.5495982 -6.6437068 26.752852
9.2829379 -9.6928536 25.226964
5.6935243 -9.4881157 26.480161
9.3200325 -7.7386597 25.90252
5.6943545 -7.4806867 27.012019
22.979462 -14.202089 11.189556
21.133746 -13.061373 15.22455
23.800994 -12.660064 12.318103
21.211178 -15.490675 11.95521
15.9642 -9.8664183 21.973384
18.771112 -11.601185 18.846798
17.712664 -8.9248081 21.486334
15.395624 -11.881853 21.081026
25.364723 -9.3384201 14.638509
21.759741 -11.407097 16.322391
24.602482 -11.032616 13.472563
24.203455 -8.5870059 16.69829
22.846084 -12.073559 14.378778
17.69421 -17.953412 13.455985
19.278176 -14.292581 15.904156
19.443922 -16.74456 12.71365
16.631064 -17.360549 15.450733
20.3065 -14.930582 13.98621
21.356295 -6.9440021 20.39575
20.501809 -10.635427 18.211982
19.515606 -7.946921 20.960554
22.855176 -7.7820942 18.631126
19.16599 -9.8159489 19.911395
22.319639 -9.6467203 17.479015
14.196149 -15.796851 19.148107
18.065276 -13.539826 17.804459
14.804154 -13.867779 20.134551
15.454808 -16.635451 17.365128
16.790699 -12.748682 19.4975
17.377133 -15.465493 16.646951
2.0545039 15.818582 26.864756
6.3228779 14.846853 27.930466
3.4381693 17.816822 26.703318
2.0169876 13.648402 27.364121
15.219267 11.782099 28.469861
10.749051 13.512234 28.506533
6.5815428 22.282823 26.328215
7.9601269 16.918574 27.862396
4.9486143 19.970405 26.525703
5.6779797 17.413714 27.341842
1.9602422 9.4024558 28.084636
6.183582 12.509658 28.221099
1.9877502 11.498498 27.77072
4.0916651 13.117176 27.851573
29.483004 1.4626347 20.588091
26.913662 4.3780216 23.717346
31.46385 4.0511086 20.993114
27.037065 0 21.235314
19.557918 9.6498026 27.701167
23.537312 7.1519511 26.118959
33.636499 9.6097549 20.424718
28.608211 7.1514974 24.212492
33.572405 6.9718578 21.38189
30.15832 5.6263124 22.705293
22.612624 -2.5698813 22.346381
24.417261 2.7749748 24.129769
24.744218 -1.3419729 21.821901
25.816488 1.4001262 22.767535
13.877667 30.906789 22.454537
16.174865 26.277006 26.171481
12.343603 29.717029 24.497793
16.966063 30.101536 21.983367
17.583952 13.854062 28.451432
17.613269 20.530314 28.498868
15.197794 14.787287 28.57194
8.4869304 24.927601 26.101575
14.341058 24.557462 27.645118
10.524084 27.758 25.84446
9.2234235 22.081815 27.088206
13.525791 27.436712 26.409588
23.086568 27.984317 20.747196
19.115056 25.135716 25.503928
20.065106 29.132416 21.419935
18.097314 27.677557 23.835135
10.406768 16.313205 28.266535
14.791526 21.165163 28.215747
12.781931 15.608751 28.503413
9.8642157 19.181951 27.803416
15.062015 17.937823 28.500963
11.986164 21.717882 27.732415
1.9126109 1.1820585 28.568745
5.8264971 3.6009732 28.530046
1.921238 3.1791007 28.559568
3.8323399 0 28.444624
14.749268 9.1155488 28.294357
10.022591 6.1943016 28.444896
12.652743 10.087261 28.515771
1.9506991 7.2477213 28.326857
5.8959424 5.7010121 28.573082
1.9326267 5.2112457 28.479209
3.9692456 8.6807158 28.378532
3.887233 4.4208455 28.570923
7.6518223 -2.3487318 27.684553
7.8260337 2.4022061 28.314856
5.7617773 -1.1862114 28.147873
5.8106253 1.1962681 28.386509
8.3867399 11.766772 28.473281
8.0610468 7.0937857 28.565228
10.51366 10.977922 28.571529
6.1122983 10.185992 28.427848
10.271485 8.5286752 28.546827
6.0169346 7.9044609 28.542226
33.597001 20.764088 16.359631
29.865381 18.457821 21.514738
33.664096 17.906378 17.42271
31.424783 22.949744 17.711882
20.370797 12.589845 28.038695
26.167947 16.17268 26.273457
22.627746 11.401351 27.448571
20.723928 15.994068 28.377002
33.669543 12.395969 19.431393
30.078889 15.76824 22.562741
33.68515 15.105603 18.446322
32.013236 11.357794 22.086363
31.871617 16.843318 20.059232
26.152763 26.535873 19.888493
27.522695 20.404956 22.705738
28.902357 24.889899 18.898165
24.064099 25.119617 22.356235
29.445644 21.650239 20.280844
26.764039 8.7023308 25.560269
28.218123 14.638308 25.066469
24.783149 10.091909 26.61811
30.284179 10.311639 24.687114
26.102408 13.368467 27.117585
30.192224 13.049312 23.644214
20.085894 22.350699 27.092336
25.529831 19.134469 25.161245
20.930723 19.606837 28.467058
22.037727 23.72126 24.76174
23.637733 17.947432 27.448331
24.872847 22.136611 23.827698
14.89703 -6.802832 24.103901
15.779582 -2.3621963 25.531901
16.703047 -5.8370408 23.715233
13.197906 -5.7591992 25.233987
17.181613 7.8461029 27.800434
16.553414 2.4780385 26.783986
19.145014 6.6904098 27.182374
14.630037 6.3841411 27.972176
20.503086 -3.7487394 22.855295
17.725297 -1.2550613 25.225246
18.577186 -4.8178256 23.29757
21.276975 -1.2966019 23.699301
17.223059 -3.5908712 24.491431
9.6021304 -3.5479843 27.018092
13.900254 -1.2366491 26.492963
11.418028 -4.6643149 26.212958
9.7590341 -1.206283 27.50129
13.569642 -3.525936 25.890358
22.757094 4.1608573 25.367894
18.228957 1.2907235 25.942015
21.024396 5.4524875 26.366605
22.034553 1.3427681 24.543126
18.697547 3.8982904 26.588175
19.800998 0 24.907835
10.029766 3.7059957 28.221357
14.202496 1.2635384 27.069018
12.244663 5.0019993 28.110709
9.9028669 1.2240617 27.906616
14.442374 3.7527069 27.555499
11.947294 0 27.295991
32.418059 0 -17.057982
36.000584 0 -12.977634
34.707086 2.5582317 -17.310853
31.454535 -2.3184888 -15.688578
40.216193 0 -2.7872818
38.727365 0 -8.1569376
36.396304 7.9748678 -16.133508
38.237724 2.6689042 -12.801609
36.253949 5.3260554 -17.07442
36.813868 2.6350334 -15.242824
29.47737 -6.4588462 -13.06653
34.540864 -2.410872 -11.563937
30.46783 -4.4760185 -14.349347
33.091453 -2.3685934 -13.701554
32.418059 0 17.057982
36.000584 0 12.977634
34.707086 2.5582317 17.310853
31.454535 -2.3184888 15.688578
40.216193 0 2.7872818
38.727365 0 8.1569376
36.396304 7.9748678 16.133508
38.237724 2.6689042 12.801609
36.253949 5.3260554 17.07442
36.813868 2.6350334 15.242824
29.47737 -6.4588462 13.06653
34.540864 -2.410872 11.563937
30.46783 -4.4760185 14.349347
33.091453 -2.3685934 13.701554
37.03576 19.305982 -11.931753
39.051994 13.760013 -8.5041558
36.871812 16.360406 -13.043154
38.504019 20.138412 -8.787843
40.37191 2.7028053 -1.6704255
40.013311 8.1716461 -5.050355
40.144133 2.7005463 -4.4686335
36.558563 10.768241 -15.108069
38.830247 10.957814 -9.6429637
36.710828 13.508734 -14.105252
37.601137 8.0846557 -13.472876
37.998724 13.67239 -11.352532
40.316946 21.153382 -1.8819305
39.886023 14.175346 -5.237786
39.665252 20.789332 -5.4019006
39.355043 17.142551 -7.0028081
39.0833 2.6914302 -9.9998693
39.448961 8.1401369 -7.8710095
39.708957 2.6946882 -7.2661123
38.436026 5.3759663 -11.757205
39.865115 5.4238706 -6.168422
38.634829 8.1445379 -10.699498
25.44575 -13.264347 -8.1978175
29.134586 -10.265603 -6.3444918
26.446844 -11.734739 -9.3553922
25.955608 -13.575329 -5.923896
37.816548 -2.5317298 -1.5646951
33.193333 -6.7788483 -4.1895587
37.456626 -2.5197543 -4.1694744
28.449814 -8.3798277 -11.757074
30.395759 -8.5776189 -7.5483733
27.452746 -10.101974 -10.548057
30.695508 -6.5998701 -10.998518
28.378246 -10.210828 -8.4783096
26.47845 -13.892639 -1.2359717
29.537379 -10.497476 -3.8788142
26.30377 -13.786319 -3.5822374
27.725273 -12.076773 -4.9334152
35.809219 -2.4659641 -9.1621616
32.616584 -6.7303029 -6.5077871
36.776527 -2.4956907 -6.7295239
33.143927 -4.6357715 -10.138404
34.927453 -4.7520742 -5.404406
31.753658 -6.6939308 -8.7938324
37.03576 19.305982 11.931753
39.051994 13.760013 8.5041558
36.871812 16.360406 13.043154
38.504019 20.138412 8.787843
40.37191 2.7028053 1.6704255
40.013311 8.1716461 5.050355
40.144133 2.7005463 4.4686335
40.408911 5.4442866 0
36.558563 10.768241 15.108069
38.830247 10.957814 9.6429637
36.710828 13.508734 14.105252
37.601137 8.0846557 13.472876
37.998724 13.67239 11.352532
40.316946 21.153382 1.8819305
39.886023 14.175346 5.237786
39.665252 20.789332 5.4019006
40.408911 17.686742 0
39.355043 17.142551 7.0028081
39.0833 2.6914302 9.9998693
39.448961 8.1401369 7.8710095
39.708957 2.6946882 7.2661123
38.436026 5.3759663 11.757205
39.865115 5.4238706 6.168422
38.634829 8.1445379 10.699498
40.210282 11.113849 -3.411403
40.210282 11.113849 3.411403
40.363906 8.2623592 -1.7010212
40.348885 14.318097 -1.7698142
40.363906 8.2623592 1.7010212
40.348885 14.318097 1.7698142
25.44575 -13.264347 8.1978175
29.134586 -10.265603 6.3444918
26.446844 -11.734739 9.3553922
25.955608 -13.575329 5.923896
37.816548 -2.5317298 1.5646951
33.193333 -6.7788483 4.1895587
37.456626 -2.5197543 4.1694744
35.61104 -4.7978702 0
28.449814 -8.3798277 11.757074
30.395759 -8.5776189 7.5483733
27.452746 -10.101974 10.548057
30.695508 -6.5998701 10.998518
28.378246 -10.210828 8.4783096
26.47845 -13.892639 1.2359717
29.537379 -10.497476 3.8788142
26.30377 -13.786319 3.5822374
28.106751 -12.302159 0
27.725273 -12.076773 4.9334152
35.809219 -2.4659641 9.1621616
32.616584 -6.7303029 6.5077871
36.776527 -2.4956907 6.7295239
33.143927 -4.6357715 10.138404
34.927453 -4.7520742 5.404406
31.753658 -6.6939308 8.7938324
31.519723 -8.7118371 -2.674104
31.519723 -8.7118371 2.674104
33.501836 -6.8577161 -1.4118389
29.794004 -10.57262 -1.3068478
33.501836 -6.8577161 1.4118389
29.794004 -10.57262 1.3068478
-16.601062 23.773412 -1.1793852
-18.788993 21.32113 -3.4682894
-16.075927 24.094117 -3.1022232
-22.756117 16.066554 -7.9271765
-20.827234 18.768631 -5.7029594
-14.806109 24.383477 -6.9662196
-18.192562 21.495378 -5.3734272
-15.475395 24.298423 -5.0459641
-17.162591 22.796222 -4.2528452
-29.691374 2.2706718 -17.482959
-28.09205 6.359457 -14.932745
-24.603682 13.152506 -10.182101
-26.384062 9.948724 -12.506173
-11.408089 23.428253 -14.479457
-15.085483 20.940701 -12.942065
-12.347389 23.857578 -12.690162
-21.96617 15.958959 -9.8631792
-18.55698 18.482458 -11.422787
-21.083549 17.380621 -8.7575027
-14.041551 24.330351 -8.9575997
-15.947784 21.260343 -11.145298
-13.230618 24.160662 -10.834488
-15.81476 22.922817 -8.1326557
-14.187391 22.541995 -11.912856
-19.215278 20.120228 -6.5420948
-17.719116 19.946973 -10.347603
-20.162923 18.772961 -7.6445094
-17.54057 21.517369 -7.3265764
-19.401998 18.675663 -9.5648257
-16.788085 21.437364 -9.2653943
-28.10457 -40.246914 -1.9966261
-33.278178 -37.762979 -6.1428705
-26.348026 -39.489631 -5.0844631
-35.450767 -25.029386 -12.349404
-35.125711 -31.65382 -9.6182001
-22.607426 -37.231096 -10.636711
-30.647608 -36.211607 -9.0521988
-24.465015 -38.41332 -7.9771529
-28.777046 -38.22313 -7.1308771
-32.4958 -2.4851426 -19.134269
-35.060631 -7.9369993 -18.636998
-35.410045 -18.929314 -14.654257
-35.258241 -13.294939 -16.712576
-15.738583 -32.321583 -19.975837
-22.069414 -30.635347 -18.933686
-17.346901 -33.517617 -17.828465
-33.42459 -24.283781 -15.008202
-28.19375 -28.080528 -17.354721
-33.156215 -27.33295 -13.772143
-20.749165 -35.952897 -13.236622
-23.938276 -31.912645 -16.729548
-19.021922 -34.736264 -15.576959
-24.457728 -35.450427 -12.577255
-20.646524 -32.804751 -17.336455
-31.932686 -33.436567 -10.871904
-27.292993 -30.724592 -15.938552
-32.697823 -30.443749 -12.396954
-28.263492 -34.671394 -11.805468
-30.374082 -29.236996 -14.97386
-26.027249 -33.235215 -14.364516
-2.0545039 -15.818582 -26.864756
-6.3228779 -14.846853 -27.930466
-3.4381693 -17.816822 -26.703318
-2.0169876 -13.648402 -27.364121
-15.219267 -11.782099 -28.469861
-10.749051 -13.512234 -28.506533
-6.5815428 -22.282823 -26.328215
-7.9601269 -16.918574 -27.862396
-4.9486143 -19.970405 -26.525703
-5.6779797 -17.413714 -27.341842
-1.9602422 -9.4024558 -28.084636
-6.183582 -12.509658 -28.221099
-1.9877502 -11.498498 -27.77072
-4.0916651 -13.117176 -27.851573
-29.483004 -1.4626347 -20.588091
-26.913662 -4.3780216 -23.717346
-31.46385 -4.0511086 -20.993114
-19.557918 -9.6498026 -27.701167
-23.537312 -7.1519511 -26.118959
-33.636499 -9.6097549 -20.424718
-28.608211 -7.1514974 -24.212492
-33.572405 -6.9718578 -21.38189
-30.15832 -5.6263124 -22.705293
-13.877667 -30.906789 -22.454537
