15.40121 -34.65579 -15.753355
14.343484 -37.009164 -5.2714822
3.7863757 -28.747793 -36.602046
10.287475 -32.918882 -26.33091
0 -32.616803 -33.005413
3.4276559 -41.164327 -5.5460637
9.906442 -36.981808 -16.02896
8.9401965 -39.250665 -5.393453
0 -41.370372 -11.43449
12.235193 -37.21193 -10.725338
-7.2858114 -39.13062 -24.184053
6.7224421 -36.104877 -22.314041
-3.761507 -36.168071 -28.752555
-3.6735 -40.739739 -17.831544
3.6139401 -34.749168 -27.624569
3.5158827 -38.991737 -17.066453
-19.366583 34.577387 -5.2450137
-15.40121 34.65579 -15.753355
-14.343484 37.009164 -5.2714822
-3.7863757 28.747793 -36.602046
-10.287475 32.918882 -26.33091
-3.4276559 41.164327 -5.5460637
-9.906442 36.981808 -16.02896
-8.9401965 39.250665 -5.393453
-12.235193 37.21193 -10.725338
25.216972 45.022758 -6.829463
18.772658 42.242219 -19.20189
17.460355 45.051339 -6.4169872
3.9192866 29.75691 -37.886866
11.555571 36.976659 -29.576614
0 32.616803 -33.005413
3.5861252 43.06746 -5.8024725
11.248651 41.992419 -18.2007
10.090121 44.299244 -6.0871806
0 41.370372 -11.43449
14.408137 43.820689 -12.630136
-6.7224421 36.104877 -22.314041
7.2858114 39.13062 -24.184053
-3.6139401 34.749168 -27.624569
-3.5158827 38.991737 -17.066453
3.761507 36.168071 -28.752555
3.6735 40.739739 -17.831544
0 -20.050381 -45.485871
0 -7.0879564 -50.888536
0 20.050381 -45.485871
0 7.0879564 -50.888536
34.544339 43.982279 -4.5498395
46.22894 36.97726 -14.447
31.346237 43.494964 -11.689183
49.69992 7.5389376 -27.836622
51.953663 23.616385 -23.088473
23.852336 39.821385 -24.610969
42.032187 35.754714 -22.097628
27.682529 42.020956 -18.566149
37.246608 40.404972 -17.029602
24.86142 -31.653867 -3.2745009
32.310766 -25.844494 -10.097433
23.139411 -32.107453 -8.6288127
44.821909 -6.7989964 -25.104478
39.255895 -17.844408 -17.44552
18.965084 -31.662137 -19.568277
30.329836 -25.8001 -15.945339
21.153747 -32.11053 -14.187418
26.867637 -29.145905 -12.28421
6.2819356 -23.195293 -41.413222
18.355979 -17.945656 -40.381301
9.8366934 -26.378518 -36.601927
6.4861867 -17.648645 -45.537164
41.171137 -4.259035 -32.336425
29.988821 -11.71662 -37.491999
39.585309 -10.638471 -28.528601
16.020517 -30.472833 -25.92174
21.707306 -21.038178 -35.123158
13.174339 -28.814498 -31.257853
22.133409 -27.876228 -24.326971
15.940463 -23.767575 -36.078216
6.8355964 -4.2246309 -50.735574
19.172617 -11.849329 -44.234814
6.7062092 -11.116223 -48.804203
13.005866 -14.83676 -45.124297
34.160494 -21.112347 -20.461559
28.386412 -17.543768 -33.370229
37.076495 -16.381534 -24.425221
28.309139 -24.704763 -22.477136
33.951507 -14.309641 -31.297596
25.381753 -23.093082 -29.084901
6.5825558 24.305297 -43.39504
20.545401 20.086137 -45.197808
10.725935 28.763147 -39.910757
6.7262889 18.301952 -47.222834
43.577882 4.5080057 -34.226719
33.852165 13.226026 -42.321949
45.953491 12.349907 -33.118064
38.142713 0 -37.693616
19.134954 36.396846 -30.961007
25.577548 24.78912 -41.385343
15.038222 32.891125 -35.680161
28.062637 35.343876 -30.843823
18.190281 27.122101 -41.17025
6.8968665 4.2624979 -51.190337
20.664234 12.771199 -47.676252
6.8647729 11.379059 -49.958144
13.821754 0 -50.007576
13.850119 15.799863 -48.053462
45.720895 28.257067 -27.386043
34.051143 21.044764 -40.029519
46.78755 20.672176 -30.822661
37.443411 32.676041 -29.729644
40.510095 17.073909 -37.343513
31.703198 28.844523 -36.328633
26.295774 -7.9219991 -42.547456
28.153216 8.4815817 -45.55286
32.202747 -4.2128728 -40.508094
20.554916 -4.2345455 -46.961829
33.630387 4.3996416 -42.303935
21.125792 4.3521524 -48.26611
34.544339 43.982279 4.5498395
46.22894 36.97726 14.447
31.346237 43.494964 11.689183
41.531033 42.025849 0
49.69992 7.5389376 27.836622
51.953663 23.616385 23.088473
23.852336 39.821385 24.610969
42.032187 35.754714 22.097628
27.682529 42.020956 18.566149
37.246608 40.404972 17.029602
52.946875 32.722968 -9.8582886
52.946875 32.722968 9.8582886
48.085906 38.226884 -5.000971
48.085906 38.226884 5.000971
24.86142 -31.653867 3.2745009
32.310766 -25.844494 10.097433
23.139411 -32.107453 8.6288127
28.872353 -29.216349 0
44.821909 -6.7989964 25.104478
39.255895 -17.844408 17.44552
18.965084 -31.662137 19.568277
30.329836 -25.8001 15.945339
21.153747 -32.11053 14.187418
26.867637 -29.145905 12.28421
36.878568 -22.792208 -6.8664971
36.878568 -22.792208 6.8664971
32.979369 -26.217631 -3.4298796
32.979369 -26.217631 3.4298796
6.2819356 -23.195293 41.413222
18.355979 -17.945656 40.381301
9.8366934 -26.378518 36.601927
6.4861867 -17.648645 45.537164
41.171137 -4.259035 32.336425
29.988821 -11.71662 37.491999
39.585309 -10.638471 28.528601
16.020517 -30.472833 25.92174
21.707306 -21.038178 35.123158
13.174339 -28.814498 31.257853
22.133409 -27.876228 24.326971
15.940463 -23.767575 36.078216
6.8355964 -4.2246309 50.735574
19.172617 -11.849329 44.234814
6.7062092 -11.116223 48.804203
13.005866 -14.83676 45.124297
34.160494 -21.112347 20.461559
28.386412 -17.543768 33.370229
37.076495 -16.381534 24.425221
28.309139 -24.704763 22.477136
33.951507 -14.309641 31.297596
25.381753 -23.093082 29.084901
6.5825558 24.305297 43.39504
20.545401 20.086137 45.197808
10.725935 28.763147 39.910757
6.7262889 18.301952 47.222834
43.577882 4.5080057 34.226719
33.852165 13.226026 42.321949
45.953491 12.349907 33.118064
38.142713 0 37.693616
19.134954 36.396846 30.961007
25.577548 24.78912 41.385343
15.038222 32.891125 35.680161
28.062637 35.343876 30.843823
18.190281 27.122101 41.17025
6.8968665 4.2624979 51.190337
20.664234 12.771199 47.676252
6.8647729 11.379059 49.958144
13.821754 0 50.007576
13.850119 15.799863 48.053462
45.720895 28.257067 27.386043
34.051143 21.044764 40.029519
46.78755 20.672176 30.822661
37.443411 32.676041 29.729644
40.510095 17.073909 37.343513
31.703198 28.844523 36.328633
26.295774 -7.9219991 42.547456
28.153216 8.4815817 45.55286
32.202747 -4.2128728 40.508094
20.554916 -4.2345455 46.961829
33.630387 4.3996416 42.303935
21.125792 4.3521524 48.26611
50.398503 0 -22.215892
55.21214 0 -7.6901651
53.854315 7.6708585 -20.872087
48.110256 -6.8526907 -18.645887
50.398503 0 22.215892
55.21214 0 7.6901651
53.854315 7.6708585 20.872087
48.110256 -6.8526907 18.645887
55.960505 24.254863 -14.99033
58.501975 7.8819624 -4.8713207
55.969574 16.131725 -18.402661
58.10394 25.431752 -5.239229
56.921012 7.821544 -12.965004
41.351407 -17.922867 -11.076941
51.659621 -6.9600932 -4.3015741
44.911737 -12.944601 -14.766871
42.096253 -18.425282 -3.7958168
50.455521 -6.9331177 -11.492347
55.960505 24.254863 14.99033
58.501975 7.8819624 4.8713207
55.969574 16.131725 18.402661
58.10394 25.431752 5.239229
56.921012 7.821544 12.965004
59.916194 16.560429 0
41.351407 -17.922867 11.076941
51.659621 -6.9600932 4.3015741
44.911737 -12.944601 14.766871
42.096253 -18.425282 3.7958168
50.455521 -6.9331177 11.492347
47.253212 -13.060466 0
-24.86142 31.653867 -3.2745009
-32.310766 25.844494 -10.097433
-23.139411 32.107453 -8.6288127
-44.821909 6.7989964 -25.104478
-39.255895 17.844408 -17.44552
-18.965084 31.662137 -19.568277
-30.329836 25.8001 -15.945339
-21.153747 32.11053 -14.187418
-26.867637 29.145905 -12.28421
-34.544339 -43.982279 -4.5498395
-46.22894 -36.97726 -14.447
-31.346237 -43.494964 -11.689183
-49.69992 -7.5389376 -27.836622
-51.953663 -23.616385 -23.088473
-23.852336 -39.821385 -24.610969
-42.032187 -35.754714 -22.097628
-27.682529 -42.020956 -18.566149
-37.246608 -40.404972 -17.029602
-6.5825558 -24.305297 -43.39504
-20.545401 -20.086137 -45.197808
-10.725935 -28.763147 -39.910757
-6.7262889 -18.301952 -47.222834
-43.577882 -4.5080057 -34.226719
-33.852165 -13.226026 -42.321949
-45.953491 -12.349907 -33.118064
-19.134954 -36.396846 -30.961007
-25.577548 -24.78912 -41.385343
-15.038222 -32.891125 -35.680161
-28.062637 -35.343876 -30.843823
-18.190281 -27.122101 -41.17025
-6.8968665 -4.2624979 -51.190337
-20.664234 -12.771199 -47.676252
-6.8647729 -11.379059 -49.958144
-13.850119 -15.799863 -48.053462
-45.720895 -28.257067 -27.386043
-34.051143 -21.044764 -40.029519
-46.78755 -20.672176 -30.822661
-37.443411 -32.676041 -29.729644
-40.510095 -17.073909 -37.343513
-31.703198 -28.844523 -36.328633
-6.2819356 23.195293 -41.413222
-18.355979 17.945656 -40.381301
-9.8366934 26.378518 -36.601927
-6.4861867 17.648645 -45.537164
-41.171137 4.259035 -32.336425
-29.988821 11.71662 -37.491999
-39.585309 10.638471 -28.528601
-38.142713 0 -37.693616
-16.020517 30.472833 -25.92174
-21.707306 21.038178 -35.123158
-13.174339 28.814498 -31.257853
-22.133409 27.876228 -24.326971
-15.940463 23.767575 -36.078216
-6.8355964 4.2246309 -50.735574
-19.172617 11.849329 -44.234814
-6.7062092 11.116223 -48.804203
-13.821754 0 -50.007576
-13.005866 14.83676 -45.124297
-34.160494 21.112347 -20.461559
-28.386412 17.543768 -33.370229
-37.076495 16.381534 -24.425221
-28.309139 24.704763 -22.477136
-33.951507 14.309641 -31.297596
-25.381753 23.093082 -29.084901
-28.153216 -8.4815817 -45.55286
-26.295774 7.9219991 -42.547456
-33.630387 -4.3996416 -42.303935
-21.125792 -4.3521524 -48.26611
-32.202747 4.2128728 -40.508094
-20.554916 4.2345455 -46.961829
-24.86142 31.653867 3.2745009
-32.310766 25.844494 10.097433
-23.139411 32.107453 8.6288127
-28.872353 29.216349 0
-44.821909 6.7989964 25.104478
-39.255895 17.844408 17.44552
-18.965084 31.662137 19.568277
-30.329836 25.8001 15.945339
-21.153747 32.11053 14.187418
-26.867637 29.145905 12.28421
-36.878568 22.792208 -6.8664971
-36.878568 22.792208 6.8664971
-32.979369 26.217631 -3.4298796
-32.979369 26.217631 3.4298796
-34.544339 -43.982279 4.5498395
-46.22894 -36.97726 14.447
-31.346237 -43.494964 11.689183
-41.531033 -42.025849 0
-49.69992 -7.5389376 27.836622
-51.953663 -23.616385 23.088473
-23.852336 -39.821385 24.610969
-42.032187 -35.754714 22.097628
-27.682529 -42.020956 18.566149
-37.246608 -40.404972 17.029602
-52.946875 -32.722968 -9.8582886
-52.946875 -32.722968 9.8582886
-48.085906 -38.226884 -5.000971
-48.085906 -38.226884 5.000971
-6.5825558 -24.305297 43.39504
-20.545401 -20.086137 45.197808
-10.725935 -28.763147 39.910757
-6.7262889 -18.301952 47.222834
-43.577882 -4.5080057 34.226719
-33.852165 -13.226026 42.321949
-45.953491 -12.349907 33.118064
-19.134954 -36.396846 30.961007
-25.577548 -24.78912 41.385343
-15.038222 -32.891125 35.680161
-28.062637 -35.343876 30.843823
-18.190281 -27.122101 41.17025
-6.8968665 -4.2624979 51.190337
-20.664234 -12.771199 47.676252
-6.8647729 -11.379059 49.958144
-13.850119 -15.799863 48.053462
-45.720895 -28.257067 27.386043
-34.051143 -21.044764 40.029519
-46.78755 -20.672176 30.822661
-37.443411 -32.676041 29.729644
-40.510095 -17.073909 37.343513
-31.703198 -28.844523 36.328633
-6.2819356 23.195293 41.413222
-18.355979 17.945656 40.381301
-9.8366934 26.378518 36.601927
-6.4861867 17.648645 45.537164
-41.171137 4.259035 32.336425
-29.988821 11.71662 37.491999
-39.585309 10.638471 28.528601
-38.142713 0 37.693616
-16.020517 30.472833 25.92174
-21.707306 21.038178 35.123158
-13.174339 28.814498 31.257853
-22.133409 27.876228 24.326971
-15.940463 23.767575 36.078216
-6.8355964 4.2246309 50.735574
-19.172617 11.849329 44.234814
-6.7062092 11.116223 48.804203
-13.821754 0 50.007576
-13.005866 14.83676 45.124297
-34.160494 21.112347 20.461559
-28.386412 17.543768 33.370229
-37.076495 16.381534 24.425221
-28.309139 24.704763 22.477136
-33.951507 14.309641 31.297596
-25.381753 23.093082 29.084901
-28.153216 -8.4815817 45.55286
-26.295774 7.9219991 42.547456
-33.630387 -4.3996416 42.303935
-21.125792 -4.3521524 48.26611
-32.202747 4.2128728 40.508094
-20.554916 4.2345455 46.961829
-50.398503 0 -22.215892
-55.21214 0 -7.6901651
-48.110256 6.8526907 -18.645887
-53.854315 -7.6708585 -20.872087
-50.398503 0 22.215892
-55.21214 0 7.6901651
-48.110256 6.8526907 18.645887
-53.854315 -7.6708585 20.872087
-41.351407 17.922867 -11.076941
-51.659621 6.9600932 -4.3015741
-44.911737 12.944601 -14.766871
-42.096253 18.425282 -3.7958168
-50.455521 6.9331177 -11.492347
-55.960505 -24.254863 -14.99033
-58.501975 -7.8819624 -4.8713207
-55.969574 -16.131725 -18.402661
-58.10394 -25.431752 -5.239229
-56.921012 -7.821544 -12.965004
-41.351407 17.922867 11.076941
-51.659621 6.9600932 4.3015741
-44.911737 12.944601 14.766871
-42.096253 18.425282 3.7958168
-50.455521 6.9331177 11.492347
-47.253212 13.060466 0
-55.960505 -24.254863 14.99033
-58.501975 -7.8819624 4.8713207
-55.969574 -16.131725 18.402661
-58.10394 -25.431752 5.239229
-56.921012 -7.821544 12.965004
-59.916194 -16.560429 0
-18.539144 35.232953 0
-13.550781 37.590521 0
-2.8818842 41.581161 0
-8.3627247 39.704397 0
23.9359 45.489288 0
16.337057 45.319787 0
2.9938539 43.196711 0
9.3696427 44.485025 0
-23.9359 -45.489288 0
-16.337057 -45.319787 0
-2.9938539 -43.196711 0
-9.3696427 -44.485025 0
18.539144 -35.232953 0
13.550781 -37.590521 0
2.8818842 -41.581161 0
8.3627247 -39.704397 0
-26.636343 -45.236601 3.4595056
-23.70895 -44.602182 10.097008
-22.655372 -45.422484 3.3480552
-17.022365 -41.132261 21.988266
-20.476302 -43.198509 16.289002
-15.111165 -45.136247 3.150405
-19.806101 -44.681472 9.7902476
-18.787381 -45.374542 3.2477824
-21.262844 -45.147189 6.6325582
-1.9663955 -27.679043 39.637542
-5.8567494 -31.728155 36.004065
-13.408564 -38.491239 27.176058
-9.6772762 -35.341457 31.848241
-1.7720844 -42.828866 2.8672928
-5.4430431 -43.124528 8.8070288
-4.848093 -43.553021 2.9298665
-13.238481 -41.091801 21.420313
-9.2794201 -42.612091 15.014417
-14.930977 -42.208515 18.728356
-11.442181 -44.720403 3.0796234
-8.7224925 -43.716536 9.020734
-8.0865911 -44.192834 2.9989685
-13.689728 -44.753725 6.2596096
-6.766987 -43.733505 5.9501866
-18.185834 -44.006152 12.961912
-10.79497 -43.469141 12.2669
-16.594315 -43.18895 15.892533
-15.954071 -44.525846 9.5735439
-12.840793 -42.980169 15.464772
-12.238267 -44.191169 9.3158597
20.204214 -34.312891 2.6241061
18.470079 -34.746617 7.865913
17.743241 -35.573995 2.622131
14.240419 -34.410061 18.394748
16.490575 -34.789889 13.118336
12.690915 -37.907087 2.6458265
15.949499 -35.98119 7.8839112
15.227742 -36.777444 2.6324263
16.873125 -35.826542 5.2632651
1.9344143 -27.228875 38.992882
5.5494323 -30.063306 34.114849
0 -29.309097 37.316706
11.68778 -33.55148 23.688428
8.7993737 -32.135354 28.959035
-3.8143841 -33.167943 33.563119
3.6746576 -31.952953 32.333652
-1.9249415 -31.301588 35.493393
1.8903732 -30.739472 34.856
1.732276 -41.866751 2.8028814
5.0894491 -40.323049 8.2349016
4.5620439 -40.983289 2.7569973
0 -42.166778 5.6811238
11.465379 -35.588152 18.551373
8.3257679 -38.232818 13.471375
12.682431 -35.852081 15.90794
9.9840113 -39.021321 2.6871621
7.8534219 -39.360813 8.1219479
7.3245584 -40.028362 2.7163634
11.673462 -38.162256 5.3376747
6.2261536 -40.238221 5.4746338
-3.5831682 -42.234882 11.673434
3.4278142 -40.403721 11.167314
-1.7824295 -42.295662 8.6577834
1.7426474 -41.351666 8.4645504
14.897406 -36.048802 10.618092
9.5139257 -38.310638 10.811181
13.83342 -36.003348 13.248398
13.31763 -37.167864 7.9914974
11.100812 -37.156176 13.369231
10.606855 -38.300303 8.074017
-11.172724 -39.587369 24.46634
-3.5653158 -38.53587 23.816477
-9.3982358 -38.183962 26.893622
-9.2781997 -40.652522 21.262124
9.9105928 -35.115367 21.70249
3.4241427 -37.009995 22.873435
8.509411 -34.572768 24.350196
8.3623501 -36.639718 19.163343
-5.7415703 -35.005177 31.402532
-1.8459082 -37.100571 26.06986
-7.5781186 -36.645524 29.220675
-1.8850363 -34.454709 30.933064
-5.5288798 -37.709561 26.518417
-5.5084192 -41.946909 14.907777
-1.8374724 -39.364512 20.653661
-7.3727453 -41.434051 18.04814
-1.8057161 -41.16739 14.60855
-5.4564025 -40.06545 20.999084
5.4177586 -33.030963 29.631499
1.8083685 -36.346066 25.539684
7.0056662 -33.877315 27.01334
1.8486231 -33.789148 30.33553
5.2064162 -35.510208 24.97177
0 -35.514784 28.233211
5.1556437 -39.260505 13.953039
1.7980722 -38.520433 20.210793
6.7667842 -38.028614 16.564776
1.7659585 -40.260981 14.286904
5.1240999 -37.625408 19.72021
0 -39.9197 17.472617
-20.204214 34.312891 2.6241061
-18.470079 34.746617 7.865913
-17.743241 35.573995 2.622131
-14.240419 34.410061 18.394748
-16.490575 34.789889 13.118336
-12.690915 37.907087 2.6458265
-15.949499 35.98119 7.8839112
-15.227742 36.777444 2.6324263
-16.873125 35.826542 5.2632651
-1.9344143 27.228875 38.992882
-5.5494323 30.063306 34.114849
-11.68778 33.55148 23.688428
-8.7993737 32.135354 28.959035
-1.732276 41.866751 2.8028814
-5.0894491 40.323049 8.2349016
-4.5620439 40.983289 2.7569973
-11.465379 35.588152 18.551373
-8.3257679 38.232818 13.471375
-12.682431 35.852081 15.90794
-9.9840113 39.021321 2.6871621
-7.8534219 39.360813 8.1219479
-7.3245584 40.028362 2.7163634
-11.673462 38.162256 5.3376747
-6.2261536 40.238221 5.4746338
-14.897406 36.048802 10.618092
-9.5139257 38.310638 10.811181
-13.83342 36.003348 13.248398
-13.31763 37.167864 7.9914974
-11.100812 37.156176 13.369231
-10.606855 38.300303 8.074017
26.636343 45.236601 3.4595056
23.70895 44.602182 10.097008
22.655372 45.422484 3.3480552
17.022365 41.132261 21.988266
20.476302 43.198509 16.289002
15.111165 45.136247 3.150405
19.806101 44.681472 9.7902476
18.787381 45.374542 3.2477824
21.262844 45.147189 6.6325582
1.9663955 27.679043 39.637542
5.8567494 31.728155 36.004065
0 29.309097 37.316706
13.408564 38.491239 27.176058
9.6772762 35.341457 31.848241
-3.6746576 31.952953 32.333652
3.8143841 33.167943 33.563119
-1.8903732 30.739472 34.856
1.9249415 31.301588 35.493393
1.7720844 42.828866 2.8672928
5.4430431 43.124528 8.8070288
4.848093 43.553021 2.9298665
0 42.166778 5.6811238
13.238481 41.091801 21.420313
9.2794201 42.612091 15.014417
14.930977 42.208515 18.728356
11.442181 44.720403 3.0796234
8.7224925 43.716536 9.020734
8.0865911 44.192834 2.9989685
13.689728 44.753725 6.2596096
6.766987 43.733505 5.9501866
-3.4278142 40.403721 11.167314
3.5831682 42.234882 11.673434
-1.7426474 41.351666 8.4645504
1.7824295 42.295662 8.6577834
18.185834 44.006152 12.961912
10.79497 43.469141 12.2669
16.594315 43.18895 15.892533
15.954071 44.525846 9.5735439
12.840793 42.980169 15.464772
12.238267 44.191169 9.3158597
-9.9105928 35.115367 21.70249
-3.4241427 37.009995 22.873435
-8.509411 34.572768 24.350196
-8.3623501 36.639718 19.163343
11.172724 39.587369 24.46634
3.5653158 38.53587 23.816477
9.3982358 38.183962 26.893622
9.2781997 40.652522 21.262124
-5.4177586 33.030963 29.631499
-1.8083685 36.346066 25.539684
-7.0056662 33.877315 27.01334
-1.8486231 33.789148 30.33553
-5.2064162 35.510208 24.97177
-5.1556437 39.260505 13.953039
-1.7980722 38.520433 20.210793
-6.7667842 38.028614 16.564776
-1.7659585 40.260981 14.286904
-5.1240999 37.625408 19.72021
5.7415703 35.005177 31.402532
1.8459082 37.100571 26.06986
7.5781186 36.645524 29.220675
1.8850363 34.454709 30.933064
5.5288798 37.709561 26.518417
0 35.514784 28.233211
5.5084192 41.946909 14.907777
1.8374724 39.364512 20.653661
7.3727453 41.434051 18.04814
1.8057161 41.16739 14.60855
5.4564025 40.06545 20.999084
0 39.9197 17.472617
0 -22.873251 43.469762
0 -17.039354 47.26799
0 -3.5645844 51.431475
0 -10.53093 49.998563
0 22.873251 43.469762
0 17.039354 47.26799
0 3.5645844 51.431475
0 10.53093 49.998563
-26.636343 -45.236601 -3.4595056
-23.70895 -44.602182 -10.097008
-22.655372 -45.422484 -3.3480552
-17.022365 -41.132261 -21.988266
-20.476302 -43.198509 -16.289002
-15.111165 -45.136247 -3.150405
-19.806101 -44.681472 -9.7902476
-18.787381 -45.374542 -3.2477824
-21.262844 -45.147189 -6.6325582
-1.9663955 -27.679043 -39.637542
-5.8567494 -31.728155 -36.004065
-13.408564 -38.491239 -27.176058
-9.6772762 -35.341457 -31.848241
-1.7720844 -42.828866 -2.8672928
-5.4430431 -43.124528 -8.8070288
-4.848093 -43.553021 -2.9298665
-13.238481 -41.091801 -21.420313
-9.2794201 -42.612091 -15.014417
-14.930977 -42.208515 -18.728356
-11.442181 -44.720403 -3.0796234
-8.7224925 -43.716536 -9.020734
-8.0865911 -44.192834 -2.9989685
-13.689728 -44.753725 -6.2596096
-6.766987 -43.733505 -5.9501866
-18.185834 -44.006152 -12.961912
-10.79497 -43.469141 -12.2669
-16.594315 -43.18895 -15.892533
-15.954071 -44.525846 -9.5735439
-12.840793 -42.980169 -15.464772
-12.238267 -44.191169 -9.3158597
20.204214 -34.312891 -2.6241061
18.470079 -34.746617 -7.865913
17.743241 -35.573995 -2.622131
14.240419 -34.410061 -18.394748
16.490575 -34.789889 -13.118336
12.690915 -37.907087 -2.6458265
15.949499 -35.98119 -7.8839112
15.227742 -36.777444 -2.6324263
16.873125 -35.826542 -5.2632651
1.9344143 -27.228875 -38.992882
5.5494323 -30.063306 -34.114849
0 -29.309097 -37.316706
11.68778 -33.55148 -23.688428
8.7993737 -32.135354 -28.959035
-3.8143841 -33.167943 -33.563119
3.6746576 -31.952953 -32.333652
-1.9249415 -31.301588 -35.493393
1.8903732 -30.739472 -34.856
1.732276 -41.866751 -2.8028814
5.0894491 -40.323049 -8.2349016
4.5620439 -40.983289 -2.7569973
0 -42.166778 -5.6811238
11.465379 -35.588152 -18.551373
8.3257679 -38.232818 -13.471375
12.682431 -35.852081 -15.90794
9.9840113 -39.021321 -2.6871621
7.8534219 -39.360813 -8.1219479
7.3245584 -40.028362 -2.7163634
11.673462 -38.162256 -5.3376747
6.2261536 -40.238221 -5.4746338
-3.5831682 -42.234882 -11.673434
3.4278142 -40.403721 -11.167314
-1.7824295 -42.295662 -8.6577834
1.7426474 -41.351666 -8.4645504
14.897406 -36.048802 -10.618092
9.5139257 -38.310638 -10.811181
13.83342 -36.003348 -13.248398
13.31763 -37.167864 -7.9914974
11.100812 -37.156176 -13.369231
10.606855 -38.300303 -8.074017
-11.172724 -39.587369 -24.46634
-3.5653158 -38.53587 -23.816477
-9.3982358 -38.183962 -26.893622
-9.2781997 -40.652522 -21.262124
9.9105928 -35.115367 -21.70249
3.4241427 -37.009995 -22.873435
8.509411 -34.572768 -24.350196
8.3623501 -36.639718 -19.163343
-5.7415703 -35.005177 -31.402532
-1.8459082 -37.100571 -26.06986
-7.5781186 -36.645524 -29.220675
-1.8850363 -34.454709 -30.933064
-5.5288798 -37.709561 -26.518417
-5.5084192 -41.946909 -14.907777
-1.8374724 -39.364512 -20.653661
-7.3727453 -41.434051 -18.04814
-1.8057161 -41.16739 -14.60855
-5.4564025 -40.06545 -20.999084
5.4177586 -33.030963 -29.631499
1.8083685 -36.346066 -25.539684
7.0056662 -33.877315 -27.01334
1.8486231 -33.789148 -30.33553
5.2064162 -35.510208 -24.97177
0 -35.514784 -28.233211
5.1556437 -39.260505 -13.953039
1.7980722 -38.520433 -20.210793
6.7667842 -38.028614 -16.564776
1.7659585 -40.260981 -14.286904
5.1240999 -37.625408 -19.72021
0 -39.9197 -17.472617
-20.204214 34.312891 -2.6241061
-18.470079 34.746617 -7.865913
-17.743241 35.573995 -2.622131
-14.240419 34.410061 -18.394748
-16.490575 34.789889 -13.118336
-12.690915 37.907087 -2.6458265
-15.949499 35.98119 -7.8839112
-15.227742 36.777444 -2.6324263
-16.873125 35.826542 -5.2632651
-1.9344143 27.228875 -38.992882
-5.5494323 30.063306 -34.114849
-11.68778 33.55148 -23.688428
-8.7993737 32.135354 -28.959035
-1.732276 41.866751 -2.8028814
-5.0894491 40.323049 -8.2349016
-4.5620439 40.983289 -2.7569973
-11.465379 35.588152 -18.551373
-8.3257679 38.232818 -13.471375
-12.682431 35.852081 -15.90794
-9.9840113 39.021321 -2.6871621
-7.8534219 39.360813 -8.1219479
-7.3245584 40.028362 -2.7163634
-11.673462 38.162256 -5.3376747
-6.2261536 40.238221 -5.4746338
-14.897406 36.048802 -10.618092
-9.5139257 38.310638 -10.811181
-13.83342 36.003348 -13.248398
-13.31763 37.167864 -7.9914974
-11.100812 37.156176 -13.369231
-10.606855 38.300303 -8.074017
26.636343 45.236601 -3.4595056
23.70895 44.602182 -10.097008
22.655372 45.422484 -3.3480552
17.022365 41.132261 -21.988266
20.476302 43.198509 -16.289002
15.111165 45.136247 -3.150405
19.806101 44.681472 -9.7902476
18.787381 45.374542 -3.2477824
21.262844 45.147189 -6.6325582
1.9663955 27.679043 -39.637542
5.8567494 31.728155 -36.004065
0 29.309097 -37.316706
13.408564 38.491239 -27.176058
9.6772762 35.341457 -31.848241
-3.6746576 31.952953 -32.333652
3.8143841 33.167943 -33.563119
-1.8903732 30.739472 -34.856
1.9249415 31.301588 -35.493393
1.7720844 42.828866 -2.8672928
5.4430431 43.124528 -8.8070288
4.848093 43.553021 -2.9298665
0 42.166778 -5.6811238
13.238481 41.091801 -21.420313
9.2794201 42.612091 -15.014417
14.930977 42.208515 -18.728356
11.442181 44.720403 -3.0796234
8.7224925 43.716536 -9.020734
8.0865911 44.192834 -2.9989685
13.689728 44.753725 -6.2596096
6.766987 43.733505 -5.9501866
-3.4278142 40.403721 -11.167314
3.5831682 42.234882 -11.673434
-1.7426474 41.351666 -8.4645504
1.7824295 42.295662 -8.6577834
18.185834 44.006152 -12.961912
10.79497 43.469141 -12.2669
16.594315 43.18895 -15.892533
15.954071 44.525846 -9.5735439
12.840793 42.980169 -15.464772
12.238267 44.191169 -9.3158597
-9.9105928 35.115367 -21.70249
-3.4241427 37.009995 -22.873435
-8.509411 34.572768 -24.350196
-8.3623501 36.639718 -19.163343
11.172724 39.587369 -24.46634
3.5653158 38.53587 -23.816477
9.3982358 38.183962 -26.893622
9.2781997 40.652522 -21.262124
-5.4177586 33.030963 -29.631499
-1.8083685 36.346066 -25.539684
-7.0056662 33.877315 -27.01334
-1.8486231 33.789148 -30.33553
-5.2064162 35.510208 -24.97177
-5.1556437 39.260505 -13.953039
-1.7980722 38.520433 -20.210793
-6.7667842 38.028614 -16.564776
-1.7659585 40.260981 -14.286904
-5.1240999 37.625408 -19.72021
5.7415703 35.005177 -31.402532
1.8459082 37.100571 -26.06986
7.5781186 36.645524 -29.220675
1.8850363 34.454709 -30.933064
5.5288798 37.709561 -26.518417
0 35.514784 -28.233211
5.5084192 41.946909 -14.907777
1.8374724 39.364512 -20.653661
7.3727453 41.434051 -18.04814
1.8057161 41.16739 -14.60855
5.4564025 40.06545 -20.999084
0 39.9197 -17.472617
0 -22.873251 -43.469762
0 -17.039354 -47.26799
0 -3.5645844 -51.431475
0 -10.53093 -49.998563
0 22.873251 -43.469762
0 17.039354 -47.26799
0 3.5645844 -51.431475
0 10.53093 -49.998563
31.258069 44.762857 -2.2206594
37.757083 42.845493 -6.9696385
29.830456 44.708992 -5.7564788
48.391265 34.165796 -16.857274
43.680606 39.363133 -11.96072
26.665732 43.914528 -12.546129
36.100975 42.65502 -10.662927
28.289569 44.418377 -9.224201
33.018646 43.857037 -8.1819343
48.183096 3.6848413 -28.371307
50.900751 11.522874 -27.057048
51.291941 27.419374 -21.226894
52.085188 19.639931 -24.68863
19.463369 39.971 -24.703436
28.369387 39.380566 -24.338528
21.321121 41.196591 -21.913013
46.264494 33.612285 -20.773534
37.552962 37.402155 -23.115803
44.253455 36.481169 -18.381618
24.914634 43.17057 -15.893921
30.383562 40.504998 -21.233913
23.149751 42.274164 -18.957218
29.573483 42.865495 -15.208005
25.807495 41.00489 -21.670014
39.140453 40.983786 -13.325883
35.177608 39.600554 -20.543007
41.841086 38.956707 -15.863503
34.367596 42.159421 -14.35511
39.77876 38.289599 -19.610192
32.444805 41.430043 -17.906384
22.937699 -32.84774 -1.6295574
26.759204 -30.365462 -4.9395229
22.130497 -33.168525 -4.2705931
34.109545 -24.08244 -11.882184
30.48415 -27.47104 -8.3472376
20.348512 -33.510999 -9.5739003
25.897442 -30.59906 -7.6491709
21.265588 -33.389795 -6.9339359
24.036572 -31.926592 -5.9561999
45.759079 -3.4994625 -26.94399
43.658854 -9.8834584 -23.20751
37.594326 -20.096975 -15.55821
40.839024 -15.399304 -19.357895
16.017572 -32.89453 -20.329938
21.85936 -30.343763 -18.753477
17.192096 -33.218504 -17.669362
33.109303 -24.054717 -14.866633
27.532665 -27.422097 -16.947788
31.379261 -25.868085 -13.034047
19.344348 -33.518716 -12.34044
22.942696 -30.585415 -16.033775
18.304657 -33.426453 -14.989595
22.188118 -32.160726 -11.410121
20.102068 -31.939678 -16.879286
27.79783 -29.106978 -9.4641376
25.840135 -29.089063 -15.090113
29.597804 -27.557434 -11.221622
25.015246 -30.686705 -10.448698
28.611487 -27.540385 -14.104933
24.027531 -30.681696 -13.260866
3.165467 -24.372403 -41.391743
9.3543565 -21.965117 -41.321617
5.0333742 -26.08328 -39.092837
3.2120562 -21.735103 -43.577408
21.298794 -16.488606 -39.842503
15.386827 -19.342211 -40.805937
8.5332135 -28.890504 -34.135505
11.124462 -23.6441 -38.938346
6.8373922 -27.592672 -36.649984
8.1136816 -24.883733 -39.070763
3.3036503 -15.846218 -47.33181
9.5203808 -19.260149 -43.449833
3.2624634 -18.872306 -45.579649
6.4011456 -20.520974 -43.571985
43.837512 -2.1747536 -30.611897
38.439039 -6.2528445 -33.873948
43.172819 -5.5586898 -28.8055
27.114674 -13.378277 -38.404297
32.838025 -9.9780277 -36.439803
41.099244 -11.741818 -24.956238
37.771533 -9.44215 -31.967847
42.235666 -8.7709255 -26.899425
40.48874 -7.5535474 -30.482756
14.522772 -32.343494 -23.498339
17.494404 -28.420674 -28.306541
13.179695 -31.729907 -26.157146
17.5592 -31.153892 -22.75191
23.004007 -18.12442 -37.221265
20.34736 -23.717215 -32.92272
20.115058 -19.571731 -37.816427
10.225357 -30.033665 -31.448111
16.076258 -27.528798 -30.990045
11.738307 -30.960597 -28.82628
11.565296 -27.688495 -33.966033
14.650167 -29.717479 -28.604973
23.495261 -28.479713 -21.114476
20.617705 -27.111655 -27.508812
20.565441 -29.858849 -21.954053
19.104572 -29.218029 -25.161747
14.234309 -22.313096 -38.662783
17.507555 -25.051524 -33.39674
17.175251 -20.973688 -38.300417
12.910459 -25.105676 -36.3896
18.839164 -22.436148 -35.648239
14.572221 -26.403592 -33.715782
3.4406322 -2.1264276 -51.392859
10.141693 -6.2679108 -49.659848
3.4239976 -5.6657391 -50.898375
21.802697 -13.474808 -41.825349
16.3391 -10.098119 -46.371644
18.815442 -15.000404 -42.404782
3.365571 -12.504604 -48.872759
10.023885 -9.6924775 -48.578034
3.3961978 -9.1577029 -50.04641
6.6174459 -14.472313 -47.312112
6.793762 -7.7263626 -49.933732
12.730007 -17.860467 -43.218827
13.205767 -11.621181 -46.796124
15.774941 -16.471531 -42.869388
9.7618315 -16.267848 -45.401557
16.100662 -13.368789 -44.747454
9.9362476 -13.053272 -47.134071
35.108914 -21.698502 -17.095838
33.021635 -20.408493 -23.788473
36.725732 -19.534903 -19.007247
32.274741 -23.570474 -18.190942
26.412719 -16.323958 -36.354895
30.141911 -18.628725 -30.263445
29.254092 -14.740141 -35.486655
25.063782 -19.343429 -34.319508
39.719688 -14.623425 -22.923058
34.396594 -18.031708 -25.801533
38.280871 -17.166486 -20.962984
38.404056 -13.625157 -26.495476
35.657995 -18.84432 -22.442288
26.531628 -26.920289 -20.17661
30.032729 -22.265862 -24.776472
29.398543 -25.317201 -19.222603
25.238867 -26.345914 -23.447628
31.244166 -22.972623 -21.519586
34.890666 -11.344704 -33.321383
32.873368 -17.053242 -29.201774
32.097758 -13.07048 -34.474297
36.788009 -12.526167 -29.988919
31.181664 -15.969831 -32.394383
35.6432 -15.405266 -27.912997
22.181443 -24.682534 -29.918863
28.547835 -21.396447 -28.135677
23.638928 -22.143746 -32.150382
23.782129 -25.598922 -26.721762
26.921459 -20.440669 -31.261422
26.939492 -23.975907 -25.807504
3.2430218 24.969533 -42.405851
10.005126 23.4932 -44.196304
5.248846 27.199869 -40.766348
3.2830198 22.215295 -44.54016
24.040945 18.611461 -44.972097
17.015775 21.389901 -45.125914
9.2610552 31.354723 -37.047098
12.145832 25.814934 -42.513389
7.2703721 29.339986 -38.970855
8.6673024 26.581625 -41.736678
3.357927 16.10656 -48.109439
10.104741 20.442334 -46.116779
3.3257798 19.238571 -46.464239
6.6753273 21.399954 -45.438314
45.176417 2.2411759 -31.54686
41.625075 6.7711142 -36.681604
46.745022 6.0186265 -31.188923
42.550466 0 -33.419771
30.744599 15.169268 -43.545599
36.73013 11.160667 -40.758807
48.969168 13.99021 -29.735005
42.725572 10.680563 -36.160686
48.035714 9.9754001 -30.593411
44.9136 8.3790459 -33.8141
37.028634 -4.2082332 -36.592655
38.933269 4.4246913 -38.474865
39.810912 -2.1590969 -35.109203
40.902232 2.2182834 -36.071638
17.20771 38.323089 -27.84266
20.978137 34.080201 -33.943339
15.281433 36.789808 -30.328371
21.53373 38.205584 -27.901811
26.658622 21.003822 -43.134557
24.243621 28.258762 -39.227003
23.090961 22.467252 -43.41114
11.348286 33.331904 -34.901682
18.829796 32.243924 -36.298013
13.313301 35.114754 -32.694064
12.899378 30.882423 -37.88409
17.107811 34.702746 -33.403611
30.584809 37.073288 -27.485637
25.424772 33.432802 -33.922557
26.037029 37.803017 -27.795091
23.550271 36.017165 -31.016972
15.860479 24.86221 -43.079734
20.472132 29.293531 -39.051854
19.455265 23.757944 -43.384797
14.421154 28.043373 -40.647666
21.883879 26.062194 -41.409574
16.668146 30.201224 -38.565127
3.4483677 2.1312084 -51.508405
10.345095 6.3936206 -50.655831
3.4445241 5.6997045 -51.203504
6.9006323 0 -51.218288
24.076373 14.880017 -46.187072
17.233114 10.65065 -48.908927
20.68856 16.493727 -46.62627
3.4098078 12.668964 -49.515139
10.336161 9.9944294 -50.091396
3.4290172 9.2461991 -50.530037
6.8205217 14.916439 -48.764024
6.9056863 7.8536511 -50.756369
13.632485 -4.1845001 -49.322794
13.877087 4.2595808 -50.207772
10.3329 -2.1272957 -50.479069
10.403172 2.141763 -50.822368
13.721277 19.25124 -46.584226
13.873955 12.209192 -49.163923
17.203258 17.962919 -46.750929
10.274317 17.121892 -47.785089
17.280056 14.348069 -48.025261
10.356135 13.604878 -49.125868
48.073347 29.710963 -23.408703
43.092821 26.632828 -31.04366
49.05277 26.091818 -25.387053
44.16524 32.254191 -24.892758
30.789557 19.028993 -42.379246
37.213361 22.999122 -37.363408
34.102474 17.183075 -41.36798
29.892264 23.069898 -40.931085
49.486783 18.219334 -28.559852
43.680547 22.898629 -32.765601
49.52466 22.208595 -27.120194
46.58937 16.529177 -32.142634
46.485471 24.566358 -29.256842
35.375311 35.893523 -26.902
39.086121 28.977925 -32.245361
39.855345 34.322304 -26.059912
32.783204 34.221167 -30.456532
41.738763 30.688893 -28.747795
40.087132 13.034336 -38.284127
40.568441 21.045104 -36.037392
37.23691 15.163187 -39.993955
43.423358 14.785476 -35.397934
37.40357 19.156408 -38.858271
43.752492 18.910165 -34.263567
27.207943 30.275803 -36.698727
36.085879 27.04617 -35.564891
28.679748 26.86573 -39.006203
30.03204 32.326284 -33.744204
33.064751 25.105089 -38.395064
34.652865 30.84074 -33.196763
25.324763 -11.564729 -40.976328
27.098342 -4.0566094 -43.846039
28.257742 -9.8749404 -40.120759
22.748227 -9.9266935 -43.493904
27.956204 12.766394 -45.234088
28.059482 4.2004916 -45.401195
31.03416 10.845187 -44.062759
24.506099 10.69378 -46.854901
34.064554 -6.2282887 -37.972599
30.076463 -2.1296006 -42.802452
31.190207 -8.0888991 -39.115507
35.197336 -2.1448977 -39.204457
29.262532 -6.101006 -41.611731
16.947405 -6.2620612 -47.685934
24.140324 -2.1476667 -46.009861
19.932373 -8.1424625 -45.759781
17.282331 -2.1362136 -48.702196
23.541878 -6.1171222 -44.917005
36.520134 6.6772615 -40.709894
30.684409 2.172647 -43.667632
33.921206 8.797159 -42.540441
36.040507 2.1962799 -40.14362
31.007002 6.4647141 -44.092392
33.063882 0 -41.591324
17.526639 6.476088 -49.315759
24.533014 2.1826026 -46.758301
21.003717 8.5801114 -48.219321
17.481119 2.1607852 -49.262388
24.654355 6.4061881 -47.039568
20.941942 0 -47.84607
31.258069 44.762857 2.2206594
37.757083 42.845493 6.9696385
29.830456 44.708992 5.7564788
34.679342 44.154167 0
48.391265 34.165796 16.857274
43.680606 39.363133 11.96072
26.665732 43.914528 12.546129
36.100975 42.65502 10.662927
28.289569 44.418377 9.224201
33.018646 43.857037 8.1819343
41.354353 41.847065 -4.7558386
41.354353 41.847065 4.7558386
38.089283 43.190073 -2.3423617
38.089283 43.190073 2.3423617
48.183096 3.6848413 28.371307
50.900751 11.522874 27.057048
51.291941 27.419374 21.226894
52.085188 19.639931 24.68863
19.463369 39.971 24.703436
28.369387 39.380566 24.338528
21.321121 41.196591 21.913013
46.264494 33.612285 20.773534
37.552962 37.402155 23.115803
44.253455 36.481169 18.381618
24.914634 43.17057 15.893921
30.383562 40.504998 21.233913
23.149751 42.274164 18.957218
29.573483 42.865495 15.208005
25.807495 41.00489 21.670014
39.140453 40.983786 13.325883
35.177608 39.600554 20.543007
41.841086 38.956707 15.863503
34.367596 42.159421 14.35511
39.77876 38.289599 19.610192
32.444805 41.430043 17.906384
51.736447 31.974883 -14.601552
53.68953 33.181955 -4.9673234
49.788393 35.066823 -12.25444
51.736447 31.974883 14.601552
53.68953 33.181955 4.9673234
49.788393 35.066823 12.25444
44.57716 39.989391 -7.3115728
51.243777 36.008021 -2.5495918
47.358339 37.762937 -9.7934773
44.957862 40.362681 -2.4596697
50.753046 35.69096 -7.4412822
44.57716 39.989391 7.3115728
51.243777 36.008021 2.5495918
47.358339 37.762937 9.7934773
44.957862 40.362681 2.4596697
50.753046 35.69096 7.4412822
48.313223 38.407595 0
22.937699 -32.84774 1.6295574
26.759204 -30.365462 4.9395229
22.130497 -33.168525 4.2705931
24.911604 -31.717762 0
34.109545 -24.08244 11.882184
30.48415 -27.47104 8.3472376
20.348512 -33.510999 9.5739003
25.897442 -30.59906 7.6491709
21.265588 -33.389795 6.9339359
24.036572 -31.926592 5.9561999
28.812794 -29.15608 -3.3135326
28.812794 -29.15608 3.3135326
26.881744 -30.481658 -1.653136
26.881744 -30.481658 1.653136
45.759079 -3.4994625 26.94399
43.658854 -9.8834584 23.20751
37.594326 -20.096975 15.55821
40.839024 -15.399304 19.357895
16.017572 -32.89453 20.329938
21.85936 -30.343763 18.753477
17.192096 -33.218504 17.669362
33.109303 -24.054717 14.866633
27.532665 -27.422097 16.947788
31.379261 -25.868085 13.034047
19.344348 -33.518716 12.34044
22.942696 -30.585415 16.033775
18.304657 -33.426453 14.989595
22.188118 -32.160726 11.410121
20.102068 -31.939678 16.879286
27.79783 -29.106978 9.4641376
25.840135 -29.089063 15.090113
29.597804 -27.557434 11.221622
25.015246 -30.686705 10.448698
28.611487 -27.540385 14.104933
24.027531 -30.681696 13.260866
36.462243 -22.534906 -10.290721
37.12682 -22.945637 -3.4349513
34.61008 -24.376475 -8.5185944
36.462243 -22.534906 10.290721
37.12682 -22.945637 3.4349513
34.61008 -24.376475 8.5185944
30.82061 -27.64863 -5.0552152
35.109721 -24.670928 -1.7468551
32.715859 -26.087209 -6.7654826
30.939188 -27.776867 -1.6927002
34.943525 -24.573263 -5.1233306
30.82061 -27.64863 5.0552152
35.109721 -24.670928 1.7468551
32.715859 -26.087209 6.7654826
30.939188 -27.776867 1.6927002
34.943525 -24.573263 5.1233306
33.052429 -26.275711 0
3.165467 -24.372403 41.391743
9.3543565 -21.965117 41.321617
5.0333742 -26.08328 39.092837
3.2120562 -21.735103 43.577408
21.298794 -16.488606 39.842503
15.386827 -19.342211 40.805937
8.5332135 -28.890504 34.135505
11.124462 -23.6441 38.938346
6.8373922 -27.592672 36.649984
8.1136816 -24.883733 39.070763
3.3036503 -15.846218 47.33181
9.5203808 -19.260149 43.449833
3.2624634 -18.872306 45.579649
6.4011456 -20.520974 43.571985
43.837512 -2.1747536 30.611897
38.439039 -6.2528445 33.873948
43.172819 -5.5586898 28.8055
27.114674 -13.378277 38.404297
32.838025 -9.9780277 36.439803
41.099244 -11.741818 24.956238
37.771533 -9.44215 31.967847
42.235666 -8.7709255 26.899425
40.48874 -7.5535474 30.482756
14.522772 -32.343494 23.498339
17.494404 -28.420674 28.306541
13.179695 -31.729907 26.157146
17.5592 -31.153892 22.75191
23.004007 -18.12442 37.221265
20.34736 -23.717215 32.92272
20.115058 -19.571731 37.816427
10.225357 -30.033665 31.448111
16.076258 -27.528798 30.990045
11.738307 -30.960597 28.82628
11.565296 -27.688495 33.966033
14.650167 -29.717479 28.604973
23.495261 -28.479713 21.114476
20.617705 -27.111655 27.508812
20.565441 -29.858849 21.954053
19.104572 -29.218029 25.161747
14.234309 -22.313096 38.662783
17.507555 -25.051524 33.39674
17.175251 -20.973688 38.300417
12.910459 -25.105676 36.3896
18.839164 -22.436148 35.648239
14.572221 -26.403592 33.715782
3.4406322 -2.1264276 51.392859
10.141693 -6.2679108 49.659848
3.4239976 -5.6657391 50.898375
21.802697 -13.474808 41.825349
16.3391 -10.098119 46.371644
18.815442 -15.000404 42.404782
3.365571 -12.504604 48.872759
10.023885 -9.6924775 48.578034
3.3961978 -9.1577029 50.04641
6.6174459 -14.472313 47.312112
6.793762 -7.7263626 49.933732
12.730007 -17.860467 43.218827
13.205767 -11.621181 46.796124
15.774941 -16.471531 42.869388
9.7618315 -16.267848 45.401557
16.100662 -13.368789 44.747454
9.9362476 -13.053272 47.134071
35.108914 -21.698502 17.095838
33.021635 -20.408493 23.788473
36.725732 -19.534903 19.007247
32.274741 -23.570474 18.190942
26.412719 -16.323958 36.354895
30.141911 -18.628725 30.263445
29.254092 -14.740141 35.486655
25.063782 -19.343429 34.319508
39.719688 -14.623425 22.923058
34.396594 -18.031708 25.801533
38.280871 -17.166486 20.962984
38.404056 -13.625157 26.495476
35.657995 -18.84432 22.442288
26.531628 -26.920289 20.17661
30.032729 -22.265862 24.776472
29.398543 -25.317201 19.222603
25.238867 -26.345914 23.447628
31.244166 -22.972623 21.519586
34.890666 -11.344704 33.321383
32.873368 -17.053242 29.201774
32.097758 -13.07048 34.474297
36.788009 -12.526167 29.988919
31.181664 -15.969831 32.394383
35.6432 -15.405266 27.912997
22.181443 -24.682534 29.918863
28.547835 -21.396447 28.135677
23.638928 -22.143746 32.150382
23.782129 -25.598922 26.721762
26.921459 -20.440669 31.261422
26.939492 -23.975907 25.807504
3.2430218 24.969533 42.405851
10.005126 23.4932 44.196304
5.248846 27.199869 40.766348
3.2830198 22.215295 44.54016
24.040945 18.611461 44.972097
17.015775 21.389901 45.125914
9.2610552 31.354723 37.047098
12.145832 25.814934 42.513389
7.2703721 29.339986 38.970855
8.6673024 26.581625 41.736678
3.357927 16.10656 48.109439
10.104741 20.442334 46.116779
3.3257798 19.238571 46.464239
6.6753273 21.399954 45.438314
45.176417 2.2411759 31.54686
41.625075 6.7711142 36.681604
46.745022 6.0186265 31.188923
42.550466 0 33.419771
30.744599 15.169268 43.545599
36.73013 11.160667 40.758807
48.969168 13.99021 29.735005
42.725572 10.680563 36.160686
48.035714 9.9754001 30.593411
44.9136 8.3790459 33.8141
37.028634 -4.2082332 36.592655
38.933269 4.4246913 38.474865
39.810912 -2.1590969 35.109203
40.902232 2.2182834 36.071638
17.20771 38.323089 27.84266
20.978137 34.080201 33.943339
15.281433 36.789808 30.328371
21.53373 38.205584 27.901811
26.658622 21.003822 43.134557
24.243621 28.258762 39.227003
23.090961 22.467252 43.41114
11.348286 33.331904 34.901682
18.829796 32.243924 36.298013
13.313301 35.114754 32.694064
12.899378 30.882423 37.88409
17.107811 34.702746 33.403611
30.584809 37.073288 27.485637
25.424772 33.432802 33.922557
26.037029 37.803017 27.795091
23.550271 36.017165 31.016972
15.860479 24.86221 43.079734
20.472132 29.293531 39.051854
19.455265 23.757944 43.384797
14.421154 28.043373 40.647666
21.883879 26.062194 41.409574
16.668146 30.201224 38.565127
3.4483677 2.1312084 51.508405
10.345095 6.3936206 50.655831
3.4445241 5.6997045 51.203504
6.9006323 0 51.218288
24.076373 14.880017 46.187072
17.233114 10.65065 48.908927
20.68856 16.493727 46.62627
3.4098078 12.668964 49.515139
10.336161 9.9944294 50.091396
3.4290172 9.2461991 50.530037
6.8205217 14.916439 48.764024
6.9056863 7.8536511 50.756369
13.632485 -4.1845001 49.322794
13.877087 4.2595808 50.207772
10.3329 -2.1272957 50.479069
10.403172 2.141763 50.822368
13.721277 19.25124 46.584226
13.873955 12.209192 49.163923
17.203258 17.962919 46.750929
10.274317 17.121892 47.785089
17.280056 14.348069 48.025261
10.356135 13.604878 49.125868
48.073347 29.710963 23.408703
43.092821 26.632828 31.04366
49.05277 26.091818 25.387053
44.16524 32.254191 24.892758
30.789557 19.028993 42.379246
37.213361 22.999122 37.363408
34.102474 17.183075 41.36798
29.892264 23.069898 40.931085
49.486783 18.219334 28.559852
43.680547 22.898629 32.765601
49.52466 22.208595 27.120194
46.58937 16.529177 32.142634
46.485471 24.566358 29.256842
35.375311 35.893523 26.902
39.086121 28.977925 32.245361
39.855345 34.322304 26.059912
32.783204 34.221167 30.456532
41.738763 30.688893 28.747795
40.087132 13.034336 38.284127
40.568441 21.045104 36.037392
37.23691 15.163187 39.993955
43.423358 14.785476 35.397934
37.40357 19.156408 38.858271
43.752492 18.910165 34.263567
27.207943 30.275803 36.698727
36.085879 27.04617 35.564891
28.679748 26.86573 39.006203
30.03204 32.326284 33.744204
33.064751 25.105089 38.395064
34.652865 30.84074 33.196763
25.324763 -11.564729 40.976328
27.098342 -4.0566094 43.846039
28.257742 -9.8749404 40.120759
22.748227 -9.9266935 43.493904
27.956204 12.766394 45.234088
28.059482 4.2004916 45.401195
31.03416 10.845187 44.062759
24.506099 10.69378 46.854901
34.064554 -6.2282887 37.972599
30.076463 -2.1296006 42.802452
31.190207 -8.0888991 39.115507
35.197336 -2.1448977 39.204457
29.262532 -6.101006 41.611731
16.947405 -6.2620612 47.685934
24.140324 -2.1476667 46.009861
19.932373 -8.1424625 45.759781
17.282331 -2.1362136 48.702196
23.541878 -6.1171222 44.917005
36.520134 6.6772615 40.709894
30.684409 2.172647 43.667632
33.921206 8.797159 42.540441
36.040507 2.1962799 40.14362
31.007002 6.4647141 44.092392
33.063882 0 41.591324
17.526639 6.476088 49.315759
24.533014 2.1826026 46.758301
21.003717 8.5801114 48.219321
17.481119 2.1607852 49.262388
24.654355 6.4061881 47.039568
20.941942 0 47.84607
48.524706 0 -25.5331
52.019854 0 -18.752324
50.341762 3.7106513 -25.10896
47.687407 -3.5150009 -23.785047
55.679089 0 -3.8589757
54.440088 0 -11.466424
53.142892 11.644246 -23.556822
53.903497 3.7623387 -18.046353
51.915972 7.6269578 -24.450718
52.268031 3.741199 -21.641638
45.253978 -9.9156907 -20.059878
50.838256 -3.548392 -17.020141
46.57427 -6.8422102 -21.934952
49.393553 -3.535452 -20.451457
48.524706 0 25.5331
52.019854 0 18.752324
50.341762 3.7106513 25.10896
47.687407 -3.5150009 23.785047
55.679089 0 3.8589757
54.440088 0 11.466424
53.142892 11.644246 23.556822
53.903497 3.7623387 18.046353
51.915972 7.6269578 24.450718
52.268031 3.741199 21.641638
45.253978 -9.9156907 20.059878
50.838256 -3.548392 17.020141
46.57427 -6.8422102 21.934952
49.393553 -3.535452 20.451457
53.372447 27.821962 -17.194918
57.7709 20.35564 -12.580478
54.135062 24.020289 -19.149912
54.872495 28.699469 -12.52365
57.411578 3.8435714 -2.3754578
58.990446 12.047217 -7.4455896
57.042969 3.8373522 -6.3497229
54.00586 15.907303 -22.318279
57.569383 16.245958 -14.296573
54.335697 19.994277 -20.877184
55.149498 11.857745 -19.760636
56.254483 20.241027 -16.806639
56.447815 29.616881 -2.6348937
58.867881 20.921428 -7.7304614
55.916717 29.307042 -7.6151425
57.291887 24.95561 -10.194477
55.310389 3.8088916 -14.151739
58.107672 11.990288 -11.593868
56.334259 3.8228973 -10.30828
55.562697 7.7714378 -16.996087
57.893124 7.8766816 -8.9579379
56.8257 11.979322 -15.737263
38.623356 -20.133563 -12.443226
44.045869 -15.51961 -9.5916468
40.38919 -17.921103 -14.287403
39.148512 -20.475495 -8.9349367
53.885271 -3.6074934 -2.2295535
49.238986 -10.055743 -6.2147909
53.56491 -3.6033788 -5.9625638
43.715211 -12.876216 -18.065601
45.903255 -12.953802 -11.399449
42.103545 -15.493129 -16.177274
46.600445 -10.019605 -16.697422
43.177513 -15.535779 -12.899752
39.676935 -20.817583 -1.8520558
44.444176 -15.795297 -5.8363574
39.501699 -20.703611 -5.3796267
41.831498 -18.221263 -7.4434668
52.053689 -3.5846224 -13.318478
48.647088 -10.038134 -9.7062555
52.949969 -3.5932361 -9.6890085
49.411179 -6.9110379 -15.114398
51.184417 -6.9639247 -7.919884
47.738017 -10.063564 -13.220528
53.372447 27.821962 17.194918
57.7709 20.35564 12.580478
54.135062 24.020289 19.149912
54.872495 28.699469 12.52365
57.411578 3.8435714 2.3754578
58.990446 12.047217 7.4455896
57.042969 3.8373522 6.3497229
58.764283 7.9173032 0
54.00586 15.907303 22.318279
57.569383 16.245958 14.296573
54.335697 19.994277 20.877184
55.149498 11.857745 19.760636
56.254483 20.241027 16.806639
56.447815 29.616881 2.6348937
58.867881 20.921428 7.7304614
55.916717 29.307042 7.6151425
58.405621 25.563796 0
57.291887 24.95561 10.194477
55.310389 3.8088916 14.151739
58.107672 11.990288 11.593868
56.334259 3.8228973 10.30828
55.562697 7.7714378 16.996087
57.893124 7.8766816 8.9579379
56.8257 11.979322 15.737263
59.627715 16.480695 -5.0587601
59.627715 16.480695 5.0587601
59.547438 12.189165 -2.5094561
59.468413 21.102802 -2.6084498
59.547438 12.189165 2.5094561
59.468413 21.102802 2.6084498
38.623356 -20.133563 12.443226
44.045869 -15.51961 9.5916468
40.38919 -17.921103 14.287403
39.148512 -20.475495 8.9349367
53.885271 -3.6074934 2.2295535
49.238986 -10.055743 6.2147909
53.56491 -3.6033788 5.9625638
51.839969 -6.9843914 0
43.715211 -12.876216 18.065601
45.903255 -12.953802 11.399449
42.103545 -15.493129 16.177274
46.600445 -10.019605 16.697422
43.177513 -15.535779 12.899752
39.676935 -20.817583 1.8520558
44.444176 -15.795297 5.8363574
39.501699 -20.703611 5.3796267
42.210556 -18.475311 0
41.831498 -18.221263 7.4434668
52.053689 -3.5846224 13.318478
48.647088 -10.038134 9.7062555
52.949969 -3.5932361 9.6890085
49.411179 -6.9110379 15.114398
51.184417 -6.9639247 7.919884
47.738017 -10.063564 13.220528
47.111319 -13.021248 -3.9968806
47.111319 -13.021248 3.9968806
49.543866 -10.141467 -2.0878843
44.715666 -15.867682 -1.9613533
49.543866 -10.141467 2.0878843
