4.6575862 7.7204226 33.895421
9.323953 0 33.734379
9.6975103 11.062673 33.645845
40.280904 24.894968 24.127581
26.586485 16.431352 31.254288
39.617124 17.504062 26.098934
33.315105 29.073359 26.451816
32.315751 13.620214 29.789703
26.308035 23.935841 30.146326
19.479209 -5.868406 31.518022
20.25197 6.101212 32.768376
24.520953 -3.2079145 30.845105
14.398161 -2.9661842 32.895487
25.134012 3.2881169 31.616276
14.616555 3.0111759 33.394452
47.134813 0 -20.777243
56.135193 0 -7.8187316
49.691081 7.077859 -19.25856
47.343742 -6.7435107 -18.348812
47.134813 0 20.777243
56.135193 0 7.8187316
49.691081 7.077859 19.25856
47.343742 -6.7435107 18.348812
52.492794 22.751859 -14.061422
57.514042 7.7488584 -4.7890579
51.401956 14.815232 -16.900839
56.889476 24.900188 -5.1297209
54.733425 7.5209465 -12.466733
44.375047 -19.233398 -11.886894
55.166369 -7.4325567 -4.5935727
46.397544 -13.372845 -15.255401
46.950267 -20.549855 -4.2335029
52.369244 -7.1960832 -11.928239
52.492794 22.751859 14.061422
57.514042 7.7488584 4.7890579
51.401956 14.815232 16.900839
56.889476 24.900188 5.1297209
54.733425 7.5209465 12.466733
57.958415 16.019312 0
44.375047 -19.233398 11.886894
55.166369 -7.4325567 4.5935727
46.397544 -13.372845 15.255401
46.950267 -20.549855 4.2335029
52.369244 -7.1960832 11.928239
52.217454 -14.432549 0
-28.88263 36.773722 -3.8041351
-35.383816 28.302543 -11.057791
-26.332099 36.537519 -9.8193838
-41.303609 6.2653085 -23.133899
-39.782585 18.083823 -17.679584
-19.507672 32.567984 -20.128121
-31.582134 26.865367 -16.60371
-23.050581 34.989847 -15.459589
-29.268009 31.74982 -13.38169
-42.641062 -54.291128 -5.6162601
-47.099652 -37.673719 -14.719106
-36.441423 -50.56487 -13.589206
-43.489425 -6.596873 -24.358161
-46.484344 -21.130217 -20.65788
-24.192695 -40.389613 -24.962153
-40.109558 -34.119228 -21.086842
-30.041837 -45.602291 -20.148492
-39.001542 -42.308717 -17.831979
-4.9508474 -18.28041 -32.638116
-15.053578 -14.717076 -33.116351
-8.5713165 -22.985226 -31.893513
-4.7617267 -12.95646 -33.430356
-35.882473 -3.7119379 -28.18263
-25.470542 -9.9513297 -31.84325
-38.13341 -10.248276 -27.482237
-17.771956 -33.80427 -28.75563
-19.861775 -19.249536 -32.137027
-12.931885 -28.284211 -30.682599
-25.527064 -32.150414 -28.056959
-14.25664 -21.256957 -32.2672
-4.5874794 -2.8352182 -34.049465
-14.515129 -8.9708432 -33.489118
-4.6575862 -7.7204226 -33.895421
-9.6975103 -11.062673 -33.645845
-40.280904 -24.894968 -24.127581
-26.586485 -16.431352 -31.254288
-39.617124 -17.504062 -26.098934
-33.315105 -29.073359 -26.451816
-32.315751 -13.620214 -29.789703
-26.308035 -23.935841 -30.146326
-4.7995109 17.721618 -31.640441
-14.037635 13.723842 -30.881379
-8.0445501 21.572626 -29.933437
-4.659454 12.678181 -32.712336
-34.777779 3.5976605 -27.314986
-23.714897 9.2654002 -29.648345
-35.118084 9.4379136 -25.309132
-30.147817 0 -29.792854
-15.201932 28.915793 -24.597243
-17.815639 17.266472 -28.82631
-11.617293 25.408977 -27.563557
-21.143341 26.629273 -23.23878
-13.004497 19.389986 -29.433213
-4.5658066 2.8218237 -33.888604
-13.904036 8.5931666 -32.079211
-4.5978344 7.6213778 -33.460579
-9.323953 0 -33.734379
-9.3485152 10.664548 -32.434995
-33.608833 20.771401 -20.131123
-23.728317 14.664906 -27.89431
-34.679007 15.32225 -22.845805
-27.374917 23.889488 -21.735374
-29.105258 12.267079 -26.830167
-22.5651 20.530406 -25.857304
-20.25197 -6.101212 -32.768376
-19.479209 5.868406 -31.518022
-25.134012 -3.2881169 -31.616276
-14.616555 -3.0111759 -33.394452
-24.520953 3.2079145 -30.845105
-14.398161 2.9661842 -32.895487
-28.88263 36.773722 3.8041351
-35.383816 28.302543 11.057791
-26.332099 36.537519 9.8193838
-33.223176 33.61901 0
-41.303609 6.2653085 23.133899
-39.782585 18.083823 17.679584
-19.507672 32.567984 20.128121
-31.582134 26.865367 16.60371
-23.050581 34.989847 15.459589
-29.268009 31.74982 13.38169
-40.927788 25.294764 -7.6204297
-40.927788 25.294764 7.6204297
-37.367358 29.705953 -3.8862338
-37.367358 29.705953 3.8862338
-42.641062 -54.291128 5.6162601
-47.099652 -37.673719 14.719106
-36.441423 -50.56487 13.589206
-50.20324 -50.801381 0
-43.489425 -6.596873 24.358161
-46.484344 -21.130217 20.65788
-24.192695 -40.389613 24.962153
-40.109558 -34.119228 21.086842
-30.041837 -45.602291 20.148492
-39.001542 -42.308717 17.831979
-53.429209 -33.021067 -9.9480953
-53.429209 -33.021067 9.9480953
-53.42958 -42.474948 -5.5567172
-53.42958 -42.474948 5.5567172
-4.9508474 -18.28041 32.638116
-15.053578 -14.717076 33.116351
-8.5713165 -22.985226 31.893513
-4.7617267 -12.95646 33.430356
-35.882473 -3.7119379 28.18263
-25.470542 -9.9513297 31.84325
-38.13341 -10.248276 27.482237
-17.771956 -33.80427 28.75563
-19.861775 -19.249536 32.137027
-12.931885 -28.284211 30.682599
-25.527064 -32.150414 28.056959
-14.25664 -21.256957 32.2672
-4.5874794 -2.8352182 34.049465
-14.515129 -8.9708432 33.489118
-4.6575862 -7.7204226 33.895421
-9.6975103 -11.062673 33.645845
-40.280904 -24.894968 24.127581
-26.586485 -16.431352 31.254288
-39.617124 -17.504062 26.098934
-33.315105 -29.073359 26.451816
-32.315751 -13.620214 29.789703
-26.308035 -23.935841 30.146326
-4.7995109 17.721618 31.640441
-14.037635 13.723842 30.881379
-8.0445501 21.572626 29.933437
-4.659454 12.678181 32.712336
-34.777779 3.5976605 27.314986
-23.714897 9.2654002 29.648345
-35.118084 9.4379136 25.309132
-30.147817 0 29.792854
-15.201932 28.915793 24.597243
-17.815639 17.266472 28.82631
-11.617293 25.408977 27.563557
-21.143341 26.629273 23.23878
-13.004497 19.389986 29.433213
-4.5658066 2.8218237 33.888604
-13.904036 8.5931666 32.079211
-4.5978344 7.6213778 33.460579
-9.323953 0 33.734379
-9.3485152 10.664548 32.434995
-33.608833 20.771401 20.131123
-23.728317 14.664906 27.89431
-34.679007 15.32225 22.845805
-27.374917 23.889488 21.735374
-29.105258 12.267079 26.830167
-22.5651 20.530406 25.857304
-20.25197 -6.101212 32.768376
-19.479209 5.868406 31.518022
-25.134012 -3.2881169 31.616276
-14.616555 -3.0111759 33.394452
-24.520953 3.2079145 30.845105
-14.398161 2.9661842 32.895487
-47.134813 0 -20.777243
-56.135193 0 -7.8187316
-47.343742 6.7435107 -18.348812
-49.691081 -7.077859 -19.25856
-47.134813 0 20.777243
-56.135193 0 7.8187316
-47.343742 6.7435107 18.348812
-49.691081 -7.077859 19.25856
-44.375047 19.233398 -11.886894
-55.166369 7.4325567 -4.5935727
-46.397544 13.372845 -15.255401
-46.950267 20.549855 -4.2335029
-52.369244 7.1960832 -11.928239
-52.492794 -22.751859 -14.061422
-57.514042 -7.7488584 -4.7890579
-51.401956 -14.815232 -16.900839
-56.889476 -24.900188 -5.1297209
-54.733425 -7.5209465 -12.466733
-44.375047 19.233398 11.886894
-55.166369 7.4325567 4.5935727
-46.397544 13.372845 15.255401
-46.950267 20.549855 4.2335029
-52.369244 7.1960832 11.928239
-52.217454 14.432549 0
-52.492794 -22.751859 14.061422
-57.514042 -7.7488584 4.7890579
-51.401956 -14.815232 16.900839
-56.889476 -24.900188 5.1297209
-54.733425 -7.5209465 12.466733
-57.958415 -16.019312 0
-22.325482 42.428747 0
-16.839913 46.714732 0
-3.8699589 55.837561 0
-10.789304 51.225268 0
31.488949 59.843576 0
22.272337 61.78454 0
4.1508445 59.890308 0
13.074942 62.076979 0
-31.488949 -59.843576 0
-22.272337 -61.78454 0
-4.1508445 -59.890308 0
-13.074942 -62.076979 0
22.325482 -42.428747 0
16.839913 -46.714732 0
3.8699589 -55.837561 0
10.789304 -51.225268 0
-34.315048 -58.277373 4.4568093
-29.295589 -55.111979 12.476208
-29.746071 -59.638856 4.3959327
-18.414056 -44.495095 23.785952
-23.813971 -50.239933 18.944135
-20.579603 -61.470179 4.2904756
-25.067649 -56.551234 12.391055
-25.144977 -60.729158 4.3468227
-27.52155 -58.43624 8.5848482
-1.5633976 -22.006432 31.514127
-4.9751099 -26.951992 30.584232
-13.364389 -38.364429 27.086526
-8.8755355 -32.413497 29.209686
-2.431002 -58.754006 3.9334438
-7.2189046 -57.19445 11.680433
-6.7175389 -60.347257 4.0596358
-14.566406 -45.213634 23.56894
-11.360647 -52.169307 18.381913
-17.107319 -48.360837 21.458205
-15.795401 -61.734448 4.2512776
-11.563398 -57.954957 11.958776
-11.230721 -61.375355 4.1649909
-18.409155 -60.182225 8.4175615
-9.2337596 -59.675698 8.1192106
-22.354216 -54.09282 15.932917
-13.72481 -55.267009 15.596233
-19.737021 -51.36827 18.902333
-20.615939 -57.536543 12.370986
-15.544192 -52.028873 18.720603
-16.073449 -58.039634 12.23523
24.028617 -40.80789 3.1208164
21.604617 -40.64343 9.2008291
21.393014 -42.891542 3.1615015
15.161035 -36.634607 19.583934
18.561139 -39.158122 14.76548
15.80495 -47.208545 3.2950466
18.916439 -42.674444 9.3504836
18.646049 -45.033204 3.2233504
20.239291 -42.973891 6.3132797
1.544836 -21.745158 31.139972
4.7611736 -25.79302 29.269069
0 -24.129239 30.721645
11.633669 -33.396146 23.578758
8.1372345 -29.717218 26.779913
-3.3678972 -29.285521 29.63444
3.26015 -28.348606 28.686362
-1.639093 -26.653389 30.222723
1.6149322 -26.260509 29.777229
2.3317667 -56.355625 3.7728778
6.4582103 -51.167567 10.449604
6.0249063 -54.124967 3.6410545
0 -56.429244 7.6027037
12.332037 -38.278227 19.953654
9.7575269 -44.807608 15.78801
14.064286 -39.758459 17.641241
12.674154 -49.535422 3.4112046
9.7921386 -49.077528 10.126954
9.4811757 -51.814173 3.5161599
14.471037 -47.307941 6.6168623
8.0147562 -51.797554 7.0473454
-4.5681914 -53.845372 14.882495
4.2568847 -50.175993 13.868303
-2.3415825 -55.563929 11.373754
2.2531828 -53.466271 10.94437
17.357782 -42.00243 12.37172
11.42524 -46.007111 12.983109
15.761338 -41.021016 15.094783
16.035093 -44.751967 9.6221626
12.820944 -42.91373 15.440867
12.988115 -46.898797 9.8866499
-11.682538 -41.393752 25.582746
-3.7340423 -40.359558 24.943579
-9.4079285 -38.223343 26.921359
-10.254583 -44.930557 23.499627
10.240172 -36.283138 22.424212
3.5635745 -38.517049 23.804845
8.4806719 -34.456005 24.267958
9.0427308 -39.620813 20.722519
-5.2811113 -32.197853 28.88413
-1.8497726 -37.178241 26.124438
-7.2642341 -35.127672 28.010359
-1.7351849 -31.715724 28.474032
-5.5430099 -37.805935 26.58619
-6.7339146 -51.279123 18.224412
-2.023499 -43.349794 22.744648
-8.5936395 -48.295348 21.036833
-2.1940567 -50.020925 17.750292
-6.0299524 -44.276932 23.206403
5.0037755 -30.506993 27.36729
1.8091573 -36.36192 25.550825
6.7225976 -32.50848 25.921848
1.7037973 -31.14202 27.958968
5.1983073 -35.454901 24.932877
0 -34.100795 27.109131
6.1136267 -46.555597 16.545688
1.9686947 -42.175712 22.128634
7.6655668 -43.079677 18.764954
2.1222426 -48.38368 17.169303
5.5753323 -40.938732 21.456788
0 -46.048203 20.155027
-24.028617 40.80789 3.1208164
-21.604617 40.64343 9.2008291
-21.393014 42.891542 3.1615015
-15.161035 36.634607 19.583934
-18.561139 39.158122 14.76548
-15.80495 47.208545 3.2950466
-18.916439 42.674444 9.3504836
-18.646049 45.033204 3.2233504
-20.239291 42.973891 6.3132797
-1.544836 21.745158 31.139972
-4.7611736 25.79302 29.269069
-11.633669 33.396146 23.578758
-8.1372345 29.717218 26.779913
-2.3317667 56.355625 3.7728778
-6.4582103 51.167567 10.449604
-6.0249063 54.124967 3.6410545
-12.332037 38.278227 19.953654
-9.7575269 44.807608 15.78801
-14.064286 39.758459 17.641241
-12.674154 49.535422 3.4112046
-9.7921386 49.077528 10.126954
-9.4811757 51.814173 3.5161599
-14.471037 47.307941 6.6168623
-8.0147562 51.797554 7.0473454
-17.357782 42.00243 12.37172
-11.42524 46.007111 12.983109
-15.761338 41.021016 15.094783
-16.035093 44.751967 9.6221626
-12.820944 42.91373 15.440867
-12.988115 46.898797 9.8866499
34.315048 58.277373 4.4568093
29.295589 55.111979 12.476208
29.746071 59.638856 4.3959327
18.414056 44.495095 23.785952
23.813971 50.239933 18.944135
20.579603 61.470179 4.2904756
25.067649 56.551234 12.391055
25.144977 60.729158 4.3468227
27.52155 58.43624 8.5848482
1.5633976 22.006432 31.514127
4.9751099 26.951992 30.584232
0 24.129239 30.721645
13.364389 38.364429 27.086526
8.8755355 32.413497 29.209686
-3.26015 28.348606 28.686362
3.3678972 29.285521 29.63444
-1.6149322 26.260509 29.777229
1.639093 26.653389 30.222723
2.431002 58.754006 3.9334438
7.2189046 57.19445 11.680433
6.7175389 60.347257 4.0596358
0 56.429244 7.6027037
14.566406 45.213634 23.56894
11.360647 52.169307 18.381913
17.107319 48.360837 21.458205
15.795401 61.734448 4.2512776
11.563398 57.954957 11.958776
11.230721 61.375355 4.1649909
18.409155 60.182225 8.4175615
9.2337596 59.675698 8.1192106
-4.2568847 50.175993 13.868303
4.5681914 53.845372 14.882495
-2.2531828 53.466271 10.94437
2.3415825 55.563929 11.373754
22.354216 54.09282 15.932917
13.72481 55.267009 15.596233
19.737021 51.36827 18.902333
20.615939 57.536543 12.370986
15.544192 52.028873 18.720603
16.073449 58.039634 12.23523
-10.240172 36.283138 22.424212
-3.5635745 38.517049 23.804845
-8.4806719 34.456005 24.267958
-9.0427308 39.620813 20.722519
11.682538 41.393752 25.582746
3.7340423 40.359558 24.943579
9.4079285 38.223343 26.921359
10.254583 44.930557 23.499627
-5.0037755 30.506993 27.36729
-1.8091573 36.36192 25.550825
-6.7225976 32.50848 25.921848
-1.7037973 31.14202 27.958968
-5.1983073 35.454901 24.932877
-6.1136267 46.555597 16.545688
-1.9686947 42.175712 22.128634
-7.6655668 43.079677 18.764954
-2.1222426 48.38368 17.169303
-5.5753323 40.938732 21.456788
5.2811113 32.197853 28.88413
1.8497726 37.178241 26.124438
7.2642341 35.127672 28.010359
1.7351849 31.715724 28.474032
5.5430099 37.805935 26.58619
0 34.100795 27.109131
6.7339146 51.279123 18.224412
2.023499 43.349794 22.744648
8.5936395 48.295348 21.036833
2.1940567 50.020925 17.750292
6.0299524 44.276932 23.206403
0 46.048203 20.155027
0 -17.066462 32.434176
0 -11.99795 33.282892
0 -2.3613553 34.070728
0 -7.1221866 33.814592
0 17.066462 32.434176
0 11.99795 33.282892
0 2.3613553 34.070728
0 7.1221866 33.814592
-34.315048 -58.277373 -4.4568093
-29.295589 -55.111979 -12.476208
-29.746071 -59.638856 -4.3959327
-18.414056 -44.495095 -23.785952
-23.813971 -50.239933 -18.944135
-20.579603 -61.470179 -4.2904756
-25.067649 -56.551234 -12.391055
-25.144977 -60.729158 -4.3468227
-27.52155 -58.43624 -8.5848482
-1.5633976 -22.006432 -31.514127
-4.9751099 -26.951992 -30.584232
-13.364389 -38.364429 -27.086526
-8.8755355 -32.413497 -29.209686
-2.431002 -58.754006 -3.9334438
-7.2189046 -57.19445 -11.680433
-6.7175389 -60.347257 -4.0596358
-14.566406 -45.213634 -23.56894
-11.360647 -52.169307 -18.381913
-17.107319 -48.360837 -21.458205
-15.795401 -61.734448 -4.2512776
-11.563398 -57.954957 -11.958776
-11.230721 -61.375355 -4.1649909
-18.409155 -60.182225 -8.4175615
-9.2337596 -59.675698 -8.1192106
-22.354216 -54.09282 -15.932917
-13.72481 -55.267009 -15.596233
-19.737021 -51.36827 -18.902333
-20.615939 -57.536543 -12.370986
-15.544192 -52.028873 -18.720603
-16.073449 -58.039634 -12.23523
24.028617 -40.80789 -3.1208164
21.604617 -40.64343 -9.2008291
21.393014 -42.891542 -3.1615015
15.161035 -36.634607 -19.583934
18.561139 -39.158122 -14.76548
15.80495 -47.208545 -3.2950466
18.916439 -42.674444 -9.3504836
18.646049 -45.033204 -3.2233504
20.239291 -42.973891 -6.3132797
1.544836 -21.745158 -31.139972
4.7611736 -25.79302 -29.269069
0 -24.129239 -30.721645
11.633669 -33.396146 -23.578758
8.1372345 -29.717218 -26.779913
-3.3678972 -29.285521 -29.63444
3.26015 -28.348606 -28.686362
-1.639093 -26.653389 -30.222723
1.6149322 -26.260509 -29.777229
2.3317667 -56.355625 -3.7728778
6.4582103 -51.167567 -10.449604
6.0249063 -54.124967 -3.6410545
0 -56.429244 -7.6027037
12.332037 -38.278227 -19.953654
9.7575269 -44.807608 -15.78801
14.064286 -39.758459 -17.641241
12.674154 -49.535422 -3.4112046
9.7921386 -49.077528 -10.126954
9.4811757 -51.814173 -3.5161599
14.471037 -47.307941 -6.6168623
8.0147562 -51.797554 -7.0473454
-4.5681914 -53.845372 -14.882495
4.2568847 -50.175993 -13.868303
-2.3415825 -55.563929 -11.373754
2.2531828 -53.466271 -10.94437
17.357782 -42.00243 -12.37172
11.42524 -46.007111 -12.983109
15.761338 -41.021016 -15.094783
16.035093 -44.751967 -9.6221626
12.820944 -42.91373 -15.440867
12.988115 -46.898797 -9.8866499
-11.682538 -41.393752 -25.582746
-3.7340423 -40.359558 -24.943579
-9.4079285 -38.223343 -26.921359
-10.254583 -44.930557 -23.499627
10.240172 -36.283138 -22.424212
3.5635745 -38.517049 -23.804845
8.4806719 -34.456005 -24.267958
9.0427308 -39.620813 -20.722519
-5.2811113 -32.197853 -28.88413
-1.8497726 -37.178241 -26.124438
-7.2642341 -35.127672 -28.010359
-1.7351849 -31.715724 -28.474032
-5.5430099 -37.805935 -26.58619
-6.7339146 -51.279123 -18.224412
-2.023499 -43.349794 -22.744648
-8.5936395 -48.295348 -21.036833
-2.1940567 -50.020925 -17.750292
-6.0299524 -44.276932 -23.206403
5.0037755 -30.506993 -27.36729
1.8091573 -36.36192 -25.550825
6.7225976 -32.50848 -25.921848
1.7037973 -31.14202 -27.958968
5.1983073 -35.454901 -24.932877
0 -34.100795 -27.109131
6.1136267 -46.555597 -16.545688
1.9686947 -42.175712 -22.128634
7.6655668 -43.079677 -18.764954
2.1222426 -48.38368 -17.169303
5.5753323 -40.938732 -21.456788
0 -46.048203 -20.155027
-24.028617 40.80789 -3.1208164
-21.604617 40.64343 -9.2008291
-21.393014 42.891542 -3.1615015
-15.161035 36.634607 -19.583934
-18.561139 39.158122 -14.76548
-15.80495 47.208545 -3.2950466
-18.916439 42.674444 -9.3504836
-18.646049 45.033204 -3.2233504
-20.239291 42.973891 -6.3132797
-1.544836 21.745158 -31.139972
-4.7611736 25.79302 -29.269069
-11.633669 33.396146 -23.578758
-8.1372345 29.717218 -26.779913
-2.3317667 56.355625 -3.7728778
-6.4582103 51.167567 -10.449604
-6.0249063 54.124967 -3.6410545
-12.332037 38.278227 -19.953654
-9.7575269 44.807608 -15.78801
-14.064286 39.758459 -17.641241
-12.674154 49.535422 -3.4112046
-9.7921386 49.077528 -10.126954
-9.4811757 51.814173 -3.5161599
-14.471037 47.307941 -6.6168623
-8.0147562 51.797554 -7.0473454
-17.357782 42.00243 -12.37172
-11.42524 46.007111 -12.983109
-15.761338 41.021016 -15.094783
-16.035093 44.751967 -9.6221626
-12.820944 42.91373 -15.440867
-12.988115 46.898797 -9.8866499
34.315048 58.277373 -4.4568093
29.295589 55.111979 -12.476208
29.746071 59.638856 -4.3959327
18.414056 44.495095 -23.785952
23.813971 50.239933 -18.944135
20.579603 61.470179 -4.2904756
25.067649 56.551234 -12.391055
25.144977 60.729158 -4.3468227
27.52155 58.43624 -8.5848482
1.5633976 22.006432 -31.514127
4.9751099 26.951992 -30.584232
0 24.129239 -30.721645
13.364389 38.364429 -27.086526
8.8755355 32.413497 -29.209686
-3.26015 28.348606 -28.686362
3.3678972 29.285521 -29.63444
-1.6149322 26.260509 -29.777229
1.639093 26.653389 -30.222723
2.431002 58.754006 -3.9334438
7.2189046 57.19445 -11.680433
6.7175389 60.347257 -4.0596358
0 56.429244 -7.6027037
14.566406 45.213634 -23.56894
11.360647 52.169307 -18.381913
17.107319 48.360837 -21.458205
15.795401 61.734448 -4.2512776
11.563398 57.954957 -11.958776
11.230721 61.375355 -4.1649909
18.409155 60.182225 -8.4175615
9.2337596 59.675698 -8.1192106
-4.2568847 50.175993 -13.868303
4.5681914 53.845372 -14.882495
-2.2531828 53.466271 -10.94437
2.3415825 55.563929 -11.373754
22.354216 54.09282 -15.932917
13.72481 55.267009 -15.596233
19.737021 51.36827 -18.902333
20.615939 57.536543 -12.370986
15.544192 52.028873 -18.720603
16.073449 58.039634 -12.23523
-10.240172 36.283138 -22.424212
-3.5635745 38.517049 -23.804845
-8.4806719 34.456005 -24.267958
-9.0427308 39.620813 -20.722519
11.682538 41.393752 -25.582746
3.7340423 40.359558 -24.943579
9.4079285 38.223343 -26.921359
10.254583 44.930557 -23.499627
-5.0037755 30.506993 -27.36729
-1.8091573 36.36192 -25.550825
-6.7225976 32.50848 -25.921848
-1.7037973 31.14202 -27.958968
-5.1983073 35.454901 -24.932877
-6.1136267 46.555597 -16.545688
-1.9686947 42.175712 -22.128634
-7.6655668 43.079677 -18.764954
-2.1222426 48.38368 -17.169303
-5.5753323 40.938732 -21.456788
5.2811113 32.197853 -28.88413
1.8497726 37.178241 -26.124438
7.2642341 35.127672 -28.010359
1.7351849 31.715724 -28.474032
5.5430099 37.805935 -26.58619
0 34.100795 -27.109131
6.7339146 51.279123 -18.224412
2.023499 43.349794 -22.744648
8.5936395 48.295348 -21.036833
2.1940567 50.020925 -17.750292
6.0299524 44.276932 -23.206403
0 46.048203 -20.155027
0 -17.066462 -32.434176
0 -11.99795 -33.282892
0 -2.3613553 -34.070728
0 -7.1221866 -33.814592
0 17.066462 -32.434176
0 11.99795 -33.282892
0 2.3613553 -34.070728
0 7.1221866 -33.814592
39.699144 56.850827 -2.8203366
44.763409 50.796041 -8.2629471
37.282578 55.878009 -7.1945386
47.159854 33.29638 -16.428307
46.791481 42.166523 -12.812547
31.495811 51.868956 -14.818663
41.359429 48.868133 -12.216085
34.433769 54.065587 -11.227602
39.653408 52.669664 -9.8260111
42.228201 3.2294358 -24.864929
44.533515 10.081464 -23.672449
46.830374 25.034333 -19.380498
46.004764 17.347166 -21.80648
20.017081 41.108133 -25.406223
28.31506 39.305153 -24.29192
22.756577 43.970174 -23.388318
43.723934 31.766506 -19.632781
36.301398 36.155617 -22.3454
43.571278 35.918804 -18.098262
28.465431 49.323176 -18.1591
31.326937 41.762633 -21.893202
25.592773 46.73541 -20.957798
33.204154 48.127997 -17.075058
27.088834 43.040778 -22.745928
42.508108 44.510042 -14.472446
35.626601 40.106001 -20.80521
43.194642 40.216953 -16.376686
37.931279 46.531062 -15.843636
39.672959 38.187759 -19.558034
34.566929 44.139867 -19.077591
26.967914 -38.619176 -1.915875
30.68276 -34.817785 -5.6637783
25.930595 -38.863997 -5.00391
36.703027 -25.913523 -12.785633
33.936538 -30.582187 -9.292578
23.26924 -38.321006 -10.948092
29.357913 -34.687772 -8.6712695
24.683174 -38.755859 -8.0482866
27.714215 -36.811424 -6.8675102
41.145433 -3.1466302 -24.22737
41.240381 -9.3359665 -21.921936
38.915886 -20.803448 -16.10513
40.468813 -15.259707 -19.182412
16.481596 -33.847474 -20.918889
22.506429 -31.241984 -19.308608
18.253665 -35.269665 -18.760402
34.700947 -25.211086 -15.581308
28.521489 -28.40695 -17.556461
33.577643 -27.680362 -13.947192
21.65973 -37.530669 -13.817504
24.328433 -32.432772 -17.002214
19.998313 -36.519269 -16.376522
24.766786 -35.898393 -12.736187
21.314442 -33.86599 -17.897292
30.925446 -32.381891 -10.528976
27.445289 -30.896037 -16.02749
32.311711 -30.084254 -12.250564
27.861895 -34.178747 -11.637724
30.481016 -29.339926 -15.026577
26.161782 -33.407005 -14.438765
2.429642 -18.706944 -31.770073
7.1277055 -16.736682 -31.485685
3.9931698 -20.692872 -31.013855
2.3838074 -16.130571 -32.340701
16.373357 -12.675545 -30.628754
11.729512 -14.744735 -31.10672
7.270927 -24.616839 -29.085967
8.7620131 -18.622915 -30.669195
5.6186944 -22.67455 -30.117486
6.4073351 -19.650564 -30.853992
2.3181096 -11.118995 -33.211846
7.0292154 -14.220412 -32.080464
2.3492182 -13.589475 -32.820764
4.7336772 -15.175357 -32.221688
37.764619 -1.8734809 -26.371174
31.860428 -5.1827076 -28.076624
38.078933 -4.9028295 -25.406789
21.1955 -10.457779 -30.020581
26.326291 -7.9993988 -29.213842
38.102368 -10.885628 -23.136478
32.080283 -8.019448 -27.151071
38.188117 -7.9303858 -24.321586
35.025215 -6.5342767 -26.369433
14.352706 -31.964743 -23.223167
15.962969 -25.932769 -25.828626
12.56857 -30.258634 -24.944275
17.367045 -30.812966 -22.50293
18.311797 -14.427517 -29.62911
17.262219 -20.121125 -27.930857
15.920724 -15.49069 -29.931054
9.0544287 -26.594443 -27.846917
14.141091 -24.21504 -27.259643
10.787282 -28.452203 -26.490807
9.8171347 -23.50322 -28.831872
13.403258 -27.188156 -26.170338
23.357627 -28.31288 -20.990789
18.89753 -24.849677 -25.213698
20.379703 -29.589178 -21.755774
18.174399 -27.795448 -23.93666
11.207752 -17.568794 -30.442143
14.819287 -21.204887 -28.268704
13.544056 -16.539426 -30.202934
10.535382 -20.4871 -29.695173
15.401253 -18.341832 -29.142883
12.342329 -22.363223 -28.556476
2.27951 -1.4088147 -34.049131
6.8655056 -4.2431158 -33.617659
2.2835376 -3.7786031 -33.945219
16.311743 -10.081212 -31.291743
11.529478 -7.125609 -32.721559
13.987571 -11.151437 -31.524101
2.3094264 -8.5805538 -33.536074
6.8835605 -6.6559777 -33.359305
2.291948 -6.1801402 -33.774172
4.633381 -10.133176 -33.126836
4.5862088 -5.2157718 -33.708352
9.4005828 -13.189215 -31.915314
9.2764894 -8.1633849 -32.872285
11.676495 -12.192106 -31.731605
7.0064521 -11.676077 -32.586491
11.611403 -9.6412426 -32.270767
6.9595346 -9.1427567 -33.013589
35.855505 -22.15992 -17.459381
31.22044 -19.295293 -22.490909
36.662262 -19.501143 -18.974398
32.677689 -23.86475 -18.418054
21.227974 -13.119609 -29.218528
26.24251 -16.218763 -26.348321
23.758451 -11.971074 -28.820171
20.732103 -16.000377 -28.388196
37.785502 -13.911324 -21.806799
31.665449 -16.599961 -23.75285
37.315239 -16.733463 -20.434194
34.976585 -12.409144 -24.130818
34.209879 -18.079028 -21.530878
26.503207 -26.891451 -20.154996
28.12331 -20.850244 -23.201235
29.543929 -25.442403 -19.317665
24.234022 -25.296993 -22.514098
30.44836 -22.387498 -20.97147
29.126088 -9.4703514 -27.816081
28.979557 -15.033306 -25.742859
26.401632 -10.750969 -28.356425
32.05701 -10.915281 -26.132294
26.37074 -13.505894 -27.396352
31.914378 -13.79364 -24.992872
19.586229 -21.794695 -26.418376
25.6112 -19.195455 -25.241439
20.183308 -18.906697 -27.450528
21.902045 -23.575213 -24.609287
23.185997 -17.604443 -26.923772
24.988718 -22.239736 -23.9387
2.4697935 19.016089 -32.295094
7.4471064 17.486672 -32.896595
4.1142443 21.320288 -31.954207
2.4173024 16.357223 -32.795122
17.631793 13.649772 -32.982842
12.49683 15.709302 -33.141651
7.7585667 26.267818 -31.036677
9.3031201 19.772992 -32.563202
5.8840804 23.74553 -31.540015
6.7090304 20.575828 -32.306781
2.3400979 11.224463 -33.526875
7.2927578 14.753569 -33.283239
2.376736 13.748656 -33.205213
4.859949 15.580163 -33.081208
38.37509 1.903766 -26.797468
33.323136 5.4206451 -29.365619
39.713892 5.1133377 -26.497656
35.427725 0 -27.825463
22.844552 11.271415 -32.356243
28.100124 8.5383886 -31.182235
41.820744 11.947947 -25.394347
34.401671 8.5997499 -29.115773
40.872167 8.4877727 -26.031028
37.081029 6.9178076 -27.917193
29.653105 -3.3700185 -29.303966
30.509266 3.4673195 -30.150047
32.487892 -1.7619417 -28.651039
32.98348 1.7888193 -29.088098
16.890036 37.6156 -27.328652
18.494199 30.044899 -29.924243
14.406202 34.682703 -28.59134
20.917709 37.112627 -27.103617
20.093319 15.831144 -32.511673
19.525585 22.759341 -31.59306
17.394282 16.924446 -32.701351
9.8802713 29.020087 -30.386798
16.000641 27.399312 -30.844279
12.05239 31.789013 -29.597589
10.679425 25.56763 -31.364325
15.282641 31.000436 -29.839901
28.910018 35.043195 -25.980554
22.233476 29.236345 -29.664626
24.963584 36.244488 -26.649165
21.655568 33.119456 -28.521546
12.047171 18.884632 -32.722148
16.59883 23.751232 -31.663292
14.694913 17.944804 -32.76932
11.402213 22.172741 -32.138437
17.051248 20.306863 -32.265072
13.647876 24.72876 -31.577123
2.2822056 1.4104806 -34.089395
6.9392401 4.2886862 -33.978708
2.290805 3.7906286 -34.053251
4.5827254 0 -34.01418
17.293183 10.687775 -33.174493
11.87868 7.3414281 -33.712624
14.799272 11.798557 -33.353449
2.3263017 8.6432534 -33.781128
7.0005405 6.7690902 -33.926217
2.3039276 6.2124427 -33.950703
4.7141861 10.309896 -33.70456
4.6267848 5.2619178 -34.006583
9.2668038 -2.8444514 -33.527611
9.3558686 2.8717899 -33.84985
6.924293 -1.4255455 -33.827083
6.9492681 1.4306873 -33.949094
9.8394927 13.805015 -33.405428
9.5377125 8.3932633 -33.797959
12.300809 12.843988 -33.428216
7.220922 12.033486 -33.583975
12.095416 10.043131 -33.61595
7.1246062 9.3596117 -33.796631
43.680572 26.996078 -21.269698
36.853153 22.776501 -26.548663
43.475102 23.124983 -22.500355
40.305783 29.435602 -22.717461
23.331456 14.419633 -32.113794
29.960912 18.516862 -30.081717
26.068743 13.135151 -31.622669
23.222295 17.922228 -31.797983
42.569319 15.672561 -24.567639
36.550079 19.160628 -27.416903
43.109949 19.332014 -23.607435
38.967912 13.825204 -26.884488
40.028603 21.154072 -25.193043
32.95472 33.437472 -25.061204
33.460736 24.80734 -27.604518
36.689112 31.595633 -23.989631
29.463943 30.756313 -27.372843
36.86939 27.108632 -25.393989
31.575201 10.266681 -30.155039
32.928314 17.081745 -29.250583
28.835386 11.742015 -30.970377
35.256124 12.004566 -28.740154
29.461466 15.088824 -30.607283
35.97643 15.549291 -28.173957
22.696016 25.255129 -30.612931
29.885077 22.398703 -29.453613
23.013498 21.557875 -31.299759
26.009331 27.996267 -29.224261
26.521154 20.136729 -30.796584
29.785402 26.508741 -28.533829
19.142828 -8.741705 -30.973746
19.761526 -2.9582913 -31.97482
21.595981 -7.5469239 -30.662293
16.645662 -7.263704 -31.82599
20.280148 9.2610704 -32.813969
20.152306 3.0167909 -32.607115
22.802815 7.9686636 -32.375773
17.368718 7.5792253 -33.208449
26.787795 -4.8978218 -29.861016
22.251521 -1.5755461 -31.666611
24.156158 -6.2646818 -30.294135
27.276101 -1.662184 -30.381411
21.950995 -4.5766084 -31.214623
11.757989 -4.3445733 -33.08416
17.132486 -1.5242078 -32.653385
14.169335 -5.7882362 -32.529277
11.846704 -1.4643332 -33.384415
16.920637 -4.3966588 -32.28393
27.877622 5.0970835 -31.075873
22.504219 1.5934387 -32.026231
25.354351 6.5754223 -31.796784
27.6455 1.6846948 -30.792865
22.687006 4.7300609 -32.261241
24.873797 0 -31.288949
11.976338 4.4252534 -33.698543
17.28622 1.5378848 -32.946392
14.589911 5.9600434 -33.494815
11.92021 1.473419 -33.591558
17.363419 4.5117111 -33.12874
14.528934 0 -33.194265
39.699144 56.850827 2.8203366
44.763409 50.796041 8.2629471
37.282578 55.878009 7.1945386
43.599507 55.511432 0
47.159854 33.29638 16.428307
46.791481 42.166523 12.812547
31.495811 51.868956 14.818663
41.359429 48.868133 12.216085
34.433769 54.065587 11.227602
39.653408 52.669664 9.8260111
48.954225 49.537485 -5.6298401
48.954225 49.537485 5.6298401
46.817144 53.086741 -2.8790955
46.817144 53.086741 2.8790955
42.228201 3.2294358 24.864929
44.533515 10.081464 23.672449
46.830374 25.034333 19.380498
46.004764 17.347166 21.80648
20.017081 41.108133 25.406223
28.31506 39.305153 24.29192
22.756577 43.970174 23.388318
43.723934 31.766506 19.632781
36.301398 36.155617 22.3454
43.571278 35.918804 18.098262
28.465431 49.323176 18.1591
31.326937 41.762633 21.893202
25.592773 46.73541 20.957798
33.204154 48.127997 17.075058
27.088834 43.040778 22.745928
42.508108 44.510042 14.472446
35.626601 40.106001 20.80521
43.194642 40.216953 16.376686
37.931279 46.531062 15.843636
39.672959 38.187759 19.558034
34.566929 44.139867 19.077591
50.370249 31.130526 -14.215971
55.76639 34.465525 -5.1594733
50.553998 35.606051 -12.442878
50.370249 31.130526 14.215971
55.76639 34.465525 5.1594733
50.553998 35.606051 12.442878
50.135839 44.975985 -8.2233107
55.605753 39.073097 -2.7666183
50.535493 40.296359 -10.450498
52.452632 47.091404 -2.8697128
53.625383 37.710867 -7.8624169
50.135839 44.975985 8.2233107
55.605753 39.073097 2.7666183
50.535493 40.296359 10.450498
52.452632 47.091404 2.8697128
53.625383 37.710867 7.8624169
54.673596 43.463904 0
26.967914 -38.619176 1.915875
30.68276 -34.817785 5.6637783
25.930595 -38.863997 5.00391
29.074036 -37.017422 0
36.703027 -25.913523 12.785633
33.936538 -30.582187 9.292578
23.26924 -38.321006 10.948092
29.357913 -34.687772 8.6712695
24.683174 -38.755859 8.0482866
27.714215 -36.811424 6.8675102
33.005493 -33.398733 -3.7957019
33.005493 -33.398733 3.7957019
31.10033 -35.265183 -1.9125648
31.10033 -35.265183 1.9125648
41.145433 -3.1466302 24.22737
41.240381 -9.3359665 21.921936
38.915886 -20.803448 16.10513
40.468813 -15.259707 19.182412
16.481596 -33.847474 20.918889
22.506429 -31.241984 19.308608
18.253665 -35.269665 18.760402
34.700947 -25.211086 15.581308
28.521489 -28.40695 17.556461
33.577643 -27.680362 13.947192
21.65973 -37.530669 13.817504
24.328433 -32.432772 17.002214
19.998313 -36.519269 16.376522
24.766786 -35.898393 12.736187
21.314442 -33.86599 17.897292
30.925446 -32.381891 10.528976
27.445289 -30.896037 16.02749
32.311711 -30.084254 12.250564
27.861895 -34.178747 11.637724
30.481016 -29.339926 15.026577
26.161782 -33.407005 14.438765
39.606712 -24.478294 -11.178183
41.761654 -25.810121 -3.8637634
38.169437 -26.883392 -9.3946605
39.606712 -24.478294 11.178183
41.761654 -25.810121 3.8637634
38.169437 -26.883392 9.3946605
34.896963 -31.305455 -5.723821
39.760386 -27.938862 -1.9782452
36.584615 -29.172107 -7.5655229
35.352226 -31.738845 -1.93414
39.216322 -27.578013 -5.7497972
34.896963 -31.305455 5.723821
39.760386 -27.938862 1.9782452
36.584615 -29.172107 7.5655229
35.352226 -31.738845 1.93414
39.216322 -27.578013 5.7497972
37.626007 -29.911571 0
2.429642 -18.706944 31.770073
7.1277055 -16.736682 31.485685
3.9931698 -20.692872 31.013855
2.3838074 -16.130571 32.340701
16.373357 -12.675545 30.628754
11.729512 -14.744735 31.10672
7.270927 -24.616839 29.085967
8.7620131 -18.622915 30.669195
5.6186944 -22.67455 30.117486
6.4073351 -19.650564 30.853992
2.3181096 -11.118995 33.211846
7.0292154 -14.220412 32.080464
2.3492182 -13.589475 32.820764
4.7336772 -15.175357 32.221688
37.764619 -1.8734809 26.371174
31.860428 -5.1827076 28.076624
38.078933 -4.9028295 25.406789
21.1955 -10.457779 30.020581
26.326291 -7.9993988 29.213842
38.102368 -10.885628 23.136478
32.080283 -8.019448 27.151071
38.188117 -7.9303858 24.321586
35.025215 -6.5342767 26.369433
14.352706 -31.964743 23.223167
15.962969 -25.932769 25.828626
12.56857 -30.258634 24.944275
17.367045 -30.812966 22.50293
18.311797 -14.427517 29.62911
17.262219 -20.121125 27.930857
15.920724 -15.49069 29.931054
9.0544287 -26.594443 27.846917
14.141091 -24.21504 27.259643
10.787282 -28.452203 26.490807
9.8171347 -23.50322 28.831872
13.403258 -27.188156 26.170338
23.357627 -28.31288 20.990789
18.89753 -24.849677 25.213698
20.379703 -29.589178 21.755774
18.174399 -27.795448 23.93666
11.207752 -17.568794 30.442143
14.819287 -21.204887 28.268704
13.544056 -16.539426 30.202934
10.535382 -20.4871 29.695173
15.401253 -18.341832 29.142883
12.342329 -22.363223 28.556476
2.27951 -1.4088147 34.049131
6.8655056 -4.2431158 33.617659
2.2835376 -3.7786031 33.945219
16.311743 -10.081212 31.291743
11.529478 -7.125609 32.721559
13.987571 -11.151437 31.524101
2.3094264 -8.5805538 33.536074
6.8835605 -6.6559777 33.359305
2.291948 -6.1801402 33.774172
4.633381 -10.133176 33.126836
4.5862088 -5.2157718 33.708352
9.4005828 -13.189215 31.915314
9.2764894 -8.1633849 32.872285
11.676495 -12.192106 31.731605
7.0064521 -11.676077 32.586491
11.611403 -9.6412426 32.270767
6.9595346 -9.1427567 33.013589
35.855505 -22.15992 17.459381
31.22044 -19.295293 22.490909
36.662262 -19.501143 18.974398
32.677689 -23.86475 18.418054
21.227974 -13.119609 29.218528
26.24251 -16.218763 26.348321
23.758451 -11.971074 28.820171
20.732103 -16.000377 28.388196
37.785502 -13.911324 21.806799
31.665449 -16.599961 23.75285
37.315239 -16.733463 20.434194
34.976585 -12.409144 24.130818
34.209879 -18.079028 21.530878
26.503207 -26.891451 20.154996
28.12331 -20.850244 23.201235
29.543929 -25.442403 19.317665
24.234022 -25.296993 22.514098
30.44836 -22.387498 20.97147
29.126088 -9.4703514 27.816081
28.979557 -15.033306 25.742859
26.401632 -10.750969 28.356425
32.05701 -10.915281 26.132294
26.37074 -13.505894 27.396352
31.914378 -13.79364 24.992872
19.586229 -21.794695 26.418376
25.6112 -19.195455 25.241439
20.183308 -18.906697 27.450528
21.902045 -23.575213 24.609287
23.185997 -17.604443 26.923772
24.988718 -22.239736 23.9387
2.4697935 19.016089 32.295094
7.4471064 17.486672 32.896595
4.1142443 21.320288 31.954207
2.4173024 16.357223 32.795122
17.631793 13.649772 32.982842
12.49683 15.709302 33.141651
7.7585667 26.267818 31.036677
9.3031201 19.772992 32.563202
5.8840804 23.74553 31.540015
6.7090304 20.575828 32.306781
2.3400979 11.224463 33.526875
7.2927578 14.753569 33.283239
2.376736 13.748656 33.205213
4.859949 15.580163 33.081208
38.37509 1.903766 26.797468
33.323136 5.4206451 29.365619
39.713892 5.1133377 26.497656
35.427725 0 27.825463
22.844552 11.271415 32.356243
28.100124 8.5383886 31.182235
41.820744 11.947947 25.394347
34.401671 8.5997499 29.115773
40.872167 8.4877727 26.031028
37.081029 6.9178076 27.917193
29.653105 -3.3700185 29.303966
30.509266 3.4673195 30.150047
32.487892 -1.7619417 28.651039
32.98348 1.7888193 29.088098
16.890036 37.6156 27.328652
18.494199 30.044899 29.924243
14.406202 34.682703 28.59134
20.917709 37.112627 27.103617
20.093319 15.831144 32.511673
19.525585 22.759341 31.59306
17.394282 16.924446 32.701351
9.8802713 29.020087 30.386798
16.000641 27.399312 30.844279
12.05239 31.789013 29.597589
10.679425 25.56763 31.364325
15.282641 31.000436 29.839901
28.910018 35.043195 25.980554
22.233476 29.236345 29.664626
24.963584 36.244488 26.649165
21.655568 33.119456 28.521546
12.047171 18.884632 32.722148
16.59883 23.751232 31.663292
14.694913 17.944804 32.76932
11.402213 22.172741 32.138437
17.051248 20.306863 32.265072
13.647876 24.72876 31.577123
2.2822056 1.4104806 34.089395
6.9392401 4.2886862 33.978708
2.290805 3.7906286 34.053251
4.5827254 0 34.01418
17.293183 10.687775 33.174493
11.87868 7.3414281 33.712624
14.799272 11.798557 33.353449
2.3263017 8.6432534 33.781128
7.0005405 6.7690902 33.926217
2.3039276 6.2124427 33.950703
4.7141861 10.309896 33.70456
4.6267848 5.2619178 34.006583
9.2668038 -2.8444514 33.527611
9.3558686 2.8717899 33.84985
6.924293 -1.4255455 33.827083
6.9492681 1.4306873 33.949094
9.8394927 13.805015 33.405428
9.5377125 8.3932633 33.797959
12.300809 12.843988 33.428216
7.220922 12.033486 33.583975
12.095416 10.043131 33.61595
7.1246062 9.3596117 33.796631
43.680572 26.996078 21.269698
36.853153 22.776501 26.548663
43.475102 23.124983 22.500355
40.305783 29.435602 22.717461
23.331456 14.419633 32.113794
29.960912 18.516862 30.081717
26.068743 13.135151 31.622669
23.222295 17.922228 31.797983
42.569319 15.672561 24.567639
36.550079 19.160628 27.416903
43.109949 19.332014 23.607435
38.967912 13.825204 26.884488
40.028603 21.154072 25.193043
32.95472 33.437472 25.061204
33.460736 24.80734 27.604518
36.689112 31.595633 23.989631
29.463943 30.756313 27.372843
36.86939 27.108632 25.393989
31.575201 10.266681 30.155039
32.928314 17.081745 29.250583
28.835386 11.742015 30.970377
35.256124 12.004566 28.740154
29.461466 15.088824 30.607283
35.97643 15.549291 28.173957
22.696016 25.255129 30.612931
29.885077 22.398703 29.453613
23.013498 21.557875 31.299759
26.009331 27.996267 29.224261
26.521154 20.136729 30.796584
29.785402 26.508741 28.533829
19.142828 -8.741705 30.973746
19.761526 -2.9582913 31.97482
21.595981 -7.5469239 30.662293
16.645662 -7.263704 31.82599
20.280148 9.2610704 32.813969
20.152306 3.0167909 32.607115
22.802815 7.9686636 32.375773
17.368718 7.5792253 33.208449
26.787795 -4.8978218 29.861016
22.251521 -1.5755461 31.666611
24.156158 -6.2646818 30.294135
27.276101 -1.662184 30.381411
21.950995 -4.5766084 31.214623
11.757989 -4.3445733 33.08416
17.132486 -1.5242078 32.653385
14.169335 -5.7882362 32.529277
11.846704 -1.4643332 33.384415
16.920637 -4.3966588 32.28393
27.877622 5.0970835 31.075873
22.504219 1.5934387 32.026231
25.354351 6.5754223 31.796784
27.6455 1.6846948 30.792865
22.687006 4.7300609 32.261241
24.873797 0 31.288949
11.976338 4.4252534 33.698543
17.28622 1.5378848 32.946392
14.589911 5.9600434 33.494815
11.92021 1.473419 33.591558
17.363419 4.5117111 33.12874
14.528934 0 33.194265
44.019424 0 -23.162477
50.009605 0 -18.027662
45.470696 3.3516089 -22.679419
44.33173 -3.2676566 -22.111336
57.075231 0 -3.9557387
54.602405 0 -11.500612
47.687703 10.448949 -21.138683
51.324388 3.5823229 -17.182893
46.703588 6.8612083 -21.995857
48.555853 3.4754917 -20.104606
44.219002 -9.688915 -19.601101
50.165013 -3.5014013 -16.794746
44.403881 -6.5233591 -20.91277
47.391701 -3.392165 -19.622588
44.019424 0 23.162477
50.009605 0 18.027662
45.470696 3.3516089 22.679419
44.33173 -3.2676566 22.111336
57.075231 0 3.9557387
54.602405 0 11.500612
47.687703 10.448949 21.138683
51.324388 3.5823229 17.182893
46.703588 6.8612083 21.995857
48.555853 3.4754917 20.104606
44.219002 -9.688915 19.601101
50.165013 -3.5014013 16.794746
44.403881 -6.5233591 20.91277
47.391701 -3.392165 19.622588
50.009334 26.06884 -16.111429
54.464693 19.190695 -11.860501
49.615609 22.014961 -17.551186
53.026531 27.733991 -12.102342
57.67751 3.8613749 -2.3864609
56.935915 11.627634 -7.1862731
56.983446 3.833348 -6.3430972
48.516079 14.2903 -20.049591
53.917259 15.215336 -13.389618
49.123146 18.076179 -18.874387
50.657979 10.89202 -18.151278
52.000534 18.710406 -15.535725
57.029581 29.92212 -2.6620496
56.495649 20.078346 -7.4189427
55.544256 29.111828 -7.5644181
55.07328 23.989213 -9.7996999
53.797358 3.7046983 -13.764614
55.419991 11.435696 -11.057611
55.665926 3.7775436 -10.185986
52.441 7.3348127 -16.04119
56.420705 7.6763508 -8.730107
53.287869 11.233519 -14.757499
41.122408 -21.436268 -13.248342
47.558267 -16.757208 -10.356524
42.20942 -18.728758 -14.931297
42.786239 -22.378103 -9.7651819
56.581445 -3.787996 -2.3411103
53.123826 -10.849117 -6.7051232
55.878304 -3.7590037 -6.2200786
43.784104 -12.896508 -18.094071
48.686709 -13.739286 -12.090682
43.107338 -15.862501 -16.562957
47.037276 -10.113529 -16.853943
45.518878 -16.378229 -13.59926
44.612774 -23.407305 -2.0824529
48.959278 -17.399947 -6.4292752
43.987288 -23.054595 -5.9905066
45.959479 -20.019358 -8.1779966
52.651403 -3.6257834 -13.47141
51.661797 -10.660207 -10.307762
54.543879 -3.7014004 -9.9806689
50.068517 -7.0029784 -15.315471
54.061195 -7.3553264 -8.3650146
49.573344 -10.450466 -13.728802
50.009334 26.06884 16.111429
54.464693 19.190695 11.860501
49.615609 22.014961 17.551186
53.026531 27.733991 12.102342
57.67751 3.8613749 2.3864609
56.935915 11.627634 7.1862731
56.983446 3.833348 6.3430972
57.976027 7.8111016 0
48.516079 14.2903 20.049591
53.917259 15.215336 13.389618
49.123146 18.076179 18.874387
50.657979 10.89202 18.151278
52.000534 18.710406 15.535725
57.029581 29.92212 2.6620496
56.495649 20.078346 7.4189427
55.544256 29.111828 7.5644181
57.592175 25.207755 0
55.07328 23.989213 9.7996999
53.797358 3.7046983 13.764614
55.419991 11.435696 11.057611
55.665926 3.7775436 10.185986
52.441 7.3348127 16.04119
56.420705 7.6763508 8.730107
53.287869 11.233519 14.757499
57.434546 15.874518 -4.8726936
57.434546 15.874518 4.8726936
57.892834 11.850473 -2.4397276
57.664152 20.462547 -2.5293099
57.892834 11.850473 2.4397276
57.664152 20.462547 2.5293099
41.122408 -21.436268 13.248342
47.558267 -16.757208 10.356524
42.20942 -18.728758 14.931297
42.786239 -22.378103 9.7651819
56.581445 -3.787996 2.3411103
53.123826 -10.849117 6.7051232
55.878304 -3.7590037 6.2200786
55.621615 -7.493892 0
43.784104 -12.896508 18.094071
48.686709 -13.739286 12.090682
43.107338 -15.862501 16.562957
47.037276 -10.113529 16.853943
45.518878 -16.378229 13.59926
44.612774 -23.407305 2.0824529
48.959278 -17.399947 6.4292752
43.987288 -23.054595 5.9905066
47.330863 -20.716439 0
45.959479 -20.019358 8.1779966
52.651403 -3.6257834 13.47141
51.661797 -10.660207 10.307762
54.543879 -3.7014004 9.9806689
50.068517 -7.0029784 15.315471
54.061195 -7.3553264 8.3650146
49.573344 -10.450466 13.728802
51.787534 -14.313722 -4.3936064
51.787534 -14.313722 4.3936064
53.999786 -11.053579 -2.2756662
49.783789 -17.666142 -2.1836553
53.999786 -11.053579 2.2756662
49.783789 -17.666142 2.1836553
-26.967914 38.619176 -1.915875
-30.68276 34.817785 -5.6637783
-25.930595 38.863997 -5.00391
-36.703027 25.913523 -12.785633
-33.936538 30.582187 -9.292578
-23.26924 38.321006 -10.948092
-29.357913 34.687772 -8.6712695
-24.683174 38.755859 -8.0482866
-27.714215 36.811424 -6.8675102
-41.145433 3.1466302 -24.22737
-41.240381 9.3359665 -21.921936
-38.915886 20.803448 -16.10513
-40.468813 15.259707 -19.182412
-16.481596 33.847474 -20.918889
-22.506429 31.241984 -19.308608
-18.253665 35.269665 -18.760402
-34.700947 25.211086 -15.581308
-28.521489 28.40695 -17.556461
-33.577643 27.680362 -13.947192
-21.65973 37.530669 -13.817504
-24.328433 32.432772 -17.002214
-19.998313 36.519269 -16.376522
-24.766786 35.898393 -12.736187
-21.314442 33.86599 -17.897292
-30.925446 32.381891 -10.528976
-27.445289 30.896037 -16.02749
-32.311711 30.084254 -12.250564
-27.861895 34.178747 -11.637724
-30.481016 29.339926 -15.026577
-26.161782 33.407005 -14.438765
-39.699144 -56.850827 -2.8203366
-44.763409 -50.796041 -8.2629471
-37.282578 -55.878009 -7.1945386
-47.159854 -33.29638 -16.428307
-46.791481 -42.166523 -12.812547
-31.495811 -51.868956 -14.818663
-41.359429 -48.868133 -12.216085
-34.433769 -54.065587 -11.227602
-39.653408 -52.669664 -9.8260111
-42.228201 -3.2294358 -24.864929
-44.533515 -10.081464 -23.672449
-46.830374 -25.034333 -19.380498
-46.004764 -17.347166 -21.80648
-20.017081 -41.108133 -25.406223
-28.31506 -39.305153 -24.29192
-22.756577 -43.970174 -23.388318
-43.723934 -31.766506 -19.632781
-36.301398 -36.155617 -22.3454
-43.571278 -35.918804 -18.098262
-28.465431 -49.323176 -18.1591
-31.326937 -41.762633 -21.893202
-25.592773 -46.73541 -20.957798
-33.204154 -48.127997 -17.075058
-27.088834 -43.040778 -22.745928
-42.508108 -44.510042 -14.472446
-35.626601 -40.106001 -20.80521
-43.194642 -40.216953 -16.376686
-37.931279 -46.531062 -15.843636
-39.672959 -38.187759 -19.558034
-34.566929 -44.139867 -19.077591
-2.4697935 -19.016089 -32.295094
-7.4471064 -17.486672 -32.896595
-4.1142443 -21.320288 -31.954207
-2.4173024 -16.357223 -32.795122
-17.631793 -13.649772 -32.982842
-12.49683 -15.709302 -33.141651
-7.7585667 -26.267818 -31.036677
-9.3031201 -19.772992 -32.563202
-5.8840804 -23.74553 -31.540015
-6.7090304 -20.575828 -32.306781
-2.3400979 -11.224463 -33.526875
-7.2927578 -14.753569 -33.283239
-2.376736 -13.748656 -33.205213
-4.859949 -15.580163 -33.081208
-38.37509 -1.903766 -26.797468
-33.323136 -5.4206451 -29.365619
-39.713892 -5.1133377 -26.497656
-22.844552 -11.271415 -32.356243
-28.100124 -8.5383886 -31.182235
-41.820744 -11.947947 -25.394347
-34.401671 -8.5997499 -29.115773
-40.872167 -8.4877727 -26.031028
-37.081029 -6.9178076 -27.917193
-16.890036 -37.6156 -27.328652
-18.494199 -30.044899 -29.924243
-14.406202 -34.682703 -28.59134
-20.917709 -37.112627 -27.103617
-20.093319 -15.831144 -32.511673
-19.525585 -22.759341 -31.59306
-17.394282 -16.924446 -32.701351
-9.8802713 -29.020087 -30.386798
-16.000641 -27.399312 -30.844279
-12.05239 -31.789013 -29.597589
-10.679425 -25.56763 -31.364325
-15.282641 -31.000436 -29.839901
-28.910018 -35.043195 -25.980554
-22.233476 -29.236345 -29.664626
-24.963584 -36.244488 -26.649165
-21.655568 -33.119456 -28.521546
-12.047171 -18.884632 -32.722148
-16.59883 -23.751232 -31.663292
-14.694913 -17.944804 -32.76932
-11.402213 -22.172741 -32.138437
-17.051248 -20.306863 -32.265072
-13.647876 -24.72876 -31.577123
-2.2822056 -1.4104806 -34.089395
-6.9392401 -4.2886862 -33.978708
-2.290805 -3.7906286 -34.053251
-17.293183 -10.687775 -33.174493
-11.87868 -7.3414281 -33.712624
-14.799272 -11.798557 -33.353449
-2.3263017 -8.6432534 -33.781128
-7.0005405 -6.7690902 -33.926217
-2.3039276 -6.2124427 -33.950703
-4.7141861 -10.309896 -33.70456
-4.6267848 -5.2619178 -34.006583
-9.8394927 -13.805015 -33.405428
-9.5377125 -8.3932633 -33.797959
-12.300809 -12.843988 -33.428216
-7.220922 -12.033486 -33.583975
-12.095416 -10.043131 -33.61595
-7.1246062 -9.3596117 -33.796631
-43.680572 -26.996078 -21.269698
-36.853153 -22.776501 -26.548663
-43.475102 -23.124983 -22.500355
-40.305783 -29.435602 -22.717461
-23.331456 -14.419633 -32.113794
-29.960912 -18.516862 -30.081717
-26.068743 -13.135151 -31.622669
-23.222295 -17.922228 -31.797983
-42.569319 -15.672561 -24.567639
-36.550079 -19.160628 -27.416903
-43.109949 -19.332014 -23.607435
-38.967912 -13.825204 -26.884488
-40.028603 -21.154072 -25.193043
-32.95472 -33.437472 -25.061204
-33.460736 -24.80734 -27.604518
-36.689112 -31.595633 -23.989631
-29.463943 -30.756313 -27.372843
-36.86939 -27.108632 -25.393989
-31.575201 -10.266681 -30.155039
-32.928314 -17.081745 -29.250583
-28.835386 -11.742015 -30.970377
-35.256124 -12.004566 -28.740154
-29.461466 -15.088824 -30.607283
-35.97643 -15.549291 -28.173957
-22.696016 -25.255129 -30.612931
-29.885077 -22.398703 -29.453613
-23.013498 -21.557875 -31.299759
-26.009331 -27.996267 -29.224261
-26.521154 -20.136729 -30.796584
-29.785402 -26.508741 -28.533829
-2.429642 18.706944 -31.770073
-7.1277055 16.736682 -31.485685
-3.9931698 20.692872 -31.013855
-2.3838074 16.130571 -32.340701
-16.373357 12.675545 -30.628754
-11.729512 14.744735 -31.10672
-7.270927 24.616839 -29.085967
-8.7620131 18.622915 -30.669195
-5.6186944 22.67455 -30.117486
-6.4073351 19.650564 -30.853992
-2.3181096 11.118995 -33.211846
-7.0292154 14.220412 -32.080464
-2.3492182 13.589475 -32.820764
-4.7336772 15.175357 -32.221688
-37.764619 1.8734809 -26.371174
