10.60820865 12.10157438 36.80554434
38.63033559 23.87486039 23.13891777
26.63343117 16.4603657 31.30947612
37.14443747 16.41155292 24.46997981
33.63748713 29.35469486 26.70778368
31.17417989 13.1390731 28.73736562
26.92303903 24.49539012 30.85105749
20.36489458 -6.135232167 32.95109161
20.8541664 6.282632696 33.74275005
24.771111 -3.240640987 31.1597802
15.40788362 -3.17419859 35.2024018
25.13119606 3.28774854 31.61273411
15.55604725 3.204721977 35.54091134
41.92548843 0 -18.48094813
49.59200816 0 -6.907370905
43.80945501 6.240096678 -16.97904371
42.76619074 -6.091497023 -16.57471022
41.92548843 0 18.48094813
49.59200816 0 6.907370905
43.80945501 6.240096678 16.97904371
42.76619074 -6.091497023 16.57471022
47.0952999 20.41243274 -12.61557722
50.63515475 6.822066915 -4.216269227
45.60418871 13.14418135 -14.99454746
50.22809868 21.98454251 -4.529064832
47.94756801 6.58849864 -10.92110616
44.0657362 -19.09933429 -11.80403775
50.04050334 -6.741949618 -4.166754015
43.53734176 -12.54846828 -14.31497316
47.78903371 -20.91697816 -4.309134481
47.09378451 -6.471179834 -10.72663831
47.0952999 20.41243274 12.61557722
50.63515475 6.822066915 4.216269227
45.60418871 13.14418135 14.99454746
50.22809868 21.98454251 4.529064832
47.94756801 6.58849864 10.92110616
51.03299664 14.10517336 0
44.0657362 -19.09933429 11.80403775
50.04050334 -6.741949618 4.166754015
43.53734176 -12.54846828 14.31497316
47.78903371 -20.91697816 4.309134481
47.09378451 -6.471179834 10.72663831
49.80875199 -13.76680046 0
-36.55072408 46.53683438 -4.814100789
-39.48178414 31.58039532 -12.3384469
-32.51501376 45.11671903 -12.12502633
-38.15155153 5.787175675 -21.36845116
-39.35899629 17.89127407 -17.49133888
-22.9043257 38.23868502 -23.63280703
-34.57071328 29.4076052 -18.17489954
-27.62515143 41.93386009 -18.52766689
-33.95545008 36.83473715 -15.52484479
-44.79731977 -57.03650211 -5.900261018
-45.31122223 -36.24320283 -14.16020379
-39.97356602 -55.46595058 -14.90636123
-39.21571933 -5.948598364 -21.96448505
-42.67621141 -19.39916833 -18.96552621
-26.70583934 -44.58529764 -27.55522934
-40.04161538 -34.06143249 -21.05112299
-33.30653743 -50.55797375 -22.33806509
-40.65936517 -44.10711757 -18.58995631
-5.57670462 -20.59131207 -36.7640358
-16.08249654 -15.72299412 -35.37986837
-9.615323781 -25.78488298 -35.77822015
-5.31910616 -14.47306679 -37.3435147
-33.6289086 -3.478813236 -26.41264658
-25.44946853 -9.94309643 -31.81690452
-35.44660687 -9.526203387 -25.54589374
-19.6340095 -37.34610535 -31.7684947
-20.80002174 -20.15886103 -33.65514215
-14.39219129 -31.47814613 -34.14736768
-27.04106131 -34.05723824 -29.72100243
-15.47677978 -23.07621286 -35.02875573
-5.08821904 -3.144692309 -37.76608493
-15.46891715 -9.560316567 -35.68968489
-5.175701871 -8.579251913 -37.66598902
-10.60820865 -12.10157438 -36.80554434
-38.63033559 -23.87486039 -23.13891777
-26.63343117 -16.4603657 -31.30947612
-37.14443747 -16.41155292 -24.46997981
-33.63748713 -29.35469486 -26.70778368
-31.17417989 -13.1390731 -28.73736562
-26.92303903 -24.49539012 -30.85105749
-5.455391179 20.14337675 -35.96428541
-15.36293503 15.01951744 -33.79690573
-9.194912338 24.65748882 -34.21388665
-5.239036455 14.25520044 -36.78137434
-33.0556864 3.419515059 -25.96242931
-24.38545597 9.527387179 -30.4866769
-33.84933409 9.096939582 -24.39476069
-29.3001747 0 -28.95519142
-17.59562919 33.4688756 -28.47032608
-19.38098224 18.78356343 -31.35908801
-13.35145331 29.20187689 -31.67807987
-23.73257036 29.89031361 -26.08461899
-14.54257284 21.68329014 -32.91435551
-5.071697131 3.134481208 -37.64345502
-15.04597406 9.298923365 -34.7138761
-5.129740742 8.503066671 -37.33150852
-10.1902029 0 -36.86850043
-10.34942404 11.80635948 -35.90768224
-34.66787976 21.42592801 -20.76547373
-24.82477449 15.3425544 -29.18327267
-34.38875568 15.1940081 -22.65459419
-29.54263397 25.78120662 -23.45651667
-29.30737411 12.35226499 -27.01648377
-24.35236673 22.15651519 -27.90532915
-20.8541664 -6.282632696 -33.74275005
-20.36489458 6.135232167 -32.95109161
-25.13119606 -3.28774854 -31.61273411
-15.55604725 -3.204721977 -35.54091134
-24.771111 3.240640987 -31.1597802
-15.40788362 3.17419859 -35.2024018
-36.55072408 46.53683438 4.814100789
-39.48178414 31.58039532 12.3384469
-32.51501376 45.11671903 12.12502633
-40.76657257 41.25228118 0
-38.15155153 5.787175675 21.36845116
-39.35899629 17.89127407 17.49133888
-22.9043257 38.23868502 23.63280703
-34.57071328 29.4076052 18.17489954
-27.62515143 41.93386009 18.52766689
-33.95545008 36.83473715 15.52484479
-44.15606796 27.28995081 -8.221509981
-44.15606796 27.28995081 8.221509981
-43.28026504 34.40654081 -4.501180685
-43.28026504 34.40654081 4.501180685
-44.79731977 -57.03650211 5.900261018
-45.31122223 -36.24320283 14.16020379
-39.97356602 -55.46595058 14.90636123
-48.01569437 -48.5877718 0
-39.21571933 -5.948598364 21.96448505
-42.67621141 -19.39916833 18.96552621
-26.70583934 -44.58529764 27.55522934
-40.04161538 -34.06143249 21.05112299
-33.30653743 -50.55797375 22.33806509
-40.65936517 -44.10711757 18.58995631
-48.40738925 -29.91741186 -9.013072319
-48.40738925 -29.91741186 9.013072319
-48.84805634 -38.83277153 -5.080235241
-48.84805634 -38.83277153 5.080235241
-5.57670462 -20.59131207 36.7640358
-16.08249654 -15.72299412 35.37986837
-9.615323781 -25.78488298 35.77822015
-5.31910616 -14.47306679 37.3435147
-33.6289086 -3.478813236 26.41264658
-25.44946853 -9.94309643 31.81690452
-35.44660687 -9.526203387 25.54589374
-19.6340095 -37.34610535 31.7684947
-20.80002174 -20.15886103 33.65514215
-14.39219129 -31.47814613 34.14736768
-27.04106131 -34.05723824 29.72100243
-15.47677978 -23.07621286 35.02875573
-5.08821904 -3.144692309 37.76608493
-15.46891715 -9.560316567 35.68968489
-5.175701871 -8.579251913 37.66598902
-10.60820865 -12.10157438 36.80554434
-38.63033559 -23.87486039 23.13891777
-26.63343117 -16.4603657 31.30947612
-37.14443747 -16.41155292 24.46997981
-33.63748713 -29.35469486 26.70778368
-31.17417989 -13.1390731 28.73736562
-26.92303903 -24.49539012 30.85105749
-5.455391179 20.14337675 35.96428541
-15.36293503 15.01951744 33.79690573
-9.194912338 24.65748882 34.21388665
-5.239036455 14.25520044 36.78137434
-33.0556864 3.419515059 25.96242931
-24.38545597 9.527387179 30.4866769
-33.84933409 9.096939582 24.39476069
-29.3001747 0 28.95519142
-17.59562919 33.4688756 28.47032608
-19.38098224 18.78356343 31.35908801
-13.35145331 29.20187689 31.67807987
-23.73257036 29.89031361 26.08461899
-14.54257284 21.68329014 32.91435551
-5.071697131 3.134481208 37.64345502
-15.04597406 9.298923365 34.7138761
-5.129740742 8.503066671 37.33150852
-10.1902029 0 36.86850043
-10.34942404 11.80635948 35.90768224
-34.66787976 21.42592801 20.76547373
-24.82477449 15.3425544 29.18327267
-34.38875568 15.1940081 22.65459419
-29.54263397 25.78120662 23.45651667
-29.30737411 12.35226499 27.01648377
-24.35236673 22.15651519 27.90532915
-20.8541664 -6.282632696 33.74275005
-20.36489458 6.135232167 32.95109161
-25.13119606 -3.28774854 31.61273411
-15.55604725 -3.204721977 35.54091134
-24.771111 3.240640987 31.1597802
-15.40788362 3.17419859 35.2024018
-41.92548843 0 -18.48094813
-49.59200816 0 -6.907370905
-42.76619074 6.091497023 -16.57471022
-43.80945501 -6.240096678 -16.97904371
-41.92548843 0 18.48094813
-49.59200816 0 6.907370905
-42.76619074 6.091497023 16.57471022
-43.80945501 -6.240096678 16.97904371
-44.0657362 19.09933429 -11.80403775
-50.04050334 6.741949618 -4.166754015
-43.53734176 12.54846828 -14.31497316
-47.78903371 20.91697816 -4.309134481
-47.09378451 6.471179834 -10.72663831
-47.0952999 -20.41243274 -12.61557722
-50.63515475 -6.822066915 -4.216269227
-45.60418871 -13.14418135 -14.99454746
-50.22809868 -21.98454251 -4.529064832
-47.94756801 -6.58849864 -10.92110616
-44.0657362 19.09933429 11.80403775
-50.04050334 6.741949618 4.166754015
-43.53734176 12.54846828 14.31497316
-47.78903371 20.91697816 4.309134481
-47.09378451 6.471179834 10.72663831
-49.80875199 13.76680046 0
-47.0952999 -20.41243274 12.61557722
-50.63515475 -6.822066915 4.216269227
-45.60418871 -13.14418135 14.99454746
-50.22809868 -21.98454251 4.529064832
-47.94756801 -6.58849864 10.92110616
-51.03299664 -14.10517336 0
-29.78529318 56.60584082 0
-22.83673762 63.3502135 0
-5.038841631 72.70274225 0
-14.54145191 69.03964933 0
36.13483291 68.67290469 0
25.96938057 72.0403164 0
5.12863112 73.9982666 0
15.49630858 73.57310101 0
-36.13483291 -68.67290469 0
-25.96938057 -72.0403164 0
-5.12863112 -73.9982666 0
-15.49630858 -73.57310101 0
29.78529318 -56.60584082 0
22.83673762 -63.3502135 0
5.038841631 -72.70274225 0
14.54145191 -69.03964933 0
-38.8559788 -65.98925327 5.046581505
-33.66535326 -63.33254679 14.33717422
-34.31614609 -68.80154564 5.071307308
-21.08366882 -50.94585639 27.23436566
-27.3604319 -57.72184266 21.76536266
-24.05640198 -71.85519391 5.015325409
-29.13630012 -65.72988644 14.4022083
-29.2502395 -70.64402629 5.05650122
-31.89929264 -67.73145767 9.950405452
-1.791751049 -25.22074226 36.11715306
-5.722222263 -30.99937268 35.17706625
-15.31895007 -43.9752823 31.04796947
-10.20368442 -37.26390279 33.58066865
-3.038308076 -73.43176689 4.916085736
-8.8196111 -69.87664082 14.27043053
-8.187025828 -73.54844652 4.947696425
-16.9704374 -52.67566682 27.45874452
-13.61491224 -62.52113492 22.02939077
-19.9137276 -56.29430014 24.9783651
-18.60689049 -72.72281869 5.007980186
-13.86433098 -69.48707788 14.3383834
-13.40944673 -73.2819868 4.972986502
-21.62505827 -70.69548288 9.888028788
-11.14602588 -72.03424146 9.800659232
-26.01049877 -62.94030651 18.53892367
-16.34149369 -65.80386055 18.5697103
-22.96807984 -59.77753679 21.99674805
-24.15012208 -67.40001289 14.49174011
-18.33521182 -61.37085893 22.08195953
-19.00518381 -68.62583688 14.46688762
31.58773947 -53.64557539 4.102588757
27.73776088 -52.18133389 11.81277104
28.50471476 -57.15001994 4.212482598
18.42536624 -44.52242494 23.80056175
23.11382518 -48.76284795 18.38716543
21.36311692 -63.8104946 4.453824108
24.60544996 -55.50853831 12.16258805
25.08413485 -60.58221445 4.336304955
26.70580867 -56.7041837 8.330392376
1.776342414 -25.00384985 35.80655409
5.543173604 -30.02940055 34.07637385
0 -27.88683916 35.50586884
13.89371841 -39.88394677 28.15935446
9.588836457 -35.01847518 31.55718333
-3.92157037 -34.0999809 34.50626117
3.829815587 -33.30212799 33.69890234
-1.90244673 -30.93579968 35.07861961
1.881953826 -30.60256335 34.70075738
3.005556788 -72.64021287 4.863093039
8.441832803 -66.88355211 13.6591724
7.939040306 -71.3206595 4.797830392
0 -71.67826485 9.657202029
15.16272806 -47.06459785 24.53380937
12.48689179 -57.34114421 20.20421533
17.49563404 -49.45856918 21.94528034
17.10808234 -66.86490526 4.604581158
12.90091989 -64.65852742 13.34203113
12.69221876 -69.36237012 4.706997523
19.35984947 -63.29018353 8.852265113
10.61173519 -68.5812417 9.330859408
-5.657499137 -66.68506595 18.43129892
5.478432566 -64.57440437 17.84792641
-2.935167465 -69.64923638 14.25697032
2.893762786 -68.66673561 14.05585564
22.21495876 -53.75584398 15.83366119
14.83606095 -59.74179011 16.85900685
19.87277408 -51.72158456 19.03234435
21.04804139 -58.74248819 12.63027759
16.31870024 -54.62127516 19.65337961
17.12876758 -61.85028366 13.0385456
-13.63033171 -48.29520416 29.84807767
-4.502648963 -48.66707641 30.07790736
-10.98699828 -44.63892359 31.43996277
-12.16925975 -53.31972958 27.88734057
12.44050783 -44.07940163 27.24256841
4.35932694 -47.11797412 29.12050949
10.21133418 -41.48748865 29.22035287
11.19298356 -49.042166 25.65008481
-6.163150049 -37.57546213 33.70828988
-2.221691966 -44.65337895 31.37707404
-8.484964737 -41.03076199 32.71740761
-2.045973179 -37.39631384 33.57400465
-6.57948274 -44.87516784 31.55747174
-8.23198867 -62.68703776 22.27874265
-2.480598871 -53.14232902 27.88256783
-10.36074505 -58.2262946 25.3626258
-2.736508968 -62.38795457 22.13882261
-7.285674239 -53.49748697 28.03907614
5.927224489 -36.13707236 32.41793558
2.186862023 -43.95333832 30.8851689
8.027027553 -38.81631418 30.9516351
2.018936313 -36.90213379 33.13033516
6.286701384 -42.87826125 30.15319123
0 -40.71780557 32.36946072
7.809128442 -59.46693432 21.13432973
2.436261107 -52.1924729 27.38419999
9.656638025 -54.26928736 23.63900429
2.688499486 -61.29341644 21.75041773
6.918919361 -50.80446726 26.627612
0 -57.39674772 25.12221791
-31.58773947 53.64557539 4.102588757
-27.73776088 52.18133389 11.81277104
-28.50471476 57.15001994 4.212482598
-18.42536624 44.52242494 23.80056175
-23.11382518 48.76284795 18.38716543
-21.36311692 63.8104946 4.453824108
-24.60544996 55.50853831 12.16258805
-25.08413485 60.58221445 4.336304955
-26.70580867 56.7041837 8.330392376
-1.776342414 25.00384985 35.80655409
-5.543173604 30.02940055 34.07637385
-13.89371841 39.88394677 28.15935446
-9.588836457 35.01847518 31.55718333
-3.005556788 72.64021287 4.863093039
-8.441832803 66.88355211 13.6591724
-7.939040306 71.3206595 4.797830392
-15.16272806 47.06459785 24.53380937
-12.48689179 57.34114421 20.20421533
-17.49563404 49.45856918 21.94528034
-17.10808234 66.86490526 4.604581158
-12.90091989 64.65852742 13.34203113
-12.69221876 69.36237012 4.706997523
-19.35984947 63.29018353 8.852265113
-10.61173519 68.5812417 9.330859408
-22.21495876 53.75584398 15.83366119
-14.83606095 59.74179011 16.85900685
-19.87277408 51.72158456 19.03234435
-21.04804139 58.74248819 12.63027759
-16.31870024 54.62127516 19.65337961
-17.12876758 61.85028366 13.0385456
38.8559788 65.98925327 5.046581505
33.66535326 63.33254679 14.33717422
34.31614609 68.80154564 5.071307308
21.08366882 50.94585639 27.23436566
27.3604319 57.72184266 21.76536266
24.05640198 71.85519391 5.015325409
29.13630012 65.72988644 14.4022083
29.2502395 70.64402629 5.05650122
31.89929264 67.73145767 9.950405452
1.791751049 25.22074226 36.11715306
5.722222263 30.99937268 35.17706625
0 27.88683916 35.50586884
15.31895007 43.9752823 31.04796947
10.20368442 37.26390279 33.58066865
-3.829815587 33.30212799 33.69890234
3.92157037 34.0999809 34.50626117
-1.881953826 30.60256335 34.70075738
1.90244673 30.93579968 35.07861961
3.038308076 73.43176689 4.916085736
8.8196111 69.87664082 14.27043053
8.187025828 73.54844652 4.947696425
0 71.67826485 9.657202029
16.9704374 52.67566682 27.45874452
13.61491224 62.52113492 22.02939077
19.9137276 56.29430014 24.9783651
18.60689049 72.72281869 5.007980186
13.86433098 69.48707788 14.3383834
13.40944673 73.2819868 4.972986502
21.62505827 70.69548288 9.888028788
11.14602588 72.03424146 9.800659232
-5.478432566 64.57440437 17.84792641
5.657499137 66.68506595 18.43129892
-2.893762786 68.66673561 14.05585564
2.935167465 69.64923638 14.25697032
26.01049877 62.94030651 18.53892367
16.34149369 65.80386055 18.5697103
22.96807984 59.77753679 21.99674805
24.15012208 67.40001289 14.49174011
18.33521182 61.37085893 22.08195953
19.00518381 68.62583688 14.46688762
-12.44050783 44.07940163 27.24256841
-4.35932694 47.11797412 29.12050949
-10.21133418 41.48748865 29.22035287
-11.19298356 49.042166 25.65008481
13.63033171 48.29520416 29.84807767
4.502648963 48.66707641 30.07790736
10.98699828 44.63892359 31.43996277
12.16925975 53.31972958 27.88734057
-5.927224489 36.13707236 32.41793558
-2.186862023 43.95333832 30.8851689
-8.027027553 38.81631418 30.9516351
-2.018936313 36.90213379 33.13033516
-6.286701384 42.87826125 30.15319123
-7.809128442 59.46693432 21.13432973
-2.436261107 52.1924729 27.38419999
-9.656638025 54.26928736 23.63900429
-2.688499486 61.29341644 21.75041773
-6.918919361 50.80446726 26.627612
6.163150049 37.57546213 33.70828988
2.221691966 44.65337895 31.37707404
8.484964737 41.03076199 32.71740761
2.045973179 37.39631384 33.57400465
6.57948274 44.87516784 31.55747174
0 40.71780557 32.36946072
8.23198867 62.68703776 22.27874265
2.480598871 53.14232902 27.88256783
10.36074505 58.2262946 25.3626258
2.736508968 62.38795457 22.13882261
7.285674239 53.49748697 28.03907614
0 57.39674772 25.12221791
0 -19.38114067 36.83313631
0 -13.50115464 37.45285529
0 -2.634071201 38.00560002
0 -7.967566352 37.82827122
0 19.38114067 36.83313631
0 13.50115464 37.45285529
0 2.634071201 38.00560002
0 7.967566352 37.82827122
-38.8559788 -65.98925327 -5.046581505
-33.66535326 -63.33254679 -14.33717422
-34.31614609 -68.80154564 -5.071307308
-21.08366882 -50.94585639 -27.23436566
-27.3604319 -57.72184266 -21.76536266
-24.05640198 -71.85519391 -5.015325409
-29.13630012 -65.72988644 -14.4022083
-29.2502395 -70.64402629 -5.05650122
-31.89929264 -67.73145767 -9.950405452
-1.791751049 -25.22074226 -36.11715306
-5.722222263 -30.99937268 -35.17706625
-15.31895007 -43.9752823 -31.04796947
-10.20368442 -37.26390279 -33.58066865
-3.038308076 -73.43176689 -4.916085736
-8.8196111 -69.87664082 -14.27043053
-8.187025828 -73.54844652 -4.947696425
-16.9704374 -52.67566682 -27.45874452
-13.61491224 -62.52113492 -22.02939077
-19.9137276 -56.29430014 -24.9783651
-18.60689049 -72.72281869 -5.007980186
-13.86433098 -69.48707788 -14.3383834
-13.40944673 -73.2819868 -4.972986502
-21.62505827 -70.69548288 -9.888028788
-11.14602588 -72.03424146 -9.800659232
-26.01049877 -62.94030651 -18.53892367
-16.34149369 -65.80386055 -18.5697103
-22.96807984 -59.77753679 -21.99674805
-24.15012208 -67.40001289 -14.49174011
-18.33521182 -61.37085893 -22.08195953
-19.00518381 -68.62583688 -14.46688762
31.58773947 -53.64557539 -4.102588757
27.73776088 -52.18133389 -11.81277104
28.50471476 -57.15001994 -4.212482598
18.42536624 -44.52242494 -23.80056175
23.11382518 -48.76284795 -18.38716543
21.36311692 -63.8104946 -4.453824108
24.60544996 -55.50853831 -12.16258805
25.08413485 -60.58221445 -4.336304955
26.70580867 -56.7041837 -8.330392376
1.776342414 -25.00384985 -35.80655409
5.543173604 -30.02940055 -34.07637385
0 -27.88683916 -35.50586884
13.89371841 -39.88394677 -28.15935446
9.588836457 -35.01847518 -31.55718333
-3.92157037 -34.0999809 -34.50626117
3.829815587 -33.30212799 -33.69890234
-1.90244673 -30.93579968 -35.07861961
1.881953826 -30.60256335 -34.70075738
3.005556788 -72.64021287 -4.863093039
8.441832803 -66.88355211 -13.6591724
7.939040306 -71.3206595 -4.797830392
0 -71.67826485 -9.657202029
15.16272806 -47.06459785 -24.53380937
12.48689179 -57.34114421 -20.20421533
17.49563404 -49.45856918 -21.94528034
17.10808234 -66.86490526 -4.604581158
12.90091989 -64.65852742 -13.34203113
12.69221876 -69.36237012 -4.706997523
19.35984947 -63.29018353 -8.852265113
10.61173519 -68.5812417 -9.330859408
-5.657499137 -66.68506595 -18.43129892
5.478432566 -64.57440437 -17.84792641
-2.935167465 -69.64923638 -14.25697032
2.893762786 -68.66673561 -14.05585564
22.21495876 -53.75584398 -15.83366119
14.83606095 -59.74179011 -16.85900685
19.87277408 -51.72158456 -19.03234435
21.04804139 -58.74248819 -12.63027759
16.31870024 -54.62127516 -19.65337961
17.12876758 -61.85028366 -13.0385456
-13.63033171 -48.29520416 -29.84807767
-4.502648963 -48.66707641 -30.07790736
-10.98699828 -44.63892359 -31.43996277
-12.16925975 -53.31972958 -27.88734057
12.44050783 -44.07940163 -27.24256841
4.35932694 -47.11797412 -29.12050949
10.21133418 -41.48748865 -29.22035287
11.19298356 -49.042166 -25.65008481
-6.163150049 -37.57546213 -33.70828988
-2.221691966 -44.65337895 -31.37707404
-8.484964737 -41.03076199 -32.71740761
-2.045973179 -37.39631384 -33.57400465
-6.57948274 -44.87516784 -31.55747174
-8.23198867 -62.68703776 -22.27874265
-2.480598871 -53.14232902 -27.88256783
-10.36074505 -58.2262946 -25.3626258
-2.736508968 -62.38795457 -22.13882261
-7.285674239 -53.49748697 -28.03907614
5.927224489 -36.13707236 -32.41793558
2.186862023 -43.95333832 -30.8851689
8.027027553 -38.81631418 -30.9516351
2.018936313 -36.90213379 -33.13033516
6.286701384 -42.87826125 -30.15319123
0 -40.71780557 -32.36946072
7.809128442 -59.46693432 -21.13432973
2.436261107 -52.1924729 -27.38419999
9.656638025 -54.26928736 -23.63900429
2.688499486 -61.29341644 -21.75041773
6.918919361 -50.80446726 -26.627612
0 -57.39674772 -25.12221791
-31.58773947 53.64557539 -4.102588757
-27.73776088 52.18133389 -11.81277104
-28.50471476 57.15001994 -4.212482598
-18.42536624 44.52242494 -23.80056175
-23.11382518 48.76284795 -18.38716543
-21.36311692 63.8104946 -4.453824108
-24.60544996 55.50853831 -12.16258805
-25.08413485 60.58221445 -4.336304955
-26.70580867 56.7041837 -8.330392376
-1.776342414 25.00384985 -35.80655409
-5.543173604 30.02940055 -34.07637385
-13.89371841 39.88394677 -28.15935446
-9.588836457 35.01847518 -31.55718333
-3.005556788 72.64021287 -4.863093039
-8.441832803 66.88355211 -13.6591724
-7.939040306 71.3206595 -4.797830392
-15.16272806 47.06459785 -24.53380937
-12.48689179 57.34114421 -20.20421533
-17.49563404 49.45856918 -21.94528034
-17.10808234 66.86490526 -4.604581158
-12.90091989 64.65852742 -13.34203113
-12.69221876 69.36237012 -4.706997523
-19.35984947 63.29018353 -8.852265113
-10.61173519 68.5812417 -9.330859408
-22.21495876 53.75584398 -15.83366119
-14.83606095 59.74179011 -16.85900685
-19.87277408 51.72158456 -19.03234435
-21.04804139 58.74248819 -12.63027759
-16.31870024 54.62127516 -19.65337961
-17.12876758 61.85028366 -13.0385456
38.8559788 65.98925327 -5.046581505
33.66535326 63.33254679 -14.33717422
34.31614609 68.80154564 -5.071307308
21.08366882 50.94585639 -27.23436566
27.3604319 57.72184266 -21.76536266
24.05640198 71.85519391 -5.015325409
29.13630012 65.72988644 -14.4022083
29.2502395 70.64402629 -5.05650122
31.89929264 67.73145767 -9.950405452
1.791751049 25.22074226 -36.11715306
5.722222263 30.99937268 -35.17706625
0 27.88683916 -35.50586884
15.31895007 43.9752823 -31.04796947
10.20368442 37.26390279 -33.58066865
-3.829815587 33.30212799 -33.69890234
3.92157037 34.0999809 -34.50626117
-1.881953826 30.60256335 -34.70075738
1.90244673 30.93579968 -35.07861961
3.038308076 73.43176689 -4.916085736
8.8196111 69.87664082 -14.27043053
8.187025828 73.54844652 -4.947696425
0 71.67826485 -9.657202029
16.9704374 52.67566682 -27.45874452
13.61491224 62.52113492 -22.02939077
19.9137276 56.29430014 -24.9783651
18.60689049 72.72281869 -5.007980186
13.86433098 69.48707788 -14.3383834
13.40944673 73.2819868 -4.972986502
21.62505827 70.69548288 -9.888028788
11.14602588 72.03424146 -9.800659232
-5.478432566 64.57440437 -17.84792641
5.657499137 66.68506595 -18.43129892
-2.893762786 68.66673561 -14.05585564
2.935167465 69.64923638 -14.25697032
26.01049877 62.94030651 -18.53892367
16.34149369 65.80386055 -18.5697103
22.96807984 59.77753679 -21.99674805
24.15012208 67.40001289 -14.49174011
18.33521182 61.37085893 -22.08195953
19.00518381 68.62583688 -14.46688762
-12.44050783 44.07940163 -27.24256841
-4.35932694 47.11797412 -29.12050949
-10.21133418 41.48748865 -29.22035287
-11.19298356 49.042166 -25.65008481
13.63033171 48.29520416 -29.84807767
4.502648963 48.66707641 -30.07790736
10.98699828 44.63892359 -31.43996277
12.16925975 53.31972958 -27.88734057
-5.927224489 36.13707236 -32.41793558
-2.186862023 43.95333832 -30.8851689
-8.027027553 38.81631418 -30.9516351
-2.018936313 36.90213379 -33.13033516
-6.286701384 42.87826125 -30.15319123
-7.809128442 59.46693432 -21.13432973
-2.436261107 52.1924729 -27.38419999
-9.656638025 54.26928736 -23.63900429
-2.688499486 61.29341644 -21.75041773
-6.918919361 50.80446726 -26.627612
6.163150049 37.57546213 -33.70828988
2.221691966 44.65337895 -31.37707404
8.484964737 41.03076199 -32.71740761
2.045973179 37.39631384 -33.57400465
6.57948274 44.87516784 -31.55747174
0 40.71780557 -32.36946072
8.23198867 62.68703776 -22.27874265
2.480598871 53.14232902 -27.88256783
10.36074505 58.2262946 -25.3626258
2.736508968 62.38795457 -22.13882261
7.285674239 53.49748697 -28.03907614
0 57.39674772 -25.12221791
0 -19.38114067 -36.83313631
0 -13.50115464 -37.45285529
0 -2.634071201 -38.00560002
0 -7.967566352 -37.82827122
0 19.38114067 -36.83313631
0 13.50115464 -37.45285529
0 2.634071201 -38.00560002
0 7.967566352 -37.82827122
43.15038153 61.79314304 -3.065522043
45.60529322 51.75138341 -8.418351781
41.26582115 61.84797427 -7.963197841
44.7818381 31.61742391 -15.59991673
45.68863031 41.17268027 -12.51056197
35.61407622 58.65113114 -16.75629188
43.37488123 51.24948644 -12.81137668
38.65695499 60.69654881 -12.60462906
42.7144019 56.735431 -10.58451741
38.26785712 2.926565318 -22.53298789
40.13213633 9.08508278 -21.33283146
43.44095622 23.22243593 -17.97780622
41.86564594 15.78641507 -19.84451816
22.50192567 46.21114082 -28.56005568
30.65037278 42.54688455 -26.29542076
25.62611338 49.51468141 -26.33751498
42.27601488 30.71455742 -18.98264044
37.37298617 37.22290111 -23.00501805
42.83623618 35.31285805 -17.79294617
32.22143858 55.83135959 -20.55518955
33.93554795 45.24022928 -23.71626043
28.90478874 52.78353923 -23.66999105
36.74721815 53.26351652 -18.89705997
29.97291045 47.62321501 -25.16762629
43.4836688 45.53154727 -14.80458843
37.52538444 42.24352162 -21.91406086
43.26724823 40.28455392 -16.40421339
40.55499703 49.74963003 -16.93954579
40.43605782 38.92229021 -19.9342278
37.32745016 47.66488405 -20.60113078
34.89937588 -49.97735939 -2.479347859
37.77344884 -42.86406457 -6.972659484
33.36007967 -49.9990862 -6.437601555
39.61819591 -27.97172577 -13.80114313
39.16930723 -35.29773933 -10.72542648
29.10567112 -47.93274781 -13.69411122
35.69155955 -42.17127622 -10.54200036
31.3505413 -49.22450982 -10.22227292
34.7140714 -46.10898701 -8.602056375
37.74160318 -2.886319622 -22.22311756
38.51994002 -8.720114995 -20.47584463
39.52917061 -21.13129434 -16.35893478
39.12807224 -14.75414926 -18.54689501
19.61392467 -40.28018972 -24.89452632
26.02883923 -36.13156765 -22.33053688
21.92365262 -42.36080043 -22.53227092
37.16374833 -27.0003709 -16.68714693
31.85174637 -31.7238339 -19.6064076
37.05522774 -30.54717487 -15.39168077
26.6657574 -46.20481133 -17.01102502
28.39186031 -37.84981672 -19.84198853
24.29366361 -44.36308315 -19.89396309
30.10239042 -43.63212373 -15.47999292
25.25305944 -40.12396066 -21.20446607
36.3746428 -38.08771922 -12.38422679
31.48161781 -35.43986084 -18.38462414
36.80624118 -34.26894632 -13.95460675
33.35373316 -40.91569489 -13.93162696
34.32799368 -33.04288807 -16.92306528
30.87901964 -39.43063038 -17.04222279
2.772534565 -21.34703347 -36.2537463
8.049585952 -18.90136442 -35.55796778
4.577985646 -23.72342627 -35.55595931
2.704221862 -18.29872789 -36.68770843
17.67596966 -13.68397175 -33.06548142
12.99451016 -16.33491781 -34.46150116
8.408902347 -28.46962896 -33.63822153
9.907325854 -21.05718023 -34.6780703
6.470329654 -26.11137102 -34.68244487
7.303612974 -22.39934524 -35.16994424
2.605609981 -12.49801279 -37.33089983
7.892476334 -15.96682636 -36.02027984
2.651565379 -15.33845618 -37.0448352
5.348996931 -17.14796641 -36.41011022
35.18487408 -1.745501228 -24.56972838
30.90844749 -5.027849825 -27.237703
35.62913851 -4.587407789 -23.77225245
22.17791694 -10.94249988 -31.41204321
26.57377185 -8.07459746 -29.48846735
36.36165253 -10.38831564 -22.0794832
31.31114427 -7.82717821 -26.50011265
36.02056931 -7.480259154 -22.94109886
33.47205264 -6.244519831 -25.20010307
16.93213531 -37.70935906 -27.39677043
18.15337088 -29.49120394 -29.37277109
14.74002693 -35.48638146 -29.25386689
20.22164378 -35.87765411 -26.2017076
19.682815 -15.50771626 -31.84746366
19.03200702 -22.18401885 -30.79443423
17.36662902 -16.89753967 -32.6493636
10.5176504 -30.89218109 -32.34705907
16.04876087 -27.48171255 -30.93703997
12.58712975 -33.19942595 -30.91077245
11.2503202 -26.93441182 -33.04098436
15.45213419 -31.34424859 -30.1708427
26.34907213 -31.93895163 -23.67910954
21.15923295 -27.82374739 -28.23133619
23.37431344 -33.93703526 -24.9525851
20.73288793 -31.70833372 -27.30632719
12.53978823 -19.65683727 -34.06017853
16.57066751 -23.71093383 -31.60957013
14.97481066 -18.28660338 -33.39348561
11.92287991 -23.18522934 -33.60599545
16.99891829 -20.24454153 -32.1660506
13.98344909 -25.33678878 -32.35353859
2.539382456 -1.569424669 -37.93085609
7.59106571 -4.691536619 -37.17043932
2.546631285 -4.213948132 -37.85615745
17.49985218 -10.81550345 -33.57095887
12.57828596 -7.773808242 -35.69815987
15.21312577 -12.12849765 -34.28616183
2.586803501 -9.611134166 -37.5639749
7.630681618 -7.37839773 -36.98002439
2.560684966 -6.904778173 -37.73428338
5.187237142 -11.34445579 -37.08668759
5.103586762 -5.80417182 -37.51104823
10.46052937 -14.67634212 -35.51386998
10.22713892 -8.999964096 -36.24101895
12.85687218 -13.42460559 -34.93935323
7.826080353 -13.04196697 -36.39852168
12.71962456 -10.56142732 -35.35077055
7.740428787 -10.16861925 -36.71787721
37.15300102 -22.96181741 -18.09118002
32.18994215 -19.89447834 -23.18932954
37.0511316 -19.70798773 -19.17565603
34.6717457 -25.32102406 -19.54196026
22.38430533 -13.83426151 -30.81012082
27.270182 -16.85389936 -27.38013708
24.61998133 -12.40516986 -29.86525003
22.13676045 -17.08444698 -30.31157537
36.64653635 -13.49199637 -21.14947816
32.08023213 -16.81740239 -24.06398626
36.87972515 -16.53816279 -20.19570267
34.1401651 -12.11239492 -23.55376018
34.55275593 -18.26022977 -21.74667668
29.32965435 -29.75930312 -22.30443585
29.66886865 -21.99610052 -24.47629369
32.04605653 -27.5971646 -20.95371219
26.69508914 -27.86600989 -24.80049956
32.15237354 -23.6403926 -22.1451182
29.04497139 -9.443976172 -27.73861184
29.53440342 -15.32113539 -26.2357351
26.85084264 -10.93389177 -28.83889632
31.59442378 -10.75777223 -25.75520184
27.08246347 -13.87040674 -28.13575596
31.85050315 -13.76603329 -24.94285033
21.54154887 -23.97048859 -29.05575847
27.07595316 -20.29327965 -26.68504515
21.85724289 -20.47475419 -29.72718136
24.0820884 -25.92179625 -27.05879823
24.61521924 -18.68960913 -28.58339684
26.93262233 -23.96979298 -25.80092222
2.805273403 21.59910501 -36.68184035
8.299506032 19.48820585 -36.66195626
4.677078503 24.23693206 -36.32558637
2.731185637 18.48118436 -37.05352128
18.53419385 14.34837183 -34.67091506
13.55803625 17.0433056 -35.95597497
8.807762095 29.82002983 -35.23378442
10.32845188 21.95224784 -36.15211467
6.68772642 26.98868762 -35.84774119
7.54511825 23.14001428 -36.33289292
2.622931381 12.58109624 -37.57906568
8.096187906 16.37894382 -36.9499941
2.673460309 15.46511134 -37.35072774
5.44895143 17.46840338 -37.09049093
35.49148733 1.760712134 -24.78383756
31.69565681 5.155904469 -27.93142188
36.45066129 4.693182448 -24.32038377
33.36558913 0 -26.20583154
23.21794924 11.45564786 -32.88510939
27.60658633 8.388424236 -30.63456419
38.27497165 10.93493995 -23.24128676
32.57325988 8.142682611 -27.5683012
37.3813238 7.762842035 -23.80774822
34.54520475 6.444726247 -26.00804706
29.04435956 -3.300835732 -28.70238828
29.515413 3.354370051 -29.16789549
31.20079563 -1.692137612 -27.51595057
31.46421074 1.706423613 -27.74825609
18.99240286 42.29775666 -30.73035336
20.09918923 32.65229871 -32.52117132
16.23031612 39.07422907 -32.21157664
23.06439958 40.92132962 -29.88513992
20.88187347 16.45243167 -33.78758102
20.65476596 24.07553323 -33.42011335
18.39707548 17.90015278 -34.58660894
11.19084019 32.86945739 -34.41745589
17.47546965 29.92479217 -33.68729259
13.61500153 35.91050889 -33.43496272
11.93543938 28.57465687 -35.05310595
16.93819415 34.35868219 -33.07242772
30.58937722 37.07882519 -27.48974273
23.64788477 31.09624879 -31.55177632
26.97848235 39.16990798 -28.80011335
23.4310658 35.83485601 -30.85997239
13.17123061 20.64665943 -35.77528249
17.8918388 25.6013951 -34.12978584
15.81035187 19.30693086 -35.25672343
12.59289789 24.48814612 -35.49451744
18.18648925 21.6588568 -34.4132211
14.9870788 27.15527818 -34.67563897
2.541460947 1.570709247 -37.96190259
7.646272342 4.725656194 -37.44076431
2.55224756 4.223241464 -37.93964444
5.084042111 0 -37.73508267
18.16033088 11.22370173 -34.83799262
12.82695527 7.927494328 -36.40390283
15.78040199 12.5807524 -35.56464494
2.59998325 9.660102838 -37.75536313
7.718680796 7.463487499 -37.40648848
2.569982805 6.929849399 -37.87129643
5.249876255 11.48144715 -37.5345324
5.13462445 5.839470147 -37.73917332
10.14990803 -3.115520841 -36.72271223
10.2147051 3.135410345 -36.95715025
7.638567861 -1.572597498 -37.31651301
7.657202664 1.576433957 -37.40754917
10.7895177 15.13791965 -36.63079709
10.41926449 9.169036141 -36.92183757
13.30940235 13.89711857 -36.16913222
7.989973937 13.31509153 -37.16077863
13.06682864 10.84971969 -36.31573077
7.865420737 10.33282146 -37.31079515
41.49211411 25.64353678 -20.2040558
35.64796034 22.03165112 -25.6804531
40.76265074 21.68219393 -21.09653702
39.38031514 28.75972602 -22.19584096
23.73562614 14.6694237 -32.67010069
29.60105163 18.29445601 -29.72040492
26.04585657 13.12361982 -31.59490692
23.78796462 18.35879379 -32.57254755
39.15616443 14.41595526 -22.59783671
34.96744012 18.33096184 -26.22973534
39.97813354 17.92759783 -21.89242178
36.30476878 12.88036235 -25.04714945
37.90127973 20.0298372 -23.85415732
34.01541586 34.51370614 -25.86783506
33.1601154 24.58446395 -27.35651072
36.88309576 31.76268705 -24.11647039
30.49549794 31.83311518 -28.33118778
36.29026583 26.68282422 -24.99511351
30.43601636 9.896274621 -29.0670916
31.90263038 16.54966624 -28.33945712
28.2920661 11.52077023 -30.38682889
33.37038471 11.36247967 -27.20293301
28.9591085 14.83153902 -30.08538756
34.1712329 14.7690706 -26.76026636
23.7656808 26.44540483 -32.05572103
29.87990123 22.39482348 -29.44851133
23.80362563 22.29802661 -32.37438041
27.03943831 29.10506759 -30.38169669
26.80883543 20.35515713 -31.13064215
30.2408461 26.91408254 -28.9701355
20.17047918 -9.210989232 -32.63652089
20.5298675 -3.073311768 -33.21802341
22.38341895 -7.822101672 -31.78030887
17.7213615 -7.733109244 -33.88269313
20.90143196 9.544783887 -33.81922732
20.77504872 3.110015283 -33.61473495
23.12935621 8.082776643 -32.83940162
18.20022011 7.942069824 -34.79825593
26.77371791 -4.895248066 -29.84532371
22.73649564 -1.609885283 -32.35678874
24.59625686 -6.378817495 -30.8460613
27.03334392 -1.647390509 -30.11101666
22.57032603 -4.705734089 -32.09532047
12.76486706 -4.716614518 -35.91727398
18.03701567 -1.604680063 -34.37735818
15.23856449 -6.225021133 -34.98396231
12.81831631 -1.584431031 -36.12245103
17.90013985 -4.651172783 -34.15278356
27.39701054 5.009209529 -30.54012338
22.88947491 1.620717166 -32.57449678
25.30832044 6.563484766 -31.73905721
27.24247301 1.66013467 -30.34395453
23.01901024 4.79928119 -32.73335571
24.96900946 0 -31.40871827
12.91892374 4.773538413 -36.35075251
18.13715961 1.613589463 -34.5682259
15.52613433 6.342494686 -35.64415129
12.86997535 1.590816441 -36.26802798
18.19017766 4.726536215 -34.70616463
15.49392122 0 -35.39897198
43.15038153 61.79314304 3.065522043
45.60529322 51.75138341 8.418351781
41.26582115 61.84797427 7.963197841
45.43651352 57.85033151 0
44.7818381 31.61742391 15.59991673
45.68863031 41.17268027 12.51056197
35.61407622 58.65113114 16.75629188
43.37488123 51.24948644 12.81137668
38.65695499 60.69654881 12.60462906
42.7144019 56.735431 10.58451741
47.43886972 48.00407465 -5.45557097
47.43886972 48.00407465 5.45557097
46.80232123 53.06993322 -2.878183977
46.80232123 53.06993322 2.878183977
38.26785712 2.926565318 22.53298789
40.13213633 9.08508278 21.33283146
43.44095622 23.22243593 17.97780622
41.86564594 15.78641507 19.84451816
22.50192567 46.21114082 28.56005568
30.65037278 42.54688455 26.29542076
25.62611338 49.51468141 26.33751498
42.27601488 30.71455742 18.98264044
37.37298617 37.22290111 23.00501805
42.83623618 35.31285805 17.79294617
32.22143858 55.83135959 20.55518955
33.93554795 45.24022928 23.71626043
28.90478874 52.78353923 23.66999105
36.74721815 53.26351652 18.89705997
29.97291045 47.62321501 25.16762629
43.4836688 45.53154727 14.80458843
37.52538444 42.24352162 21.91406086
43.26724823 40.28455392 16.40421339
40.55499703 49.74963003 16.93954579
40.43605782 38.92229021 19.9342278
37.32745016 47.66488405 20.60113078
46.49962433 28.7383483 -13.12356609
49.68478225 30.70688416 -4.596806502
47.03098417 33.12473224 -11.57575722
46.49962433 28.7383483 13.12356609
49.68478225 30.70688416 4.596806502
47.03098417 33.12473224 11.57575722
47.59907525 42.7002979 -7.807229143
49.67320275 34.90440807 -2.471449151
47.42043931 37.81245502 -9.806319352
48.65867873 43.6852336 -2.662143441
48.73813549 34.27401851 -7.145861211
47.59907525 42.7002979 7.807229143
49.67320275 34.90440807 2.471449151
47.42043931 37.81245502 9.806319352
48.65867873 43.6852336 2.662143441
48.73813549 34.27401851 7.145861211
49.37082359 39.24835616 0
34.89937588 -49.97735939 2.479347859
37.77344884 -42.86406457 6.972659484
33.36007967 -49.9990862 6.437601555
37.09867908 -47.23449747 0
39.61819591 -27.97172577 13.80114313
39.16930723 -35.29773933 10.72542648
29.10567112 -47.93274781 13.69411122
35.69155955 -42.17127622 10.54200036
31.3505413 -49.22450982 10.22227292
34.7140714 -46.10898701 8.602056375
40.17422803 -40.65287922 -4.620121716
40.17422803 -40.65287922 4.620121716
38.87135722 -44.07688075 -2.390456597
38.87135722 -44.07688075 2.390456597
37.74160318 -2.886319622 22.22311756
38.51994002 -8.720114995 20.47584463
39.52917061 -21.13129434 16.35893478
39.12807224 -14.75414926 18.54689501
19.61392467 -40.28018972 24.89452632
26.02883923 -36.13156765 22.33053688
21.92365262 -42.36080043 22.53227092
37.16374833 -27.0003709 16.68714693
31.85174637 -31.7238339 19.6064076
37.05522774 -30.54717487 15.39168077
26.6657574 -46.20481133 17.01102502
28.39186031 -37.84981672 19.84198853
24.29366361 -44.36308315 19.89396309
30.10239042 -43.63212373 15.47999292
25.25305944 -40.12396066 21.20446607
36.3746428 -38.08771922 12.38422679
31.48161781 -35.43986084 18.38462414
36.80624118 -34.26894632 13.95460675
33.35373316 -40.91569489 13.93162696
34.32799368 -33.04288807 16.92306528
30.87901964 -39.43063038 17.04222279
42.01202211 -25.9648576 -11.85703233
45.7357703 -28.26626055 -4.231446264
41.92957133 -29.53171932 -10.32014419
42.01202211 -25.9648576 11.85703233
45.7357703 -28.26626055 4.231446264
41.92957133 -29.53171932 10.32014419
41.11181025 -36.88068593 -6.743184009
45.04188322 -31.65006855 -2.241021675
41.64937328 -33.21068038 -8.612890583
42.26655803 -37.94645702 -2.312426954
43.8776664 -30.85600086 -6.433231621
41.11181025 -36.88068593 6.743184009
45.04188322 -31.65006855 2.241021675
41.64937328 -33.21068038 8.612890583
42.26655803 -37.94645702 2.312426954
43.8776664 -30.85600086 6.433231621
43.91211817 -34.90884551 0
2.772534565 -21.34703347 36.2537463
8.049585952 -18.90136442 35.55796778
4.577985646 -23.72342627 35.55595931
2.704221862 -18.29872789 36.68770843
17.67596966 -13.68397175 33.06548142
12.99451016 -16.33491781 34.46150116
8.408902347 -28.46962896 33.63822153
9.907325854 -21.05718023 34.6780703
6.470329654 -26.11137102 34.68244487
7.303612974 -22.39934524 35.16994424
2.605609981 -12.49801279 37.33089983
7.892476334 -15.96682636 36.02027984
2.651565379 -15.33845618 37.0448352
5.348996931 -17.14796641 36.41011022
35.18487408 -1.745501228 24.56972838
30.90844749 -5.027849825 27.237703
35.62913851 -4.587407789 23.77225245
22.17791694 -10.94249988 31.41204321
26.57377185 -8.07459746 29.48846735
36.36165253 -10.38831564 22.0794832
31.31114427 -7.82717821 26.50011265
36.02056931 -7.480259154 22.94109886
33.47205264 -6.244519831 25.20010307
16.93213531 -37.70935906 27.39677043
18.15337088 -29.49120394 29.37277109
14.74002693 -35.48638146 29.25386689
20.22164378 -35.87765411 26.2017076
19.682815 -15.50771626 31.84746366
19.03200702 -22.18401885 30.79443423
17.36662902 -16.89753967 32.6493636
10.5176504 -30.89218109 32.34705907
16.04876087 -27.48171255 30.93703997
12.58712975 -33.19942595 30.91077245
11.2503202 -26.93441182 33.04098436
15.45213419 -31.34424859 30.1708427
26.34907213 -31.93895163 23.67910954
21.15923295 -27.82374739 28.23133619
23.37431344 -33.93703526 24.9525851
20.73288793 -31.70833372 27.30632719
12.53978823 -19.65683727 34.06017853
16.57066751 -23.71093383 31.60957013
14.97481066 -18.28660338 33.39348561
11.92287991 -23.18522934 33.60599545
16.99891829 -20.24454153 32.1660506
13.98344909 -25.33678878 32.35353859
2.539382456 -1.569424669 37.93085609
7.59106571 -4.691536619 37.17043932
2.546631285 -4.213948132 37.85615745
17.49985218 -10.81550345 33.57095887
12.57828596 -7.773808242 35.69815987
15.21312577 -12.12849765 34.28616183
2.586803501 -9.611134166 37.5639749
7.630681618 -7.37839773 36.98002439
2.560684966 -6.904778173 37.73428338
5.187237142 -11.34445579 37.08668759
5.103586762 -5.80417182 37.51104823
10.46052937 -14.67634212 35.51386998
10.22713892 -8.999964096 36.24101895
12.85687218 -13.42460559 34.93935323
7.826080353 -13.04196697 36.39852168
12.71962456 -10.56142732 35.35077055
7.740428787 -10.16861925 36.71787721
37.15300102 -22.96181741 18.09118002
32.18994215 -19.89447834 23.18932954
37.0511316 -19.70798773 19.17565603
34.6717457 -25.32102406 19.54196026
22.38430533 -13.83426151 30.81012082
27.270182 -16.85389936 27.38013708
24.61998133 -12.40516986 29.86525003
22.13676045 -17.08444698 30.31157537
36.64653635 -13.49199637 21.14947816
32.08023213 -16.81740239 24.06398626
36.87972515 -16.53816279 20.19570267
34.1401651 -12.11239492 23.55376018
34.55275593 -18.26022977 21.74667668
29.32965435 -29.75930312 22.30443585
29.66886865 -21.99610052 24.47629369
32.04605653 -27.5971646 20.95371219
26.69508914 -27.86600989 24.80049956
32.15237354 -23.6403926 22.1451182
29.04497139 -9.443976172 27.73861184
29.53440342 -15.32113539 26.2357351
26.85084264 -10.93389177 28.83889632
31.59442378 -10.75777223 25.75520184
27.08246347 -13.87040674 28.13575596
31.85050315 -13.76603329 24.94285033
21.54154887 -23.97048859 29.05575847
27.07595316 -20.29327965 26.68504515
21.85724289 -20.47475419 29.72718136
24.0820884 -25.92179625 27.05879823
24.61521924 -18.68960913 28.58339684
26.93262233 -23.96979298 25.80092222
2.805273403 21.59910501 36.68184035
8.299506032 19.48820585 36.66195626
4.677078503 24.23693206 36.32558637
2.731185637 18.48118436 37.05352128
18.53419385 14.34837183 34.67091506
13.55803625 17.0433056 35.95597497
8.807762095 29.82002983 35.23378442
10.32845188 21.95224784 36.15211467
6.68772642 26.98868762 35.84774119
7.54511825 23.14001428 36.33289292
2.622931381 12.58109624 37.57906568
8.096187906 16.37894382 36.9499941
2.673460309 15.46511134 37.35072774
5.44895143 17.46840338 37.09049093
35.49148733 1.760712134 24.78383756
31.69565681 5.155904469 27.93142188
36.45066129 4.693182448 24.32038377
33.36558913 0 26.20583154
23.21794924 11.45564786 32.88510939
27.60658633 8.388424236 30.63456419
38.27497165 10.93493995 23.24128676
32.57325988 8.142682611 27.5683012
37.3813238 7.762842035 23.80774822
34.54520475 6.444726247 26.00804706
29.04435956 -3.300835732 28.70238828
29.515413 3.354370051 29.16789549
31.20079563 -1.692137612 27.51595057
31.46421074 1.706423613 27.74825609
18.99240286 42.29775666 30.73035336
20.09918923 32.65229871 32.52117132
16.23031612 39.07422907 32.21157664
23.06439958 40.92132962 29.88513992
20.88187347 16.45243167 33.78758102
20.65476596 24.07553323 33.42011335
18.39707548 17.90015278 34.58660894
11.19084019 32.86945739 34.41745589
17.47546965 29.92479217 33.68729259
13.61500153 35.91050889 33.43496272
11.93543938 28.57465687 35.05310595
16.93819415 34.35868219 33.07242772
30.58937722 37.07882519 27.48974273
23.64788477 31.09624879 31.55177632
26.97848235 39.16990798 28.80011335
23.4310658 35.83485601 30.85997239
13.17123061 20.64665943 35.77528249
17.8918388 25.6013951 34.12978584
15.81035187 19.30693086 35.25672343
12.59289789 24.48814612 35.49451744
18.18648925 21.6588568 34.4132211
14.9870788 27.15527818 34.67563897
2.541460947 1.570709247 37.96190259
7.646272342 4.725656194 37.44076431
2.55224756 4.223241464 37.93964444
5.084042111 0 37.73508267
18.16033088 11.22370173 34.83799262
12.82695527 7.927494328 36.40390283
15.78040199 12.5807524 35.56464494
2.59998325 9.660102838 37.75536313
7.718680796 7.463487499 37.40648848
2.569982805 6.929849399 37.87129643
5.249876255 11.48144715 37.5345324
5.13462445 5.839470147 37.73917332
10.14990803 -3.115520841 36.72271223
10.2147051 3.135410345 36.95715025
7.638567861 -1.572597498 37.31651301
7.657202664 1.576433957 37.40754917
10.7895177 15.13791965 36.63079709
10.41926449 9.169036141 36.92183757
13.30940235 13.89711857 36.16913222
7.989973937 13.31509153 37.16077863
13.06682864 10.84971969 36.31573077
7.865420737 10.33282146 37.31079515
41.49211411 25.64353678 20.2040558
35.64796034 22.03165112 25.6804531
40.76265074 21.68219393 21.09653702
39.38031514 28.75972602 22.19584096
23.73562614 14.6694237 32.67010069
29.60105163 18.29445601 29.72040492
26.04585657 13.12361982 31.59490692
23.78796462 18.35879379 32.57254755
39.15616443 14.41595526 22.59783671
34.96744012 18.33096184 26.22973534
39.97813354 17.92759783 21.89242178
36.30476878 12.88036235 25.04714945
37.90127973 20.0298372 23.85415732
34.01541586 34.51370614 25.86783506
33.1601154 24.58446395 27.35651072
36.88309576 31.76268705 24.11647039
30.49549794 31.83311518 28.33118778
36.29026583 26.68282422 24.99511351
30.43601636 9.896274621 29.0670916
31.90263038 16.54966624 28.33945712
28.2920661 11.52077023 30.38682889
33.37038471 11.36247967 27.20293301
28.9591085 14.83153902 30.08538756
34.1712329 14.7690706 26.76026636
23.7656808 26.44540483 32.05572103
29.87990123 22.39482348 29.44851133
23.80362563 22.29802661 32.37438041
27.03943831 29.10506759 30.38169669
26.80883543 20.35515713 31.13064215
30.2408461 26.91408254 28.9701355
20.17047918 -9.210989232 32.63652089
20.5298675 -3.073311768 33.21802341
22.38341895 -7.822101672 31.78030887
17.7213615 -7.733109244 33.88269313
20.90143196 9.544783887 33.81922732
20.77504872 3.110015283 33.61473495
23.12935621 8.082776643 32.83940162
18.20022011 7.942069824 34.79825593
26.77371791 -4.895248066 29.84532371
22.73649564 -1.609885283 32.35678874
24.59625686 -6.378817495 30.8460613
27.03334392 -1.647390509 30.11101666
22.57032603 -4.705734089 32.09532047
12.76486706 -4.716614518 35.91727398
18.03701567 -1.604680063 34.37735818
15.23856449 -6.225021133 34.98396231
12.81831631 -1.584431031 36.12245103
17.90013985 -4.651172783 34.15278356
27.39701054 5.009209529 30.54012338
22.88947491 1.620717166 32.57449678
25.30832044 6.563484766 31.73905721
27.24247301 1.66013467 30.34395453
23.01901024 4.79928119 32.73335571
24.96900946 0 31.40871827
12.91892374 4.773538413 36.35075251
18.13715961 1.613589463 34.5682259
15.52613433 6.342494686 35.64415129
12.86997535 1.590816441 36.26802798
18.19017766 4.726536215 34.70616463
15.49392122 0 35.39897198
39.64083741 0 -20.85851826
44.12077238 0 -15.90483199
40.61416991 2.993638221 -20.25712904
40.07820714 -2.95413283 -19.98980689
50.63186332 0 -3.509165306
48.05295115 0 -10.12113597
42.47209851 9.306147367 -18.82674497
45.04610555 3.144113396 -15.08098669
41.56594697 6.106439158 -19.57619623
42.89591372 3.070369165 -17.7611019
40.85946425 -8.952799815 -18.11190735
44.5499916 -3.109485797 -14.91489269
40.48914397 -5.948246395 -19.06905737
42.36898281 -3.032652929 -17.54292556
39.64083741 0 20.85851826
44.12077238 0 15.90483199
40.61416991 2.993638221 20.25712904
40.07820714 -2.95413283 19.98980689
50.63186332 0 3.509165306
48.05295115 0 10.12113597
42.47209851 9.306147367 18.82674497
45.04610555 3.144113396 15.08098669
41.56594697 6.106439158 19.57619623
42.89591372 3.070369165 17.7611019
40.85946425 -8.952799815 18.11190735
44.5499916 -3.109485797 14.91489269
40.48914397 -5.948246395 19.06905737
42.36898281 -3.032652929 17.54292556
45.73560097 23.84103056 -14.73456721
48.26304085 17.00553561 -10.50999901
45.0118158 19.97220973 -15.92262514
47.83798207 25.02027127 -10.91815045
50.96744325 3.412151599 -2.108825663
50.05013382 10.22139801 -6.317171384
50.19916609 3.376960988 -5.587906867
43.39392367 12.7815812 -17.93282652
47.5889029 13.42948777 -11.81805672
44.22185524 16.27261778 -16.99118358
44.74115832 9.619838498 -16.03122001
46.39047464 16.69184041 -13.85965903
50.33504992 26.40965252 -2.349559575
49.85585766 17.71858844 -6.547013067
49.44914039 25.91725875 -6.734341158
48.95901587 21.32591826 -8.711732129
47.12126399 3.244956131 -12.05646611
48.66015116 10.04082953 -9.708861875
48.85140786 3.315103786 -8.939036456
45.98766166 6.4321977 -14.06717689
49.5247885 6.738122952 -7.663085822
46.84379112 9.875054247 -12.97288166
41.93252798 -21.85856662 -13.50933712
45.98690171 -16.20353548 -10.01433567
41.76057784 -18.52960171 -14.77252172
44.22659688 -23.13144082 -10.09391738
50.70212474 -3.394389142 -2.097847861
