0.47625835 -11.30124 2.3133267
3.8534319 -9.3245496 2.7465248
2.5299356 -10.187534 2.8749006
3.6052761 -9.383219 3.4528071
3.470313 -9.6852158 2.0824273
2.9344832 -9.8221802 3.5341364
2.8024034 -10.119201 2.1332104
-3.1145005 -11.035347 6.8202194
-0.99523344 -10.757024 6.6482063
-2.6317863 -10.692648 7.5310162
-2.5848591 -11.325585 5.9235195
2.6549947 -9.4072186 5.8139808
0.94160578 -10.177387 6.289971
2.3012143 -9.3495719 6.5850645
2.2495329 -9.8563503 5.1550786
-1.6191803 -9.8718102 8.8558283
-0.51553315 -10.361606 7.2809022
-2.1304161 -10.302058 8.2147296
-0.52988073 -9.6851641 8.6952352
-1.5497813 -10.570238 7.4332865
-1.5283105 -11.638167 4.1361617
-0.51019821 -10.930071 5.7347588
-2.0506751 -11.524578 5.0199579
-0.49892844 -11.374757 4.0364159
-1.5208973 -11.167694 5.8532063
1.4938004 -9.1073948 8.1700845
0.50109573 -10.071431 7.0770017
1.9130404 -9.2508933 7.3765446
0.51560089 -9.4241572 8.460906
1.4271372 -9.733747 6.8450428
0 -9.9154239 7.8824711
1.3982788 -10.647969 3.7842489
0.4953095 -10.611107 5.5674059
1.8278935 -10.272569 4.4745989
0.48412231 -11.037201 3.9166317
1.3966346 -10.255255 5.3749789
0 -11.016128 4.8216944
-5.0471614 8.571613 0.65552103
-4.671469 8.7881456 1.9894538
-4.5011002 9.0244006 0.6651814
-3.7192528 8.9870753 4.8042631
-4.2333254 8.9309754 3.3676319
-3.3130888 9.8960202 0.69071919
-4.0953901 9.2389742 2.0243703
-3.9206071 9.4688959 0.67775701
-4.3051937 9.1411758 1.342927
-0.54771493 7.709652 11.040543
-1.5410681 8.3485298 9.4736364
-3.1121633 8.9339191 6.3076354
-2.3923974 8.7370464 7.8734603
-0.4727231 11.425073 0.76488204
-1.3763307 10.904491 2.2269499
-1.2341629 11.087148 0.74584636
-3.0385894 9.4316792 4.9165409
-2.2293721 10.237515 3.6071998
-3.3324037 9.4204027 4.1799304
-2.641751 10.324969 0.71101813
-2.1009677 10.529906 2.1728044
-1.9609198 10.716333 0.72722073
-3.0651441 10.020405 1.401533
-1.6750943 10.825755 1.4729042
-3.8534319 9.3245496 2.7465248
-2.5299356 10.187534 2.8749006
-3.6052761 9.383219 3.4528071
-3.470313 9.6852158 2.0824273
-2.9344832 9.8221802 3.5341364
-2.8024034 10.119201 2.1332104
6.9552164 11.81207 0.90333759
6.2946566 11.841748 2.680726
6.0391193 12.108025 0.89247289
4.6701446 11.284778 6.0325567
5.5287828 11.66398 4.3981748
4.1373996 12.358193 0.8625731
5.3501093 12.069552 2.6445838
5.0879973 12.288331 0.87956424
5.7056098 12.114666 1.7797614
0.56082546 7.8941963 11.304818
1.6625362 9.0065671 10.220355
0 8.3021969 10.57046
3.7310922 10.710645 7.5620611
2.7241461 9.9485941 8.9652564
-1.023208 8.897296 9.0033018
1.0783286 9.3765972 9.4883136
-0.53111513 8.6364948 9.7930657
0.54496833 8.8617625 10.0485
0.4873436 11.778431 0.7885385
1.5054963 11.927853 2.4359442
1.3384279 12.023817 0.80885725
0 11.562537 1.5578188
3.6676353 11.384217 5.9343586
2.573827 11.819289 4.1645396
4.1128932 11.626776 5.158921
3.1540622 12.327277 0.84890494
2.4132906 12.095247 2.4958064
2.2346028 12.211998 0.82871797
3.7618221 12.297947 1.7200881
1.8709866 12.091763 1.6451516
-0.93342916 11.00235 3.0409747
0.99075925 11.678101 3.2277477
-0.47625835 11.30124 2.3133267
0.49093513 11.649508 2.3846161
4.9467663 11.970205 3.5257964
2.9857838 12.023142 3.3929052
4.542884 11.82347 4.3507631
4.36455 12.180921 2.6190313
3.5466173 11.87109 4.2713583
3.3744698 12.184876 2.5686716
-2.6549947 9.4072186 5.8139808
-0.94160578 10.177387 6.289971
-2.3012143 9.3495719 6.5850645
-2.2495329 9.8563503 5.1550786
3.1145005 11.035347 6.8202194
0.99523344 10.757024 6.6482063
2.6317863 10.692648 7.5310162
2.5848591 11.325585 5.9235195
-1.4938004 9.1073948 8.1700845
-0.50109573 10.071431 7.0770017
-1.9130404 9.2508933 7.3765446
-0.51560089 9.4241572 8.460906
-1.4271372 9.733747 6.8450428
-1.3982788 10.647969 3.7842489
-0.4953095 10.611107 5.5674059
-1.8278935 10.272569 4.4745989
-0.48412231 11.037201 3.9166317
-1.3966346 10.255255 5.3749789
1.6191803 9.8718102 8.8558283
0.51553315 10.361606 7.2809022
2.1304161 10.302058 8.2147296
0.52988073 9.6851641 8.6952352
1.5497813 10.570238 7.4332865
0 9.9154239 7.8824711
1.5283105 11.638167 4.1361617
0.51019821 10.930071 5.7347588
2.0506751 11.524578 5.0199579
0.49892844 11.374757 4.0364159
1.5208973 11.167694 5.8532063
0 11.016128 4.8216944
0 -6.5601163 12.467257
0 -4.9301047 13.676349
0 -1.0424507 15.040962
0 -3.0680301 14.566339
0 6.5601163 12.467257
0 4.9301047 13.676349
0 1.0424507 15.040962
0 3.0680301 14.566339
-6.9552164 -11.81207 -0.90333759
-6.2946566 -11.841748 -2.680726
-6.0391193 -12.108025 -0.89247289
-4.6701446 -11.284778 -6.0325567
-5.5287828 -11.66398 -4.3981748
-4.1373996 -12.358193 -0.8625731
-5.3501093 -12.069552 -2.6445838
-5.0879973 -12.288331 -0.87956424
-5.7056098 -12.114666 -1.7797614
-0.56082546 -7.8941963 -11.304818
-1.6625362 -9.0065671 -10.220355
-3.7310922 -10.710645 -7.5620611
-2.7241461 -9.9485941 -8.9652564
-0.4873436 -11.778431 -0.7885385
-1.5054963 -11.927853 -2.4359442
-1.3384279 -12.023817 -0.80885725
-3.6676353 -11.384217 -5.9343586
-2.573827 -11.819289 -4.1645396
-4.1128932 -11.626776 -5.158921
-3.1540622 -12.327277 -0.84890494
-2.4132906 -12.095247 -2.4958064
-2.2346028 -12.211998 -0.82871797
-3.7618221 -12.297947 -1.7200881
-1.8709866 -12.091763 -1.6451516
-4.9467663 -11.970205 -3.5257964
-2.9857838 -12.023142 -3.3929052
-4.542884 -11.82347 -4.3507631
-4.36455 -12.180921 -2.6190313
-3.5466173 -11.87109 -4.2713583
-3.3744698 -12.184876 -2.5686716
5.0471614 -8.571613 -0.65552103
4.671469 -8.7881456 -1.9894538
4.5011002 -9.0244006 -0.6651814
3.7192528 -8.9870753 -4.8042631
4.2333254 -8.9309754 -3.3676319
3.3130888 -9.8960202 -0.69071919
4.0953901 -9.2389742 -2.0243703
3.9206071 -9.4688959 -0.67775701
4.3051937 -9.1411758 -1.342927
0.54771493 -7.709652 -11.040543
1.5410681 -8.3485298 -9.4736364
0 -8.3021969 -10.57046
3.1121633 -8.9339191 -6.3076354
2.3923974 -8.7370464 -7.8734603
-1.0783286 -9.3765972 -9.4883136
1.023208 -8.897296 -9.0033018
-0.54496833 -8.8617625 -10.0485
0.53111513 -8.6364948 -9.7930657
0.4727231 -11.425073 -0.76488204
1.3763307 -10.904491 -2.2269499
1.2341629 -11.087148 -0.74584636
0 -11.562537 -1.5578188
3.0385894 -9.4316792 -4.9165409
2.2293721 -10.237515 -3.6071998
3.3324037 -9.4204027 -4.1799304
2.641751 -10.324969 -0.71101813
2.1009677 -10.529906 -2.1728044
1.9609198 -10.716333 -0.72722073
3.0651441 -10.020405 -1.401533
1.6750943 -10.825755 -1.4729042
-0.99075925 -11.678101 -3.2277477
0.93342916 -11.00235 -3.0409747
-0.49093513 -11.649508 -2.3846161
0.47625835 -11.30124 -2.3133267
3.8534319 -9.3245496 -2.7465248
2.5299356 -10.187534 -2.8749006
3.6052761 -9.383219 -3.4528071
3.470313 -9.6852158 -2.0824273
2.9344832 -9.8221802 -3.5341364
2.8024034 -10.119201 -2.1332104
-3.1145005 -11.035347 -6.8202194
-0.99523344 -10.757024 -6.6482063
-2.6317863 -10.692648 -7.5310162
-2.5848591 -11.325585 -5.9235195
2.6549947 -9.4072186 -5.8139808
0.94160578 -10.177387 -6.289971
2.3012143 -9.3495719 -6.5850645
2.2495329 -9.8563503 -5.1550786
-1.6191803 -9.8718102 -8.8558283
-0.51553315 -10.361606 -7.2809022
-2.1304161 -10.302058 -8.2147296
-0.52988073 -9.6851641 -8.6952352
-1.5497813 -10.570238 -7.4332865
-1.5283105 -11.638167 -4.1361617
-0.51019821 -10.930071 -5.7347588
-2.0506751 -11.524578 -5.0199579
-0.49892844 -11.374757 -4.0364159
-1.5208973 -11.167694 -5.8532063
1.4938004 -9.1073948 -8.1700845
0.50109573 -10.071431 -7.0770017
1.9130404 -9.2508933 -7.3765446
0.51560089 -9.4241572 -8.460906
1.4271372 -9.733747 -6.8450428
0 -9.9154239 -7.8824711
1.3982788 -10.647969 -3.7842489
0.4953095 -10.611107 -5.5674059
1.8278935 -10.272569 -4.4745989
0.48412231 -11.037201 -3.9166317
1.3966346 -10.255255 -5.3749789
0 -11.016128 -4.8216944
-5.0471614 8.571613 -0.65552103
-4.671469 8.7881456 -1.9894538
-4.5011002 9.0244006 -0.6651814
-3.7192528 8.9870753 -4.8042631
-4.2333254 8.9309754 -3.3676319
-3.3130888 9.8960202 -0.69071919
-4.0953901 9.2389742 -2.0243703
-3.9206071 9.4688959 -0.67775701
-4.3051937 9.1411758 -1.342927
-0.54771493 7.709652 -11.040543
-1.5410681 8.3485298 -9.4736364
-3.1121633 8.9339191 -6.3076354
-2.3923974 8.7370464 -7.8734603
-0.4727231 11.425073 -0.76488204
-1.3763307 10.904491 -2.2269499
-1.2341629 11.087148 -0.74584636
-3.0385894 9.4316792 -4.9165409
-2.2293721 10.237515 -3.6071998
-3.3324037 9.4204027 -4.1799304
-2.641751 10.324969 -0.71101813
-2.1009677 10.529906 -2.1728044
-1.9609198 10.716333 -0.72722073
-3.0651441 10.020405 -1.401533
-1.6750943 10.825755 -1.4729042
-3.8534319 9.3245496 -2.7465248
-2.5299356 10.187534 -2.8749006
-3.6052761 9.383219 -3.4528071
-3.470313 9.6852158 -2.0824273
-2.9344832 9.8221802 -3.5341364
-2.8024034 10.119201 -2.1332104
6.9552164 11.81207 -0.90333759
6.2946566 11.841748 -2.680726
6.0391193 12.108025 -0.89247289
4.6701446 11.284778 -6.0325567
5.5287828 11.66398 -4.3981748
4.1373996 12.358193 -0.8625731
5.3501093 12.069552 -2.6445838
5.0879973 12.288331 -0.87956424
5.7056098 12.114666 -1.7797614
0.56082546 7.8941963 -11.304818
1.6625362 9.0065671 -10.220355
0 8.3021969 -10.57046
3.7310922 10.710645 -7.5620611
2.7241461 9.9485941 -8.9652564
-1.023208 8.897296 -9.0033018
1.0783286 9.3765972 -9.4883136
-0.53111513 8.6364948 -9.7930657
0.54496833 8.8617625 -10.0485
0.4873436 11.778431 -0.7885385
1.5054963 11.927853 -2.4359442
1.3384279 12.023817 -0.80885725
0 11.562537 -1.5578188
3.6676353 11.384217 -5.9343586
2.573827 11.819289 -4.1645396
4.1128932 11.626776 -5.158921
3.1540622 12.327277 -0.84890494
2.4132906 12.095247 -2.4958064
2.2346028 12.211998 -0.82871797
3.7618221 12.297947 -1.7200881
1.8709866 12.091763 -1.6451516
-0.93342916 11.00235 -3.0409747
0.99075925 11.678101 -3.2277477
-0.47625835 11.30124 -2.3133267
0.49093513 11.649508 -2.3846161
4.9467663 11.970205 -3.5257964
2.9857838 12.023142 -3.3929052
4.542884 11.82347 -4.3507631
4.36455 12.180921 -2.6190313
3.5466173 11.87109 -4.2713583
3.3744698 12.184876 -2.5686716
-2.6549947 9.4072186 -5.8139808
-0.94160578 10.177387 -6.289971
-2.3012143 9.3495719 -6.5850645
-2.2495329 9.8563503 -5.1550786
3.1145005 11.035347 -6.8202194
0.99523344 10.757024 -6.6482063
2.6317863 10.692648 -7.5310162
2.5848591 11.325585 -5.9235195
-1.4938004 9.1073948 -8.1700845
-0.50109573 10.071431 -7.0770017
-1.9130404 9.2508933 -7.3765446
-0.51560089 9.4241572 -8.460906
-1.4271372 9.733747 -6.8450428
-1.3982788 10.647969 -3.7842489
-0.4953095 10.611107 -5.5674059
-1.8278935 10.272569 -4.4745989
-0.48412231 11.037201 -3.9166317
-1.3966346 10.255255 -5.3749789
1.6191803 9.8718102 -8.8558283
0.51553315 10.361606 -7.2809022
2.1304161 10.302058 -8.2147296
0.52988073 9.6851641 -8.6952352
1.5497813 10.570238 -7.4332865
0 9.9154239 -7.8824711
1.5283105 11.638167 -4.1361617
0.51019821 10.930071 -5.7347588
2.0506751 11.524578 -5.0199579
0.49892844 11.374757 -4.0364159
1.5208973 11.167694 -5.8532063
0 11.016128 -4.8216944
0 -6.5601163 -12.467257
0 -4.9301047 -13.676349
0 -1.0424507 -15.040962
0 -3.0680301 -14.566339
0 6.5601163 -12.467257
0 4.9301047 -13.676349
0 1.0424507 -15.040962
0 3.0680301 -14.566339
7.9283378 11.35371 -0.56325097
9.122721 10.352163 -1.6839772
7.6400347 11.450655 -1.474322
10.597711 7.4823261 -3.6917513
10.023265 9.0325464 -2.7445925
6.9713384 11.480766 -3.2799891
8.8406291 10.445624 -2.6112032
7.3195406 11.49265 -2.3866364
8.2750403 10.991327 -2.0505334
10.158235 0.77685926 -5.9814009
10.584893 2.3962002 -5.6265569
10.855038 5.8028288 -4.4922992
10.833754 4.085119 -5.1352519
5.3012134 10.886851 -6.7284441
7.3645464 10.222992 -6.3181563
5.7511542 11.112359 -5.9108109
10.335744 7.5091706 -4.6409227
9.0913861 9.0548762 -5.5962213
10.090732 8.3184851 -4.1914013
6.5840499 11.408443 -4.2001971
7.774353 10.364162 -5.4331988
6.1812676 11.287721 -5.06181
7.5979825 11.01295 -3.9072218
6.8000283 10.804397 -5.7098416
9.349995 9.7903362 -3.1833291
8.6841758 9.7760535 -5.0713819
9.7603885 9.0875411 -3.7005241
8.5326297 10.467148 -3.5640213
9.4485079 9.0947928 -4.6579395
8.1754821 10.439593 -4.5120729
5.6272887 -8.0585118 -0.3997781
6.3974865 -7.2596568 -1.180922
5.4609157 -8.1846566 -1.0538104
7.7545582 -5.4749685 -2.7013286
7.1040368 -6.4018605 -1.9452431
5.0900347 -8.3825364 -2.3948426
6.2348933 -7.3668232 -1.8415628
5.2817143 -8.2929923 -1.7221752
5.8582468 -7.7812199 -1.4516583
9.7461339 -0.74534347 -5.7387462
9.3647896 -2.119994 -4.9779926
8.3517986 -4.4646602 -3.456347
8.8923948 -3.3530842 -4.2150381
4.1502636 -8.5232001 -5.2676273
5.4531917 -7.5697715 -4.6783761
4.4117903 -8.5244449 -4.5342652
7.6004294 -5.5218976 -3.4127204
6.5941556 -6.5676743 -4.059046
7.2851452 -6.0056466 -3.0260407
4.8778069 -8.4519687 -3.1117247
5.6674533 -7.5554073 -3.960767
4.6546754 -8.499984 -3.8116911
5.489595 -7.9569325 -2.8229948
5.0628655 -8.0442616 -4.2511823
6.6086427 -6.919879 -2.2499995
6.2526141 -7.038767 -3.6513994
6.9529287 -6.4736179 -2.6361123
6.0679783 -7.4437109 -2.5345532
6.7830455 -6.5291149 -3.3439159
5.8788264 -7.5069038 -3.2445418
0.89835807 -6.9168767 -11.746957
2.601527 -6.1086882 -11.491897
1.4140442 -7.3276712 -10.982494
0.91613523 -6.1992359 -12.429048
5.5418754 -4.2902804 -10.366887
4.1538516 -5.2216532 -11.016034
2.3436293 -7.9347167 -9.3752454
3.0524563 -6.4877368 -10.684346
1.8995945 -7.6659182 -10.182261
2.2552899 -6.9167162 -10.860162
0.95126612 -4.5628226 -13.628909
2.6609394 -5.3831973 -12.144196
0.93508265 -5.4091535 -13.063975
1.8098171 -5.8019631 -12.319252
9.5461079 -0.47357688 -6.6660826
8.7582156 -1.4246912 -7.7180737
9.396859 -1.2098868 -6.2697139
6.7661797 -3.3384073 -9.5833855
7.8347928 -2.380648 -8.6941377
9.005841 -2.5729171 -5.468517
8.601287 -2.1501548 -7.2796789
9.2136669 -1.9133683 -5.8680817
9.0132482 -1.6815045 -6.7858039
3.809277 -8.483596 -6.1635397
4.543369 -7.3809665 -7.3513255
3.4946949 -8.4134226 -6.9357634
4.5217041 -8.0224999 -5.8588891
5.8793312 -4.6322134 -9.5129577
5.2373145 -6.1046995 -8.4741529
5.2433875 -5.1017586 -9.8575991
2.7742247 -8.1483837 -8.5321347
4.2292414 -7.242104 -8.1526674
3.1481145 -8.3033698 -7.7309642
3.1329514 -7.5006045 -9.2011423
3.8688094 -7.8477783 -7.5539882
5.8131405 -7.0463814 -5.2240925
5.245589 -6.8977899 -6.9988353
5.1927027 -7.5392561 -5.5433225
4.8894887 -7.4778555 -6.4397193
3.844581 -6.0266012 -10.44253
4.5891985 -6.5666746 -8.7541791
4.5611708 -5.5699083 -10.171307
3.4920633 -6.7906655 -9.8427783
4.923206 -5.8631995 -9.3158924
3.8858139 -7.0407555 -8.9906166
1.0034923 -0.62019232 -14.989203
2.8881327 -1.7849642 -14.142041
0.99663161 -1.6491409 -14.815118
5.6897097 -3.516434 -10.914893
4.4689409 -2.7619574 -12.683204
5.0073599 -3.9920628 -11.285199
0.973289 -3.6162048 -14.133506
2.8428533 -2.7488635 -13.777116
0.98568903 -2.6578686 -14.525125
1.8896879 -4.1327359 -13.510519
1.9566161 -2.2252068 -14.381008
3.5065291 -4.9197338 -11.904791
3.6723202 -3.2316711 -13.01328
4.2753449 -4.4641355 -11.618517
2.7414063 -4.568485 -12.750078
4.3828042 -3.6391536 -12.180824
2.8041807 -3.6838586 -13.302049
7.9571842 -4.9178103 -3.8746493
7.6630139 -4.736003 -5.5203627
8.2410432 -4.38352 -4.265117
7.4782303 -5.4614051 -4.2149386
6.5850923 -4.0698109 -9.0638279
7.2217506 -4.4632873 -7.2508691
7.1367615 -3.595971 -8.6572432
6.2748853 -4.8427567 -8.592118
8.7626096 -3.226092 -5.0570842
7.9267873 -4.1554554 -5.9460325
8.5118306 -3.8170035 -4.6611627
8.6048814 -3.0528769 -5.9366237
8.1001771 -4.2807322 -5.0980574
6.4213776 -6.5154441 -4.8832899
7.1330342 -5.2883357 -5.8846275
6.9638839 -5.9971014 -4.553422
6.1892162 -6.4606924 -5.7499584
7.3226405 -5.3840534 -5.0435076
8.1361711 -2.6454771 -7.7702295
7.7070192 -3.9980589 -6.8462299
7.6563869 -3.1177459 -8.2232707
8.3975843 -2.8593431 -6.8455586
7.4491095 -3.8150953 -7.7388206
8.1698599 -3.5310765 -6.3980023
5.6099658 -6.2425234 -7.5668567
6.8903866 -5.1643073 -6.790907
5.9469524 -5.5708028 -8.0882175
5.9188225 -6.3709803 -6.6504292
6.6112713 -5.0197431 -7.6770631
6.5510925 -5.8304137 -6.2758177
0.93055213 7.1647537 -12.167928
2.8622821 6.7209715 -12.643748
1.5017425 7.7821298 -11.663623
0.94600265 6.4013406 -12.834254
6.4430716 4.9879476 -12.052706
4.756504 5.9792251 -12.614271
2.6259949 8.8907085 -10.504795
3.44895 7.3304505 -12.072171
2.0718262 8.3609685 -11.105462
2.4765445 7.5952786 -11.925595
0.97469506 4.6752014 -13.964578
2.8977194 5.8622137 -13.224831
0.96208669 5.5653632 -13.441246
1.92371 6.1670842 -13.09451
9.7913704 0.48574421 -6.8373503
9.4252919 1.5332039 -8.3059267
10.042279 1.2929874 -6.7003467
9.4278271 0 -7.4047561
7.7982545 3.8476291 -11.045181
8.7821154 2.6684976 -9.7453656
10.423804 2.9780209 -6.3295307
9.6308473 2.4075249 -8.1510448
10.255857 2.129796 -6.5318407
9.868664 1.8410902 -7.4298207
8.5922364 -0.97649118 -8.4910705
9.0160944 1.0246618 -8.909938
9.0260591 -0.48951745 -7.9600725
9.252508 0.50179864 -8.1597776
4.7380771 10.552116 -7.6663698
5.7103448 9.2767864 -9.239532
4.2433819 10.215875 -8.4216488
5.8227284 10.330804 -7.5446599
7.0172214 5.5287355 -11.354103
6.495413 7.5711597 -10.509799
6.2347298 6.0663238 -11.721328
3.1977886 9.3924652 -9.8348066
5.1868591 8.8819176 -9.9986578
3.7257579 9.8269443 -9.1495087
3.6349752 8.7025007 -10.675533
4.7344218 9.6036504 -9.2441274
7.825878 9.4861154 -7.0328785
6.74924 8.8750452 -9.0050553
6.8682677 9.9719996 -7.3320243
6.3128245 9.6546678 -8.314329
4.4498575 6.9754068 -12.086563
5.6056309 8.0210857 -10.693087
5.3679571 6.5551214 -11.970422
4.0580446 7.8912725 -11.438061
5.9522207 7.0886851 -11.263036
4.6423933 8.4116113 -10.741116
1.0069269 0.62231502 -15.040506
2.9732129 1.8375466 -14.558645
1.0057167 1.6641743 -14.95017
1.9996005 0 -14.841555
6.4379434 3.9788679 -12.350272
4.8052207 2.9697897 -13.637592
5.6651541 4.516482 -12.767685
0.99259115 3.6879209 -14.4138
2.9728007 2.8745147 -14.406871
1.0001292 2.696806 -14.737916
1.9760065 4.321514 -14.127662
2.0049605 2.2801876 -14.736336
3.8258547 -1.1743486 -13.842072
3.9235194 1.2043268 -14.195427
2.9535773 -0.60807057 -14.429041
2.9830356 0.61413532 -14.572953
3.8932024 5.4622446 -13.217561
3.9368369 3.464448 -13.950625
4.8066433 5.018895 -13.062353
2.951074 4.9178909 -13.725227
4.8239459 4.0054448 -13.406858
2.9775168 3.9115707 -14.124295
10.523052 6.5036035 -5.1240658
9.8693775 6.0996108 -7.1098061
10.597758 5.637088 -5.4848248
10.055533 7.3436276 -5.667578
7.8331094 4.8411278 -10.781619
8.9762483 5.5476266 -9.0124411
8.41561 4.2403392 -10.208549
7.6804843 5.9275533 -10.516786
10.543908 3.8819047 -6.0851083
9.9119562 5.1961393 -7.435145
10.602801 4.7546682 -5.8061991
10.193916 3.6166415 -7.0329201
10.282568 5.4340688 -6.4716018
8.7208419 8.8485931 -6.6319724
9.3083889 6.9011145 -7.6792568
9.4504662 8.1384763 -6.1793047
8.2527597 8.6147487 -7.6670493
9.7112115 7.140277 -6.6886486
9.3055194 3.0256908 -8.8869838
9.466488 4.9107931 -8.4091853
8.9076615 3.6272756 -9.5671905
9.7802033 3.3301193 -7.9726445
8.9740698 4.5961106 -9.3230898
9.8760984 4.268526 -7.7341963
7.143234 7.9486768 -9.6349656
8.8178154 6.6089047 -8.6905086
7.4484052 6.9772874 -10.130285
7.7229322 8.3129117 -8.6775391
8.284543 6.2902089 -9.6200801
8.5869572 7.6423151 -8.226136
6.4459926 -2.9436073 -10.429835
6.8990048 -1.0327779 -11.162824
7.0358696 -2.4587525 -9.9896316
5.9368961 -2.5906963 -11.351161
7.2414689 3.306867 -11.716943
7.1847824 1.0755586 -11.625222
7.8142763 2.7307742 -11.094825
6.5099555 2.8407635 -12.446833
8.0998709 -1.4809627 -9.0291259
7.4846926 -0.52996278 -10.651625
7.5900209 -1.9684035 -9.518613
8.3488191 -0.5087704 -9.2993094
7.2788089 -1.517574 -10.350568
4.6477578 -1.7173451 -13.077676
6.3221526 -0.56245625 -12.049604
5.3356762 -2.1796474 -12.249388
4.7589044 -0.58823293 -13.410754
6.1512077 -1.59833 -11.736269
8.690294 1.5889144 -9.6872851
7.6526186 0.54185299 -10.890604
8.2986362 2.1521765 -10.407284
8.5498863 0.52102328 -9.5232676
7.7630979 1.6185444 -11.039234
8.0363719 0 -10.109017
4.8650768 1.7976444 -13.689159
6.4488658 0.57372941 -12.291111
5.711469 2.3331604 -13.112115
4.8335116 0.5974549 -13.621
6.5114408 1.6919329 -12.42358
5.6403257 0 -12.886456
7.9283378 11.35371 0.56325097
9.122721 10.352163 1.6839772
7.6400347 11.450655 1.474322
8.5825302 10.927384 0
10.597711 7.4823261 3.6917513
10.023265 9.0325464 2.7445925
6.9713384 11.480766 3.2799891
8.8406291 10.445624 2.6112032
7.3195406 11.49265 2.3866364
8.2750403 10.991327 2.0505334
9.692363 9.8078415 -1.1146424
9.692363 9.8078415 1.1146424
9.1772814 10.406273 -0.56437167
9.1772814 10.406273 0.56437167
10.158235 0.77685926 5.9814009
10.584893 2.3962002 5.6265569
10.855038 5.8028288 4.4922992
10.833754 4.085119 5.1352519
5.3012134 10.886851 6.7284441
7.3645464 10.222992 6.3181563
5.7511542 11.112359 5.9108109
10.335744 7.5091706 4.6409227
9.0913861 9.0548762 5.5962213
10.090732 8.3184851 4.1914013
6.5840499 11.408443 4.2001971
7.774353 10.364162 5.4331988
6.1812676 11.287721 5.06181
7.5979825 11.01295 3.9072218
6.8000283 10.804397 5.7098416
9.349995 9.7903362 3.1833291
8.6841758 9.7760535 5.0713819
9.7603885 9.0875411 3.7005241
8.5326297 10.467148 3.5640213
9.4485079 9.0947928 4.6579395
8.1754821 10.439593 4.5120729
10.949937 6.767433 -3.0903952
11.160492 6.8975632 -1.0325621
10.765246 7.5821482 -2.6496548
10.949937 6.767433 3.0903952
11.160492 6.8975632 1.0325621
10.765246 7.5821482 2.6496548
10.147764 9.1033812 -1.6644423
10.933059 7.6824514 -0.54396534
10.496825 8.3700345 -2.170693
10.200057 9.1575009 -0.55805083
10.877229 7.6491716 -1.5947916
10.147764 9.1033812 1.6644423
10.933059 7.6824514 0.54396534
10.496825 8.3700345 2.170693
10.200057 9.1575009 0.55805083
10.877229 7.6491716 1.5947916
10.616083 8.4394743 0
5.6272887 -8.0585118 0.3997781
6.3974865 -7.2596568 1.180922
5.4609157 -8.1846566 1.0538104
6.0293075 -7.6765889 0
7.7545582 -5.4749685 2.7013286
7.1040368 -6.4018605 1.9452431
5.0900347 -8.3825364 2.3948426
6.2348933 -7.3668232 1.8415628
5.2817143 -8.2929923 1.7221752
5.8582468 -7.7812199 1.4516583
6.7856254 -6.866472 -0.78036136
6.7856254 -6.866472 0.78036136
6.4174465 -7.2768497 -0.39465119
6.4174465 -7.2768497 0.39465119
9.7461339 -0.74534347 5.7387462
9.3647896 -2.119994 4.9779926
8.3517986 -4.4646602 3.456347
8.8923948 -3.3530842 4.2150381
4.1502636 -8.5232001 5.2676273
5.4531917 -7.5697715 4.6783761
4.4117903 -8.5244449 4.5342652
7.6004294 -5.5218976 3.4127204
6.5941556 -6.5676743 4.059046
7.2851452 -6.0056466 3.0260407
4.8778069 -8.4519687 3.1117247
5.6674533 -7.5554073 3.960767
4.6546754 -8.499984 3.8116911
5.489595 -7.9569325 2.8229948
5.0628655 -8.0442616 4.2511823
6.6086427 -6.919879 2.2499995
6.2526141 -7.038767 3.6513994
6.9529287 -6.4736179 2.6361123
6.0679783 -7.4437109 2.5345532
6.7830455 -6.5291149 3.3439159
5.8788264 -7.5069038 3.2445418
8.1370203 -5.0289551 -2.2965072
8.2223158 -5.0816707 -0.76072377
7.8239663 -5.5105542 -1.9257163
8.1370203 -5.0289551 2.2965072
8.2223158 -5.0816707 0.76072377
7.8239663 -5.5105542 1.9257163
7.1561117 -6.4196226 -1.1737498
7.8920802 -5.5456136 -0.39266393
7.4950209 -5.9764343 -1.5499344
7.1729521 -6.4397986 -0.39243621
7.8695438 -5.5340831 -1.1538125
7.1561117 -6.4196226 1.1737498
7.8920802 -5.5456136 0.39266393
7.4950209 -5.9764343 1.5499344
7.1729521 -6.4397986 0.39243621
7.8695438 -5.5340831 1.1538125
7.5437444 -5.9970554 0
0.89835807 -6.9168767 11.746957
2.601527 -6.1086882 11.491897
1.4140442 -7.3276712 10.982494
0.91613523 -6.1992359 12.429048
5.5418754 -4.2902804 10.366887
4.1538516 -5.2216532 11.016034
2.3436293 -7.9347167 9.3752454
3.0524563 -6.4877368 10.684346
1.8995945 -7.6659182 10.182261
2.2552899 -6.9167162 10.860162
0.95126612 -4.5628226 13.628909
2.6609394 -5.3831973 12.144196
0.93508265 -5.4091535 13.063975
1.8098171 -5.8019631 12.319252
9.5461079 -0.47357688 6.6660826
8.7582156 -1.4246912 7.7180737
9.396859 -1.2098868 6.2697139
6.7661797 -3.3384073 9.5833855
7.8347928 -2.380648 8.6941377
9.005841 -2.5729171 5.468517
8.601287 -2.1501548 7.2796789
9.2136669 -1.9133683 5.8680817
9.0132482 -1.6815045 6.7858039
3.809277 -8.483596 6.1635397
4.543369 -7.3809665 7.3513255
3.4946949 -8.4134226 6.9357634
4.5217041 -8.0224999 5.8588891
5.8793312 -4.6322134 9.5129577
5.2373145 -6.1046995 8.4741529
5.2433875 -5.1017586 9.8575991
2.7742247 -8.1483837 8.5321347
4.2292414 -7.242104 8.1526674
3.1481145 -8.3033698 7.7309642
3.1329514 -7.5006045 9.2011423
3.8688094 -7.8477783 7.5539882
5.8131405 -7.0463814 5.2240925
5.245589 -6.8977899 6.9988353
5.1927027 -7.5392561 5.5433225
4.8894887 -7.4778555 6.4397193
3.844581 -6.0266012 10.44253
4.5891985 -6.5666746 8.7541791
4.5611708 -5.5699083 10.171307
3.4920633 -6.7906655 9.8427783
4.923206 -5.8631995 9.3158924
3.8858139 -7.0407555 8.9906166
1.0034923 -0.62019232 14.989203
2.8881327 -1.7849642 14.142041
0.99663161 -1.6491409 14.815118
5.6897097 -3.516434 10.914893
4.4689409 -2.7619574 12.683204
5.0073599 -3.9920628 11.285199
0.973289 -3.6162048 14.133506
2.8428533 -2.7488635 13.777116
0.98568903 -2.6578686 14.525125
1.8896879 -4.1327359 13.510519
1.9566161 -2.2252068 14.381008
3.5065291 -4.9197338 11.904791
3.6723202 -3.2316711 13.01328
4.2753449 -4.4641355 11.618517
2.7414063 -4.568485 12.750078
4.3828042 -3.6391536 12.180824
2.8041807 -3.6838586 13.302049
7.9571842 -4.9178103 3.8746493
7.6630139 -4.736003 5.5203627
8.2410432 -4.38352 4.265117
7.4782303 -5.4614051 4.2149386
6.5850923 -4.0698109 9.0638279
7.2217506 -4.4632873 7.2508691
7.1367615 -3.595971 8.6572432
6.2748853 -4.8427567 8.592118
8.7626096 -3.226092 5.0570842
7.9267873 -4.1554554 5.9460325
8.5118306 -3.8170035 4.6611627
8.6048814 -3.0528769 5.9366237
8.1001771 -4.2807322 5.0980574
6.4213776 -6.5154441 4.8832899
7.1330342 -5.2883357 5.8846275
6.9638839 -5.9971014 4.553422
6.1892162 -6.4606924 5.7499584
7.3226405 -5.3840534 5.0435076
8.1361711 -2.6454771 7.7702295
7.7070192 -3.9980589 6.8462299
7.6563869 -3.1177459 8.2232707
8.3975843 -2.8593431 6.8455586
7.4491095 -3.8150953 7.7388206
8.1698599 -3.5310765 6.3980023
5.6099658 -6.2425234 7.5668567
6.8903866 -5.1643073 6.790907
5.9469524 -5.5708028 8.0882175
5.9188225 -6.3709803 6.6504292
6.6112713 -5.0197431 7.6770631
6.5510925 -5.8304137 6.2758177
0.93055213 7.1647537 12.167928
2.8622821 6.7209715 12.643748
1.5017425 7.7821298 11.663623
0.94600265 6.4013406 12.834254
6.4430716 4.9879476 12.052706
4.756504 5.9792251 12.614271
2.6259949 8.8907085 10.504795
3.44895 7.3304505 12.072171
2.0718262 8.3609685 11.105462
2.4765445 7.5952786 11.925595
0.97469506 4.6752014 13.964578
2.8977194 5.8622137 13.224831
0.96208669 5.5653632 13.441246
1.92371 6.1670842 13.09451
9.7913704 0.48574421 6.8373503
9.4252919 1.5332039 8.3059267
10.042279 1.2929874 6.7003467
9.4278271 0 7.4047561
7.7982545 3.8476291 11.045181
8.7821154 2.6684976 9.7453656
10.423804 2.9780209 6.3295307
9.6308473 2.4075249 8.1510448
10.255857 2.129796 6.5318407
9.868664 1.8410902 7.4298207
8.5922364 -0.97649118 8.4910705
9.0160944 1.0246618 8.909938
9.0260591 -0.48951745 7.9600725
9.252508 0.50179864 8.1597776
4.7380771 10.552116 7.6663698
5.7103448 9.2767864 9.239532
4.2433819 10.215875 8.4216488
5.8227284 10.330804 7.5446599
7.0172214 5.5287355 11.354103
6.495413 7.5711597 10.509799
6.2347298 6.0663238 11.721328
3.1977886 9.3924652 9.8348066
5.1868591 8.8819176 9.9986578
3.7257579 9.8269443 9.1495087
3.6349752 8.7025007 10.675533
4.7344218 9.6036504 9.2441274
7.825878 9.4861154 7.0328785
6.74924 8.8750452 9.0050553
6.8682677 9.9719996 7.3320243
6.3128245 9.6546678 8.314329
4.4498575 6.9754068 12.086563
5.6056309 8.0210857 10.693087
5.3679571 6.5551214 11.970422
4.0580446 7.8912725 11.438061
5.9522207 7.0886851 11.263036
4.6423933 8.4116113 10.741116
1.0069269 0.62231502 15.040506
2.9732129 1.8375466 14.558645
1.0057167 1.6641743 14.95017
1.9996005 0 14.841555
6.4379434 3.9788679 12.350272
4.8052207 2.9697897 13.637592
5.6651541 4.516482 12.767685
0.99259115 3.6879209 14.4138
2.9728007 2.8745147 14.406871
1.0001292 2.696806 14.737916
1.9760065 4.321514 14.127662
2.0049605 2.2801876 14.736336
3.8258547 -1.1743486 13.842072
3.9235194 1.2043268 14.195427
2.9535773 -0.60807057 14.429041
2.9830356 0.61413532 14.572953
3.8932024 5.4622446 13.217561
3.9368369 3.464448 13.950625
4.8066433 5.018895 13.062353
2.951074 4.9178909 13.725227
4.8239459 4.0054448 13.406858
2.9775168 3.9115707 14.124295
10.523052 6.5036035 5.1240658
9.8693775 6.0996108 7.1098061
10.597758 5.637088 5.4848248
10.055533 7.3436276 5.667578
7.8331094 4.8411278 10.781619
8.9762483 5.5476266 9.0124411
8.41561 4.2403392 10.208549
7.6804843 5.9275533 10.516786
10.543908 3.8819047 6.0851083
9.9119562 5.1961393 7.435145
10.602801 4.7546682 5.8061991
10.193916 3.6166415 7.0329201
10.282568 5.4340688 6.4716018
8.7208419 8.8485931 6.6319724
9.3083889 6.9011145 7.6792568
9.4504662 8.1384763 6.1793047
8.2527597 8.6147487 7.6670493
9.7112115 7.140277 6.6886486
9.3055194 3.0256908 8.8869838
9.466488 4.9107931 8.4091853
8.9076615 3.6272756 9.5671905
9.7802033 3.3301193 7.9726445
8.9740698 4.5961106 9.3230898
9.8760984 4.268526 7.7341963
7.143234 7.9486768 9.6349656
8.8178154 6.6089047 8.6905086
7.4484052 6.9772874 10.130285
7.7229322 8.3129117 8.6775391
8.284543 6.2902089 9.6200801
8.5869572 7.6423151 8.226136
6.4459926 -2.9436073 10.429835
6.8990048 -1.0327779 11.162824
7.0358696 -2.4587525 9.9896316
5.9368961 -2.5906963 11.351161
7.2414689 3.306867 11.716943
7.1847824 1.0755586 11.625222
7.8142763 2.7307742 11.094825
6.5099555 2.8407635 12.446833
8.0998709 -1.4809627 9.0291259
7.4846926 -0.52996278 10.651625
7.5900209 -1.9684035 9.518613
8.3488191 -0.5087704 9.2993094
7.2788089 -1.517574 10.350568
4.6477578 -1.7173451 13.077676
6.3221526 -0.56245625 12.049604
5.3356762 -2.1796474 12.249388
4.7589044 -0.58823293 13.410754
6.1512077 -1.59833 11.736269
8.690294 1.5889144 9.6872851
7.6526186 0.54185299 10.890604
8.2986362 2.1521765 10.407284
8.5498863 0.52102328 9.5232676
7.7630979 1.6185444 11.039234
8.0363719 0 10.109017
4.8650768 1.7976444 13.689159
6.4488658 0.57372941 12.291111
5.711469 2.3331604 13.112115
4.8335116 0.5974549 13.621
6.5114408 1.6919329 12.42358
5.6403257 0 12.886456
10.122303 0 -5.3262307
10.473883 0 -3.7756672
10.38432 0.76541997 -5.1793871
9.9601954 -0.73415809 -4.9678465
10.804115 0 -0.74880569
10.696372 0 -2.2529195
10.806046 2.3677346 -4.7900312
10.726418 0.74867902 -3.5910977
10.615323 1.5594936 -4.9994688
10.573996 0.75685696 -4.378175
9.5513604 -2.0928179 -4.2338625
10.284063 -0.71780367 -3.4430016
9.7674293 -1.4349297 -4.6001385
10.139336 -0.72574525 -4.1982037
10.122303 0 5.3262307
10.473883 0 3.7756672
10.38432 0.76541997 5.1793871
9.9601954 -0.73415809 4.9678465
10.804115 0 0.74880569
10.696372 0 2.2529195
10.806046 2.3677346 4.7900312
10.726418 0.74867902 3.5910977
10.615323 1.5594936 4.9994688
10.573996 0.75685696 4.378175
9.5513604 -2.0928179 4.2338625
10.284063 -0.71780367 3.4430016
9.7674293 -1.4349297 4.6001385
10.139336 -0.72574525 4.1982037
11.07041 5.7707774 -3.5665366
11.363173 4.0038265 -2.4745008
11.094876 4.9229116 -3.9247373
11.224696 5.8707522 -2.561833
11.029593 0.73840558 -0.45635974
11.31776 2.311349 -1.4284922
10.999277 0.73993519 -1.2243816
10.959883 3.2282085 -4.5292442
11.278381 3.1827354 -2.8008326
11.055417 4.0681372 -4.2477779
10.993367 2.3636941 -3.939037
11.232005 4.041408 -3.3556837
11.379936 5.9707928 -0.5311972
11.462041 4.0735672 -1.5051819
11.328345 5.9374067 -1.5427759
11.392018 4.9622167 -2.0270875
10.852172 0.74732339 -2.7766413
11.246292 2.3206277 -2.2439037
10.939979 0.74239754 -2.0018434
10.952981 1.5319705 -3.3504101
11.15017 1.5170427 -1.7252918
11.140348 2.3484765 -3.085199
8.4929219 -4.427186 -2.7361514
9.2846358 -3.2714516 -2.0218683
8.7776247 -3.8947232 -3.1050253
8.556015 -4.4749759 -1.952755
10.568695 -0.70754952 -0.43728965
9.9792275 -2.0379897 -1.2595469
10.53994 -0.70903502 -1.1732506
9.3055502 -2.7409286 -3.8455803
9.5565686 -2.6968434 -2.3732438
9.0504219 -3.3303455 -3.4774068
9.7003962 -2.0856913 -3.4757523
9.1809178 -3.3034026 -2.7428991
8.6183675 -4.5218608 -0.4022916
9.3247962 -3.3139983 -1.2245214
8.5978319 -4.5062913 -1.1709149
8.9543098 -3.9003823 -1.5933235
10.400477 -0.71621786 -2.6610703
9.9187789 -2.0467008 -1.9790332
10.48401 -0.71145508 -1.9184084
10.067624 -1.4081374 -3.0795879
10.242454 -1.3935428 -1.5848387
9.8226498 -2.0706949 -2.7202767
11.07041 5.7707774 3.5665366
11.363173 4.0038265 2.4745008
11.094876 4.9229116 3.9247373
11.224696 5.8707522 2.561833
11.029593 0.73840558 0.45635974
11.31776 2.311349 1.4284922
10.999277 0.73993519 1.2243816
11.220407 1.5117237 0
10.959883 3.2282085 4.5292442
11.278381 3.1827354 2.8008326
11.055417 4.0681372 4.2477779
10.993367 2.3636941 3.939037
11.232005 4.041408 3.3556837
11.379936 5.9707928 0.5311972
11.462041 4.0735672 1.5051819
11.328345 5.9374067 1.5427759
11.494466 5.03106 0
11.392018 4.9622167 2.0270875
10.852172 0.74732339 2.7766413
11.246292 2.3206277 2.2439037
10.939979 0.74239754 2.0018434
10.952981 1.5319705 3.3504101
11.15017 1.5170427 1.7252918
11.140348 2.3484765 3.085199
11.447889 3.1641187 -0.97122828
11.447889 3.1641187 0.97122828
11.363867 2.3261463 -0.47889761
11.51287 4.0854261 -0.50498643
11.363867 2.3261463 0.47889761
11.51287 4.0854261 0.50498643
8.4929219 -4.427186 2.7361514
9.2846358 -3.2714516 2.0218683
8.7776247 -3.8947232 3.1050253
8.556015 -4.4749759 1.952755
10.568695 -0.70754952 0.43728965
9.9792275 -2.0379897 1.2595469
10.53994 -0.70903502 1.1732506
10.304742 -1.3883564 0
9.3055502 -2.7409286 3.8455803
9.5565686 -2.6968434 2.3732438
9.0504219 -3.3303455 3.4774068
9.7003962 -2.0856913 3.4757523
9.1809178 -3.3034026 2.7428991
8.6183675 -4.5218608 0.4022916
9.3247962 -3.3139983 1.2245214
8.5978319 -4.5062913 1.1709149
8.9954018 -3.9372343 0
8.9543098 -3.9003823 1.5933235
10.400477 -0.71621786 2.6610703
9.9187789 -2.0467008 1.9790332
10.48401 -0.71145508 1.9184084
10.067624 -1.4081374 3.0795879
10.242454 -1.3935428 1.5848387
9.8226498 -2.0706949 2.7202767
9.6877854 -2.677638 -0.82190273
9.6877854 -2.677638 0.82190273
10.008193 -2.0486443 -0.42176661
9.3545156 -3.3195184 -0.41031504
10.008193 -2.0486443 0.42176661
9.3545156 -3.3195184 0.41031504
-5.6272887 8.0585118 -0.3997781
-6.3974865 7.2596568 -1.180922
-5.4609157 8.1846566 -1.0538104
-7.7545582 5.4749685 -2.7013286
-7.1040368 6.4018605 -1.9452431
-5.0900347 8.3825364 -2.3948426
-6.2348933 7.3668232 -1.8415628
-5.2817143 8.2929923 -1.7221752
-5.8582468 7.7812199 -1.4516583
-9.7461339 0.74534347 -5.7387462
-9.3647896 2.119994 -4.9779926
-8.3517986 4.4646602 -3.456347
-8.8923948 3.3530842 -4.2150381
-4.1502636 8.5232001 -5.2676273
-5.4531917 7.5697715 -4.6783761
-4.4117903 8.5244449 -4.5342652
-7.6004294 5.5218976 -3.4127204
-6.5941556 6.5676743 -4.059046
-7.2851452 6.0056466 -3.0260407
-4.8778069 8.4519687 -3.1117247
-5.6674533 7.5554073 -3.960767
-4.6546754 8.499984 -3.8116911
-5.489595 7.9569325 -2.8229948
-5.0628655 8.0442616 -4.2511823
-6.6086427 6.919879 -2.2499995
-6.2526141 7.038767 -3.6513994
-6.9529287 6.4736179 -2.6361123
-6.0679783 7.4437109 -2.5345532
-6.7830455 6.5291149 -3.3439159
-5.8788264 7.5069038 -3.2445418
-7.9283378 -11.35371 -0.56325097
-9.122721 -10.352163 -1.6839772
-7.6400347 -11.450655 -1.474322
-10.597711 -7.4823261 -3.6917513
-10.023265 -9.0325464 -2.7445925
-6.9713384 -11.480766 -3.2799891
-8.8406291 -10.445624 -2.6112032
-7.3195406 -11.49265 -2.3866364
-8.2750403 -10.991327 -2.0505334
-10.158235 -0.77685926 -5.9814009
-10.584893 -2.3962002 -5.6265569
-10.855038 -5.8028288 -4.4922992
-10.833754 -4.085119 -5.1352519
-5.3012134 -10.886851 -6.7284441
-7.3645464 -10.222992 -6.3181563
-5.7511542 -11.112359 -5.9108109
-10.335744 -7.5091706 -4.6409227
-9.0913861 -9.0548762 -5.5962213
-10.090732 -8.3184851 -4.1914013
-6.5840499 -11.408443 -4.2001971
-7.774353 -10.364162 -5.4331988
-6.1812676 -11.287721 -5.06181
-7.5979825 -11.01295 -3.9072218
-6.8000283 -10.804397 -5.7098416
-9.349995 -9.7903362 -3.1833291
-8.6841758 -9.7760535 -5.0713819
-9.7603885 -9.0875411 -3.7005241
-8.5326297 -10.467148 -3.5640213
-9.4485079 -9.0947928 -4.6579395
-8.1754821 -10.439593 -4.5120729
-0.93055213 -7.1647537 -12.167928
-2.8622821 -6.7209715 -12.643748
-1.5017425 -7.7821298 -11.663623
-0.94600265 -6.4013406 -12.834254
-6.4430716 -4.9879476 -12.052706
-4.756504 -5.9792251 -12.614271
-2.6259949 -8.8907085 -10.504795
-3.44895 -7.3304505 -12.072171
-2.0718262 -8.3609685 -11.105462
-2.4765445 -7.5952786 -11.925595
-0.97469506 -4.6752014 -13.964578
-2.8977194 -5.8622137 -13.224831
-0.96208669 -5.5653632 -13.441246
-1.92371 -6.1670842 -13.09451
-9.7913704 -0.48574421 -6.8373503
-9.4252919 -1.5332039 -8.3059267
-10.042279 -1.2929874 -6.7003467
-7.7982545 -3.8476291 -11.045181
-8.7821154 -2.6684976 -9.7453656
-10.423804 -2.9780209 -6.3295307
-9.6308473 -2.4075249 -8.1510448
-10.255857 -2.129796 -6.5318407
-9.868664 -1.8410902 -7.4298207
-4.7380771 -10.552116 -7.6663698
-5.7103448 -9.2767864 -9.239532
-4.2433819 -10.215875 -8.4216488
-5.8227284 -10.330804 -7.5446599
-7.0172214 -5.5287355 -11.354103
-6.495413 -7.5711597 -10.509799
-6.2347298 -6.0663238 -11.721328
-3.1977886 -9.3924652 -9.8348066
-5.1868591 -8.8819176 -9.9986578
-3.7257579 -9.8269443 -9.1495087
-3.6349752 -8.7025007 -10.675533
-4.7344218 -9.6036504 -9.2441274
-7.825878 -9.4861154 -7.0328785
-6.74924 -8.8750452 -9.0050553
-6.8682677 -9.9719996 -7.3320243
-6.3128245 -9.6546678 -8.314329
-4.4498575 -6.9754068 -12.086563
-5.6056309 -8.0210857 -10.693087
-5.3679571 -6.5551214 -11.970422
-4.0580446 -7.8912725 -11.438061
-5.9522207 -7.0886851 -11.263036
-4.6423933 -8.4116113 -10.741116
-1.0069269 -0.62231502 -15.040506
-2.9732129 -1.8375466 -14.558645
-1.0057167 -1.6641743 -14.95017
-6.4379434 -3.9788679 -12.350272
-4.8052207 -2.9697897 -13.637592
-5.6651541 -4.516482 -12.767685
-0.99259115 -3.6879209 -14.4138
-2.9728007 -2.8745147 -14.406871
-1.0001292 -2.696806 -14.737916
-1.9760065 -4.321514 -14.127662
-2.0049605 -2.2801876 -14.736336
-3.8932024 -5.4622446 -13.217561
-3.9368369 -3.464448 -13.950625
-4.8066433 -5.018895 -13.062353
-2.951074 -4.9178909 -13.725227
-4.8239459 -4.0054448 -13.406858
-2.9775168 -3.9115707 -14.124295
-10.523052 -6.5036035 -5.1240658
-9.8693775 -6.0996108 -7.1098061
-10.597758 -5.637088 -5.4848248
-10.055533 -7.3436276 -5.667578
-7.8331094 -4.8411278 -10.781619
-8.9762483 -5.5476266 -9.0124411
-8.41561 -4.2403392 -10.208549
-7.6804843 -5.9275533 -10.516786
-10.543908 -3.8819047 -6.0851083
-9.9119562 -5.1961393 -7.435145
-10.602801 -4.7546682 -5.8061991
-10.193916 -3.6166415 -7.0329201
-10.282568 -5.4340688 -6.4716018
-8.7208419 -8.8485931 -6.6319724
-9.3083889 -6.9011145 -7.6792568
-9.4504662 -8.1384763 -6.1793047
-8.2527597 -8.6147487 -7.6670493
-9.7112115 -7.140277 -6.6886486
-9.3055194 -3.0256908 -8.8869838
-9.466488 -4.9107931 -8.4091853
-8.9076615 -3.6272756 -9.5671905
-9.7802033 -3.3301193 -7.9726445
-8.9740698 -4.5961106 -9.3230898
-9.8760984 -4.268526 -7.7341963
-7.143234 -7.9486768 -9.6349656
-8.8178154 -6.6089047 -8.6905086
-7.4484052 -6.9772874 -10.130285
-7.7229322 -8.3129117 -8.6775391
-8.284543 -6.2902089 -9.6200801
-8.5869572 -7.6423151 -8.226136
-0.89835807 6.9168767 -11.746957
-2.601527 6.1086882 -11.491897
-1.4140442 7.3276712 -10.982494
-0.91613523 6.1992359 -12.429048
-5.5418754 4.2902804 -10.366887
-4.1538516 5.2216532 -11.016034
-2.3436293 7.9347167 -9.3752454
-3.0524563 6.4877368 -10.684346
-1.8995945 7.6659182 -10.182261
-2.2552899 6.9167162 -10.860162
-0.95126612 4.5628226 -13.628909
-2.6609394 5.3831973 -12.144196
-0.93508265 5.4091535 -13.063975
-1.8098171 5.8019631 -12.319252
-9.5461079 0.47357688 -6.6660826
-8.7582156 1.4246912 -7.7180737
-9.396859 1.2098868 -6.2697139
-9.4278271 0 -7.4047561
-6.7661797 3.3384073 -9.5833855
-7.8347928 2.380648 -8.6941377
-9.005841 2.5729171 -5.468517
-8.601287 2.1501548 -7.2796789
-9.2136669 1.9133683 -5.8680817
-9.0132482 1.6815045 -6.7858039
-9.0160944 -1.0246618 -8.909938
-8.5922364 0.97649118 -8.4910705
-9.252508 -0.50179864 -8.1597776
-9.0260591 0.48951745 -7.9600725
-3.809277 8.483596 -6.1635397
-4.543369 7.3809665 -7.3513255
-3.4946949 8.4134226 -6.9357634
-4.5217041 8.0224999 -5.8588891
-5.8793312 4.6322134 -9.5129577
-5.2373145 6.1046995 -8.4741529
-5.2433875 5.1017586 -9.8575991
-2.7742247 8.1483837 -8.5321347
-4.2292414 7.242104 -8.1526674
-3.1481145 8.3033698 -7.7309642
-3.1329514 7.5006045 -9.2011423
-3.8688094 7.8477783 -7.5539882
-5.8131405 7.0463814 -5.2240925
-5.245589 6.8977899 -6.9988353
-5.1927027 7.5392561 -5.5433225
-4.8894887 7.4778555 -6.4397193
-3.844581 6.0266012 -10.44253
-4.5891985 6.5666746 -8.7541791
-4.5611708 5.5699083 -10.171307
-3.4920633 6.7906655 -9.8427783
-4.923206 5.8631995 -9.3158924
-3.8858139 7.0407555 -8.9906166
-1.0034923 0.62019232 -14.989203
-2.8881327 1.7849642 -14.142041
-0.99663161 1.6491409 -14.815118
-1.9996005 0 -14.841555
-5.6897097 3.516434 -10.914893
-4.4689409 2.7619574 -12.683204
-5.0073599 3.9920628 -11.285199
-0.973289 3.6162048 -14.133506
-2.8428533 2.7488635 -13.777116
-0.98568903 2.6578686 -14.525125
-1.8896879 4.1327359 -13.510519
-1.9566161 2.2252068 -14.381008
-3.9235194 -1.2043268 -14.195427
-3.8258547 1.1743486 -13.842072
-2.9830356 -0.61413532 -14.572953
-2.9535773 0.60807057 -14.429041
-3.5065291 4.9197338 -11.904791
-3.6723202 3.2316711 -13.01328
-4.2753449 4.4641355 -11.618517
-2.7414063 4.568485 -12.750078
-4.3828042 3.6391536 -12.180824
-2.8041807 3.6838586 -13.302049
-7.9571842 4.9178103 -3.8746493
-7.6630139 4.736003 -5.5203627
-8.2410432 4.38352 -4.265117
-7.4782303 5.4614051 -4.2149386
-6.5850923 4.0698109 -9.0638279
-7.2217506 4.4632873 -7.2508691
-7.1367615 3.595971 -8.6572432
-6.2748853 4.8427567 -8.592118
-8.7626096 3.226092 -5.0570842
-7.9267873 4.1554554 -5.9460325
-8.5118306 3.8170035 -4.6611627
-8.6048814 3.0528769 -5.9366237
-8.1001771 4.2807322 -5.0980574
-6.4213776 6.5154441 -4.8832899
-7.1330342 5.2883357 -5.8846275
-6.9638839 5.9971014 -4.553422
-6.1892162 6.4606924 -5.7499584
-7.3226405 5.3840534 -5.0435076
-8.1361711 2.6454771 -7.7702295
-7.7070192 3.9980589 -6.8462299
-7.6563869 3.1177459 -8.2232707
-8.3975843 2.8593431 -6.8455586
-7.4491095 3.8150953 -7.7388206
-8.1698599 3.5310765 -6.3980023
-5.6099658 6.2425234 -7.5668567
-6.8903866 5.1643073 -6.790907
-5.9469524 5.5708028 -8.0882175
-5.9188225 6.3709803 -6.6504292
-6.6112713 5.0197431 -7.6770631
-6.5510925 5.8304137 -6.2758177
-7.2414689 -3.306867 -11.716943
-7.1847824 -1.0755586 -11.625222
-7.8142763 -2.7307742 -11.094825
-6.5099555 -2.8407635 -12.446833
-6.4459926 2.9436073 -10.429835
-6.8990048 1.0327779 -11.162824
-7.0358696 2.4587525 -9.9896316
-5.9368961 2.5906963 -11.351161
-8.690294 -1.5889144 -9.6872851
-7.6526186 -0.54185299 -10.890604
-8.2986362 -2.1521765 -10.407284
-8.5498863 -0.52102328 -9.5232676
-7.7630979 -1.6185444 -11.039234
-4.8650768 -1.7976444 -13.689159
-6.4488658 -0.57372941 -12.291111
-5.711469 -2.3331604 -13.112115
-4.8335116 -0.5974549 -13.621
-6.5114408 -1.6919329 -12.42358
-8.0998709 1.4809627 -9.0291259
-7.4846926 0.52996278 -10.651625
-7.5900209 1.9684035 -9.518613
-8.3488191 0.5087704 -9.2993094
-7.2788089 1.517574 -10.350568
-8.0363719 0 -10.109017
-4.6477578 1.7173451 -13.077676
-6.3221526 0.56245625 -12.049604
-5.3356762 2.1796474 -12.249388
-4.7589044 0.58823293 -13.410754
-6.1512077 1.59833 -11.736269
-5.6403257 0 -12.886456
-5.6272887 8.0585118 0.3997781
-6.3974865 7.2596568 1.180922
-5.4609157 8.1846566 1.0538104
-6.0293075 7.6765889 0
-7.7545582 5.4749685 2.7013286
-7.1040368 6.4018605 1.9452431
-5.0900347 8.3825364 2.3948426
-6.2348933 7.3668232 1.8415628
-5.2817143 8.2929923 1.7221752
-5.8582468 7.7812199 1.4516583
-6.7856254 6.866472 -0.78036136
-6.7856254 6.866472 0.78036136
-6.4174465 7.2768497 -0.39465119
-6.4174465 7.2768497 0.39465119
-9.7461339 0.74534347 5.7387462
-9.3647896 2.119994 4.9779926
-8.3517986 4.4646602 3.456347
-8.8923948 3.3530842 4.2150381
-4.1502636 8.5232001 5.2676273
-5.4531917 7.5697715 4.6783761
-4.4117903 8.5244449 4.5342652
-7.6004294 5.5218976 3.4127204
-6.5941556 6.5676743 4.059046
-7.2851452 6.0056466 3.0260407
-4.8778069 8.4519687 3.1117247
-5.6674533 7.5554073 3.960767
-4.6546754 8.499984 3.8116911
-5.489595 7.9569325 2.8229948
-5.0628655 8.0442616 4.2511823
-6.6086427 6.919879 2.2499995
-6.2526141 7.038767 3.6513994
-6.9529287 6.4736179 2.6361123
-6.0679783 7.4437109 2.5345532
-6.7830455 6.5291149 3.3439159
-5.8788264 7.5069038 3.2445418
-8.1370203 5.0289551 -2.2965072
-8.2223158 5.0816707 -0.76072377
-7.8239663 5.5105542 -1.9257163
-8.1370203 5.0289551 2.2965072
-8.2223158 5.0816707 0.76072377
-7.8239663 5.5105542 1.9257163
-7.1561117 6.4196226 -1.1737498
-7.8920802 5.5456136 -0.39266393
-7.4950209 5.9764343 -1.5499344
-7.1729521 6.4397986 -0.39243621
-7.8695438 5.5340831 -1.1538125
-7.1561117 6.4196226 1.1737498
-7.8920802 5.5456136 0.39266393
-7.4950209 5.9764343 1.5499344
-7.1729521 6.4397986 0.39243621
-7.8695438 5.5340831 1.1538125
-7.5437444 5.9970554 0
-7.9283378 -11.35371 0.56325097
-9.122721 -10.352163 1.6839772
-7.6400347 -11.450655 1.474322
-8.5825302 -10.927384 0
-10.597711 -7.4823261 3.6917513
-10.023265 -9.0325464 2.7445925
-6.9713384 -11.480766 3.2799891
-8.8406291 -10.445624 2.6112032
-7.3195406 -11.49265 2.3866364
-8.2750403 -10.991327 2.0505334
-9.692363 -9.8078415 -1.1146424
-9.692363 -9.8078415 1.1146424
-9.1772814 -10.406273 -0.56437167
-9.1772814 -10.406273 0.56437167
-10.158235 -0.77685926 5.9814009
-10.584893 -2.3962002 5.6265569
-10.855038 -5.8028288 4.4922992
-10.833754 -4.085119 5.1352519
-5.3012134 -10.886851 6.7284441
-7.3645464 -10.222992 6.3181563
-5.7511542 -11.112359 5.9108109
-10.335744 -7.5091706 4.6409227
-9.0913861 -9.0548762 5.5962213
-10.090732 -8.3184851 4.1914013
-6.5840499 -11.408443 4.2001971
-7.774353 -10.364162 5.4331988
-6.1812676 -11.287721 5.06181
-7.5979825 -11.01295 3.9072218
-6.8000283 -10.804397 5.7098416
-9.349995 -9.7903362 3.1833291
-8.6841758 -9.7760535 5.0713819
-9.7603885 -9.0875411 3.7005241
-8.5326297 -10.467148 3.5640213
-9.4485079 -9.0947928 4.6579395
-8.1754821 -10.439593 4.5120729
-10.949937 -6.767433 -3.0903952
-11.160492 -6.8975632 -1.0325621
-10.765246 -7.5821482 -2.6496548
-10.949937 -6.767433 3.0903952
-11.160492 -6.8975632 1.0325621
-10.765246 -7.5821482 2.6496548
-10.147764 -9.1033812 -1.6644423
-10.933059 -7.6824514 -0.54396534
-10.496825 -8.3700345 -2.170693
-10.200057 -9.1575009 -0.55805083
-10.877229 -7.6491716 -1.5947916
-10.147764 -9.1033812 1.6644423
-10.933059 -7.6824514 0.54396534
-10.496825 -8.3700345 2.170693
-10.200057 -9.1575009 0.55805083
-10.877229 -7.6491716 1.5947916
-10.616083 -8.4394743 0
-0.93055213 -7.1647537 12.167928
-2.8622821 -6.7209715 12.643748
-1.5017425 -7.7821298 11.663623
-0.94600265 -6.4013406 12.834254
-6.4430716 -4.9879476 12.052706
-4.756504 -5.9792251 12.614271
-2.6259949 -8.8907085 10.504795
-3.44895 -7.3304505 12.072171
-2.0718262 -8.3609685 11.105462
-2.4765445 -7.5952786 11.925595
-0.97469506 -4.6752014 13.964578
-2.8977194 -5.8622137 13.224831
-0.96208669 -5.5653632 13.441246
-1.92371 -6.1670842 13.09451
-9.7913704 -0.48574421 6.8373503
-9.4252919 -1.5332039 8.3059267
-10.042279 -1.2929874 6.7003467
-7.7982545 -3.8476291 11.045181
-8.7821154 -2.6684976 9.7453656
-10.423804 -2.9780209 6.3295307
-9.6308473 -2.4075249 8.1510448
-10.255857 -2.129796 6.5318407
-9.868664 -1.8410902 7.4298207
-4.7380771 -10.552116 7.6663698
-5.7103448 -9.2767864 9.239532
-4.2433819 -10.215875 8.4216488
-5.8227284 -10.330804 7.5446599
-7.0172214 -5.5287355 11.354103
-6.495413 -7.5711597 10.509799
-6.2347298 -6.0663238 11.721328
-3.1977886 -9.3924652 9.8348066
-5.1868591 -8.8819176 9.9986578
-3.7257579 -9.8269443 9.1495087
-3.6349752 -8.7025007 10.675533
-4.7344218 -9.6036504 9.2441274
-7.825878 -9.4861154 7.0328785
-6.74924 -8.8750452 9.0050553
-6.8682677 -9.9719996 7.3320243
-6.3128245 -9.6546678 8.314329
-4.4498575 -6.9754068 12.086563
-5.6056309 -8.0210857 10.693087
-5.3679571 -6.5551214 11.970422
-4.0580446 -7.8912725 11.438061
-5.9522207 -7.0886851 11.263036
-4.6423933 -8.4116113 10.741116
-1.0069269 -0.62231502 15.040506
-2.9732129 -1.8375466 14.558645
-1.0057167 -1.6641743 14.95017
-6.4379434 -3.9788679 12.350272
-4.8052207 -2.9697897 13.637592
-5.6651541 -4.516482 12.767685
-0.99259115 -3.6879209 14.4138
-2.9728007 -2.8745147 14.406871
-1.0001292 -2.696806 14.737916
-1.9760065 -4.321514 14.127662
-2.0049605 -2.2801876 14.736336
-3.8932024 -5.4622446 13.217561
-3.9368369 -3.464448 13.950625
-4.8066433 -5.018895 13.062353
-2.951074 -4.9178909 13.725227
-4.8239459 -4.0054448 13.406858
-2.9775168 -3.9115707 14.124295
