6.993368879 -20.88882108 1.457991127
8.39553367 -18.93986102 4.149951236
8.165637729 -19.7213266 1.411597233
8.863587836 -18.81996981 2.764835375
0.8669787245 -12.2036189 17.47609039
2.587349732 -14.01662063 15.90559904
0 -13.57433898 17.28301644
5.804846337 -16.66365875 11.76508122
4.248664258 -15.51614156 13.98249699
-1.910885343 -16.61608681 16.81405726
1.772318641 -15.41118126 15.594796
-0.925351276 -15.04719226 17.06226246
0.8940477519 -14.53816379 16.48506658
1.106277131 -26.73721109 1.789993999
3.035119442 -24.04685974 4.910926418
2.790237609 -25.06620181 1.686234896
0 -27.46423596 3.700252451
5.950114479 -18.46895519 9.627487464
4.627205124 -21.24862141 7.486975164
6.62826403 -18.7375007 8.314023486
5.678988328 -22.19565052 1.528480056
4.518678334 -22.64730651 4.673182032
4.310438063 -23.55633841 1.598555908
6.475068446 -21.16794714 2.960716332
3.695421297 -23.88267108 3.249370245
-2.280750949 -26.88326127 7.430350669
2.057010042 -24.24602231 6.701435749
-1.1535443 -27.37270721 5.603103418
1.089332409 -25.84900907 5.291207404
7.84187623 -18.97580273 5.589279396
5.297715388 -21.33281886 6.020076373
7.264133902 -18.90589177 6.956929982
7.19703185 -20.08602846 4.318715856
5.988195392 -20.04343872 7.211865865
5.904733758 -21.32140892 4.494727362
-6.539547469 -23.17102672 14.32048207
-2.053021756 -22.19017461 13.71428212
-5.508740333 -22.38138503 15.76359499
-5.555401661 -24.34104624 12.73087939
5.084887233 -18.01685185 11.13502682
1.848799048 -19.98282462 12.3500648
4.313556232 -17.52548805 12.34350311
4.450535034 -19.5000624 10.19894297
-3.018257838 -18.40169916 16.50784247
-1.011704622 -20.33406545 14.28835829
-4.193535768 -20.27868982 16.16996927
-0.9663277612 -17.66254641 15.85724245
-3.128031448 -21.33464617 15.00311923
-3.439426937 -26.19142166 9.308334922
-1.080291074 -23.14327575 12.14274888
-4.511965995 -25.35677308 11.04508456
-1.135663017 -25.89127007 9.187706809
-3.345155033 -24.56291373 12.87390207
2.663403232 -16.23822339 14.56702619
0.9623189088 -19.34147108 13.59088123
3.500489956 -16.92732671 13.49763497
0.9267053788 -16.93832819 15.20704719
2.700693664 -18.42000143 12.95345962
0 -18.58134328 14.77162271
2.965777675 -22.58455697 8.02646848
1.017180352 -21.79124305 11.43336816
3.742511048 -21.03251742 9.161494352
1.058796386 -24.13883586 8.565842697
2.806728456 -20.60933746 10.80175565
0 -23.77257195 10.40511451
-10.33752239 17.55625272 1.342628623
-9.498284903 17.86853589 4.04506569
-9.281723245 18.60922563 1.371671247
-7.216721516 17.4382391 9.322041355
-8.454465602 17.83624378 6.725570364
-6.993368879 20.88882108 1.457991127
-8.39553367 18.93986102 4.149951236
-8.165637729 19.7213266 1.411597233
-8.863587836 18.81996981 2.764835375
-0.8669787245 12.2036189 17.47609039
-2.587349732 14.01662063 15.90559904
-5.804846337 16.66365875 11.76508122
-4.248664258 15.51614156 13.98249699
-1.106277131 26.73721109 1.789993999
-3.035119442 24.04685974 4.910926418
-2.790237609 25.06620181 1.686234896
-5.950114479 18.46895519 9.627487464
-4.627205124 21.24862141 7.486975164
-6.62826403 18.7375007 8.314023486
-5.678988328 22.19565052 1.528480056
-4.518678334 22.64730651 4.673182032
-4.310438063 23.55633841 1.598555908
-6.475068446 21.16794714 2.960716332
-3.695421297 23.88267108 3.249370245
-7.84187623 18.97580273 5.589279396
-5.297715388 21.33281886 6.020076373
-7.264133902 18.90589177 6.956929982
-7.19703185 20.08602846 4.318715856
-5.988195392 20.04343872 7.211865865
-5.904733758 21.32140892 4.494727362
16.34817741 27.76417047 2.123287388
14.16104044 26.64028947 6.030808655
13.87039606 27.80920344 2.049794308
9.762146811 23.58891775 12.61003852
11.9228069 25.15334504 9.484653497
9.326203962 27.85687546 1.944345116
11.91407173 26.87748887 5.889180921
11.52615718 27.83752082 1.992531646
12.9134853 27.41907768 4.028127394
0.8914469063 12.54803377 17.96930683
2.867025032 15.5317241 17.62488852
0 13.57433898 17.28301644
7.66679999 22.0086685 15.53883072
5.219255459 19.06074513 17.17674528
-1.772318641 15.41118126 15.594796
1.910885343 16.61608681 16.81405726
-0.8940477519 14.53816379 16.48506658
0.925351276 15.04719226 17.06226246
1.154110463 27.89327756 1.867389956
3.448640819 27.32313626 5.580018061
3.104292223 27.88752294 1.876028714
0 27.46423596 3.700252451
7.752783362 24.06437876 12.54426699
5.676164596 26.06555563 9.184227243
8.773532246 24.80197919 11.00489552
7.130803788 27.86989859 1.919231163
5.438229608 27.25603456 5.624174817
5.101603957 27.88002229 1.891965278
8.435623007 27.57728716 3.857177266
4.279785682 27.65928579 3.763199683
-2.057010042 24.24602231 6.701435749
2.280750949 26.88326127 7.430350669
-1.089332409 25.84900907 5.291207404
1.1535443 27.37270721 5.603103418
10.83440174 26.21712765 7.722195129
6.614411053 26.63488362 7.516307838
9.808332634 25.52751336 9.393533255
9.686487483 27.03379217 5.81256106
7.715655329 25.82552082 9.292327263
7.520707816 27.15653123 5.724818864
-5.084887233 18.01685185 11.13502682
-1.848799048 19.98282462 12.3500648
-4.313556232 17.52548805 12.34350311
-4.450535034 19.5000624 10.19894297
6.539547469 23.17102672 14.32048207
2.053021756 22.19017461 13.71428212
5.508740333 22.38138503 15.76359499
5.555401661 24.34104624 12.73087939
-2.663403232 16.23822339 14.56702619
-0.9623189088 19.34147108 13.59088123
-3.500489956 16.92732671 13.49763497
-0.9267053788 16.93832819 15.20704719
-2.700693664 18.42000143 12.95345962
-2.965777675 22.58455697 8.02646848
-1.017180352 21.79124305 11.43336816
-3.742511048 21.03251742 9.161494352
-1.058796386 24.13883586 8.565842697
-2.806728456 20.60933746 10.80175565
3.018257838 18.40169916 16.50784247
1.011704622 20.33406545 14.28835829
4.193535768 20.27868982 16.16996927
0.9663277612 17.66254641 15.85724245
3.128031448 21.33464617 15.00311923
0 18.58134328 14.77162271
3.439426937 26.19142166 9.308334922
1.080291074 23.14327575 12.14274888
4.511965995 25.35677308 11.04508456
1.135663017 25.89127007 9.187706809
3.345155033 24.56291373 12.87390207
0 23.77257195 10.40511451
0 -9.749500245 18.52856225
0 -6.905777341 19.15696
0 -1.368532681 19.74582375
0 -4.118521909 19.55384579
0 9.749500245 18.52856225
0 6.905777341 19.15696
0 1.368532681 19.74582375
0 4.118521909 19.55384579
-16.34817741 -27.76417047 -2.123287388
-14.16104044 -26.64028947 -6.030808655
-13.87039606 -27.80920344 -2.049794308
-9.762146811 -23.58891775 -12.61003852
-11.9228069 -25.15334504 -9.484653497
-9.326203962 -27.85687546 -1.944345116
-11.91407173 -26.87748887 -5.889180921
-11.52615718 -27.83752082 -1.992531646
-12.9134853 -27.41907768 -4.028127394
-0.8914469063 -12.54803377 -17.96930683
-2.867025032 -15.5317241 -17.62488852
-7.66679999 -22.0086685 -15.53883072
-5.219255459 -19.06074513 -17.17674528
-1.154110463 -27.89327756 -1.867389956
-3.448640819 -27.32313626 -5.580018061
-3.104292223 -27.88752294 -1.876028714
-7.752783362 -24.06437876 -12.54426699
-5.676164596 -26.06555563 -9.184227243
-8.773532246 -24.80197919 -11.00489552
-7.130803788 -27.86989859 -1.919231163
-5.438229608 -27.25603456 -5.624174817
-5.101603957 -27.88002229 -1.891965278
-8.435623007 -27.57728716 -3.857177266
-4.279785682 -27.65928579 -3.763199683
-10.83440174 -26.21712765 -7.722195129
-6.614411053 -26.63488362 -7.516307838
-9.808332634 -25.52751336 -9.393533255
-9.686487483 -27.03379217 -5.81256106
-7.715655329 -25.82552082 -9.292327263
-7.520707816 -27.15653123 -5.724818864
10.33752239 -17.55625272 -1.342628623
9.498284903 -17.86853589 -4.04506569
9.281723245 -18.60922563 -1.371671247
7.216721516 -17.4382391 -9.322041355
8.454465602 -17.83624378 -6.725570364
6.993368879 -20.88882108 -1.457991127
8.39553367 -18.93986102 -4.149951236
8.165637729 -19.7213266 -1.411597233
8.863587836 -18.81996981 -2.764835375
0.8669787245 -12.2036189 -17.47609039
2.587349732 -14.01662063 -15.90559904
0 -13.57433898 -17.28301644
5.804846337 -16.66365875 -11.76508122
4.248664258 -15.51614156 -13.98249699
-1.910885343 -16.61608681 -16.81405726
1.772318641 -15.41118126 -15.594796
-0.925351276 -15.04719226 -17.06226246
0.8940477519 -14.53816379 -16.48506658
1.106277131 -26.73721109 -1.789993999
3.035119442 -24.04685974 -4.910926418
2.790237609 -25.06620181 -1.686234896
0 -27.46423596 -3.700252451
5.950114479 -18.46895519 -9.627487464
4.627205124 -21.24862141 -7.486975164
6.62826403 -18.7375007 -8.314023486
5.678988328 -22.19565052 -1.528480056
4.518678334 -22.64730651 -4.673182032
4.310438063 -23.55633841 -1.598555908
6.475068446 -21.16794714 -2.960716332
3.695421297 -23.88267108 -3.249370245
-2.280750949 -26.88326127 -7.430350669
2.057010042 -24.24602231 -6.701435749
-1.1535443 -27.37270721 -5.603103418
1.089332409 -25.84900907 -5.291207404
7.84187623 -18.97580273 -5.589279396
5.297715388 -21.33281886 -6.020076373
7.264133902 -18.90589177 -6.956929982
7.19703185 -20.08602846 -4.318715856
5.988195392 -20.04343872 -7.211865865
5.904733758 -21.32140892 -4.494727362
-6.539547469 -23.17102672 -14.32048207
-2.053021756 -22.19017461 -13.71428212
-5.508740333 -22.38138503 -15.76359499
-5.555401661 -24.34104624 -12.73087939
5.084887233 -18.01685185 -11.13502682
1.848799048 -19.98282462 -12.3500648
4.313556232 -17.52548805 -12.34350311
4.450535034 -19.5000624 -10.19894297
-3.018257838 -18.40169916 -16.50784247
-1.011704622 -20.33406545 -14.28835829
-4.193535768 -20.27868982 -16.16996927
-0.9663277612 -17.66254641 -15.85724245
-3.128031448 -21.33464617 -15.00311923
-3.439426937 -26.19142166 -9.308334922
-1.080291074 -23.14327575 -12.14274888
-4.511965995 -25.35677308 -11.04508456
-1.135663017 -25.89127007 -9.187706809
-3.345155033 -24.56291373 -12.87390207
2.663403232 -16.23822339 -14.56702619
0.9623189088 -19.34147108 -13.59088123
3.500489956 -16.92732671 -13.49763497
0.9267053788 -16.93832819 -15.20704719
2.700693664 -18.42000143 -12.95345962
0 -18.58134328 -14.77162271
2.965777675 -22.58455697 -8.02646848
1.017180352 -21.79124305 -11.43336816
3.742511048 -21.03251742 -9.161494352
1.058796386 -24.13883586 -8.565842697
2.806728456 -20.60933746 -10.80175565
0 -23.77257195 -10.40511451
-10.33752239 17.55625272 -1.342628623
-9.498284903 17.86853589 -4.04506569
-9.281723245 18.60922563 -1.371671247
-7.216721516 17.4382391 -9.322041355
-8.454465602 17.83624378 -6.725570364
-6.993368879 20.88882108 -1.457991127
-8.39553367 18.93986102 -4.149951236
-8.165637729 19.7213266 -1.411597233
-8.863587836 18.81996981 -2.764835375
-0.8669787245 12.2036189 -17.47609039
-2.587349732 14.01662063 -15.90559904
-5.804846337 16.66365875 -11.76508122
-4.248664258 15.51614156 -13.98249699
-1.106277131 26.73721109 -1.789993999
-3.035119442 24.04685974 -4.910926418
-2.790237609 25.06620181 -1.686234896
-5.950114479 18.46895519 -9.627487464
-4.627205124 21.24862141 -7.486975164
-6.62826403 18.7375007 -8.314023486
-5.678988328 22.19565052 -1.528480056
-4.518678334 22.64730651 -4.673182032
-4.310438063 23.55633841 -1.598555908
-6.475068446 21.16794714 -2.960716332
-3.695421297 23.88267108 -3.249370245
-7.84187623 18.97580273 -5.589279396
-5.297715388 21.33281886 -6.020076373
-7.264133902 18.90589177 -6.956929982
-7.19703185 20.08602846 -4.318715856
-5.988195392 20.04343872 -7.211865865
-5.904733758 21.32140892 -4.494727362
16.34817741 27.76417047 -2.123287388
14.16104044 26.64028947 -6.030808655
13.87039606 27.80920344 -2.049794308
9.762146811 23.58891775 -12.61003852
11.9228069 25.15334504 -9.484653497
9.326203962 27.85687546 -1.944345116
11.91407173 26.87748887 -5.889180921
11.52615718 27.83752082 -1.992531646
12.9134853 27.41907768 -4.028127394
0.8914469063 12.54803377 -17.96930683
2.867025032 15.5317241 -17.62488852
0 13.57433898 -17.28301644
7.66679999 22.0086685 -15.53883072
5.219255459 19.06074513 -17.17674528
-1.772318641 15.41118126 -15.594796
1.910885343 16.61608681 -16.81405726
-0.8940477519 14.53816379 -16.48506658
0.925351276 15.04719226 -17.06226246
1.154110463 27.89327756 -1.867389956
3.448640819 27.32313626 -5.580018061
3.104292223 27.88752294 -1.876028714
0 27.46423596 -3.700252451
7.752783362 24.06437876 -12.54426699
5.676164596 26.06555563 -9.184227243
8.773532246 24.80197919 -11.00489552
7.130803788 27.86989859 -1.919231163
5.438229608 27.25603456 -5.624174817
5.101603957 27.88002229 -1.891965278
8.435623007 27.57728716 -3.857177266
4.279785682 27.65928579 -3.763199683
-2.057010042 24.24602231 -6.701435749
2.280750949 26.88326127 -7.430350669
-1.089332409 25.84900907 -5.291207404
1.1535443 27.37270721 -5.603103418
10.83440174 26.21712765 -7.722195129
6.614411053 26.63488362 -7.516307838
9.808332634 25.52751336 -9.393533255
9.686487483 27.03379217 -5.81256106
7.715655329 25.82552082 -9.292327263
7.520707816 27.15653123 -5.724818864
-5.084887233 18.01685185 -11.13502682
-1.848799048 19.98282462 -12.3500648
-4.313556232 17.52548805 -12.34350311
-4.450535034 19.5000624 -10.19894297
6.539547469 23.17102672 -14.32048207
2.053021756 22.19017461 -13.71428212
5.508740333 22.38138503 -15.76359499
5.555401661 24.34104624 -12.73087939
-2.663403232 16.23822339 -14.56702619
-0.9623189088 19.34147108 -13.59088123
-3.500489956 16.92732671 -13.49763497
-0.9267053788 16.93832819 -15.20704719
-2.700693664 18.42000143 -12.95345962
-2.965777675 22.58455697 -8.02646848
-1.017180352 21.79124305 -11.43336816
-3.742511048 21.03251742 -9.161494352
-1.058796386 24.13883586 -8.565842697
-2.806728456 20.60933746 -10.80175565
3.018257838 18.40169916 -16.50784247
1.011704622 20.33406545 -14.28835829
4.193535768 20.27868982 -16.16996927
0.9663277612 17.66254641 -15.85724245
3.128031448 21.33464617 -15.00311923
0 18.58134328 -14.77162271
3.439426937 26.19142166 -9.308334922
1.080291074 23.14327575 -12.14274888
4.511965995 25.35677308 -11.04508456
1.135663017 25.89127007 -9.187706809
3.345155033 24.56291373 -12.87390207
0 23.77257195 -10.40511451
0 -9.749500245 -18.52856225
0 -6.905777341 -19.15696
0 -1.368532681 -19.74582375
0 -4.118521909 -19.55384579
0 9.749500245 -18.52856225
0 6.905777341 -19.15696
0 1.368532681 -19.74582375
0 4.118521909 -19.55384579
19.44513513 27.84624316 -1.381435998
23.02467781 26.12764539 -4.250160974
18.22980869 27.32229015 -3.517864644
24.52785996 17.31746125 -8.544369527
24.30295884 21.90080875 -6.654690032
15.64174282 25.75964357 -7.359382471
21.20462528 25.05427393 -6.263082092
16.92698123 26.57760661 -5.519273819
19.9104117 26.44601677 -4.933748102
22.48336217 1.719433303 -13.23871692
24.25793098 5.491492135 -12.89466249
24.49968493 13.09691161 -10.13906291
24.39465415 9.198571462 -11.56318376
10.88929189 22.36282389 -13.82098525
15.26950035 21.19614248 -13.09993648
12.00206333 23.19034233 -12.3352503
23.1259784 16.80158817 -10.38395256
19.50683788 19.42850095 -12.00747394
22.94029362 18.9112631 -9.528741224
14.35603939 24.87527661 -9.158222716
16.56253807 22.07988569 -11.57492629
13.16098574 24.03350578 -10.77746728
16.92193908 24.52762486 -8.702016468
14.28502406 22.6971209 -11.99483606
22.09375199 23.13426491 -7.5221092
18.88361696 21.25788965 -11.02764802
22.6231392 21.0635783 -8.577268445
19.55509119 23.98862342 -8.168028279
21.01537722 20.22864382 -10.36019186
18.00786783 22.9949522 -9.938595824
11.48602863 -16.44847126 -0.8159991341
12.99982577 -14.75177376 -2.399657994
11.12269567 -16.67036245 -2.146382252
15.74462018 -11.11621032 -5.484695898
14.4100545 -12.98573765 -3.945793048
10.24412693 -16.87056624 -4.819824045
12.58716406 -14.87233338 -3.717794621
10.70719598 -16.81171844 -3.49122774
11.8745419 -15.77236769 -2.94248052
20.54302126 -1.571044162 -12.0961999
19.43647253 -4.400014004 -10.33174484
17.02292248 -9.1000236 -7.044844966
18.25474131 -6.883374586 -8.652835449
7.893087614 -16.20966083 -10.01812134
10.43742195 -14.48856071 -8.954422967
8.542975025 -16.50670472 -8.78013491
15.19806746 -11.04176723 -6.824187444
12.83929926 -12.7877383 -7.903256907
14.5873949 -12.02539372 -6.059186224
9.715141148 -16.83380888 -6.197630416
11.03403514 -14.70971621 -7.711266413
9.154068132 -16.71640359 -7.496221914
10.94199815 -15.85995698 -5.626863897
9.816045637 -15.59647178 -8.242328305
13.2947659 -13.92088752 -4.526378361
12.25959343 -13.80101517 -7.159353074
13.95042721 -12.98873305 -5.289122699
12.13606008 -14.88754884 -5.06914956
13.42395466 -12.92141438 -6.617761092
11.61542732 -14.83219438 -6.410588889
1.368066113 -10.53337746 -17.88887411
3.944601009 -9.262382141 -17.42474662
2.218202256 -11.49487171 -17.22816873
1.350723233 -9.139973772 -18.32502755
8.77724184 -6.794961278 -16.41911208
6.387144181 -8.029042572 -16.93873597
3.905810371 -13.22372023 -15.62445478
4.775772564 -10.15049924 -16.71637525
3.072141128 -12.39779441 -16.46737817
3.524767335 -10.81005807 -16.97322559
1.32664424 -6.363353227 -19.00699782
3.922774573 -7.935945299 -17.90305499
1.338338508 -7.741859479 -18.69783407
2.661407938 -8.532017218 -18.11594914
19.39990472 -0.9624180393 -13.5470256
16.40367006 -2.668370504 -14.4555398
19.003732 -2.446813811 -12.679552
11.19012138 -5.521163337 -15.84930529
13.70303082 -4.163746813 -15.20602266
18.08307562 -5.166231022 -10.98038556
16.15505331 -4.038449702 -13.67279103
18.55776692 -3.853823205 -11.81923478
17.53726682 -3.271738714 -13.20328144
7.067270034 -15.73943383 -11.43508312
8.029371015 -13.04417894 -12.99179521
6.333156072 -15.24697297 -12.56912932
8.409095145 -14.91958865 -10.89588238
9.627882074 -7.585625503 -15.57824044
8.874110981 -10.34380899 -14.35861319
8.444532008 -8.21643708 -15.87576931
4.765554508 -13.99726813 -14.65647433
7.270115533 -12.44926178 -14.01453088
5.559153592 -14.66265238 -13.65185988
5.212387117 -12.47898537 -15.30822218
6.821855098 -13.83795399 -13.3199152
10.95873451 -13.28359836 -9.848281321
9.361435477 -12.31000275 -12.49033142
9.709747591 -14.09752835 -10.36536554
8.900589438 -13.61232748 -11.72255443
6.051147147 -9.485520223 -16.43593563
7.699112549 -11.01664421 -14.68653197
7.248068537 -8.851033757 -16.16302723
5.641549813 -10.97055637 -15.90135091
8.083908702 -9.627378794 -15.2967037
6.480366903 -11.74185899 -14.99363993
1.319657883 -0.8155934254 -19.71178195
3.931500218 -2.429800762 -19.25099794
1.319441966 -2.183299969 -19.61375528
8.850843271 -5.47012197 -16.97907459
6.46059179 -3.992865314 -18.33566508
7.640884369 -6.091611252 -17.22043201
1.326878078 -4.929946639 -19.26811015
3.921077246 -3.791439468 -19.0024351
1.320960006 -3.56191251 -19.46568197
2.637219035 -5.767581844 -18.85506981
2.634635363 -2.996299866 -19.36440758
5.207282163 -7.305926099 -17.67890851
5.223455027 -4.596682229 -18.50990137
6.422727094 -6.706341697 -17.45416205
3.939265045 -6.564686574 -18.32123077
6.448392247 -5.354263857 -17.92156944
3.939839443 -5.175776211 -18.6892154
15.89914913 -9.826214555 -7.741887899
14.62212542 -9.0369705 -10.53364071
16.46755458 -8.759310432 -8.522713036
14.67569927 -10.71776822 -8.271632307
11.04539335 -6.826428512 -15.20305852
12.98745405 -8.026688031 -13.03982028
12.25512976 -6.174942392 -14.86607604
10.65200407 -8.220877627 -14.58564928
17.54947581 -6.461114407 -10.12816742
15.05524204 -7.892401227 -11.29322057
17.02209214 -7.633303386 -9.321466208
16.74601131 -5.941222073 -11.55329898
15.80686707 -8.353516728 -9.948463394
12.24236185 -12.42169965 -9.309996336
13.33828425 -9.888824699 -11.0038494
13.45296144 -11.58531287 -8.796385974
11.50678663 -12.01150626 -10.69013313
14.04976629 -10.33024795 -9.676851218
14.77610381 -4.804452049 -14.11151702
14.18489761 -7.358494218 -12.60060042
13.50255847 -5.498356785 -14.50229659
15.8131577 -5.384315598 -12.89059965
13.26066428 -6.79150947 -13.77639868
15.44262732 -6.67442272 -12.09347118
9.822105137 -10.9296068 -13.2482913
12.4990967 -9.368005006 -12.31864149
10.24277471 -9.59491073 -13.93079735
10.69295275 -11.50982165 -12.0146744
11.61723598 -8.820624244 -13.49003082
12.0229806 -10.70034519 -11.51777883
1.421480805 10.94464202 -18.58732624
4.374705476 10.27231748 -19.32467549
2.378818343 12.32719496 -18.47562984
1.395523839 9.443127193 -18.9328296
10.5299852 8.151859434 -19.69787439
7.437109029 9.348914524 -19.72324761
4.553671832 15.4171546 -18.21610188
5.50749378 11.70571058 -19.27757897
3.423872871 13.8172272 -18.35274065
3.928509937 12.04829044 -18.9174147
1.356262539 6.505419725 -19.4313429
4.278328672 8.655246863 -19.52575966
1.375294886 7.955640286 -19.21414905
2.8309624 9.07557973 -19.27009013
20.39885298 1.011975284 -14.24459488
18.62116363 3.029088223 -16.40967973
21.76937091 2.802901946 -14.52482441
18.7065445 0 -14.69239916
13.53183374 6.676555308 -19.16602659
16.285117 4.948328942 -18.07132023
23.27259482 6.648846903 -14.13155978
19.793597 4.948014987 -16.75226385
23.2282489 4.823725022 -14.79381266
20.86609422 3.892762138 -15.70945561
15.64533934 -1.778062795 -15.4611295
16.89394048 1.919963919 -16.69502949
17.12015727 -0.9284911314 -15.09824964
17.86204535 0.9687265391 -15.75252
9.601751987 21.38394873 -15.53596107
11.19114919 18.18067097 -18.10765976
8.54035607 20.56077202 -16.94965965
11.73856733 20.82680631 -15.20996572
12.16607567 9.585420053 -19.68512395
12.18635947 14.20462004 -19.71794383
10.51512797 10.23110425 -19.76850176
5.871981281 17.24703732 -18.05929253
9.922365583 16.9909441 -19.12724746
7.281457693 19.20534865 -17.8813984
6.381549973 15.27808027 -18.74192816
9.358294054 18.98305383 -18.27240265
15.97325397 19.36193364 -14.35467741
13.22542353 17.39102945 -17.64578985
13.88274946 20.15628647 -14.82013528
12.52126335 19.14969098 -16.49117648
7.200288296 11.28686488 -19.55719669
10.23403726 14.64386273 -19.52205717
8.843628271 10.7994636 -19.72108898
6.824904554 13.27170771 -19.23677107
10.42118492 12.41091388 -19.71939365
8.293049067 15.02628079 -19.18764686
1.323307125 0.8178487808 -19.76629081
4.031266946 2.49145999 -19.73951605
1.329276097 2.199572651 -19.75994151
2.651539171 0 -19.68041327
10.20479968 6.306913054 -19.57644596
6.934481791 4.285745441 -19.68060198
8.754245488 6.979226192 -19.72963887
1.349659777 5.014590861 -19.59893203
4.079315109 3.944445706 -19.76929189
1.337155741 3.605583622 -19.70434252
2.746262193 6.006058562 -19.63468514
2.689518891 3.058717425 -19.76779813
5.294182389 -1.625052712 -19.15453182
5.414716693 1.662050795 -19.59062903
3.986488279 -0.8207221051 -19.47509591
4.020285462 0.8276801328 -19.64020448
5.802660961 8.14125504 -19.70024075
5.577318771 4.908085155 -19.76385741
7.274245712 7.595461651 -19.76821709
4.229008551 7.047536872 -19.66880641
7.106688406 5.900863876 -19.7511263
4.163027822 5.468979302 -19.74794273
23.24526647 14.36636476 -11.31898605
20.66341421 12.77069231 -14.88572795
23.29168865 12.38915775 -12.05451469
21.74234141 15.87858756 -12.25458838
14.09425224 8.710726928 -19.39955732
18.1052142 11.18963775 -18.17821555
15.65580218 7.888425372 -18.99125918
14.33857821 11.06605819 -19.63362684
23.29545721 8.57658746 -13.44429276
20.81113759 10.90981118 -15.61082623
23.30625557 10.45134276 -12.76273633
22.14948333 7.858289164 -15.28122717
22.05149898 11.65364172 -13.87868509
18.09470867 18.35977723 -13.76055319
19.04254444 14.11788655 -15.70976352
19.99711253 17.22095214 -13.07536046
16.64959332 17.37989073 -15.4679473
20.37300443 14.97947958 -14.0320151
18.51764181 6.021013609 -17.68477137
19.5237011 10.1280281 -17.34311822
17.14709352 6.982442491 -18.41667536
20.95317429 7.134470249 -17.08064805
18.05986936 9.24944416 -18.76225468
20.88955213 9.028625661 -16.35908136
13.89713199 15.46411754 -18.74478538
17.66371119 13.23885548 -17.40869205
14.48165678 13.56568 -19.6959351
15.24757673 16.41238795 -17.13228087
16.35459671 12.41756236 -18.99109341
17.20915409 15.31599321 -16.48603098
10.30703404 -4.706778589 -16.6771314
10.91765913 -1.634368575 -17.66514355
11.55659036 -4.038561981 -16.40821771
9.131435616 -3.984704516 -17.45902147
11.88770348 5.428602251 -19.23470827
11.45306166 1.714518088 -18.53144304
13.24615133 4.62899536 -18.80708133
10.12230542 4.417092537 -19.35353378
14.18578089 -2.593697174 -15.81323985
12.26387017 -0.8683582734 -17.45297352
12.85327926 -3.333382112 -16.11924295
14.72122332 -0.8970996576 -16.39719459
11.91637879 -2.48447053 -16.94525792
6.643571603 -2.454797697 -18.69341688
9.617379357 -0.8556191998 -18.33008858
7.899963994 -3.227170305 -18.13635679
6.752130969 -0.8346092871 -19.02773457
9.388633758 -2.439542829 -17.91315483
15.74529562 2.878835438 -17.55166937
12.6123451 0.8930324654 -17.94889557
14.54646748 3.772495213 -18.24266311
15.24538015 0.9290413585 -16.98102525
12.93655562 2.697169314 -18.39596371
13.70001707 0 -17.23336191
6.939446684 2.564123451 -19.52593839
9.826496432 0.8742234969 -18.72865188
8.471901074 3.460809137 -19.44938239
6.851646792 0.8469101192 -19.30817354
9.992464701 2.596442276 -19.06524122
8.266155636 0 -18.8856912
19.44513513 27.84624316 1.381435998
23.02467781 26.12764539 4.250160974
18.22980869 27.32229015 3.517864644
21.9588864 27.95832601 0
24.52785996 17.31746125 8.544369527
24.30295884 21.90080875 6.654690032
15.64174282 25.75964357 7.359382471
21.20462528 25.05427393 6.263082092
16.92698123 26.57760661 5.519273819
19.9104117 26.44601677 4.933748102
25.70895 26.01525631 -2.95658396
25.70895 26.01525631 2.95658396
24.37947328 27.64429168 -1.499254899
24.37947328 27.64429168 1.499254899
22.48336217 1.719433303 13.23871692
24.25793098 5.491492135 12.89466249
24.49968493 13.09691161 10.13906291
24.39465415 9.198571462 11.56318376
10.88929189 22.36282389 13.82098525
15.26950035 21.19614248 13.09993648
12.00206333 23.19034233 12.3352503
23.1259784 16.80158817 10.38395256
19.50683788 19.42850095 12.00747394
22.94029362 18.9112631 9.528741224
14.35603939 24.87527661 9.158222716
16.56253807 22.07988569 11.57492629
13.16098574 24.03350578 10.77746728
16.92193908 24.52762486 8.702016468
14.28502406 22.6971209 11.99483606
22.09375199 23.13426491 7.5221092
18.88361696 21.25788965 11.02764802
22.6231392 21.0635783 8.577268445
19.55509119 23.98862342 8.168028279
21.01537722 20.22864382 10.36019186
18.00786783 22.9949522 9.938595824
25.76225328 15.92194815 -7.270868066
27.65702333 17.09298044 -2.558811348
25.87497231 18.22418868 -6.368618535
25.76225328 15.92194815 7.270868066
27.65702333 17.09298044 2.558811348
25.87497231 18.22418868 6.368618535
25.99747685 23.32188179 -4.264121893
27.84399064 19.56543886 -1.385354743
25.96947085 20.70772567 -5.370361984
27.59976981 24.77877375 -1.509998794
27.07487658 19.03980962 -3.969649401
25.99747685 23.32188179 4.264121893
27.84399064 19.56543886 1.385354743
25.96947085 20.70772567 5.370361984
27.59976981 24.77877375 1.509998794
27.07487658 19.03980962 3.969649401
27.95832601 22.22604885 0
11.48602863 -16.44847126 0.8159991341
12.99982577 -14.75177376 2.399657994
11.12269567 -16.67036245 2.146382252
12.29903825 -15.65928776 0
15.74462018 -11.11621032 5.484695898
14.4100545 -12.98573765 3.945793048
10.24412693 -16.87056624 4.819824045
12.58716406 -14.87233338 3.717794621
10.70719598 -16.81171844 3.49122774
11.8745419 -15.77236769 2.94248052
13.85119689 -14.01622537 -1.592917118
13.85119689 -14.01622537 1.592917118
13.09101485 -14.84412024 -0.8050530016
13.09101485 -14.84412024 0.8050530016
20.54302126 -1.571044162 12.0961999
19.43647253 -4.400014004 10.33174484
17.02292248 -9.1000236 7.044844966
18.25474131 -6.883374586 8.652835449
7.893087614 -16.20966083 10.01812134
10.43742195 -14.48856071 8.954422967
8.542975025 -16.50670472 8.78013491
15.19806746 -11.04176723 6.824187444
12.83929926 -12.7877383 7.903256907
14.5873949 -12.02539372 6.059186224
9.715141148 -16.83380888 6.197630416
11.03403514 -14.70971621 7.711266413
9.154068132 -16.71640359 7.496221914
10.94199815 -15.85995698 5.626863897
9.816045637 -15.59647178 8.242328305
13.2947659 -13.92088752 4.526378361
12.25959343 -13.80101517 7.159353074
13.95042721 -12.98873305 5.289122699
12.13606008 -14.88754884 5.06914956
13.42395466 -12.92141438 6.617761092
11.61542732 -14.83219438 6.410588889
16.77631467 -10.36833267 -4.734771036
17.22297581 -10.64438444 -1.593459478
16.07262907 -11.3202295 -3.955963398
16.77631467 -10.36833267 4.734771036
17.22297581 -10.64438444 1.593459478
16.07262907 -11.3202295 3.955963398
14.62859187 -13.12305391 -2.399390496
16.40617724 -11.52830648 -0.8162757898
15.35307676 -12.24234808 -3.174942618
14.71982238 -13.21529676 -0.8053296891
16.29460467 -11.45882124 -2.389073408
14.62859187 -13.12305391 2.399390496
16.40617724 -11.52830648 0.8162757898
15.35307676 -12.24234808 3.174942618
14.71982238 -13.21529676 0.8053296891
16.29460467 -11.45882124 2.389073408
15.57592369 -12.38240232 0
1.368066113 -10.53337746 17.88887411
3.944601009 -9.262382141 17.42474662
2.218202256 -11.49487171 17.22816873
1.350723233 -9.139973772 18.32502755
8.77724184 -6.794961278 16.41911208
6.387144181 -8.029042572 16.93873597
3.905810371 -13.22372023 15.62445478
4.775772564 -10.15049924 16.71637525
3.072141128 -12.39779441 16.46737817
3.524767335 -10.81005807 16.97322559
1.32664424 -6.363353227 19.00699782
3.922774573 -7.935945299 17.90305499
1.338338508 -7.741859479 18.69783407
2.661407938 -8.532017218 18.11594914
19.39990472 -0.9624180393 13.5470256
16.40367006 -2.668370504 14.4555398
19.003732 -2.446813811 12.679552
11.19012138 -5.521163337 15.84930529
13.70303082 -4.163746813 15.20602266
18.08307562 -5.166231022 10.98038556
16.15505331 -4.038449702 13.67279103
18.55776692 -3.853823205 11.81923478
17.53726682 -3.271738714 13.20328144
7.067270034 -15.73943383 11.43508312
8.029371015 -13.04417894 12.99179521
6.333156072 -15.24697297 12.56912932
8.409095145 -14.91958865 10.89588238
9.627882074 -7.585625503 15.57824044
8.874110981 -10.34380899 14.35861319
8.444532008 -8.21643708 15.87576931
4.765554508 -13.99726813 14.65647433
7.270115533 -12.44926178 14.01453088
5.559153592 -14.66265238 13.65185988
5.212387117 -12.47898537 15.30822218
6.821855098 -13.83795399 13.3199152
10.95873451 -13.28359836 9.848281321
9.361435477 -12.31000275 12.49033142
9.709747591 -14.09752835 10.36536554
8.900589438 -13.61232748 11.72255443
6.051147147 -9.485520223 16.43593563
7.699112549 -11.01664421 14.68653197
7.248068537 -8.851033757 16.16302723
5.641549813 -10.97055637 15.90135091
8.083908702 -9.627378794 15.2967037
6.480366903 -11.74185899 14.99363993
1.319657883 -0.8155934254 19.71178195
3.931500218 -2.429800762 19.25099794
1.319441966 -2.183299969 19.61375528
8.850843271 -5.47012197 16.97907459
6.46059179 -3.992865314 18.33566508
7.640884369 -6.091611252 17.22043201
1.326878078 -4.929946639 19.26811015
3.921077246 -3.791439468 19.0024351
1.320960006 -3.56191251 19.46568197
2.637219035 -5.767581844 18.85506981
2.634635363 -2.996299866 19.36440758
5.207282163 -7.305926099 17.67890851
5.223455027 -4.596682229 18.50990137
6.422727094 -6.706341697 17.45416205
3.939265045 -6.564686574 18.32123077
6.448392247 -5.354263857 17.92156944
3.939839443 -5.175776211 18.6892154
15.89914913 -9.826214555 7.741887899
14.62212542 -9.0369705 10.53364071
16.46755458 -8.759310432 8.522713036
14.67569927 -10.71776822 8.271632307
11.04539335 -6.826428512 15.20305852
12.98745405 -8.026688031 13.03982028
12.25512976 -6.174942392 14.86607604
10.65200407 -8.220877627 14.58564928
17.54947581 -6.461114407 10.12816742
15.05524204 -7.892401227 11.29322057
17.02209214 -7.633303386 9.321466208
16.74601131 -5.941222073 11.55329898
15.80686707 -8.353516728 9.948463394
12.24236185 -12.42169965 9.309996336
13.33828425 -9.888824699 11.0038494
13.45296144 -11.58531287 8.796385974
11.50678663 -12.01150626 10.69013313
14.04976629 -10.33024795 9.676851218
14.77610381 -4.804452049 14.11151702
14.18489761 -7.358494218 12.60060042
13.50255847 -5.498356785 14.50229659
15.8131577 -5.384315598 12.89059965
13.26066428 -6.79150947 13.77639868
15.44262732 -6.67442272 12.09347118
9.822105137 -10.9296068 13.2482913
12.4990967 -9.368005006 12.31864149
10.24277471 -9.59491073 13.93079735
10.69295275 -11.50982165 12.0146744
11.61723598 -8.820624244 13.49003082
12.0229806 -10.70034519 11.51777883
1.421480805 10.94464202 18.58732624
4.374705476 10.27231748 19.32467549
2.378818343 12.32719496 18.47562984
1.395523839 9.443127193 18.9328296
10.5299852 8.151859434 19.69787439
7.437109029 9.348914524 19.72324761
4.553671832 15.4171546 18.21610188
5.50749378 11.70571058 19.27757897
3.423872871 13.8172272 18.35274065
3.928509937 12.04829044 18.9174147
1.356262539 6.505419725 19.4313429
4.278328672 8.655246863 19.52575966
1.375294886 7.955640286 19.21414905
2.8309624 9.07557973 19.27009013
20.39885298 1.011975284 14.24459488
18.62116363 3.029088223 16.40967973
21.76937091 2.802901946 14.52482441
18.7065445 0 14.69239916
13.53183374 6.676555308 19.16602659
16.285117 4.948328942 18.07132023
23.27259482 6.648846903 14.13155978
19.793597 4.948014987 16.75226385
23.2282489 4.823725022 14.79381266
20.86609422 3.892762138 15.70945561
15.64533934 -1.778062795 15.4611295
16.89394048 1.919963919 16.69502949
17.12015727 -0.9284911314 15.09824964
17.86204535 0.9687265391 15.75252
9.601751987 21.38394873 15.53596107
11.19114919 18.18067097 18.10765976
8.54035607 20.56077202 16.94965965
11.73856733 20.82680631 15.20996572
12.16607567 9.585420053 19.68512395
12.18635947 14.20462004 19.71794383
10.51512797 10.23110425 19.76850176
5.871981281 17.24703732 18.05929253
9.922365583 16.9909441 19.12724746
7.281457693 19.20534865 17.8813984
6.381549973 15.27808027 18.74192816
9.358294054 18.98305383 18.27240265
15.97325397 19.36193364 14.35467741
13.22542353 17.39102945 17.64578985
13.88274946 20.15628647 14.82013528
12.52126335 19.14969098 16.49117648
7.200288296 11.28686488 19.55719669
10.23403726 14.64386273 19.52205717
8.843628271 10.7994636 19.72108898
6.824904554 13.27170771 19.23677107
10.42118492 12.41091388 19.71939365
8.293049067 15.02628079 19.18764686
1.323307125 0.8178487808 19.76629081
4.031266946 2.49145999 19.73951605
1.329276097 2.199572651 19.75994151
2.651539171 0 19.68041327
10.20479968 6.306913054 19.57644596
6.934481791 4.285745441 19.68060198
8.754245488 6.979226192 19.72963887
1.349659777 5.014590861 19.59893203
4.079315109 3.944445706 19.76929189
1.337155741 3.605583622 19.70434252
2.746262193 6.006058562 19.63468514
2.689518891 3.058717425 19.76779813
5.294182389 -1.625052712 19.15453182
5.414716693 1.662050795 19.59062903
3.986488279 -0.8207221051 19.47509591
4.020285462 0.8276801328 19.64020448
5.802660961 8.14125504 19.70024075
5.577318771 4.908085155 19.76385741
7.274245712 7.595461651 19.76821709
4.229008551 7.047536872 19.66880641
7.106688406 5.900863876 19.7511263
4.163027822 5.468979302 19.74794273
23.24526647 14.36636476 11.31898605
20.66341421 12.77069231 14.88572795
23.29168865 12.38915775 12.05451469
21.74234141 15.87858756 12.25458838
14.09425224 8.710726928 19.39955732
18.1052142 11.18963775 18.17821555
15.65580218 7.888425372 18.99125918
14.33857821 11.06605819 19.63362684
23.29545721 8.57658746 13.44429276
20.81113759 10.90981118 15.61082623
23.30625557 10.45134276 12.76273633
22.14948333 7.858289164 15.28122717
22.05149898 11.65364172 13.87868509
18.09470867 18.35977723 13.76055319
19.04254444 14.11788655 15.70976352
19.99711253 17.22095214 13.07536046
16.64959332 17.37989073 15.4679473
20.37300443 14.97947958 14.0320151
18.51764181 6.021013609 17.68477137
19.5237011 10.1280281 17.34311822
17.14709352 6.982442491 18.41667536
20.95317429 7.134470249 17.08064805
18.05986936 9.24944416 18.76225468
20.88955213 9.028625661 16.35908136
13.89713199 15.46411754 18.74478538
17.66371119 13.23885548 17.40869205
14.48165678 13.56568 19.6959351
15.24757673 16.41238795 17.13228087
16.35459671 12.41756236 18.99109341
17.20915409 15.31599321 16.48603098
10.30703404 -4.706778589 16.6771314
10.91765913 -1.634368575 17.66514355
11.55659036 -4.038561981 16.40821771
9.131435616 -3.984704516 17.45902147
11.88770348 5.428602251 19.23470827
11.45306166 1.714518088 18.53144304
13.24615133 4.62899536 18.80708133
10.12230542 4.417092537 19.35353378
14.18578089 -2.593697174 15.81323985
12.26387017 -0.8683582734 17.45297352
12.85327926 -3.333382112 16.11924295
14.72122332 -0.8970996576 16.39719459
11.91637879 -2.48447053 16.94525792
6.643571603 -2.454797697 18.69341688
9.617379357 -0.8556191998 18.33008858
7.899963994 -3.227170305 18.13635679
6.752130969 -0.8346092871 19.02773457
9.388633758 -2.439542829 17.91315483
15.74529562 2.878835438 17.55166937
12.6123451 0.8930324654 17.94889557
14.54646748 3.772495213 18.24266311
15.24538015 0.9290413585 16.98102525
12.93655562 2.697169314 18.39596371
13.70001707 0 17.23336191
6.939446684 2.564123451 19.52593839
9.826496432 0.8742234969 18.72865188
8.471901074 3.460809137 19.44938239
6.851646792 0.8469101192 19.30817354
9.992464701 2.596442276 19.06524122
8.266155636 0 18.8856912
22.42957451 0 -11.80216464
24.90827047 0 -8.979032677
24.01331792 1.7700026 -11.97712229
21.76292603 -1.604128 -10.85469436
27.82498754 0 -1.928478916
26.79488948 0 -5.643664194
25.1820633 5.517692798 -11.16253494
26.4561143 1.846575245 -8.857243101
25.08356992 3.68501874 -11.81353782
25.47096901 1.823140506 -10.54628371
20.39495543 -4.468779915 -9.040538093
23.89831161 -1.668046566 -8.000916281
21.08023947 -3.096890823 -9.92810063
22.89548571 -1.638794637 -9.479901921
22.42957451 0 11.80216464
24.90827047 0 8.979032677
24.01331792 1.7700026 11.97712229
21.76292603 -1.604128 10.85469436
27.82498754 0 1.928478916
26.79488948 0 5.643664194
25.1820633 5.517692798 11.16253494
26.4561143 1.846575245 8.857243101
25.08356992 3.68501874 11.81353782
25.47096901 1.823140506 10.54628371
20.39495543 -4.468779915 9.040538093
23.89831161 -1.668046566 8.000916281
21.08023947 -3.096890823 9.92810063
22.89548571 -1.638794637 9.479901921
25.62449291 13.35752249 -8.255402903
27.0194955 9.520349006 -5.883899271
25.51105998 11.31952203 -9.024364774
26.64036007 13.93346891 -6.080178277
27.93272562 1.870030912 -1.155742663
27.68461664 5.653840738 -3.494265743
27.77513009 1.868467905 -3.091781243
25.29432786 7.450386557 -10.45304861
26.86607209 7.581548735 -6.671823564
25.39967764 9.346492672 -9.759214834
26.01566889 5.593653417 -9.321683375
26.29075389 9.459723611 -7.854648769
27.89469691 14.63571118 -1.30207981
27.59654795 9.807711638 -3.623946483
27.44379977 14.38383062 -3.737494905
27.2291707 11.8606769 -4.845139082
27.04115567 1.862160657 -6.918761283
27.29415113 5.632040021 -5.445834775
27.4740387 1.864414839 -5.027315369
26.59331674 3.719551389 -8.134636059
27.58208181 3.752695653 -4.267839731
26.73086521 5.635084987 -7.402824213
17.60553699 -9.17740527 -5.671948386
20.15778783 -7.102618749 -4.389659796
18.29817944 -8.119092086 -6.47285711
17.95830013 -9.392568861 -4.0986558
26.16470872 -1.751666299 -1.08258931
22.96597465 -4.690184615 -2.898693506
25.91568439 -1.743380657 -2.884797539
19.68400414 -5.797878506 -8.134545157
21.03037484 -5.934727312 -5.222607532
18.99414804 -6.989406245 -7.298044251
21.23776699 -4.56635224 -7.609711684
19.63448732 -7.064720325 -5.866016712
18.32004689 -9.612110715 -0.85515047
20.43647485 -7.263047995 -2.683694037
18.19918832 -9.538549491 -2.478496936
19.1827055 -8.355740048 -3.413356843
24.77586764 -1.706163986 -6.33916375
22.56693047 -4.656596753 -4.502641393
25.44513359 -1.726731376 -4.656057762
22.93179141 -3.207421526 -7.014611193
24.1657865 -3.287889672 -3.739228404
21.96988506 -4.631431437 -6.084322217
25.62449291 13.35752249 8.255402903
27.0194955 9.520349006 5.883899271
25.51105998 11.31952203 9.024364774
26.64036007 13.93346891 6.080178277
27.93272562 1.870030912 1.155742663
27.68461664 5.653840738 3.494265743
27.77513009 1.868467905 3.091781243
27.95832601 3.766821131 0
25.29432786 7.450386557 10.45304861
26.86607209 7.581548735 6.671823564
25.39967764 9.346492672 9.759214834
26.01566889 5.593653417 9.321683375
26.29075389 9.459723611 7.854648769
27.89469691 14.63571118 1.30207981
27.59654795 9.807711638 3.623946483
27.44379977 14.38383062 3.737494905
27.95832601 12.23719437 0
27.2291707 11.8606769 4.845139082
27.04115567 1.862160657 6.918761283
27.29415113 5.632040021 5.445834775
27.4740387 1.864414839 5.027315369
26.59331674 3.719551389 8.134636059
27.58208181 3.752695653 4.267839731
26.73086521 5.635084987 7.402824213
27.82089787 7.689507051 -2.360299168
27.82089787 7.689507051 2.360299168
27.92718813 5.716603843 -1.176911309
27.91679507 9.906479192 -1.22450817
27.92718813 5.716603843 1.176911309
27.91679507 9.906479192 1.22450817
17.60553699 -9.17740527 5.671948386
20.15778783 -7.102618749 4.389659796
18.29817944 -8.119092086 6.47285711
17.95830013 -9.392568861 4.0986558
26.16470872 -1.751666299 1.08258931
22.96597465 -4.690184615 2.898693506
25.91568439 -1.743380657 2.884797539
24.63875076 -3.319575248 0
19.68400414 -5.797878506 8.134545157
21.03037484 -5.934727312 5.222607532
18.99414804 -6.989406245 7.298044251
21.23776699 -4.56635224 7.609711684
19.63448732 -7.064720325 5.866016712
18.32004689 -9.612110715 0.85515047
20.43647485 -7.263047995 2.683694037
18.19918832 -9.538549491 2.478496936
19.44664445 -8.511681563 0
19.1827055 -8.355740048 3.413356843
24.77586764 -1.706163986 6.33916375
22.56693047 -4.656596753 4.502641393
25.44513359 -1.726731376 4.656057762
22.93179141 -3.207421526 7.014611193
24.1657865 -3.287889672 3.739228404
21.96988506 -4.631431437 6.084322217
21.80802864 -6.027590871 -1.85017292
21.80802864 -6.027590871 1.85017292
23.17942381 -4.744752055 -0.9768303887
20.6140294 -7.31503931 -0.9041885845
23.17942381 -4.744752055 0.9768303887
20.6140294 -7.31503931 0.9041885845
-11.48602863 16.44847126 -0.8159991341
-12.99982577 14.75177376 -2.399657994
-11.12269567 16.67036245 -2.146382252
-15.74462018 11.11621032 -5.484695898
-14.4100545 12.98573765 -3.945793048
-10.24412693 16.87056624 -4.819824045
-12.58716406 14.87233338 -3.717794621
-10.70719598 16.81171844 -3.49122774
-11.8745419 15.77236769 -2.94248052
-20.54302126 1.571044162 -12.0961999
-19.43647253 4.400014004 -10.33174484
-17.02292248 9.1000236 -7.044844966
-18.25474131 6.883374586 -8.652835449
-7.893087614 16.20966083 -10.01812134
-10.43742195 14.48856071 -8.954422967
-8.542975025 16.50670472 -8.78013491
-15.19806746 11.04176723 -6.824187444
-12.83929926 12.7877383 -7.903256907
-14.5873949 12.02539372 -6.059186224
-9.715141148 16.83380888 -6.197630416
-11.03403514 14.70971621 -7.711266413
-9.154068132 16.71640359 -7.496221914
-10.94199815 15.85995698 -5.626863897
-9.816045637 15.59647178 -8.242328305
-13.2947659 13.92088752 -4.526378361
-12.25959343 13.80101517 -7.159353074
-13.95042721 12.98873305 -5.289122699
-12.13606008 14.88754884 -5.06914956
-13.42395466 12.92141438 -6.617761092
-11.61542732 14.83219438 -6.410588889
-19.44513513 -27.84624316 -1.381435998
-23.02467781 -26.12764539 -4.250160974
-18.22980869 -27.32229015 -3.517864644
-24.52785996 -17.31746125 -8.544369527
-24.30295884 -21.90080875 -6.654690032
-15.64174282 -25.75964357 -7.359382471
-21.20462528 -25.05427393 -6.263082092
-16.92698123 -26.57760661 -5.519273819
-19.9104117 -26.44601677 -4.933748102
-22.48336217 -1.719433303 -13.23871692
-24.25793098 -5.491492135 -12.89466249
-24.49968493 -13.09691161 -10.13906291
-24.39465415 -9.198571462 -11.56318376
-10.88929189 -22.36282389 -13.82098525
-15.26950035 -21.19614248 -13.09993648
-12.00206333 -23.19034233 -12.3352503
-23.1259784 -16.80158817 -10.38395256
-19.50683788 -19.42850095 -12.00747394
-22.94029362 -18.9112631 -9.528741224
-14.35603939 -24.87527661 -9.158222716
-16.56253807 -22.07988569 -11.57492629
-13.16098574 -24.03350578 -10.77746728
-16.92193908 -24.52762486 -8.702016468
-14.28502406 -22.6971209 -11.99483606
-22.09375199 -23.13426491 -7.5221092
-18.88361696 -21.25788965 -11.02764802
-22.6231392 -21.0635783 -8.577268445
-19.55509119 -23.98862342 -8.168028279
-21.01537722 -20.22864382 -10.36019186
-18.00786783 -22.9949522 -9.938595824
-1.421480805 -10.94464202 -18.58732624
-4.374705476 -10.27231748 -19.32467549
-2.378818343 -12.32719496 -18.47562984
-1.395523839 -9.443127193 -18.9328296
-10.5299852 -8.151859434 -19.69787439
-7.437109029 -9.348914524 -19.72324761
-4.553671832 -15.4171546 -18.21610188
-5.50749378 -11.70571058 -19.27757897
-3.423872871 -13.8172272 -18.35274065
-3.928509937 -12.04829044 -18.9174147
-1.356262539 -6.505419725 -19.4313429
-4.278328672 -8.655246863 -19.52575966
-1.375294886 -7.955640286 -19.21414905
-2.8309624 -9.07557973 -19.27009013
-20.39885298 -1.011975284 -14.24459488
-18.62116363 -3.029088223 -16.40967973
-21.76937091 -2.802901946 -14.52482441
-13.53183374 -6.676555308 -19.16602659
-16.285117 -4.948328942 -18.07132023
-23.27259482 -6.648846903 -14.13155978
-19.793597 -4.948014987 -16.75226385
-23.2282489 -4.823725022 -14.79381266
-20.86609422 -3.892762138 -15.70945561
-9.601751987 -21.38394873 -15.53596107
-11.19114919 -18.18067097 -18.10765976
-8.54035607 -20.56077202 -16.94965965
-11.73856733 -20.82680631 -15.20996572
-12.16607567 -9.585420053 -19.68512395
-12.18635947 -14.20462004 -19.71794383
-10.51512797 -10.23110425 -19.76850176
-5.871981281 -17.24703732 -18.05929253
-9.922365583 -16.9909441 -19.12724746
-7.281457693 -19.20534865 -17.8813984
-6.381549973 -15.27808027 -18.74192816
-9.358294054 -18.98305383 -18.27240265
-15.97325397 -19.36193364 -14.35467741
-13.22542353 -17.39102945 -17.64578985
-13.88274946 -20.15628647 -14.82013528
-12.52126335 -19.14969098 -16.49117648
-7.200288296 -11.28686488 -19.55719669
-10.23403726 -14.64386273 -19.52205717
-8.843628271 -10.7994636 -19.72108898
-6.824904554 -13.27170771 -19.23677107
-10.42118492 -12.41091388 -19.71939365
-8.293049067 -15.02628079 -19.18764686
-1.323307125 -0.8178487808 -19.76629081
-4.031266946 -2.49145999 -19.73951605
-1.329276097 -2.199572651 -19.75994151
-10.20479968 -6.306913054 -19.57644596
-6.934481791 -4.285745441 -19.68060198
-8.754245488 -6.979226192 -19.72963887
-1.349659777 -5.014590861 -19.59893203
-4.079315109 -3.944445706 -19.76929189
-1.337155741 -3.605583622 -19.70434252
-2.746262193 -6.006058562 -19.63468514
-2.689518891 -3.058717425 -19.76779813
-5.802660961 -8.14125504 -19.70024075
-5.577318771 -4.908085155 -19.76385741
-7.274245712 -7.595461651 -19.76821709
-4.229008551 -7.047536872 -19.66880641
-7.106688406 -5.900863876 -19.7511263
-4.163027822 -5.468979302 -19.74794273
-23.24526647 -14.36636476 -11.31898605
-20.66341421 -12.77069231 -14.88572795
-23.29168865 -12.38915775 -12.05451469
-21.74234141 -15.87858756 -12.25458838
-14.09425224 -8.710726928 -19.39955732
-18.1052142 -11.18963775 -18.17821555
-15.65580218 -7.888425372 -18.99125918
-14.33857821 -11.06605819 -19.63362684
-23.29545721 -8.57658746 -13.44429276
-20.81113759 -10.90981118 -15.61082623
-23.30625557 -10.45134276 -12.76273633
-22.14948333 -7.858289164 -15.28122717
-22.05149898 -11.65364172 -13.87868509
-18.09470867 -18.35977723 -13.76055319
-19.04254444 -14.11788655 -15.70976352
-19.99711253 -17.22095214 -13.07536046
-16.64959332 -17.37989073 -15.4679473
-20.37300443 -14.97947958 -14.0320151
-18.51764181 -6.021013609 -17.68477137
-19.5237011 -10.1280281 -17.34311822
-17.14709352 -6.982442491 -18.41667536
-20.95317429 -7.134470249 -17.08064805
-18.05986936 -9.24944416 -18.76225468
-20.88955213 -9.028625661 -16.35908136
-13.89713199 -15.46411754 -18.74478538
-17.66371119 -13.23885548 -17.40869205
-14.48165678 -13.56568 -19.6959351
-15.24757673 -16.41238795 -17.13228087
-16.35459671 -12.41756236 -18.99109341
-17.20915409 -15.31599321 -16.48603098
-1.368066113 10.53337746 -17.88887411
-3.944601009 9.262382141 -17.42474662
-2.218202256 11.49487171 -17.22816873
-1.350723233 9.139973772 -18.32502755
-8.77724184 6.794961278 -16.41911208
-6.387144181 8.029042572 -16.93873597
-3.905810371 13.22372023 -15.62445478
-4.775772564 10.15049924 -16.71637525
-3.072141128 12.39779441 -16.46737817
-3.524767335 10.81005807 -16.97322559
-1.32664424 6.363353227 -19.00699782
-3.922774573 7.935945299 -17.90305499
-1.338338508 7.741859479 -18.69783407
-2.661407938 8.532017218 -18.11594914
-19.39990472 0.9624180393 -13.5470256
-16.40367006 2.668370504 -14.4555398
-19.003732 2.446813811 -12.679552
-18.7065445 0 -14.69239916
-11.19012138 5.521163337 -15.84930529
-13.70303082 4.163746813 -15.20602266
-18.08307562 5.166231022 -10.98038556
-16.15505331 4.038449702 -13.67279103
-18.55776692 3.853823205 -11.81923478
-17.53726682 3.271738714 -13.20328144
-16.89394048 -1.919963919 -16.69502949
-15.64533934 1.778062795 -15.4611295
-17.86204535 -0.9687265391 -15.75252
-17.12015727 0.9284911314 -15.09824964
-7.067270034 15.73943383 -11.43508312
-8.029371015 13.04417894 -12.99179521
-6.333156072 15.24697297 -12.56912932
-8.409095145 14.91958865 -10.89588238
