-39.66966 11.433713 13.043289
-37.784593 16.538093 3.4070346
-45.033632 6.1880933 10.257394
-42.2655 11.681897 0
-65.293978 -28.300254 17.490519
-57.165415 -7.7018879 4.7600285
-56.887583 -16.396316 18.7045
-73.09555 -31.993491 6.5910216
-54.464253 -7.4839595 12.405423
-64.834909 -17.919928 0
-18.70005 35.538749 0
-14.198192 39.386471 0
-3.31943 47.894275 0
-9.154476 43.46346 0
38.205666 72.608446 0
23.417473 64.961202 0
3.6613531 52.827699 0
12.309869 58.444581 0
-38.205666 -72.608446 0
-23.417473 -64.961202 0
-3.6613531 -52.827699 0
-12.309869 -58.444581 0
18.70005 -35.538749 0
14.198192 -39.386471 0
3.31943 -47.894275 0
9.154476 -43.46346 0
-44.307046 -75.246821 5.7545615
-37.538967 -70.619737 15.986843
-35.470287 -71.115521 5.2418686
-23.826617 -57.573822 30.777508
-30.627197 -64.613682 24.364091
-21.319677 -63.680741 4.4447676
-29.730566 -67.070517 14.695957
-27.839927 -67.237896 4.8127
-32.610209 -69.24094 10.172163
-2.0817216 -29.302377 41.962224
-6.5960444 -35.733187 40.548843
-17.441803 -50.06924 35.350501
-11.686758 -42.680094 38.461513
-2.1394291 -51.707087 3.461669
-6.8399762 -54.192249 11.067314
-6.0500426 -54.350779 3.6562452
-17.85255 -55.413714 28.886032
-12.158016 -55.830912 19.672083
-20.745451 -58.645508 26.02162
-15.414974 -60.247594 4.148887
-11.382679 -57.049209 11.771878
-10.46774 -57.205701 3.8820342
-18.974795 -62.031383 8.6761993
-8.6307777 -55.778762 7.5890109
-26.641272 -64.466654 18.988506
-14.431051 -58.110899 16.398773
-23.706404 -61.699124 22.703848
-22.763391 -63.529818 13.659606
-17.542863 -58.718742 21.127696
-16.662078 -60.165114 12.683298
20.134141 -34.193886 2.6150051
18.586276 -34.965212 7.9153984
17.995791 -36.080341 2.6594533
14.615719 -35.316923 18.879533
16.757444 -35.352898 13.330632
13.387026 -39.986335 2.7909532
16.357999 -36.902743 8.0858347
15.741245 -38.017635 2.7211957
17.208934 -36.539561 5.3680146
2.0067282 -28.246767 40.450546
5.7983057 -31.411545 35.644785
0 -31.258311 39.798468
12.109766 -34.762852 24.543696
9.1811971 -33.529774 30.215628
-4.3253606 -37.611136 38.059249
3.9433023 -34.28895 34.697482
-2.1153369 -34.39762 39.004036
2.0253048 -32.933601 37.34396
2.017844 -48.768541 3.2649402
5.7332132 -45.423509 9.2765339
5.1702321 -46.44697 3.124546
0 -49.979161 6.733685
12.048329 -37.397609 19.494606
9.0673504 -41.638244 14.671281
13.245864 -37.444855 16.614671
10.773706 -42.10775 2.8997058
8.6223353 -43.214554 8.9171522
8.0915409 -44.219885 3.0008042
12.409241 -40.567628 5.6741089
6.9444742 -44.880564 6.1062504
-4.4081868 -51.959394 14.361223
3.9192969 -46.196838 12.768492
-2.151914 -51.063241 10.452478
2.0284585 -48.133739 9.8528186
15.372763 -37.199071 10.956901
10.274161 -41.371949 11.675076
14.359512 -37.372575 13.752241
13.94772 -38.926367 8.3695948
11.792993 -39.473016 14.202857
11.364715 -41.036859 8.6509056
-14.504252 -51.391694 31.761813
-4.2875648 -46.34233 28.641135
-11.800402 -47.943691 33.767568
-11.985602 -52.51503 27.466466
10.488637 -37.163502 22.968307
3.8438588 -41.546515 25.677158
9.0548979 -36.78902 25.91114
9.0286109 -39.558946 20.690161
-6.7369148 -41.073588 36.846397
-2.1593798 -43.400979 30.497036
-9.1958186 -44.468239 35.458408
-2.1447225 -39.201254 35.19446
-6.6971391 -45.67764 32.121792
-6.910411 -52.623153 18.702075
-2.1918694 -46.956824 24.637174
-9.4055347 -52.858113 23.024315
-2.1748411 -49.582841 17.594834
-6.7632324 -49.661284 26.028447
5.8090209 -35.41641 31.771442
2.0439669 -41.081316 28.867054
7.4886416 -36.21284 28.875658
2.0403083 -37.29277 33.481044
5.7040257 -38.904139 27.358477
0 -40.35301 32.079459
5.7834964 -44.041637 15.652236
2.0665468 -44.272016 23.228517
7.4501341 -41.868968 18.237585
2.0488193 -46.709748 16.575296
5.7008484 -41.860376 21.93984
0 -46.99588 20.569819
-20.134141 34.193886 2.6150051
-18.586276 34.965212 7.9153984
-17.995791 36.080341 2.6594533
-14.615719 35.316923 18.879533
-16.757444 35.352898 13.330632
-13.387026 39.986335 2.7909532
-16.357999 36.902743 8.0858347
-15.741245 38.017635 2.7211957
-17.208934 36.539561 5.3680146
-2.0067282 28.246767 40.450546
-5.7983057 31.411545 35.644785
-12.109766 34.762852 24.543696
-9.1811971 33.529774 30.215628
-2.017844 48.768541 3.2649402
-5.7332132 45.423509 9.2765339
-5.1702321 46.44697 3.124546
-12.048329 37.397609 19.494606
-9.0673504 41.638244 14.671281
-13.245864 37.444855 16.614671
-10.773706 42.10775 2.8997058
-8.6223353 43.214554 8.9171522
-8.0915409 44.219885 3.0008042
-12.409241 40.567628 5.6741089
-6.9444742 44.880564 6.1062504
-15.372763 37.199071 10.956901
-10.274161 41.371949 11.675076
-14.359512 37.372575 13.752241
-13.94772 38.926367 8.3695948
-11.792993 39.473016 14.202857
-11.364715 41.036859 8.6509056
44.307046 75.246821 5.7545615
37.538967 70.619737 15.986843
35.470287 71.115521 5.2418686
23.826617 57.573822 30.777508
30.627197 64.613682 24.364091
21.319677 63.680741 4.4447676
29.730566 67.070517 14.695957
27.839927 67.237896 4.8127
32.610209 69.24094 10.172163
2.0817216 29.302377 41.962224
6.5960444 35.733187 40.548843
0 31.258311 39.798468
17.441803 50.06924 35.350501
11.686758 42.680094 38.461513
-3.9433023 34.28895 34.697482
4.3253606 37.611136 38.059249
-2.0253048 32.933601 37.34396
2.1153369 34.39762 39.004036
2.1394291 51.707087 3.461669
6.8399762 54.192249 11.067314
6.0500426 54.350779 3.6562452
0 49.979161 6.733685
17.85255 55.413714 28.886032
12.158016 55.830912 19.672083
20.745451 58.645508 26.02162
15.414974 60.247594 4.148887
11.382679 57.049209 11.771878
10.46774 57.205701 3.8820342
18.974795 62.031383 8.6761993
8.6307777 55.778762 7.5890109
-3.9192969 46.196838 12.768492
4.4081868 51.959394 14.361223
-2.0284585 48.133739 9.8528186
2.151914 51.063241 10.452478
26.641272 64.466654 18.988506
14.431051 58.110899 16.398773
23.706404 61.699124 22.703848
22.763391 63.529818 13.659606
17.542863 58.718742 21.127696
16.662078 60.165114 12.683298
-10.488637 37.163502 22.968307
-3.8438588 41.546515 25.677158
-9.0548979 36.78902 25.91114
-9.0286109 39.558946 20.690161
14.504252 51.391694 31.761813
4.2875648 46.34233 28.641135
11.800402 47.943691 33.767568
11.985602 52.51503 27.466466
-5.8090209 35.41641 31.771442
-2.0439669 41.081316 28.867054
-7.4886416 36.21284 28.875658
-2.0403083 37.29277 33.481044
-5.7040257 38.904139 27.358477
-5.7834964 44.041637 15.652236
-2.0665468 44.272016 23.228517
-7.4501341 41.868968 18.237585
-2.0488193 46.709748 16.575296
-5.7008484 41.860376 21.93984
6.7369148 41.073588 36.846397
2.1593798 43.400979 30.497036
9.1958186 44.468239 35.458408
2.1447225 39.201254 35.19446
6.6971391 45.67764 32.121792
0 40.35301 32.079459
6.910411 52.623153 18.702075
2.1918694 46.956824 24.637174
9.4055347 52.858113 23.024315
2.1748411 49.582841 17.594834
6.7632324 49.661284 26.028447
0 46.99588 20.569819
0 -23.077555 43.858035
0 -16.57501 45.979878
0 -3.3304988 48.05398
0 -9.9762041 47.364846
0 23.077555 43.858035
0 16.57501 45.979878
0 3.3304988 48.05398
0 9.9762041 47.364846
-44.307046 -75.246821 -5.7545615
-37.538967 -70.619737 -15.986843
-35.470287 -71.115521 -5.2418686
-23.826617 -57.573822 -30.777508
-30.627197 -64.613682 -24.364091
-21.319677 -63.680741 -4.4447676
-29.730566 -67.070517 -14.695957
-27.839927 -67.237896 -4.8127
-32.610209 -69.24094 -10.172163
-2.0817216 -29.302377 -41.962224
-6.5960444 -35.733187 -40.548843
-17.441803 -50.06924 -35.350501
-11.686758 -42.680094 -38.461513
-2.1394291 -51.707087 -3.461669
-6.8399762 -54.192249 -11.067314
-6.0500426 -54.350779 -3.6562452
-17.85255 -55.413714 -28.886032
-12.158016 -55.830912 -19.672083
-20.745451 -58.645508 -26.02162
-15.414974 -60.247594 -4.148887
-11.382679 -57.049209 -11.771878
-10.46774 -57.205701 -3.8820342
-18.974795 -62.031383 -8.6761993
-8.6307777 -55.778762 -7.5890109
-26.641272 -64.466654 -18.988506
-14.431051 -58.110899 -16.398773
-23.706404 -61.699124 -22.703848
-22.763391 -63.529818 -13.659606
-17.542863 -58.718742 -21.127696
-16.662078 -60.165114 -12.683298
20.134141 -34.193886 -2.6150051
18.586276 -34.965212 -7.9153984
17.995791 -36.080341 -2.6594533
14.615719 -35.316923 -18.879533
16.757444 -35.352898 -13.330632
13.387026 -39.986335 -2.7909532
16.357999 -36.902743 -8.0858347
15.741245 -38.017635 -2.7211957
17.208934 -36.539561 -5.3680146
2.0067282 -28.246767 -40.450546
5.7983057 -31.411545 -35.644785
0 -31.258311 -39.798468
12.109766 -34.762852 -24.543696
9.1811971 -33.529774 -30.215628
-4.3253606 -37.611136 -38.059249
3.9433023 -34.28895 -34.697482
-2.1153369 -34.39762 -39.004036
2.0253048 -32.933601 -37.34396
2.017844 -48.768541 -3.2649402
5.7332132 -45.423509 -9.2765339
5.1702321 -46.44697 -3.124546
0 -49.979161 -6.733685
12.048329 -37.397609 -19.494606
9.0673504 -41.638244 -14.671281
13.245864 -37.444855 -16.614671
10.773706 -42.10775 -2.8997058
8.6223353 -43.214554 -8.9171522
8.0915409 -44.219885 -3.0008042
12.409241 -40.567628 -5.6741089
6.9444742 -44.880564 -6.1062504
-4.4081868 -51.959394 -14.361223
3.9192969 -46.196838 -12.768492
-2.151914 -51.063241 -10.452478
2.0284585 -48.133739 -9.8528186
15.372763 -37.199071 -10.956901
10.274161 -41.371949 -11.675076
14.359512 -37.372575 -13.752241
13.94772 -38.926367 -8.3695948
11.792993 -39.473016 -14.202857
11.364715 -41.036859 -8.6509056
-14.504252 -51.391694 -31.761813
-4.2875648 -46.34233 -28.641135
-11.800402 -47.943691 -33.767568
-11.985602 -52.51503 -27.466466
10.488637 -37.163502 -22.968307
3.8438588 -41.546515 -25.677158
9.0548979 -36.78902 -25.91114
9.0286109 -39.558946 -20.690161
-6.7369148 -41.073588 -36.846397
-2.1593798 -43.400979 -30.497036
-9.1958186 -44.468239 -35.458408
-2.1447225 -39.201254 -35.19446
-6.6971391 -45.67764 -32.121792
-6.910411 -52.623153 -18.702075
-2.1918694 -46.956824 -24.637174
-9.4055347 -52.858113 -23.024315
-2.1748411 -49.582841 -17.594834
-6.7632324 -49.661284 -26.028447
5.8090209 -35.41641 -31.771442
2.0439669 -41.081316 -28.867054
7.4886416 -36.21284 -28.875658
2.0403083 -37.29277 -33.481044
5.7040257 -38.904139 -27.358477
0 -40.35301 -32.079459
5.7834964 -44.041637 -15.652236
2.0665468 -44.272016 -23.228517
7.4501341 -41.868968 -18.237585
2.0488193 -46.709748 -16.575296
5.7008484 -41.860376 -21.93984
0 -46.99588 -20.569819
-20.134141 34.193886 -2.6150051
-18.586276 34.965212 -7.9153984
-17.995791 36.080341 -2.6594533
-14.615719 35.316923 -18.879533
-16.757444 35.352898 -13.330632
-13.387026 39.986335 -2.7909532
-16.357999 36.902743 -8.0858347
-15.741245 38.017635 -2.7211957
-17.208934 36.539561 -5.3680146
-2.0067282 28.246767 -40.450546
-5.7983057 31.411545 -35.644785
-12.109766 34.762852 -24.543696
-9.1811971 33.529774 -30.215628
-2.017844 48.768541 -3.2649402
-5.7332132 45.423509 -9.2765339
-5.1702321 46.44697 -3.124546
-12.048329 37.397609 -19.494606
-9.0673504 41.638244 -14.671281
-13.245864 37.444855 -16.614671
-10.773706 42.10775 -2.8997058
-8.6223353 43.214554 -8.9171522
-8.0915409 44.219885 -3.0008042
-12.409241 40.567628 -5.6741089
-6.9444742 44.880564 -6.1062504
-15.372763 37.199071 -10.956901
-10.274161 41.371949 -11.675076
-14.359512 37.372575 -13.752241
-13.94772 38.926367 -8.3695948
-11.792993 39.473016 -14.202857
-11.364715 41.036859 -8.6509056
44.307046 75.246821 -5.7545615
37.538967 70.619737 -15.986843
35.470287 71.115521 -5.2418686
23.826617 57.573822 -30.777508
30.627197 64.613682 -24.364091
21.319677 63.680741 -4.4447676
29.730566 67.070517 -14.695957
27.839927 67.237896 -4.8127
32.610209 69.24094 -10.172163
2.0817216 29.302377 -41.962224
6.5960444 35.733187 -40.548843
0 31.258311 -39.798468
17.441803 50.06924 -35.350501
11.686758 42.680094 -38.461513
-3.9433023 34.28895 -34.697482
4.3253606 37.611136 -38.059249
-2.0253048 32.933601 -37.34396
2.1153369 34.39762 -39.004036
2.1394291 51.707087 -3.461669
6.8399762 54.192249 -11.067314
6.0500426 54.350779 -3.6562452
0 49.979161 -6.733685
17.85255 55.413714 -28.886032
12.158016 55.830912 -19.672083
20.745451 58.645508 -26.02162
15.414974 60.247594 -4.148887
11.382679 57.049209 -11.771878
10.46774 57.205701 -3.8820342
18.974795 62.031383 -8.6761993
8.6307777 55.778762 -7.5890109
-3.9192969 46.196838 -12.768492
4.4081868 51.959394 -14.361223
-2.0284585 48.133739 -9.8528186
2.151914 51.063241 -10.452478
26.641272 64.466654 -18.988506
14.431051 58.110899 -16.398773
23.706404 61.699124 -22.703848
22.763391 63.529818 -13.659606
17.542863 58.718742 -21.127696
16.662078 60.165114 -12.683298
-10.488637 37.163502 -22.968307
-3.8438588 41.546515 -25.677158
-9.0548979 36.78902 -25.91114
-9.0286109 39.558946 -20.690161
14.504252 51.391694 -31.761813
4.2875648 46.34233 -28.641135
11.800402 47.943691 -33.767568
11.985602 52.51503 -27.466466
-5.8090209 35.41641 -31.771442
-2.0439669 41.081316 -28.867054
-7.4886416 36.21284 -28.875658
-2.0403083 37.29277 -33.481044
-5.7040257 38.904139 -27.358477
-5.7834964 44.041637 -15.652236
-2.0665468 44.272016 -23.228517
-7.4501341 41.868968 -18.237585
-2.0488193 46.709748 -16.575296
-5.7008484 41.860376 -21.93984
6.7369148 41.073588 -36.846397
2.1593798 43.400979 -30.497036
9.1958186 44.468239 -35.458408
2.1447225 39.201254 -35.19446
6.6971391 45.67764 -32.121792
0 40.35301 -32.079459
6.910411 52.623153 -18.702075
2.1918694 46.956824 -24.637174
9.4055347 52.858113 -23.024315
2.1748411 49.582841 -17.594834
6.7632324 49.661284 -26.028447
0 46.99588 -20.569819
0 -23.077555 -43.858035
0 -16.57501 -45.979878
0 -3.3304988 -48.05398
0 -9.9762041 -47.364846
0 23.077555 -43.858035
0 16.57501 -45.979878
0 3.3304988 -48.05398
0 9.9762041 -47.364846
56.129308 80.379506 -3.9875807
74.175407 84.171807 -13.692153
52.111752 78.103531 -10.056172
71.336453 50.36584 -24.850314
80.43642 72.485933 -22.025279
43.710842 71.98531 -20.56579
67.534678 79.795436 -19.94731
47.926425 75.250846 -15.627066
60.259863 80.040201 -14.932237
43.114676 3.2972297 -25.386905
48.047022 10.876849 -25.540106
61.575457 32.916681 -25.482672
54.007492 20.36478 -25.599812
27.295934 56.056368 -34.644741
42.411538 58.872981 -36.385504
31.161447 60.210032 -32.026514
65.052542 47.262261 -29.209683
57.048533 56.819434 -35.116341
69.174216 57.025067 -28.732989
39.368401 68.215183 -25.114488
47.982479 63.966503 -33.533125
35.22175 64.319053 -28.84292
49.534664 71.798371 -25.472936
39.318322 62.471907 -33.014773
72.043331 75.436237 -24.528102
56.903311 64.057871 -33.230376
72.164835 67.190041 -27.360357
60.882734 74.686074 -25.430303
64.274999 61.868794 -31.686384
54.258748 69.285122 -29.945564
22.447666 -32.145993 -1.5947441
25.549144 -28.992327 -4.7161561
21.754605 -32.605149 -4.1980559
31.145809 -21.989947 -10.849756
28.441857 -25.630611 -7.7880123
20.171959 -33.220242 -9.4908325
24.803008 -29.305935 -7.3259147
20.993971 -32.96332 -6.8453714
23.316687 -30.970404 -5.7778142
40.036748 -3.0618426 -23.574551
38.121828 -8.6299908 -20.264222
33.665444 -17.996694 -13.932263
35.994505 -13.572565 -17.061569
16.136318 -33.138394 -20.480654
21.144205 -29.351032 -18.139935
17.251923 -33.334101 -17.73085
30.220257 -21.955755 -13.569403
25.772397 -25.668898 -15.864251
28.966825 -23.879348 -12.03199
19.25592 -33.365493 -12.284029
22.142815 -29.519076 -15.474769
18.294709 -33.408287 -14.981448
21.673676 -31.415063 -11.145572
19.761721 -31.398909 -16.593504
26.281451 -27.519185 -8.9478665
24.517759 -27.600422 -14.317872
27.647278 -25.741371 -10.482105
24.018014 -29.46338 -10.032161
26.753673 -25.75212 -13.189065
23.128072 -29.533141 -12.764452
3.1940741 -24.592662 -41.76581
9.0840568 -21.330422 -40.127604
5.1062299 -26.460823 -39.658688
3.1823179 -21.533872 -43.173954
19.426898 -15.039465 -36.340848
14.444411 -18.157535 -38.306645
8.7007729 -29.457801 -34.805794
10.830877 -23.020109 -37.910724
6.9604766 -28.089386 -37.309744
8.0578457 -24.712491 -38.80189
3.1710955 -15.210409 -45.432682
9.1151159 -18.44028 -41.600255
3.1779097 -18.38319 -44.398356
6.2311309 -19.975937 -42.414712
38.357738 -1.9029052 -26.785351
33.494389 -5.4485026 -29.516533
37.60073 -4.8412588 -25.087726
24.172345 -11.926543 -34.236883
28.815769 -8.7558416 -31.976374
35.877212 -10.249914 -21.785322
32.90395 -8.2253487 -27.84818
36.765853 -7.6350294 -23.415761
35.215725 -6.5698179 -26.512861
14.694823 -32.726668 -23.776724
17.033735 -27.672291 -27.561162
13.379245 -32.210321 -26.553185
17.372682 -30.822968 -22.510234
20.959657 -16.513716 -33.913437
19.105539 -22.269729 -30.913411
18.588762 -18.086661 -34.94698
10.423079 -30.614407 -32.056203
15.670581 -26.834122 -30.208027
11.947053 -31.511179 -29.338908
11.522817 -27.586796 -33.841278
14.569286 -29.553415 -28.44705
22.357516 -27.100598 -20.092019
19.671644 -25.867614 -26.246547
19.932453 -28.939817 -21.278324
18.557938 -28.382023 -24.441802
13.594286 -21.309824 -36.924373
16.731237 -23.940692 -31.915866
16.124811 -19.690935 -35.95796
12.582425 -24.46778 -35.464998
17.687571 -21.064679 -33.469147
14.206511 -25.740957 -32.869637
3.205997 -1.9814151 -47.888104
9.3848248 -5.8001407 -45.953766
3.1977531 -5.2913689 -47.535206
19.736107 -12.197585 -37.860894
14.956042 -9.2433424 -42.446418
17.236231 -13.741396 -38.845678
3.189984 -11.85222 -46.322992
9.3101772 -9.0023662 -45.119243
3.1901796 -8.6021837 -47.010524
6.2678475 -13.707744 -44.812623
6.3314603 -7.2005993 -46.535843
11.990818 -16.82337 -40.709256
12.211671 -10.746368 -43.273432
14.645553 -15.292271 -39.800205
9.2258728 -15.374686 -42.908853
14.819154 -12.30472 -41.185846
9.294098 -12.209678 -44.087938
31.639673 -19.554393 -15.406535
29.602456 -18.295324 -21.325329
32.771186 -17.431428 -16.960588
29.387208 -21.461688 -16.563448
23.712875 -14.655363 -32.638786
26.971726 -16.669443 -27.080478
25.98917 -13.095057 -31.526144
22.774188 -17.576393 -31.184397
34.869655 -12.83781 -20.124003
30.524829 -16.002014 -22.897249
33.855871 -15.182161 -18.53981
33.612982 -11.925359 -23.190049
31.717842 -16.762052 -19.96245
24.816708 -25.180247 -18.872458
27.247337 -20.200809 -22.478572
27.105527 -23.342519 -17.723285
23.612738 -24.648458 -21.936907
28.388543 -20.872994 -19.55276
30.527941 -9.9261639 -29.154882
29.138956 -15.115995 -25.884455
28.268535 -11.511188 -30.361556
32.158619 -10.949879 -26.215124
27.648473 -14.160291 -28.723779
31.359825 -13.553958 -24.558589
20.783106 -23.126527 -28.032752
25.884263 -19.400114 -25.51056
21.794296 -20.415789 -29.64157
22.26225 -23.962934 -25.014015
24.421845 -18.542786 -28.358849
24.794788 -22.067139 -23.752919
3.363441 25.896697 -43.980457
10.43709 24.507501 -46.104445
5.6001738 29.020473 -43.495014
3.3285332 22.523271 -45.157632
24.353508 18.853433 -45.556791
17.623172 22.153437 -46.736733
10.54592 35.704829 -42.186955
13.048936 27.734406 -45.674476
8.0042016 32.301396 -42.904349
9.2949624 28.506586 -44.759123
3.2728143 15.698311 -46.890019
10.263583 20.763679 -46.841715
3.301792 19.099809 -46.129106
6.783699 21.747375 -46.17599
40.052739 1.9869932 -27.968977
37.739967 6.1391271 -33.257899
42.204949 5.4340722 -28.159724
37.427211 0 -29.39589
30.063393 14.833164 -42.580761
34.490641 10.480185 -38.273684
47.024767 13.434706 -28.554328
39.744979 9.9354731 -33.638069
44.527579 9.2468785 -28.359118
41.084828 7.6647532 -30.931533
32.404043 -3.6826573 -32.022514
34.951624 3.972185 -34.5401
34.871043 -1.8911891 -30.752738
36.288125 1.9680428 -32.002461
22.959873 51.133663 -37.149855
26.319304 42.757236 -42.585528
19.561753 47.094609 -38.823328
29.575543 52.473533 -38.321796
27.712067 21.833812 -44.839067
27.728415 32.320694 -44.865518
24.359435 23.701463 -45.79588
13.421522 39.42136 -41.277923
22.626382 38.745155 -43.616656
16.363742 43.160503 -40.185167
14.818018 35.475844 -43.518931
21.308348 43.223425 -41.605309
43.494234 52.72141 -39.086945
32.109794 42.223402 -42.841931
36.580615 53.111191 -39.050597
31.189341 47.700158 -41.078037
17.009638 26.663583 -46.201044
23.567981 33.723376 -44.957378
20.739243 25.325884 -46.248039
16.019841 31.15218 -45.153748
24.114552 28.718772 -45.630545
19.223747 34.831751 -44.478028
3.2193112 1.9896438 -48.086979
9.7319633 6.0146841 -47.653566
3.2333725 5.3503089 -48.064696
6.4198999 0 -47.650166
23.597471 14.584039 -45.268367
16.470423 10.179281 -46.744351
20.557655 16.389365 -46.331247
3.2699885 12.149473 -47.484768
9.8540955 9.5283016 -47.755195
3.2480736 8.7582925 -47.863651
6.6410239 14.523879 -47.480686
6.5260461 7.4218965 -47.966036
12.535586 -3.8478064 -45.354178
12.942587 3.9727356 -46.826721
9.562908 -1.9687729 -46.717446
9.6813263 1.9931523 -47.295952
13.880313 19.47437 -47.124157
13.379332 11.773919 -47.411169
17.278384 18.041362 -46.955088
10.184171 16.971665 -47.365825
16.891729 14.025632 -46.946011
10.047951 13.200016 -47.66395
60.108449 37.149064 -29.269042
49.255761 30.441734 -35.483384
56.324817 29.959916 -29.15067
58.370189 42.628167 -32.899062
31.293723 19.340584 -43.073187
39.764655 24.575908 -39.924988
33.910947 17.086571 -41.135649
31.920466 24.635199 -43.708275
49.869887 18.36038 -28.780949
46.702786 24.482976 -35.032639
52.907518 23.725588 -28.972681
45.794884 16.247306 -31.594508
51.355806 27.140203 -32.322114
50.098035 50.831919 -38.098247
46.630157 34.570971 -38.469057
55.064573 47.420065 -36.004655
43.581118 45.492707 -40.488103
52.219324 38.394843 -35.966337
38.089359 12.38476 -36.376209
42.144122 21.862497 -37.437087
36.179655 14.732663 -38.85842
41.86348 14.254344 -34.12635
37.949272 19.435892 -39.425197
44.184818 19.097019 -34.602132
32.462216 36.122526 -43.785816
41.22088 30.894825 -40.625755
32.349594 30.303455 -43.997417
37.695855 40.575562 -42.355319
36.43715 27.665652 -42.311121
42.672362 37.97802 -40.879283
22.645288 -10.341128 -36.640846
24.199723 -3.6226874 -39.155974
25.054912 -8.7556806 -35.573334
20.465948 -8.9307706 -39.130258
26.870124 12.270429 -43.476775
25.629397 3.836709 -41.469236
29.298989 10.238814 -41.599137
23.30013 10.167529 -44.549126
29.87146 -5.4616324 -33.298453
26.782792 -1.8963882 -38.115158
27.472207 -7.1246692 -34.452778
31.023857 -1.8905692 -34.555838
25.92813 -5.4058097 -36.870165
15.467002 -5.7150527 -43.520434
21.780292 -1.9377042 -41.511796
18.058611 -7.3770226 -41.458089
15.815703 -1.9549284 -44.569188
21.151473 -5.4959994 -40.356204
33.290457 6.0867545 -37.109694
27.655768 1.9582004 -39.35751
31.448645 8.1559227 -39.439613
32.16933 1.9603734 -35.831721
28.486432 5.9391954 -40.508107
29.436501 0 -37.028411
16.418438 6.066608 -46.197547
22.379452 1.991009 -42.653755
19.799727 8.0882764 -45.45526
16.137137 1.9946598 -45.475001
22.880853 5.9453614 -43.655794
19.111544 0 -43.664156
56.129308 80.379506 3.9875807
74.175407 84.171807 13.692153
52.111752 78.103531 10.056172
66.135442 84.204463 0
71.336453 50.36584 24.850314
80.43642 72.485933 22.025279
43.710842 71.98531 20.56579
67.534678 79.795436 19.94731
47.926425 75.250846 15.627066
60.259863 80.040201 14.932237
85.658382 86.678949 -9.8508962
85.658382 86.678949 9.8508962
76.758471 87.037712 -4.7203856
76.758471 87.037712 4.7203856
43.114676 3.2972297 25.386905
48.047022 10.876849 25.540106
61.575457 32.916681 25.482672
54.007492 20.36478 25.599812
27.295934 56.056368 34.644741
42.411538 58.872981 36.385504
31.161447 60.210032 32.026514
65.052542 47.262261 29.209683
57.048533 56.819434 35.116341
69.174216 57.025067 28.732989
39.368401 68.215183 25.114488
47.982479 63.966503 33.533125
35.22175 64.319053 28.84292
49.534664 71.798371 25.472936
39.318322 62.471907 33.014773
72.043331 75.436237 24.528102
56.903311 64.057871 33.230376
72.164835 67.190041 27.360357
60.882734 74.686074 25.430303
64.274999 61.868794 31.686384
54.258748 69.285122 29.945564
72.6735 44.914693 -20.510606
84.727049 52.364196 -7.8388962
79.010797 55.648665 -19.446963
72.6735 44.914693 20.510606
84.727049 52.364196 7.8388962
79.010797 55.648665 19.446963
88.96375 79.807824 -14.591888
91.930349 64.597695 -4.5739185
85.384535 68.084542 -17.657112
94.850648 85.155883 -5.1893319
86.616217 60.910943 -12.699449
88.96375 79.807824 14.591888
91.930349 64.597695 4.5739185
85.384535 68.084542 17.657112
94.850648 85.155883 5.1893319
86.616217 60.910943 12.699449
96.854321 76.996343 0
22.447666 -32.145993 1.5947441
25.549144 -28.992327 4.7161561
21.754605 -32.605149 4.1980559
24.08215 -30.661692 0
31.145809 -21.989947 10.849756
28.441857 -25.630611 7.7880123
20.171959 -33.220242 9.4908325
24.803008 -29.305935 7.3259147
20.993971 -32.96332 6.8453714
23.316687 -30.970404 5.7778142
27.217838 -27.542122 -3.1301093
27.217838 -27.542122 3.1301093
25.680852 -29.119947 -1.5792853
25.680852 -29.119947 1.5792853
40.036748 -3.0618426 23.574551
38.121828 -8.6299908 20.264222
33.665444 -17.996694 13.932263
35.994505 -13.572565 17.061569
16.136318 -33.138394 20.480654
21.144205 -29.351032 18.139935
17.251923 -33.334101 17.73085
30.220257 -21.955755 13.569403
25.772397 -25.668898 15.864251
28.966825 -23.879348 12.03199
19.25592 -33.365493 12.284029
22.142815 -29.519076 15.474769
18.294709 -33.408287 14.981448
21.673676 -31.415063 11.145572
19.761721 -31.398909 16.593504
26.281451 -27.519185 8.9478665
24.517759 -27.600422 14.317872
27.647278 -25.741371 10.482105
24.018014 -29.46338 10.032161
26.753673 -25.75212 13.189065
23.128072 -29.533141 12.764452
33.055588 -20.429477 -9.3292623
33.788315 -20.882327 -3.1260748
31.673656 -22.308302 -7.7958512
33.055588 -20.429477 9.3292623
33.788315 -20.882327 3.1260748
31.673656 -22.308302 7.7958512
28.786736 -25.824077 -4.7216179
32.213731 -22.635972 -1.6027676
30.241707 -24.114352 -6.2538399
28.922321 -25.966145 -1.5823563
32.032608 -22.526225 -4.6965394
28.786736 -25.824077 4.7216179
32.213731 -22.635972 1.6027676
30.241707 -24.114352 6.2538399
28.922321 -25.966145 1.5823563
32.032608 -22.526225 4.6965394
30.597737 -24.324303 0
3.1940741 -24.592662 41.76581
9.0840568 -21.330422 40.127604
5.1062299 -26.460823 39.658688
3.1823179 -21.533872 43.173954
19.426898 -15.039465 36.340848
14.444411 -18.157535 38.306645
8.7007729 -29.457801 34.805794
10.830877 -23.020109 37.910724
6.9604766 -28.089386 37.309744
8.0578457 -24.712491 38.80189
3.1710955 -15.210409 45.432682
9.1151159 -18.44028 41.600255
3.1779097 -18.38319 44.398356
6.2311309 -19.975937 42.414712
38.357738 -1.9029052 26.785351
33.494389 -5.4485026 29.516533
37.60073 -4.8412588 25.087726
24.172345 -11.926543 34.236883
28.815769 -8.7558416 31.976374
35.877212 -10.249914 21.785322
32.90395 -8.2253487 27.84818
36.765853 -7.6350294 23.415761
35.215725 -6.5698179 26.512861
14.694823 -32.726668 23.776724
17.033735 -27.672291 27.561162
13.379245 -32.210321 26.553185
17.372682 -30.822968 22.510234
20.959657 -16.513716 33.913437
19.105539 -22.269729 30.913411
18.588762 -18.086661 34.94698
10.423079 -30.614407 32.056203
15.670581 -26.834122 30.208027
11.947053 -31.511179 29.338908
11.522817 -27.586796 33.841278
14.569286 -29.553415 28.44705
22.357516 -27.100598 20.092019
19.671644 -25.867614 26.246547
19.932453 -28.939817 21.278324
18.557938 -28.382023 24.441802
13.594286 -21.309824 36.924373
16.731237 -23.940692 31.915866
16.124811 -19.690935 35.95796
12.582425 -24.46778 35.464998
17.687571 -21.064679 33.469147
14.206511 -25.740957 32.869637
3.205997 -1.9814151 47.888104
9.3848248 -5.8001407 45.953766
3.1977531 -5.2913689 47.535206
19.736107 -12.197585 37.860894
14.956042 -9.2433424 42.446418
17.236231 -13.741396 38.845678
3.189984 -11.85222 46.322992
9.3101772 -9.0023662 45.119243
3.1901796 -8.6021837 47.010524
6.2678475 -13.707744 44.812623
6.3314603 -7.2005993 46.535843
11.990818 -16.82337 40.709256
12.211671 -10.746368 43.273432
14.645553 -15.292271 39.800205
9.2258728 -15.374686 42.908853
14.819154 -12.30472 41.185846
9.294098 -12.209678 44.087938
31.639673 -19.554393 15.406535
29.602456 -18.295324 21.325329
32.771186 -17.431428 16.960588
29.387208 -21.461688 16.563448
23.712875 -14.655363 32.638786
26.971726 -16.669443 27.080478
25.98917 -13.095057 31.526144
22.774188 -17.576393 31.184397
34.869655 -12.83781 20.124003
30.524829 -16.002014 22.897249
33.855871 -15.182161 18.53981
33.612982 -11.925359 23.190049
31.717842 -16.762052 19.96245
24.816708 -25.180247 18.872458
27.247337 -20.200809 22.478572
27.105527 -23.342519 17.723285
23.612738 -24.648458 21.936907
28.388543 -20.872994 19.55276
30.527941 -9.9261639 29.154882
29.138956 -15.115995 25.884455
28.268535 -11.511188 30.361556
32.158619 -10.949879 26.215124
27.648473 -14.160291 28.723779
31.359825 -13.553958 24.558589
20.783106 -23.126527 28.032752
25.884263 -19.400114 25.51056
21.794296 -20.415789 29.64157
22.26225 -23.962934 25.014015
24.421845 -18.542786 28.358849
24.794788 -22.067139 23.752919
3.363441 25.896697 43.980457
10.43709 24.507501 46.104445
5.6001738 29.020473 43.495014
3.3285332 22.523271 45.157632
24.353508 18.853433 45.556791
17.623172 22.153437 46.736733
10.54592 35.704829 42.186955
13.048936 27.734406 45.674476
8.0042016 32.301396 42.904349
9.2949624 28.506586 44.759123
3.2728143 15.698311 46.890019
10.263583 20.763679 46.841715
3.301792 19.099809 46.129106
6.783699 21.747375 46.17599
40.052739 1.9869932 27.968977
37.739967 6.1391271 33.257899
42.204949 5.4340722 28.159724
37.427211 0 29.39589
30.063393 14.833164 42.580761
34.490641 10.480185 38.273684
47.024767 13.434706 28.554328
39.744979 9.9354731 33.638069
44.527579 9.2468785 28.359118
41.084828 7.6647532 30.931533
32.404043 -3.6826573 32.022514
34.951624 3.972185 34.5401
34.871043 -1.8911891 30.752738
36.288125 1.9680428 32.002461
22.959873 51.133663 37.149855
26.319304 42.757236 42.585528
19.561753 47.094609 38.823328
29.575543 52.473533 38.321796
27.712067 21.833812 44.839067
27.728415 32.320694 44.865518
24.359435 23.701463 45.79588
13.421522 39.42136 41.277923
22.626382 38.745155 43.616656
16.363742 43.160503 40.185167
14.818018 35.475844 43.518931
21.308348 43.223425 41.605309
43.494234 52.72141 39.086945
32.109794 42.223402 42.841931
36.580615 53.111191 39.050597
31.189341 47.700158 41.078037
17.009638 26.663583 46.201044
23.567981 33.723376 44.957378
20.739243 25.325884 46.248039
16.019841 31.15218 45.153748
24.114552 28.718772 45.630545
19.223747 34.831751 44.478028
3.2193112 1.9896438 48.086979
9.7319633 6.0146841 47.653566
3.2333725 5.3503089 48.064696
6.4198999 0 47.650166
23.597471 14.584039 45.268367
16.470423 10.179281 46.744351
20.557655 16.389365 46.331247
3.2699885 12.149473 47.484768
9.8540955 9.5283016 47.755195
3.2480736 8.7582925 47.863651
6.6410239 14.523879 47.480686
6.5260461 7.4218965 47.966036
12.535586 -3.8478064 45.354178
12.942587 3.9727356 46.826721
9.562908 -1.9687729 46.717446
9.6813263 1.9931523 47.295952
13.880313 19.47437 47.124157
13.379332 11.773919 47.411169
17.278384 18.041362 46.955088
10.184171 16.971665 47.365825
16.891729 14.025632 46.946011
10.047951 13.200016 47.66395
60.108449 37.149064 29.269042
49.255761 30.441734 35.483384
56.324817 29.959916 29.15067
58.370189 42.628167 32.899062
31.293723 19.340584 43.073187
39.764655 24.575908 39.924988
33.910947 17.086571 41.135649
31.920466 24.635199 43.708275
49.869887 18.36038 28.780949
46.702786 24.482976 35.032639
52.907518 23.725588 28.972681
45.794884 16.247306 31.594508
51.355806 27.140203 32.322114
50.098035 50.831919 38.098247
46.630157 34.570971 38.469057
55.064573 47.420065 36.004655
43.581118 45.492707 40.488103
52.219324 38.394843 35.966337
38.089359 12.38476 36.376209
42.144122 21.862497 37.437087
36.179655 14.732663 38.85842
41.86348 14.254344 34.12635
37.949272 19.435892 39.425197
44.184818 19.097019 34.602132
32.462216 36.122526 43.785816
41.22088 30.894825 40.625755
32.349594 30.303455 43.997417
37.695855 40.575562 42.355319
36.43715 27.665652 42.311121
42.672362 37.97802 40.879283
22.645288 -10.341128 36.640846
24.199723 -3.6226874 39.155974
25.054912 -8.7556806 35.573334
20.465948 -8.9307706 39.130258
26.870124 12.270429 43.476775
25.629397 3.836709 41.469236
29.298989 10.238814 41.599137
23.30013 10.167529 44.549126
29.87146 -5.4616324 33.298453
26.782792 -1.8963882 38.115158
27.472207 -7.1246692 34.452778
31.023857 -1.8905692 34.555838
25.92813 -5.4058097 36.870165
15.467002 -5.7150527 43.520434
21.780292 -1.9377042 41.511796
18.058611 -7.3770226 41.458089
15.815703 -1.9549284 44.569188
21.151473 -5.4959994 40.356204
33.290457 6.0867545 37.109694
27.655768 1.9582004 39.35751
31.448645 8.1559227 39.439613
32.16933 1.9603734 35.831721
28.486432 5.9391954 40.508107
29.436501 0 37.028411
16.418438 6.066608 46.197547
22.379452 1.991009 42.653755
19.799727 8.0882764 45.45526
16.137137 1.9946598 45.475001
22.880853 5.9453614 43.655794
19.111544 0 43.664156
42.951773 0 -22.600692
46.715014 0 -16.840014
45.304734 3.339376 -22.596642
41.902337 -3.088588 -20.899628
51.576097 0 -3.5746077
49.777385 0 -10.484344
50.669149 11.10222 -22.460278
49.398244 3.4478826 -16.538039
47.877097 7.0336081 -22.548541
47.425516 3.3945854 -19.636589
39.667444 -8.6916138 -17.583517
45.267437 -3.1595618 -15.155086
40.8036 -5.994443 -19.217156
43.664492 -3.1253818 -18.079333
42.951773 0 22.600692
46.715014 0 16.840014
45.304734 3.339376 22.596642
41.902337 -3.088588 20.899628
51.576097 0 3.5746077
49.777385 0 10.484344
50.669149 11.10222 22.460278
49.398244 3.4478826 16.538039
47.877097 7.0336081 22.548541
47.425516 3.3945854 19.636589
39.667444 -8.6916138 17.583517
45.267437 -3.1595618 15.155086
40.8036 -5.994443 19.217156
43.664492 -3.1253818 18.079333
66.128814 34.471594 -21.304617
63.868095 22.503994 -13.908233
61.480773 27.279657 -21.748407
71.616121 37.456738 -16.345079
54.51048 3.6493496 -2.2554221
59.688521 12.18978 -7.5336984
53.894432 3.6255462 -5.9992444
53.925512 15.883636 -22.285075
59.636503 16.829295 -14.809914
57.432813 21.133944 -22.067176
53.340576 11.468807 -19.11248
60.797678 21.875722 -18.163968
79.841122 41.890815 -3.7268558
67.14294 23.862354 -8.8171326
76.637667 40.167296 -10.437071
69.672135 30.348287 -12.39741
51.274445 3.5309605 -13.119101
57.999856 11.968041 -11.572356
52.772282 3.5811781 -9.6564946
52.445807 7.335485 -16.042661
56.076059 7.6294598 -8.6767792
55.851043 11.773857 -15.467343
34.652344 -18.063556 -11.163892
39.212686 -13.816633 -8.539149
35.953341 -15.95287 -12.718251
35.236154 -18.42925 -8.0420121
49.151008 -3.2905455 -2.033669
44.02326 -8.9905706 -5.5564782
48.700432 -3.2761393 -5.4210757
38.448242 -11.324842 -15.888991
40.723521 -11.492091 -10.113132
37.22551 -13.698125 -14.303006
41.052504 -8.8267374 -14.709537
38.310094 -13.784424 -11.445557
35.843888 -18.80647 -1.6731353
39.699688 -14.109123 -5.2133167
35.639762 -18.679494 -4.8536802
37.461681 -16.317827 -6.6659046
46.720209 -3.2173379 -11.953852
43.316937 -8.9382784 -8.642763
47.867536 -3.2483373 -8.7590034
43.812153 -6.1279139 -13.40171
45.936806 -6.249958 -7.107909
42.286206 -8.9142781 -11.710708
66.128814 34.471594 21.304617
63.868095 22.503994 13.908233
61.480773 27.279657 21.748407
71.616121 37.456738 16.345079
54.51048 3.6493496 2.2554221
59.688521 12.18978 7.5336984
53.894432 3.6255462 5.9992444
57.668271 7.7696376 0
53.925512 15.883636 22.285075
59.636503 16.829295 14.809914
57.432813 21.133944 22.067176
53.340576 11.468807 19.11248
60.797678 21.875722 18.163968
79.841122 41.890815 3.7268558
67.14294 23.862354 8.8171326
76.637667 40.167296 10.437071
74.445114 32.584187 0
69.672135 30.348287 12.39741
51.274445 3.5309605 13.119101
57.999856 11.968041 11.572356
52.772282 3.5811781 9.6564946
52.445807 7.335485 16.042661
56.076059 7.6294598 8.6767792
55.851043 11.773857 15.467343
64.0625 17.70644 -5.4350031
64.0625 17.70644 5.4350031
60.90987 12.468051 -2.5668719
69.041306 24.499813 -3.0283435
60.90987 12.468051 2.5668719
69.041306 24.499813 3.0283435
34.652344 -18.063556 11.163892
39.212686 -13.816633 8.539149
35.953341 -15.95287 12.718251
35.236154 -18.42925 8.0420121
49.151008 -3.2905455 2.033669
44.02326 -8.9905706 5.5564782
48.700432 -3.2761393 5.4210757
46.788957 -6.3038693 0
38.448242 -11.324842 15.888991
40.723521 -11.492091 10.113132
37.22551 -13.698125 14.303006
41.052504 -8.8267374 14.709537
38.310094 -13.784424 11.445557
35.843888 -18.80647 1.6731353
39.699688 -14.109123 5.2133167
35.639762 -18.679494 4.8536802
37.917209 -16.596139 0
37.461681 -16.317827 6.6659046
46.720209 -3.2173379 11.953852
43.316937 -8.9382784 8.642763
47.867536 -3.2483373 8.7590034
43.812153 -6.1279139 13.40171
45.936806 -6.249958 7.107909
42.286206 -8.9142781 11.710708
42.091587 -11.633828 -3.5710112
42.091587 -11.633828 3.5710112
44.412558 -9.091105 -1.87164
40.014566 -14.199462 -1.75515
44.412558 -9.091105 1.87164
40.014566 -14.199462 1.75515
-22.447666 32.145993 -1.5947441
-25.549144 28.992327 -4.7161561
-21.754605 32.605149 -4.1980559
-31.145809 21.989947 -10.849756
-28.441857 25.630611 -7.7880123
-20.171959 33.220242 -9.4908325
-24.803008 29.305935 -7.3259147
-20.993971 32.96332 -6.8453714
-23.316687 30.970404 -5.7778142
-40.036748 3.0618426 -23.574551
-38.121828 8.6299908 -20.264222
-33.665444 17.996694 -13.932263
-35.994505 13.572565 -17.061569
-16.136318 33.138394 -20.480654
-21.144205 29.351032 -18.139935
-17.251923 33.334101 -17.73085
-30.220257 21.955755 -13.569403
-25.772397 25.668898 -15.864251
-28.966825 23.879348 -12.03199
-19.25592 33.365493 -12.284029
-22.142815 29.519076 -15.474769
-18.294709 33.408287 -14.981448
-21.673676 31.415063 -11.145572
-19.761721 31.398909 -16.593504
-26.281451 27.519185 -8.9478665
-24.517759 27.600422 -14.317872
-27.647278 25.741371 -10.482105
-24.018014 29.46338 -10.032161
-26.753673 25.75212 -13.189065
-23.128072 29.533141 -12.764452
-56.129308 -80.379506 -3.9875807
-74.175407 -84.171807 -13.692153
-52.111752 -78.103531 -10.056172
-71.336453 -50.36584 -24.850314
-80.43642 -72.485933 -22.025279
-43.710842 -71.98531 -20.56579
-67.534678 -79.795436 -19.94731
-47.926425 -75.250846 -15.627066
-60.259863 -80.040201 -14.932237
-43.114676 -3.2972297 -25.386905
-48.047022 -10.876849 -25.540106
-61.575457 -32.916681 -25.482672
-54.007492 -20.36478 -25.599812
-27.295934 -56.056368 -34.644741
-42.411538 -58.872981 -36.385504
-31.161447 -60.210032 -32.026514
-65.052542 -47.262261 -29.209683
-57.048533 -56.819434 -35.116341
-69.174216 -57.025067 -28.732989
-39.368401 -68.215183 -25.114488
-47.982479 -63.966503 -33.533125
-35.22175 -64.319053 -28.84292
-49.534664 -71.798371 -25.472936
-39.318322 -62.471907 -33.014773
-72.043331 -75.436237 -24.528102
-56.903311 -64.057871 -33.230376
-72.164835 -67.190041 -27.360357
-60.882734 -74.686074 -25.430303
-64.274999 -61.868794 -31.686384
-54.258748 -69.285122 -29.945564
-3.363441 -25.896697 -43.980457
-10.43709 -24.507501 -46.104445
-5.6001738 -29.020473 -43.495014
-3.3285332 -22.523271 -45.157632
-24.353508 -18.853433 -45.556791
-17.623172 -22.153437 -46.736733
-10.54592 -35.704829 -42.186955
-13.048936 -27.734406 -45.674476
-8.0042016 -32.301396 -42.904349
-9.2949624 -28.506586 -44.759123
-3.2728143 -15.698311 -46.890019
-10.263583 -20.763679 -46.841715
-3.301792 -19.099809 -46.129106
-6.783699 -21.747375 -46.17599
-40.052739 -1.9869932 -27.968977
-37.739967 -6.1391271 -33.257899
-42.204949 -5.4340722 -28.159724
-30.063393 -14.833164 -42.580761
-34.490641 -10.480185 -38.273684
-47.024767 -13.434706 -28.554328
-39.744979 -9.9354731 -33.638069
-44.527579 -9.2468785 -28.359118
-41.084828 -7.6647532 -30.931533
-22.959873 -51.133663 -37.149855
-26.319304 -42.757236 -42.585528
-19.561753 -47.094609 -38.823328
-29.575543 -52.473533 -38.321796
-27.712067 -21.833812 -44.839067
-27.728415 -32.320694 -44.865518
-24.359435 -23.701463 -45.79588
-13.421522 -39.42136 -41.277923
-22.626382 -38.745155 -43.616656
-16.363742 -43.160503 -40.185167
-14.818018 -35.475844 -43.518931
-21.308348 -43.223425 -41.605309
-43.494234 -52.72141 -39.086945
-32.109794 -42.223402 -42.841931
-36.580615 -53.111191 -39.050597
-31.189341 -47.700158 -41.078037
-17.009638 -26.663583 -46.201044
-23.567981 -33.723376 -44.957378
-20.739243 -25.325884 -46.248039
-16.019841 -31.15218 -45.153748
-24.114552 -28.718772 -45.630545
-19.223747 -34.831751 -44.478028
-3.2193112 -1.9896438 -48.086979
-9.7319633 -6.0146841 -47.653566
-3.2333725 -5.3503089 -48.064696
-23.597471 -14.584039 -45.268367
-16.470423 -10.179281 -46.744351
-20.557655 -16.389365 -46.331247
-3.2699885 -12.149473 -47.484768
-9.8540955 -9.5283016 -47.755195
-3.2480736 -8.7582925 -47.863651
-6.6410239 -14.523879 -47.480686
-6.5260461 -7.4218965 -47.966036
-13.880313 -19.47437 -47.124157
-13.379332 -11.773919 -47.411169
-17.278384 -18.041362 -46.955088
-10.184171 -16.971665 -47.365825
-16.891729 -14.025632 -46.946011
-10.047951 -13.200016 -47.66395
-60.108449 -37.149064 -29.269042
-49.255761 -30.441734 -35.483384
-56.324817 -29.959916 -29.15067
-58.370189 -42.628167 -32.899062
-31.293723 -19.340584 -43.073187
-39.764655 -24.575908 -39.924988
-33.910947 -17.086571 -41.135649
-31.920466 -24.635199 -43.708275
-49.869887 -18.36038 -28.780949
-46.702786 -24.482976 -35.032639
-52.907518 -23.725588 -28.972681
-45.794884 -16.247306 -31.594508
-51.355806 -27.140203 -32.322114
-50.098035 -50.831919 -38.098247
-46.630157 -34.570971 -38.469057
-55.064573 -47.420065 -36.004655
-43.581118 -45.492707 -40.488103
-52.219324 -38.394843 -35.966337
-38.089359 -12.38476 -36.376209
-42.144122 -21.862497 -37.437087
-36.179655 -14.732663 -38.85842
-41.86348 -14.254344 -34.12635
-37.949272 -19.435892 -39.425197
-44.184818 -19.097019 -34.602132
-32.462216 -36.122526 -43.785816
-41.22088 -30.894825 -40.625755
-32.349594 -30.303455 -43.997417
-37.695855 -40.575562 -42.355319
-36.43715 -27.665652 -42.311121
-42.672362 -37.97802 -40.879283
-3.1940741 24.592662 -41.76581
-9.0840568 21.330422 -40.127604
-5.1062299 26.460823 -39.658688
-3.1823179 21.533872 -43.173954
-19.426898 15.039465 -36.340848
-14.444411 18.157535 -38.306645
-8.7007729 29.457801 -34.805794
-10.830877 23.020109 -37.910724
-6.9604766 28.089386 -37.309744
-8.0578457 24.712491 -38.80189
-3.1710955 15.210409 -45.432682
-9.1151159 18.44028 -41.600255
-3.1779097 18.38319 -44.398356
-6.2311309 19.975937 -42.414712
-38.357738 1.9029052 -26.785351
-33.494389 5.4485026 -29.516533
-37.60073 4.8412588 -25.087726
-37.427211 0 -29.39589
-24.172345 11.926543 -34.236883
-28.815769 8.7558416 -31.976374
-35.877212 10.249914 -21.785322
-32.90395 8.2253487 -27.84818
-36.765853 7.6350294 -23.415761
-35.215725 6.5698179 -26.512861
-34.951624 -3.972185 -34.5401
-32.404043 3.6826573 -32.022514
-36.288125 -1.9680428 -32.002461
-34.871043 1.8911891 -30.752738
-14.694823 32.726668 -23.776724
-17.033735 27.672291 -27.561162
-13.379245 32.210321 -26.553185
-17.372682 30.822968 -22.510234
-20.959657 16.513716 -33.913437
-19.105539 22.269729 -30.913411
-18.588762 18.086661 -34.94698
-10.423079 30.614407 -32.056203
-15.670581 26.834122 -30.208027
-11.947053 31.511179 -29.338908
-11.522817 27.586796 -33.841278
-14.569286 29.553415 -28.44705
-22.357516 27.100598 -20.092019
-19.671644 25.867614 -26.246547
-19.932453 28.939817 -21.278324
-18.557938 28.382023 -24.441802
-13.594286 21.309824 -36.924373
-16.731237 23.940692 -31.915866
-16.124811 19.690935 -35.95796
-12.582425 24.46778 -35.464998
-17.687571 21.064679 -33.469147
-14.206511 25.740957 -32.869637
-3.205997 1.9814151 -47.888104
-9.3848248 5.8001407 -45.953766
-3.1977531 5.2913689 -47.535206
-6.4198999 0 -47.650166
-19.736107 12.197585 -37.860894
-14.956042 9.2433424 -42.446418
-17.236231 13.741396 -38.845678
-3.189984 11.85222 -46.322992
-9.3101772 9.0023662 -45.119243
-3.1901796 8.6021837 -47.010524
-6.2678475 13.707744 -44.812623
-6.3314603 7.2005993 -46.535843
-12.942587 -3.9727356 -46.826721
-12.535586 3.8478064 -45.354178
-9.6813263 -1.9931523 -47.295952
-9.562908 1.9687729 -46.717446
-11.990818 16.82337 -40.709256
-12.211671 10.746368 -43.273432
-14.645553 15.292271 -39.800205
-9.2258728 15.374686 -42.908853
-14.819154 12.30472 -41.185846
-9.294098 12.209678 -44.087938
-31.639673 19.554393 -15.406535
-29.602456 18.295324 -21.325329
-32.771186 17.431428 -16.960588
-29.387208 21.461688 -16.563448
-23.712875 14.655363 -32.638786
-26.971726 16.669443 -27.080478
-25.98917 13.095057 -31.526144
-22.774188 17.576393 -31.184397
-34.869655 12.83781 -20.124003
-30.524829 16.002014 -22.897249
-33.855871 15.182161 -18.53981
-33.612982 11.925359 -23.190049
-31.717842 16.762052 -19.96245
-24.816708 25.180247 -18.872458
-27.247337 20.200809 -22.478572
-27.105527 23.342519 -17.723285
-23.612738 24.648458 -21.936907
-28.388543 20.872994 -19.55276
-30.527941 9.9261639 -29.154882
-29.138956 15.115995 -25.884455
-28.268535 11.511188 -30.361556
-32.158619 10.949879 -26.215124
-27.648473 14.160291 -28.723779
-31.359825 13.553958 -24.558589
-20.783106 23.126527 -28.032752
-25.884263 19.400114 -25.51056
-21.794296 20.415789 -29.64157
-22.26225 23.962934 -25.014015
-24.421845 18.542786 -28.358849
-24.794788 22.067139 -23.752919
-26.870124 -12.270429 -43.476775
-25.629397 -3.836709 -41.469236
-29.298989 -10.238814 -41.599137
-23.30013 -10.167529 -44.549126
-22.645288 10.341128 -36.640846
-24.199723 3.6226874 -39.155974
-25.054912 8.7556806 -35.573334
-20.465948 8.9307706 -39.130258
-33.290457 -6.0867545 -37.109694
-27.655768 -1.9582004 -39.35751
-31.448645 -8.1559227 -39.439613
-32.16933 -1.9603734 -35.831721
-28.486432 -5.9391954 -40.508107
-16.418438 -6.066608 -46.197547
-22.379452 -1.991009 -42.653755
-19.799727 -8.0882764 -45.45526
-16.137137 -1.9946598 -45.475001
-22.880853 -5.9453614 -43.655794
-29.87146 5.4616324 -33.298453
-26.782792 1.8963882 -38.115158
-27.472207 7.1246692 -34.452778
-31.023857 1.8905692 -34.555838
-25.92813 5.4058097 -36.870165
-29.436501 0 -37.028411
-15.467002 5.7150527 -43.520434
-21.780292 1.9377042 -41.511796
-18.058611 7.3770226 -41.458089
-15.815703 1.9549284 -44.569188
-21.151473 5.4959994 -40.356204
-19.111544 0 -43.664156
-22.447666 32.145993 1.5947441
-25.549144 28.992327 4.7161561
-21.754605 32.605149 4.1980559
-24.08215 30.661692 0
-31.145809 21.989947 10.849756
-28.441857 25.630611 7.7880123
-20.171959 33.220242 9.4908325
-24.803008 29.305935 7.3259147
-20.993971 32.96332 6.8453714
-23.316687 30.970404 5.7778142
-27.217838 27.542122 -3.1301093
-27.217838 27.542122 3.1301093
-25.680852 29.119947 -1.5792853
-25.680852 29.119947 1.5792853
-40.036748 3.0618426 23.574551
-38.121828 8.6299908 20.264222
-33.665444 17.996694 13.932263
-35.994505 13.572565 17.061569
-16.136318 33.138394 20.480654
-21.144205 29.351032 18.139935
-17.251923 33.334101 17.73085
-30.220257 21.955755 13.569403
-25.772397 25.668898 15.864251
-28.966825 23.879348 12.03199
-19.25592 33.365493 12.284029
-22.142815 29.519076 15.474769
-18.294709 33.408287 14.981448
-21.673676 31.415063 11.145572
-19.761721 31.398909 16.593504
-26.281451 27.519185 8.9478665
-24.517759 27.600422 14.317872
-27.647278 25.741371 10.482105
-24.018014 29.46338 10.032161
-26.753673 25.75212 13.189065
-23.128072 29.533141 12.764452
-33.055588 20.429477 -9.3292623
-33.788315 20.882327 -3.1260748
-31.673656 22.308302 -7.7958512
-33.055588 20.429477 9.3292623
-33.788315 20.882327 3.1260748
-31.673656 22.308302 7.7958512
-28.786736 25.824077 -4.7216179
-32.213731 22.635972 -1.6027676
-30.241707 24.114352 -6.2538399
-28.922321 25.966145 -1.5823563
-32.032608 22.526225 -4.6965394
-28.786736 25.824077 4.7216179
-32.213731 22.635972 1.6027676
-30.241707 24.114352 6.2538399
-28.922321 25.966145 1.5823563
-32.032608 22.526225 4.6965394
-30.597737 24.324303 0
-56.129308 -80.379506 3.9875807
-74.175407 -84.171807 13.692153
-52.111752 -78.103531 10.056172
-66.135442 -84.204463 0
-71.336453 -50.36584 24.850314
-80.43642 -72.485933 22.025279
-43.710842 -71.98531 20.56579
-67.534678 -79.795436 19.94731
-47.926425 -75.250846 15.627066
-60.259863 -80.040201 14.932237
-85.658382 -86.678949 -9.8508962
-85.658382 -86.678949 9.8508962
-76.758471 -87.037712 -4.7203856
-76.758471 -87.037712 4.7203856
-43.114676 -3.2972297 25.386905
-48.047022 -10.876849 25.540106
-61.575457 -32.916681 25.482672
-54.007492 -20.36478 25.599812
-27.295934 -56.056368 34.644741
-42.411538 -58.872981 36.385504
-31.161447 -60.210032 32.026514
-65.052542 -47.262261 29.209683
-57.048533 -56.819434 35.116341
-69.174216 -57.025067 28.732989
-39.368401 -68.215183 25.114488
-47.982479 -63.966503 33.533125
-35.22175 -64.319053 28.84292
-49.534664 -71.798371 25.472936
-39.318322 -62.471907 33.014773
-72.043331 -75.436237 24.528102
-56.903311 -64.057871 33.230376
-72.164835 -67.190041 27.360357
-60.882734 -74.686074 25.430303
-64.274999 -61.868794 31.686384
-54.258748 -69.285122 29.945564
-72.6735 -44.914693 -20.510606
-84.727049 -52.364196 -7.8388962
-79.010797 -55.648665 -19.446963
-72.6735 -44.914693 20.510606
-84.727049 -52.364196 7.8388962
