-11.62361201 7.183787294 9.927749873
-9.211370308 0 14.90431024
-19.31101121 0 -5.485853601
-19.31101121 0 5.485853601
-17.30169378 4.782070548 -2.955482135
-22.2590119 -6.152239578 -3.802293166
-17.30169378 4.782070548 2.955482135
-22.2590119 -6.152239578 3.802293166
-7.048390585 15.98982995 0
-2.64567414 18.99482384 0
10.38295755 23.55455812 0
3.035630289 21.79454442 0
-10.38295755 -23.55455812 0
-3.035630289 -21.79454442 0
7.048390585 -15.98982995 0
2.64567414 -18.99482384 0
-12.89973756 -23.03138392 3.493610598
-8.812978291 -19.83095647 9.014484887
-8.898284531 -22.95942001 3.2702758
-1.478592099 -11.22610727 14.29321875
-4.837298181 -15.47886571 12.38111977
-1.745934286 -20.96774376 2.824981017
-5.256514259 -19.62313028 8.505218733
-5.044153468 -22.14564056 3.04304324
-7.071012661 -21.50567042 6.198431326
8.289985168 -14.80106321 2.245160407
6.503901337 -14.63507341 6.652611452
6.327929945 -16.32737197 2.32562536
1.423165081 -10.8052815 13.75741817
4.15068297 -13.28176637 10.62372032
0 -12.83946435 12.99243867
1.610586041 -19.34228319 2.605982956
4.301298896 -16.0572091 6.959647809
4.072097849 -17.8779682 2.456620305
0 -19.36690566 5.352881074
5.379890257 -16.36231644 4.715997821
-3.19313351 -17.14967453 10.59908175
2.842437449 -15.26615688 9.435003832
-1.561376941 -15.01312935 11.93499733
-1.679296995 -18.62368906 8.151478846
1.480564666 -14.23609396 11.317277
1.566211772 -17.36955472 7.602551641
-8.289985168 14.80106321 2.245160407
-6.503901337 14.63507341 6.652611452
-6.327929945 16.32737197 2.32562536
-1.423165081 10.8052815 13.75741817
-4.15068297 13.28176637 10.62372032
-1.610586041 19.34228319 2.605982956
-4.301298896 16.0572091 6.959647809
-4.072097849 17.8779682 2.456620305
-5.379890257 16.36231644 4.715997821
12.89973756 23.03138392 3.493610598
8.812978291 19.83095647 9.014484887
8.898284531 22.95942001 3.2702758
1.478592099 11.22610727 14.29321875
4.837298181 15.47886571 12.38111977
0 12.83946435 12.99243867
1.745934286 20.96774376 2.824981017
5.256514259 19.62313028 8.505218733
5.044153468 22.14564056 3.04304324
0 19.36690566 5.352881074
7.071012661 21.50567042 6.198431326
-2.842437449 15.26615688 9.435003832
3.19313351 17.14967453 10.59908175
-1.480564666 14.23609396 11.317277
-1.566211772 17.36955472 7.602551641
1.561376941 15.01312935 11.93499733
1.679296995 18.62368906 8.151478846
0 -6.924168332 15.70802197
0 -2.310376659 16.58752942
0 6.924168332 15.70802197
0 2.310376659 16.58752942
-12.89973756 -23.03138392 -3.493610598
-8.812978291 -19.83095647 -9.014484887
-8.898284531 -22.95942001 -3.2702758
-1.478592099 -11.22610727 -14.29321875
-4.837298181 -15.47886571 -12.38111977
-1.745934286 -20.96774376 -2.824981017
-5.256514259 -19.62313028 -8.505218733
-5.044153468 -22.14564056 -3.04304324
-7.071012661 -21.50567042 -6.198431326
8.289985168 -14.80106321 -2.245160407
6.503901337 -14.63507341 -6.652611452
6.327929945 -16.32737197 -2.32562536
1.423165081 -10.8052815 -13.75741817
4.15068297 -13.28176637 -10.62372032
0 -12.83946435 -12.99243867
1.610586041 -19.34228319 -2.605982956
4.301298896 -16.0572091 -6.959647809
4.072097849 -17.8779682 -2.456620305
0 -19.36690566 -5.352881074
5.379890257 -16.36231644 -4.715997821
-3.19313351 -17.14967453 -10.59908175
2.842437449 -15.26615688 -9.435003832
-1.561376941 -15.01312935 -11.93499733
-1.679296995 -18.62368906 -8.151478846
1.480564666 -14.23609396 -11.317277
1.566211772 -17.36955472 -7.602551641
-8.289985168 14.80106321 -2.245160407
-6.503901337 14.63507341 -6.652611452
-6.327929945 16.32737197 -2.32562536
-1.423165081 10.8052815 -13.75741817
-4.15068297 13.28176637 -10.62372032
-1.610586041 19.34228319 -2.605982956
-4.301298896 16.0572091 -6.959647809
-4.072097849 17.8779682 -2.456620305
-5.379890257 16.36231644 -4.715997821
12.89973756 23.03138392 -3.493610598
8.812978291 19.83095647 -9.014484887
8.898284531 22.95942001 -3.2702758
1.478592099 11.22610727 -14.29321875
4.837298181 15.47886571 -12.38111977
0 12.83946435 -12.99243867
1.745934286 20.96774376 -2.824981017
5.256514259 19.62313028 -8.505218733
5.044153468 22.14564056 -3.04304324
0 19.36690566 -5.352881074
7.071012661 21.50567042 -6.198431326
-2.842437449 15.26615688 -9.435003832
3.19313351 17.14967453 -10.59908175
-1.480564666 14.23609396 -11.317277
-1.566211772 17.36955472 -7.602551641
1.561376941 15.01312935 -11.93499733
1.679296995 18.62368906 -8.151478846
0 -6.924168332 -15.70802197
0 -2.310376659 -16.58752942
0 6.924168332 -15.70802197
0 2.310376659 -16.58752942
17.4438993 22.20978854 -2.297538325
20.58673429 16.46676364 -6.433557484
15.47215471 21.46863175 -5.769651049
17.65067091 2.677414921 -9.886033048
19.96978119 9.07758993 -8.874672707
10.6086111 17.71103605 -10.94602226
18.01923826 15.32807959 -9.473274172
13.03363002 19.78452206 -8.741409293
17.24624264 18.7086554 -7.885191906
10.32661357 -13.14797224 -1.360119664
12.71422476 -10.16975937 -3.973320622
9.615610872 -13.34229218 -3.585713845
15.94046421 -2.417995155 -8.928156716
14.6141467 -6.643098871 -6.494601397
7.698584778 -12.85275813 -7.943441375
11.82676312 -10.0604456 -6.217697326
8.720866487 -13.23792183 -5.84892031
10.81361912 -11.730571 -4.944118193
2.237341459 -8.261114639 -14.74951734
6.404299132 -6.261139702 -14.08881138
3.634892435 -9.747490384 -13.52528368
2.216964152 -6.032267315 -15.56450105
14.31725704 -1.481078792 -11.2449873
10.369634 -4.051411553 -12.96410786
14.04248558 -3.773889394 -10.12023085
6.325834959 -12.03245312 -10.23541597
7.820450926 -7.57938551 -12.65375541
5.046590356 -11.037743 -11.97369969
8.595978366 -10.82632371 -9.44789448
5.806861549 -8.658155966 -13.1427298
2.22250622 -1.373584384 -16.49601913
6.470695409 -3.999109693 -14.92910447
2.219720394 -3.679412167 -16.15393739
4.4097324 -5.030510461 -15.29971804
12.83386071 -7.931762125 -7.687265541
10.13125585 -6.261460465 -11.91000555
13.51720549 -5.972316405 -8.904852729
10.80647435 -9.430572384 -8.580218203
12.06122515 -5.083479967 -11.11842679
9.423981034 -8.574221195 -10.79892134
2.343341572 8.652507326 -15.44831568
7.123945596 6.964699445 -15.67196094
3.988620134 10.69606243 -14.84148974
2.291478288 6.235017181 -16.08763776
15.10384746 1.562449293 -11.86278715
11.60074919 4.532407728 -14.50324705
16.25314878 4.368000624 -11.71342614
13.02325016 0 -12.86991307
7.932983682 15.08943165 -12.83583723
9.239424193 8.954618923 -14.94970238
5.89241813 12.88771079 -13.98053739
11.540732 14.53513435 -12.68449192
6.663231554 9.935022137 -15.08096089
2.238915705 1.383726004 -16.6178146
6.912712435 4.272291239 -15.94892042
2.264399031 3.753471549 -16.47908461
4.501039775 0 -16.28491489
4.664164961 5.32076065 -16.18248055
17.91822879 11.07407441 -10.73271604
12.1393996 7.502561556 -14.27072011
17.2535005 7.62312626 -11.36624587
15.09583115 13.17379968 -11.98591891
14.34766172 6.0471511 -13.22613785
12.03234973 10.94739344 -13.7878459
8.865426656 -2.67084372 -14.34456165
9.414683136 2.836315533 -15.23327731
10.89576672 -1.425421258 -13.70587278
6.786049087 -1.398002995 -15.5040908
11.32460159 1.481522894 -14.24530762
6.945492412 1.430850126 -15.86837107
17.4438993 22.20978854 2.297538325
20.58673429 16.46676364 6.433557484
15.47215471 21.46863175 5.769651049
20.32429199 20.56644342 0
17.65067091 2.677414921 9.886033048
19.96978119 9.07758993 8.874672707
10.6086111 17.71103605 10.94602226
18.01923826 15.32807959 9.473274172
13.03363002 19.78452206 8.741409293
17.24624264 18.7086554 7.885191906
22.63551878 13.98951996 -4.214554243
22.63551878 13.98951996 4.214554243
22.13523926 17.59686574 -2.302081822
22.13523926 17.59686574 2.302081822
10.32661357 -13.14797224 1.360119664
12.71422476 -10.16975937 3.973320622
9.615610872 -13.34229218 3.585713845
11.73478411 -11.87459684 0
15.94046421 -2.417995155 8.928156716
14.6141467 -6.643098871 6.494601397
7.698584778 -12.85275813 7.943441375
11.82676312 -10.0604456 6.217697326
8.720866487 -13.23792183 5.84892031
10.81361912 -11.730571 4.944118193
14.2734501 -8.821477299 -2.657603312
14.2734501 -8.821477299 2.657603312
13.08099073 -10.39900382 -1.360433046
13.08099073 -10.39900382 1.360433046
2.237341459 -8.261114639 14.74951734
6.404299132 -6.261139702 14.08881138
3.634892435 -9.747490384 13.52528368
2.216964152 -6.032267315 15.56450105
14.31725704 -1.481078792 11.2449873
10.369634 -4.051411553 12.96410786
14.04248558 -3.773889394 10.12023085
6.325834959 -12.03245312 10.23541597
7.820450926 -7.57938551 12.65375541
5.046590356 -11.037743 11.97369969
8.595978366 -10.82632371 9.44789448
5.806861549 -8.658155966 13.1427298
2.22250622 -1.373584384 16.49601913
6.470695409 -3.999109693 14.92910447
2.219720394 -3.679412167 16.15393739
4.4097324 -5.030510461 15.29971804
12.83386071 -7.931762125 7.687265541
10.13125585 -6.261460465 11.91000555
13.51720549 -5.972316405 8.904852729
10.80647435 -9.430572384 8.580218203
12.06122515 -5.083479967 11.11842679
9.423981034 -8.574221195 10.79892134
2.343341572 8.652507326 15.44831568
7.123945596 6.964699445 15.67196094
3.988620134 10.69606243 14.84148974
2.291478288 6.235017181 16.08763776
15.10384746 1.562449293 11.86278715
11.60074919 4.532407728 14.50324705
16.25314878 4.368000624 11.71342614
13.02325016 0 12.86991307
7.932983682 15.08943165 12.83583723
9.239424193 8.954618923 14.94970238
5.89241813 12.88771079 13.98053739
11.540732 14.53513435 12.68449192
6.663231554 9.935022137 15.08096089
2.238915705 1.383726004 16.6178146
6.912712435 4.272291239 15.94892042
2.264399031 3.753471549 16.47908461
4.501039775 0 16.28491489
4.664164961 5.32076065 16.18248055
17.91822879 11.07407441 10.73271604
12.1393996 7.502561556 14.27072011
17.2535005 7.62312626 11.36624587
15.09583115 13.17379968 11.98591891
14.34766172 6.0471511 13.22613785
12.03234973 10.94739344 13.7878459
8.865426656 -2.67084372 14.34456165
9.414683136 2.836315533 15.23327731
10.89576672 -1.425421258 13.70587278
6.786049087 -1.398002995 15.5040908
11.32460159 1.481522894 14.24530762
6.945492412 1.430850126 15.86837107
17.99188965 0 -7.930907706
20.15528644 0 -2.807307959
19.46695987 2.772819511 -7.544726643
17.35470942 -2.471956444 -6.726090743
17.99188965 0 7.930907706
20.15528644 0 2.807307959
19.46695987 2.772819511 7.544726643
17.35470942 -2.471956444 6.726090743
22.02153084 9.544753254 -5.898981925
21.62679292 2.913774613 -1.800811746
20.90062398 6.024042957 -6.872074849
23.36045449 10.22473313 -2.106410867
20.87577199 2.868549983 -4.754913158
15.54998619 -6.739803076 -4.165427379
18.95724499 -2.554106815 -1.578524823
16.51132413 -4.758945279 -5.428883624
15.95885775 -6.985097899 -1.439009305
18.40519639 -2.529066988 -4.192185589
22.02153084 9.544753254 5.898981925
21.62679292 2.913774613 1.800811746
20.90062398 6.024042957 6.872074849
23.36045449 10.22473313 2.106410867
20.87577199 2.868549983 4.754913158
22.85981842 6.318298417 0
15.54998619 -6.739803076 4.165427379
18.95724499 -2.554106815 1.578524823
16.51132413 -4.758945279 5.428883624
15.95885775 -6.985097899 1.439009305
18.40519639 -2.529066988 4.192185589
17.57936385 -4.858816667 0
-10.32661357 13.14797224 -1.360119664
-12.71422476 10.16975937 -3.973320622
-9.615610872 13.34229218 -3.585713845
-15.94046421 2.417995155 -8.928156716
-14.6141467 6.643098871 -6.494601397
-7.698584778 12.85275813 -7.943441375
-11.82676312 10.0604456 -6.217697326
-8.720866487 13.23792183 -5.84892031
-10.81361912 11.730571 -4.944118193
-17.4438993 -22.20978854 -2.297538325
-20.58673429 -16.46676364 -6.433557484
-15.47215471 -21.46863175 -5.769651049
-17.65067091 -2.677414921 -9.886033048
-19.96978119 -9.07758993 -8.874672707
-10.6086111 -17.71103605 -10.94602226
-18.01923826 -15.32807959 -9.473274172
-13.03363002 -19.78452206 -8.741409293
-17.24624264 -18.7086554 -7.885191906
-2.343341572 -8.652507326 -15.44831568
-7.123945596 -6.964699445 -15.67196094
-3.988620134 -10.69606243 -14.84148974
-2.291478288 -6.235017181 -16.08763776
-15.10384746 -1.562449293 -11.86278715
-11.60074919 -4.532407728 -14.50324705
-16.25314878 -4.368000624 -11.71342614
-7.932983682 -15.08943165 -12.83583723
-9.239424193 -8.954618923 -14.94970238
-5.89241813 -12.88771079 -13.98053739
-11.540732 -14.53513435 -12.68449192
-6.663231554 -9.935022137 -15.08096089
-2.238915705 -1.383726004 -16.6178146
-6.912712435 -4.272291239 -15.94892042
-2.264399031 -3.753471549 -16.47908461
-4.664164961 -5.32076065 -16.18248055
-17.91822879 -11.07407441 -10.73271604
-12.1393996 -7.502561556 -14.27072011
-17.2535005 -7.62312626 -11.36624587
-15.09583115 -13.17379968 -11.98591891
-14.34766172 -6.0471511 -13.22613785
-12.03234973 -10.94739344 -13.7878459
-2.237341459 8.261114639 -14.74951734
-6.404299132 6.261139702 -14.08881138
-3.634892435 9.747490384 -13.52528368
-2.216964152 6.032267315 -15.56450105
-14.31725704 1.481078792 -11.2449873
-10.369634 4.051411553 -12.96410786
-14.04248558 3.773889394 -10.12023085
-13.02325016 0 -12.86991307
-6.325834959 12.03245312 -10.23541597
-7.820450926 7.57938551 -12.65375541
-5.046590356 11.037743 -11.97369969
-8.595978366 10.82632371 -9.44789448
-5.806861549 8.658155966 -13.1427298
-2.22250622 1.373584384 -16.49601913
-6.470695409 3.999109693 -14.92910447
-2.219720394 3.679412167 -16.15393739
-4.501039775 0 -16.28491489
-4.4097324 5.030510461 -15.29971804
-12.83386071 7.931762125 -7.687265541
-10.13125585 6.261460465 -11.91000555
-13.51720549 5.972316405 -8.904852729
-10.80647435 9.430572384 -8.580218203
-12.06122515 5.083479967 -11.11842679
-9.423981034 8.574221195 -10.79892134
-9.414683136 -2.836315533 -15.23327731
-8.865426656 2.67084372 -14.34456165
-11.32460159 -1.481522894 -14.24530762
-6.945492412 -1.430850126 -15.86837107
-10.89576672 1.425421258 -13.70587278
-6.786049087 1.398002995 -15.5040908
-10.32661357 13.14797224 1.360119664
-12.71422476 10.16975937 3.973320622
-9.615610872 13.34229218 3.585713845
-11.73478411 11.87459684 0
-15.94046421 2.417995155 8.928156716
-14.6141467 6.643098871 6.494601397
-7.698584778 12.85275813 7.943441375
-11.82676312 10.0604456 6.217697326
-8.720866487 13.23792183 5.84892031
-10.81361912 11.730571 4.944118193
-14.2734501 8.821477299 -2.657603312
-14.2734501 8.821477299 2.657603312
-13.08099073 10.39900382 -1.360433046
-13.08099073 10.39900382 1.360433046
-17.4438993 -22.20978854 2.297538325
-20.58673429 -16.46676364 6.433557484
-15.47215471 -21.46863175 5.769651049
-20.32429199 -20.56644342 0
-17.65067091 -2.677414921 9.886033048
-19.96978119 -9.07758993 8.874672707
-10.6086111 -17.71103605 10.94602226
-18.01923826 -15.32807959 9.473274172
-13.03363002 -19.78452206 8.741409293
-17.24624264 -18.7086554 7.885191906
-22.63551878 -13.98951996 -4.214554243
-22.63551878 -13.98951996 4.214554243
-22.13523926 -17.59686574 -2.302081822
-22.13523926 -17.59686574 2.302081822
-2.343341572 -8.652507326 15.44831568
-7.123945596 -6.964699445 15.67196094
-3.988620134 -10.69606243 14.84148974
-2.291478288 -6.235017181 16.08763776
-15.10384746 -1.562449293 11.86278715
-11.60074919 -4.532407728 14.50324705
-16.25314878 -4.368000624 11.71342614
-7.932983682 -15.08943165 12.83583723
-9.239424193 -8.954618923 14.94970238
-5.89241813 -12.88771079 13.98053739
-11.540732 -14.53513435 12.68449192
-6.663231554 -9.935022137 15.08096089
-2.238915705 -1.383726004 16.6178146
-6.912712435 -4.272291239 15.94892042
-2.264399031 -3.753471549 16.47908461
-4.664164961 -5.32076065 16.18248055
-17.91822879 -11.07407441 10.73271604
-12.1393996 -7.502561556 14.27072011
-17.2535005 -7.62312626 11.36624587
-15.09583115 -13.17379968 11.98591891
-14.34766172 -6.0471511 13.22613785
-12.03234973 -10.94739344 13.7878459
-2.237341459 8.261114639 14.74951734
-6.404299132 6.261139702 14.08881138
-3.634892435 9.747490384 13.52528368
-2.216964152 6.032267315 15.56450105
-14.31725704 1.481078792 11.2449873
-10.369634 4.051411553 12.96410786
-14.04248558 3.773889394 10.12023085
-13.02325016 0 12.86991307
-6.325834959 12.03245312 10.23541597
-7.820450926 7.57938551 12.65375541
-5.046590356 11.037743 11.97369969
-8.595978366 10.82632371 9.44789448
-5.806861549 8.658155966 13.1427298
-2.22250622 1.373584384 16.49601913
-6.470695409 3.999109693 14.92910447
-2.219720394 3.679412167 16.15393739
-4.501039775 0 16.28491489
-4.4097324 5.030510461 15.29971804
-12.83386071 7.931762125 7.687265541
-10.13125585 6.261460465 11.91000555
-13.51720549 5.972316405 8.904852729
-10.80647435 9.430572384 8.580218203
-12.06122515 5.083479967 11.11842679
-9.423981034 8.574221195 10.79892134
-9.414683136 -2.836315533 15.23327731
-8.865426656 2.67084372 14.34456165
-11.32460159 -1.481522894 14.24530762
-6.945492412 -1.430850126 15.86837107
-10.89576672 1.425421258 13.70587278
-6.786049087 1.398002995 15.5040908
-17.99188965 0 -7.930907706
-20.15528644 0 -2.807307959
-17.35470942 2.471956444 -6.726090743
-19.46695987 -2.772819511 -7.544726643
-17.99188965 0 7.930907706
-20.15528644 0 2.807307959
-17.35470942 2.471956444 6.726090743
-19.46695987 -2.772819511 7.544726643
-15.54998619 6.739803076 -4.165427379
-18.95724499 2.554106815 -1.578524823
-16.51132413 4.758945279 -5.428883624
-15.95885775 6.985097899 -1.439009305
-18.40519639 2.529066988 -4.192185589
-22.02153084 -9.544753254 -5.898981925
-21.62679292 -2.913774613 -1.800811746
-20.90062398 -6.024042957 -6.872074849
-23.36045449 -10.22473313 -2.106410867
-20.87577199 -2.868549983 -4.754913158
-15.54998619 6.739803076 4.165427379
-18.95724499 2.554106815 1.578524823
-16.51132413 4.758945279 5.428883624
-15.95885775 6.985097899 1.439009305
-18.40519639 2.529066988 4.192185589
-17.57936385 4.858816667 0
-22.02153084 -9.544753254 5.898981925
-21.62679292 -2.913774613 1.800811746
-20.90062398 -6.024042957 6.872074849
-23.36045449 -10.22473313 2.106410867
-20.87577199 -2.868549983 4.754913158
-22.85981842 -6.318298417 0
-8.012225938 15.22693711 0
-6.037366837 16.7479473 0
-1.367329268 19.72846036 0
-3.844211586 18.25148007 0
12.41736095 23.5987322 0
8.402516883 23.3089878 0
1.465131826 21.13960098 0
4.716416414 22.3925188 0
-12.41736095 -23.5987322 0
-8.402516883 -23.3089878 0
-1.465131826 -21.13960098 0
-4.716416414 -22.3925188 0
8.012225938 -15.22693711 0
6.037366837 -16.7479473 0
1.367329268 -19.72846036 0
3.844211586 -18.25148007 0
-13.74992567 -23.35154988 1.78582866
-11.94520284 -22.47177125 5.087142642
-11.71224647 -23.48225987 1.730858733
-7.769596776 -18.77418798 10.03620582
-9.871264865 -20.82524134 7.85264138
-7.727972999 -23.08304454 1.611142821
-9.977023282 -22.50761437 4.931688887
-9.678778621 -23.37580489 1.673174536
-10.88096629 -23.10344984 3.394119973
-0.7253689017 -10.21031473 14.62159582
-2.263221177 -12.26069759 13.91303546
-5.775819943 -16.58033425 11.70625144
-3.939921824 -14.38861276 12.96641525
-0.8602785813 -20.79176129 1.391959984
-2.644564175 -20.95254075 4.278994721
-2.388690821 -21.45889152 1.443566599
-6.040448724 -18.74934965 9.773651342
-4.417573617 -20.28597109 7.14778426
-7.002979398 -19.79678702 8.784039822
-5.788751904 -22.6246484 1.558022543
-4.290337431 -21.50287754 4.437033644
-4.040526542 -22.08128483 1.498457345
-6.919364543 -22.62041616 3.163870124
-3.340475662 -21.58873782 2.937267865
-8.968375723 -21.70171061 6.392189341
-5.257347245 -21.17026458 5.9742039
-7.99098579 -20.79762219 7.653042933
-7.996267822 -22.31659751 4.798312603
-6.155890092 -20.60473945 7.413828494
-6.083295241 -21.96617676 4.630649695
8.634155789 -14.66341888 1.121396816
7.903665259 -14.86867659 3.365959801
7.69651348 -15.43098756 1.137405842
5.962803009 -14.4083133 7.702319691
7.009078632 -14.78693522 5.575757682
5.676503382 -16.95541384 1.18344845
6.927321998 -15.62765644 3.424207396
6.707181978 -16.19892172 1.159473373
7.331534029 -15.56697487 2.286938993
0.7128500673 -10.03409923 14.3692479
2.126472836 -11.51988177 13.07238209
0 -11.03746009 14.05303083
4.783144881 -13.73071558 9.694328629
3.49445504 -12.761766 11.50036908
-1.507118329 -13.10513426 13.26127387
1.440593873 -12.52667144 12.67591902
-0.7420910369 -12.06718659 13.68318429
0.7266883153 -11.81672201 13.39917833
0.8256767643 -19.95548251 1.335973068
2.351225299 -18.62845468 3.804362449
2.14060397 -19.2301942 1.29363933
0 -20.17364171 2.717991766
4.86466874 -15.09976813 7.871199365
3.695814687 -16.97157679 5.97995378
5.430066247 -15.35030434 6.811089315
4.538895345 -17.73973267 1.221627975
3.573607267 -17.91067502 3.695796876
3.382607249 -18.48578727 1.254463404
5.232354007 -17.10533162 2.392486827
2.880353351 -18.6150715 2.532684022
-1.703472428 -20.07886673 5.549662273
1.579164032 -18.61364096 5.14468383
-0.8521299583 -20.22037979 4.139045445
0.819041222 -19.43520986 3.978323736
6.453718112 -15.61673229 4.599872864
4.246899822 -17.10139899 4.825978635
5.964293 -15.52287987 5.712060013
5.873088884 -16.39106689 3.524258696
4.856335125 -16.25492308 5.848713215
4.75130562 -17.15649413 3.616729264
-4.929476394 -17.46619774 10.79470386
-1.550260892 -16.75606203 10.35581585
-4.031100222 -16.37790143 11.53523808
-4.20052871 -18.40465727 9.626023038
4.148571271 -14.69928251 9.084656203
1.462073512 -15.8028849 9.76671999
3.51415532 -14.27761313 10.05596885
3.588949765 -15.72501819 8.224515415
-2.33092957 -14.21119964 12.74861865
-0.7817581183 -15.7124129 11.04081157
-3.160581891 -15.28363256 12.18697416
-0.7616080991 -13.92067882 12.49783434
-2.357720246 -16.08076135 11.30844065
-2.589182561 -19.71676487 7.007265714
-0.8158728505 -17.47859518 9.170620193
-3.410012863 -19.16391269 8.347554139
-0.8374179613 -19.09176777 6.774853621
-2.447473156 -17.9713859 9.419153796
2.165639963 -13.2034628 11.84459555
0.7597537663 -15.27015147 10.73004293
2.848534569 -13.77466466 10.98374236
0.7429984043 -13.58053067 12.19245302
2.169187851 -14.79488172 10.40417416
0 -14.6496387 11.64603293
2.321202073 -17.676079 6.282013461
0.7893902428 -16.91125336 8.872948886
2.976352584 -16.72678765 7.285973788
0.8071198825 -18.40102084 6.529737015
2.224586451 -16.33476611 8.561369453
0 -18.02050917 7.887470565
-8.634155789 14.66341888 1.121396816
-7.903665259 14.86867659 3.365959801
-7.69651348 15.43098756 1.137405842
-5.962803009 14.4083133 7.702319691
-7.009078632 14.78693522 5.575757682
-5.676503382 16.95541384 1.18344845
-6.927321998 15.62765644 3.424207396
-6.707181978 16.19892172 1.159473373
-7.331534029 15.56697487 2.286938993
-0.7128500673 10.03409923 14.3692479
-2.126472836 11.51988177 13.07238209
-4.783144881 13.73071558 9.694328629
-3.49445504 12.761766 11.50036908
-0.8256767643 19.95548251 1.335973068
-2.351225299 18.62845468 3.804362449
-2.14060397 19.2301942 1.29363933
-4.86466874 15.09976813 7.871199365
-3.695814687 16.97157679 5.97995378
-5.430066247 15.35030434 6.811089315
-4.538895345 17.73973267 1.221627975
-3.573607267 17.91067502 3.695796876
-3.382607249 18.48578727 1.254463404
-5.232354007 17.10533162 2.392486827
-2.880353351 18.6150715 2.532684022
-6.453718112 15.61673229 4.599872864
-4.246899822 17.10139899 4.825978635
-5.964293 15.52287987 5.712060013
-5.873088884 16.39106689 3.524258696
-4.856335125 16.25492308 5.848713215
-4.75130562 17.15649413 3.616729264
13.74992567 23.35154988 1.78582866
11.94520284 22.47177125 5.087142642
11.71224647 23.48225987 1.730858733
7.769596776 18.77418798 10.03620582
9.871264865 20.82524134 7.85264138
7.727972999 23.08304454 1.611142821
9.977023282 22.50761437 4.931688887
9.678778621 23.37580489 1.673174536
10.88096629 23.10344984 3.394119973
0.7253689017 10.21031473 14.62159582
2.263221177 12.26069759 13.91303546
0 11.03746009 14.05303083
5.775819943 16.58033425 11.70625144
3.939921824 14.38861276 12.96641525
-1.440593873 12.52667144 12.67591902
1.507118329 13.10513426 13.26127387
-0.7266883153 11.81672201 13.39917833
0.7420910369 12.06718659 13.68318429
0.8602785813 20.79176129 1.391959984
2.644564175 20.95254075 4.278994721
2.388690821 21.45889152 1.443566599
0 20.17364171 2.717991766
6.040448724 18.74934965 9.773651342
4.417573617 20.28597109 7.14778426
7.002979398 19.79678702 8.784039822
5.788751904 22.6246484 1.558022543
4.290337431 21.50287754 4.437033644
4.040526542 22.08128483 1.498457345
6.919364543 22.62041616 3.163870124
3.340475662 21.58873782 2.937267865
-1.579164032 18.61364096 5.14468383
1.703472428 20.07886673 5.549662273
-0.819041222 19.43520986 3.978323736
0.8521299583 20.22037979 4.139045445
8.968375723 21.70171061 6.392189341
5.257347245 21.17026458 5.9742039
7.99098579 20.79762219 7.653042933
7.996267822 22.31659751 4.798312603
6.155890092 20.60473945 7.413828494
6.083295241 21.96617676 4.630649695
-4.148571271 14.69928251 9.084656203
-1.462073512 15.8028849 9.76671999
-3.51415532 14.27761313 10.05596885
-3.588949765 15.72501819 8.224515415
4.929476394 17.46619774 10.79470386
1.550260892 16.75606203 10.35581585
4.031100222 16.37790143 11.53523808
4.20052871 18.40465727 9.626023038
-2.165639963 13.2034628 11.84459555
-0.7597537663 15.27015147 10.73004293
-2.848534569 13.77466466 10.98374236
-0.7429984043 13.58053067 12.19245302
-2.169187851 14.79488172 10.40417416
-2.321202073 17.676079 6.282013461
-0.7893902428 16.91125336 8.872948886
-2.976352584 16.72678765 7.285973788
-0.8071198825 18.40102084 6.529737015
-2.224586451 16.33476611 8.561369453
2.33092957 14.21119964 12.74861865
0.7817581183 15.7124129 11.04081157
3.160581891 15.28363256 12.18697416
0.7616080991 13.92067882 12.49783434
2.357720246 16.08076135 11.30844065
0 14.6496387 11.64603293
2.589182561 19.71676487 7.007265714
0.8158728505 17.47859518 9.170620193
3.410012863 19.16391269 8.347554139
0.8374179613 19.09176777 6.774853621
2.447473156 17.9713859 9.419153796
0 18.02050917 7.887470565
0 -8.071052233 15.33873429
0 -5.773202359 16.01514228
0 -1.155201614 16.66778425
0 -3.465391507 16.45292477
0 8.071052233 15.33873429
0 5.773202359 16.01514228
0 1.155201614 16.66778425
0 3.465391507 16.45292477
-13.74992567 -23.35154988 -1.78582866
-11.94520284 -22.47177125 -5.087142642
-11.71224647 -23.48225987 -1.730858733
-7.769596776 -18.77418798 -10.03620582
-9.871264865 -20.82524134 -7.85264138
-7.727972999 -23.08304454 -1.611142821
-9.977023282 -22.50761437 -4.931688887
-9.678778621 -23.37580489 -1.673174536
-10.88096629 -23.10344984 -3.394119973
-0.7253689017 -10.21031473 -14.62159582
-2.263221177 -12.26069759 -13.91303546
-5.775819943 -16.58033425 -11.70625144
-3.939921824 -14.38861276 -12.96641525
-0.8602785813 -20.79176129 -1.391959984
-2.644564175 -20.95254075 -4.278994721
-2.388690821 -21.45889152 -1.443566599
-6.040448724 -18.74934965 -9.773651342
-4.417573617 -20.28597109 -7.14778426
-7.002979398 -19.79678702 -8.784039822
-5.788751904 -22.6246484 -1.558022543
-4.290337431 -21.50287754 -4.437033644
-4.040526542 -22.08128483 -1.498457345
-6.919364543 -22.62041616 -3.163870124
-3.340475662 -21.58873782 -2.937267865
-8.968375723 -21.70171061 -6.392189341
-5.257347245 -21.17026458 -5.9742039
-7.99098579 -20.79762219 -7.653042933
-7.996267822 -22.31659751 -4.798312603
-6.155890092 -20.60473945 -7.413828494
-6.083295241 -21.96617676 -4.630649695
8.634155789 -14.66341888 -1.121396816
7.903665259 -14.86867659 -3.365959801
7.69651348 -15.43098756 -1.137405842
5.962803009 -14.4083133 -7.702319691
7.009078632 -14.78693522 -5.575757682
5.676503382 -16.95541384 -1.18344845
6.927321998 -15.62765644 -3.424207396
6.707181978 -16.19892172 -1.159473373
7.331534029 -15.56697487 -2.286938993
0.7128500673 -10.03409923 -14.3692479
2.126472836 -11.51988177 -13.07238209
0 -11.03746009 -14.05303083
4.783144881 -13.73071558 -9.694328629
3.49445504 -12.761766 -11.50036908
-1.507118329 -13.10513426 -13.26127387
1.440593873 -12.52667144 -12.67591902
-0.7420910369 -12.06718659 -13.68318429
0.7266883153 -11.81672201 -13.39917833
0.8256767643 -19.95548251 -1.335973068
2.351225299 -18.62845468 -3.804362449
2.14060397 -19.2301942 -1.29363933
0 -20.17364171 -2.717991766
4.86466874 -15.09976813 -7.871199365
3.695814687 -16.97157679 -5.97995378
5.430066247 -15.35030434 -6.811089315
4.538895345 -17.73973267 -1.221627975
3.573607267 -17.91067502 -3.695796876
3.382607249 -18.48578727 -1.254463404
5.232354007 -17.10533162 -2.392486827
2.880353351 -18.6150715 -2.532684022
-1.703472428 -20.07886673 -5.549662273
1.579164032 -18.61364096 -5.14468383
-0.8521299583 -20.22037979 -4.139045445
0.819041222 -19.43520986 -3.978323736
6.453718112 -15.61673229 -4.599872864
4.246899822 -17.10139899 -4.825978635
5.964293 -15.52287987 -5.712060013
5.873088884 -16.39106689 -3.524258696
4.856335125 -16.25492308 -5.848713215
4.75130562 -17.15649413 -3.616729264
-4.929476394 -17.46619774 -10.79470386
-1.550260892 -16.75606203 -10.35581585
-4.031100222 -16.37790143 -11.53523808
-4.20052871 -18.40465727 -9.626023038
4.148571271 -14.69928251 -9.084656203
1.462073512 -15.8028849 -9.76671999
3.51415532 -14.27761313 -10.05596885
3.588949765 -15.72501819 -8.224515415
-2.33092957 -14.21119964 -12.74861865
-0.7817581183 -15.7124129 -11.04081157
-3.160581891 -15.28363256 -12.18697416
-0.7616080991 -13.92067882 -12.49783434
-2.357720246 -16.08076135 -11.30844065
-2.589182561 -19.71676487 -7.007265714
-0.8158728505 -17.47859518 -9.170620193
-3.410012863 -19.16391269 -8.347554139
-0.8374179613 -19.09176777 -6.774853621
-2.447473156 -17.9713859 -9.419153796
2.165639963 -13.2034628 -11.84459555
0.7597537663 -15.27015147 -10.73004293
2.848534569 -13.77466466 -10.98374236
0.7429984043 -13.58053067 -12.19245302
2.169187851 -14.79488172 -10.40417416
0 -14.6496387 -11.64603293
2.321202073 -17.676079 -6.282013461
0.7893902428 -16.91125336 -8.872948886
2.976352584 -16.72678765 -7.285973788
0.8071198825 -18.40102084 -6.529737015
2.224586451 -16.33476611 -8.561369453
0 -18.02050917 -7.887470565
-8.634155789 14.66341888 -1.121396816
-7.903665259 14.86867659 -3.365959801
-7.69651348 15.43098756 -1.137405842
-5.962803009 14.4083133 -7.702319691
-7.009078632 14.78693522 -5.575757682
-5.676503382 16.95541384 -1.18344845
-6.927321998 15.62765644 -3.424207396
-6.707181978 16.19892172 -1.159473373
-7.331534029 15.56697487 -2.286938993
-0.7128500673 10.03409923 -14.3692479
-2.126472836 11.51988177 -13.07238209
-4.783144881 13.73071558 -9.694328629
-3.49445504 12.761766 -11.50036908
-0.8256767643 19.95548251 -1.335973068
-2.351225299 18.62845468 -3.804362449
-2.14060397 19.2301942 -1.29363933
-4.86466874 15.09976813 -7.871199365
-3.695814687 16.97157679 -5.97995378
-5.430066247 15.35030434 -6.811089315
-4.538895345 17.73973267 -1.221627975
-3.573607267 17.91067502 -3.695796876
-3.382607249 18.48578727 -1.254463404
-5.232354007 17.10533162 -2.392486827
-2.880353351 18.6150715 -2.532684022
-6.453718112 15.61673229 -4.599872864
-4.246899822 17.10139899 -4.825978635
-5.964293 15.52287987 -5.712060013
-5.873088884 16.39106689 -3.524258696
-4.856335125 16.25492308 -5.848713215
-4.75130562 17.15649413 -3.616729264
13.74992567 23.35154988 -1.78582866
11.94520284 22.47177125 -5.087142642
11.71224647 23.48225987 -1.730858733
7.769596776 18.77418798 -10.03620582
9.871264865 20.82524134 -7.85264138
7.727972999 23.08304454 -1.611142821
9.977023282 22.50761437 -4.931688887
9.678778621 23.37580489 -1.673174536
10.88096629 23.10344984 -3.394119973
0.7253689017 10.21031473 -14.62159582
2.263221177 12.26069759 -13.91303546
0 11.03746009 -14.05303083
5.775819943 16.58033425 -11.70625144
3.939921824 14.38861276 -12.96641525
-1.440593873 12.52667144 -12.67591902
1.507118329 13.10513426 -13.26127387
-0.7266883153 11.81672201 -13.39917833
0.7420910369 12.06718659 -13.68318429
0.8602785813 20.79176129 -1.391959984
2.644564175 20.95254075 -4.278994721
2.388690821 21.45889152 -1.443566599
0 20.17364171 -2.717991766
6.040448724 18.74934965 -9.773651342
4.417573617 20.28597109 -7.14778426
7.002979398 19.79678702 -8.784039822
5.788751904 22.6246484 -1.558022543
4.290337431 21.50287754 -4.437033644
4.040526542 22.08128483 -1.498457345
6.919364543 22.62041616 -3.163870124
3.340475662 21.58873782 -2.937267865
-1.579164032 18.61364096 -5.14468383
1.703472428 20.07886673 -5.549662273
-0.819041222 19.43520986 -3.978323736
0.8521299583 20.22037979 -4.139045445
8.968375723 21.70171061 -6.392189341
5.257347245 21.17026458 -5.9742039
7.99098579 20.79762219 -7.653042933
7.996267822 22.31659751 -4.798312603
6.155890092 20.60473945 -7.413828494
6.083295241 21.96617676 -4.630649695
-4.148571271 14.69928251 -9.084656203
-1.462073512 15.8028849 -9.76671999
-3.51415532 14.27761313 -10.05596885
-3.588949765 15.72501819 -8.224515415
4.929476394 17.46619774 -10.79470386
1.550260892 16.75606203 -10.35581585
4.031100222 16.37790143 -11.53523808
4.20052871 18.40465727 -9.626023038
-2.165639963 13.2034628 -11.84459555
-0.7597537663 15.27015147 -10.73004293
-2.848534569 13.77466466 -10.98374236
-0.7429984043 13.58053067 -12.19245302
-2.169187851 14.79488172 -10.40417416
-2.321202073 17.676079 -6.282013461
-0.7893902428 16.91125336 -8.872948886
-2.976352584 16.72678765 -7.285973788
-0.8071198825 18.40102084 -6.529737015
-2.224586451 16.33476611 -8.561369453
2.33092957 14.21119964 -12.74861865
0.7817581183 15.7124129 -11.04081157
3.160581891 15.28363256 -12.18697416
0.7616080991 13.92067882 -12.49783434
2.357720246 16.08076135 -11.30844065
0 14.6496387 -11.64603293
2.589182561 19.71676487 -7.007265714
0.8158728505 17.47859518 -9.170620193
3.410012863 19.16391269 -8.347554139
0.8374179613 19.09176777 -6.774853621
2.447473156 17.9713859 -9.419153796
0 18.02050917 -7.887470565
0 -8.071052233 -15.33873429
0 -5.773202359 -16.01514228
0 -1.155201614 -16.66778425
0 -3.465391507 -16.45292477
0 8.071052233 -15.33873429
0 5.773202359 -16.01514228
0 1.155201614 -16.66778425
0 3.465391507 -16.45292477
16.03323461 22.96025955 -1.139045181
18.6336214 21.14481932 -3.439609063
15.2255083 22.81953489 -2.938115162
20.71249826 14.62369268 -7.215274356
20.21137993 18.21364918 -5.53432483
13.20549501 21.74750273 -6.213136837
17.62777088 20.82805022 -5.206608211
14.26421114 22.39670424 -4.651041201
16.54021895 21.96955615 -4.098623127
16.98311948 1.298797795 -10.00004846
18.29729829 4.1421286 -9.726199909
20.36417043 10.8861702 -8.427602468
19.47605508 7.343899335 -9.231744068
8.655480963 17.77535201 -10.9857717
12.57721644 17.45888638 -10.79018519
9.763421532 18.86484694 -10.034462
19.46188422 14.13953425 -8.738712753
16.3474445 16.28179529 -10.06270288
19.37189966 15.96959032 -8.046532527
12.04799676 20.87603996 -7.685841102
13.85855822 18.47515038 -9.685217889
10.90655928 19.91665828 -8.931328404
14.28689777 20.70824551 -7.346960601
11.81808056 18.77745548 -9.923395176
18.48721547 19.3578773 -6.294216285
15.90265682 17.90212777 -9.286827957
19.05453871 17.74098477 -7.224280066
16.47715772 20.21286057 -6.882396451
17.73924419 17.07515637 -8.74511893
15.19549757 19.40372639 -8.38644031
9.648891153 -13.81761389 -0.6854838237
10.97057705 -12.4490492 -2.025075827
9.331568652 -13.98587504 -1.800742728
13.23529042 -9.344542464 -4.610561717
12.16336733 -10.96111726 -3.330600191
8.570822242 -14.1148802 -4.032540344
10.61746522 -12.54504046 -3.136016572
8.970736532 -14.0852467 -2.925031381
9.995177258 -13.27610044 -2.476778862
16.15225906 -1.235257073 -9.510818878
15.67493719 -3.548480469 -8.332245023
14.18645285 -7.583718708 -5.870987253
15.00708081 -5.658768696 -7.113428705
6.569174848 -13.49080378 -8.337775274
8.78324067 -12.19233219 -7.535275696
7.118530361 -13.75439801 -7.316146512
12.78705568 -9.290108281 -5.741602677
10.84219088 -10.79865005 -6.673932762
12.30117935 -10.14070887 -5.109557736
8.116756737 -14.06422507 -5.177964753
9.291008191 -12.38604844 -6.493131341
7.637618593 -13.94718862 -6.254408755
9.192728413 -13.32446553 -4.727311313
8.230766974 -13.07766178 -6.911202955
11.22587933 -11.75456601 -3.821998644
10.34742142 -11.64842218 -6.042683534
11.77817102 -10.96622469 -4.465540072
10.23184082 -12.55160479 -4.273770157
11.33530122 -10.91095195 -5.588093622
9.787123911 -12.4975621 -5.401542799
1.135116603 -8.73979081 -14.84281923
3.311129018 -7.7749162 -14.62646895
1.839716985 -9.533535847 -14.28857741
1.126148159 -7.620335824 -15.27825653
7.405774383 -5.733230448 -13.85358201
5.390551544 -6.77626285 -14.29576768
3.238862745 -10.96566672 -12.9564571
4.008306785 -8.51931587 -14.0300568
2.547473422 -10.28046904 -13.65503942
2.943380699 -9.027011792 -14.17360633
1.114279008 -5.344726723 -15.9644146
3.301285247 -6.67864509 -15.06665505
1.120411855 -6.481223613 -15.65319598
2.231101233 -7.15252775 -15.18689258
15.31015806 -0.7595280754 -10.69114029
13.32644818 -2.167801542 -11.7437745
15.1847511 -1.955103277 -10.13147529
9.385449684 -4.630745184 -13.29323001
11.3533908 -3.44979482 -12.59866667
14.75445977 -4.215264559 -8.959187052
13.23421454 -3.308296712 -11.20074607
14.99515268 -3.113988208 -9.550245499
14.20582846 -2.650228193 -10.69514157
5.874526799 -13.08308943 -9.505184029
6.744366565 -10.95661468 -10.91261433
5.259693471 -12.66262875 -10.4386765
7.037773745 -12.48656217 -9.119025724
8.123082459 -6.400022455 -13.14342351
7.490329182 -8.730850278 -12.1196072
7.130939339 -6.938325812 -13.40620745
3.953098635 -11.61094296 -12.15776434
6.104463829 -10.45321328 -11.76751545
4.613632932 -12.16877619 -11.32990289
4.352885841 -10.42125182 -12.78395908
5.701214172 -11.56476329 -11.13182385
9.243500164 -11.20448201 -8.306852393
7.890687464 -10.37601388 -10.52801163
8.165981675 -11.85614323 -8.717362038
7.480810429 -11.44095479 -9.852629208
5.097112466 -7.990016141 -13.84461663
6.486342388 -9.281293893 -12.3730981
6.117309584 -7.470198903 -13.6414606
4.735441917 -9.208539185 -13.34738257
6.823023777 -8.125751643 -12.91080552
5.440353376 -9.857445287 -12.58735822
1.11432995 -0.688693784 -16.6447905
3.31837571 -2.050868976 -16.24877029
1.11403074 -1.843403002 -16.56027842
7.455981888 -4.608050226 -14.30323289
5.44860221 -3.367421357 -15.46355946
6.449075361 -5.141454593 -14.53442539
1.11739871 -4.15163692 -16.22617917
3.311157319 -3.201684577 -16.04662395
1.114297394 -3.004655561 -16.42029933
2.222371521 -4.860312878 -15.88907468
2.224766203 -2.530166706 -16.35189451
4.393186381 -6.163732641 -14.91502432
4.410597827 -3.881361387 -15.6294503
5.423604272 -5.663099638 -14.73898338
3.321649744 -5.535446137 -15.44874762
5.44398094 -4.520275639 -15.13007874
3.325929914 -4.369281839 -15.77704408
13.32175058 -8.233294646 -6.486856545
12.2663955 -7.581049339 -8.836595177
13.73319606 -7.304868912 -7.10755738
12.3517645 -9.020582022 -6.96179803
9.292126989 -5.742850307 -12.78983426
10.91020878 -6.74287985 -10.95419942
10.26827033 -5.17383161 -12.45591768
8.983812624 -6.933420579 -12.30141664
14.44585434 -5.318467546 -8.337002924
12.57662128 -6.593035234 -9.433960465
14.11159044 -6.328132299 -7.727646656
13.801853 -4.896680896 -9.522084462
13.19281914 -6.972060615 -8.303244259
10.33803998 -10.48948145 -7.861809305
11.23509896 -8.329551392 -9.268758612
11.3519668 -9.775995242 -7.422624521
9.71642373 -10.14261306 -9.026834905
11.82953666 -8.697799262 -8.14765626
12.22132243 -3.973764556 -11.67164239
11.86121988 -6.153073523 -10.53645196
11.24965003 -4.580953285 -12.08258136
13.05418936 -4.444898148 -10.64153865
11.09941586 -5.684616273 -11.53109489
12.83193534 -5.546061495 -10.04897917
8.292147189 -9.22713686 -11.18464728
10.53291716 -7.894364135 -10.38084859
8.648777623 -8.10173528 -11.76286425
9.028421797 -9.718131849 -10.1443961
9.793902181 -7.436220732 -11.37276048
10.14906863 -9.0325803 -9.722608033
1.163051833 8.954877143 -15.20810115
3.536027937 8.30300503 -15.6199298
1.922123527 9.960572029 -14.92860642
1.150002117 7.781749016 -15.60187903
8.296129021 6.422504528 -15.51912033
5.933903955 7.459291057 -15.73674079
3.554923591 12.0357392 -14.22079866
4.382208613 9.31401247 -15.3388049
2.723815341 10.99210655 -14.60027239
3.150409846 9.661946496 -15.17053806
1.130500154 5.422532724 -16.19681699
3.49050105 7.061436972 -15.93021243
1.140395589 6.596823112 -15.93238734
2.321475374 7.442251741 -15.80206071
15.75465311 0.7815792178 -11.00153284
14.35531747 2.3351668 -12.65045337
16.39347201 2.110731393 -10.93795054
14.73556812 0 -11.57353506
10.54559547 5.203156705 -14.93642083
12.594493 3.826911051 -13.97589689
17.6040231 5.029368464 -10.68949581
14.88455014 3.720848574 -12.59750369
17.01567567 3.533582787 -10.83709406
15.68879115 2.926888546 -11.81161963
12.70124772 -1.443472431 -12.55170192
13.29780438 1.511269951 -13.14123466
13.71104337 -0.7436019407 -12.09175548
14.05817958 0.7624284555 -12.39789457
7.387655813 16.45296123 -11.9534782
8.388089953 13.62693866 -13.57221465
6.371872599 15.34018239 -12.64596827
9.244314555 16.40145201 -11.9780978
9.371684258 7.383772108 -15.16370366
9.036051812 10.53256987 -14.62063896
8.162040461 7.941575901 -15.34468356
4.474808088 13.14329498 -13.76228302
7.323879367 12.54132635 -14.1181709
5.394629121 14.2287077 -13.24782985
4.919271763 11.77723737 -14.44737381
6.890605753 13.97741289 -13.4541533
13.01354363 15.7743293 -11.69487576
10.11699449 13.30353987 -13.49842281
11.14532008 16.18182803 -11.89787021
9.734684313 14.88797025 -12.82110219
5.680436298 8.904409704 -15.42902248
7.68709005 10.99944124 -14.66359831
6.920363731 8.450854553 -15.432253
5.323124582 10.35134675 -15.00383311
7.959822545 9.479600723 -15.06190279
6.309626173 11.43249169 -14.59859671
1.116381189 0.689961519 -16.67542993
3.373751498 2.085093095 -16.51992357
1.119543812 1.852525563 -16.64223128
2.23575369 0 -16.5943453
8.156375992 5.040917588 -15.64683862
5.704721069 3.525711517 -16.19044482
7.030775681 5.605208793 -15.84541641
1.130008376 4.198487478 -16.40928901
3.398458288 3.286099221 -16.46970437
1.123330087 3.029011835 -16.5534052
2.28211709 4.99097607 -16.31623179
2.25534103 2.564938633 -16.5766176
4.457915266 -1.368359977 -16.12888895
4.524421665 1.388774159 -16.36951136
3.359235095 -0.6915857532 -16.41079093
3.37805988 0.6954613239 -16.5027552
4.708756793 6.606484548 -15.98639711
4.60311805 4.050780724 -16.3116674
5.872160449 6.131463146 -15.95796281
3.478144732 5.796241117 -16.17659425
5.79582274 4.812418821 -16.10792825
3.447941311 4.529568495 -16.35582332
19.32357685 11.94262728 -9.409369304
16.46351898 10.1750143 -11.86016319
19.04324689 10.1293553 -9.85575167
18.07540951 13.20060095 -10.18780356
10.76767916 6.654791702 -14.8208082
13.55272491 8.376044632 -13.60737034
11.88978275 5.990856478 -14.42289212
10.72233193 8.275154429 -14.68194829
18.16487408 6.687682919 -10.48332655
16.19165653 8.488143171 -12.14566649
18.645754 8.361410333 -10.21059952
16.77822394 5.952650607 -11.5755229
17.63029275 9.317149613 -11.09608383
14.90281247 15.12112309 -11.33319953
15.11791023 11.20821549 -12.47200947
16.57472069 14.27368433 -10.83758704
13.36503654 13.95126417 -12.41650032
16.60106338 12.2061177 -11.43407065
13.94865571 4.535407192 -13.32128516
14.70245777 7.626981416 -13.06035479
12.96012614 5.277473724 -13.91970223
15.35884251 5.229623131 -12.52025014
13.28393484 6.803427593 -13.80057428
15.80057661 6.829131163 -12.37378937
10.41444277 11.58873408 -14.04725052
13.57302994 10.17291213 -13.37706985
10.60754983 9.936613528 -14.42691374
11.85232849 12.75776582 -13.31735686
12.13309876 9.212303625 -14.08905496
13.54490191 12.05484155 -12.9757495
8.646189187 -3.948342267 -13.98982798
9.054582495 -1.355466855 -14.65062223
9.643483756 -3.370008424 -13.69196069
7.667890808 -3.346054269 -14.66076922
9.452452733 4.316528107 -15.2943898
9.332713757 1.397102977 -15.10064807
10.49367454 3.667115795 -14.89907413
8.186777022 3.57248178 -15.65286356
11.65009409 -2.13007774 -12.98664722
10.0809125 -0.713791295 -14.34636019
10.65015273 -2.762021106 -13.35631132
11.9538442 -0.728457772 -13.31475688
9.877224208 -2.059322963 -14.04555149
5.58931903 -2.065251691 -15.72700303
7.991675629 -0.7109869386 -15.23160486
6.640312541 -2.712597103 -15.24450966
5.659762727 -0.6995851467 -15.94940373
7.847876348 -2.039192385 -14.9734485
12.41001109 2.269019304 -13.83374545
10.25903919 0.7264037726 -14.59985607
11.48921195 2.97962355 -14.40857193
12.21089521 0.7441222566 -13.60107245
10.39597916 2.167479258 -14.78322831
11.13210963 0 -14.00317044
5.750351978 2.124753316 -16.18011112
8.102559412 0.7208518186 -15.44294201
6.94634564 2.837612981 -15.94708571
5.714141027 0.7063066742 -16.10264363
8.166724965 2.122042017 -15.58179949
6.880859499 0 -15.72070421
16.03323461 22.96025955 1.139045181
18.6336214 21.14481932 3.439609063
15.2255083 22.81953489 2.938115162
17.61147777 22.42315152 0
20.71249826 14.62369268 7.215274356
20.21137993 18.21364918 5.53432483
13.20549501 21.74750273 6.213136837
17.62777088 20.82805022 5.206608211
14.26421114 22.39670424 4.651041201
16.54021895 21.96955615 4.098623127
20.12797601 20.36778845 -2.314760074
20.12797601 20.36778845 2.314760074
19.00434617 21.54934533 -1.168702817
19.00434617 21.54934533 1.168702817
16.98311948 1.298797795 10.00004846
18.29729829 4.1421286 9.726199909
20.36417043 10.8861702 8.427602468
19.47605508 7.343899335 9.231744068
8.655480963 17.77535201 10.9857717
12.57721644 17.45888638 10.79018519
9.763421532 18.86484694 10.034462
19.46188422 14.13953425 8.738712753
16.3474445 16.28179529 10.06270288
19.37189966 15.96959032 8.046532527
12.04799676 20.87603996 7.685841102
13.85855822 18.47515038 9.685217889
10.90655928 19.91665828 8.931328404
14.28689777 20.70824551 7.346960601
11.81808056 18.77745548 9.923395176
18.48721547 19.3578773 6.294216285
15.90265682 17.90212777 9.286827957
19.05453871 17.74098477 7.224280066
16.47715772 20.21286057 6.882396451
17.73924419 17.07515637 8.74511893
15.19549757 19.40372639 8.38644031
21.75384639 13.44461646 -6.139577363
23.19909532 14.33782942 -2.146366501
21.76365912 15.32851999 -5.356699177
21.75384639 13.44461646 6.139577363
23.19909532 14.33782942 2.146366501
21.76365912 15.32851999 5.356699177
20.99940729 18.838201 -3.444335498
22.93458172 16.11569125 -1.141091159
21.52155143 17.16101131 -4.450553588
21.40166401 19.21418165 -1.17089697
22.53064776 15.84418096 -3.303386153
20.99940729 18.838201 3.444335498
22.93458172 16.11569125 1.141091159
21.52155143 17.16101131 4.450553588
21.40166401 19.21418165 1.17089697
22.53064776 15.84418096 3.303386153
22.34874015 17.76659268 0
9.648891153 -13.81761389 0.6854838237
10.97057705 -12.4490492 2.025075827
9.331568652 -13.98587504 1.800742728
10.36105701 -13.19182605 0
13.23529042 -9.344542464 4.610561717
12.16336733 -10.96111726 3.330600191
8.570822242 -14.1148802 4.032540344
10.61746522 -12.54504046 3.136016572
8.970736532 -14.0852467 2.925031381
9.995177258 -13.27610044 2.476778862
11.69663006 -11.8359882 -1.345137348
11.69663006 -11.8359882 1.345137348
11.04752214 -12.52696975 -0.6793851327
11.04752214 -12.52696975 0.6793851327
16.15225906 -1.235257073 9.510818878
15.67493719 -3.548480469 8.332245023
14.18645285 -7.583718708 5.870987253
15.00708081 -5.658768696 7.113428705
6.569174848 -13.49080378 8.337775274
8.78324067 -12.19233219 7.535275696
7.118530361 -13.75439801 7.316146512
12.78705568 -9.290108281 5.741602677
10.84219088 -10.79865005 6.673932762
12.30117935 -10.14070887 5.109557736
8.116756737 -14.06422507 5.177964753
9.291008191 -12.38604844 6.493131341
7.637618593 -13.94718862 6.254408755
9.192728413 -13.32446553 4.727311313
8.230766974 -13.07766178 6.911202955
11.22587933 -11.75456601 3.821998644
10.34742142 -11.64842218 6.042683534
11.77817102 -10.96622469 4.465540072
10.23184082 -12.55160479 4.273770157
11.33530122 -10.91095195 5.588093622
9.787123911 -12.4975621 5.401542799
14.04439656 -8.679914423 -3.963743129
14.41163216 -8.906878505 -1.333355635
13.50770306 -9.513707931 -3.32465701
14.04439656 -8.679914423 3.963743129
14.41163216 -8.906878505 1.333355635
13.50770306 -9.513707931 3.32465701
12.34720638 -11.07646289 -2.025196266
13.78450538 -9.686107883 -0.685836673
12.93829898 -10.31683501 -2.675578159
12.4242172 -11.15432735 -0.6797358499
13.69194344 -9.628557147 -2.007477851
12.34720638 -11.07646289 2.025196266
13.78450538 -9.686107883 0.685836673
12.93829898 -10.31683501 2.675578159
12.4242172 -11.15432735 0.6797358499
13.69194344 -9.628557147 2.007477851
13.12464134 -10.43370477 0
1.135116603 -8.73979081 14.84281923
3.311129018 -7.7749162 14.62646895
1.839716985 -9.533535847 14.28857741
1.126148159 -7.620335824 15.27825653
7.405774383 -5.733230448 13.85358201
5.390551544 -6.77626285 14.29576768
3.238862745 -10.96566672 12.9564571
4.008306785 -8.51931587 14.0300568
2.547473422 -10.28046904 13.65503942
2.943380699 -9.027011792 14.17360633
1.114279008 -5.344726723 15.9644146
3.301285247 -6.67864509 15.06665505
1.120411855 -6.481223613 15.65319598
2.231101233 -7.15252775 15.18689258
15.31015806 -0.7595280754 10.69114029
