23.431602 -10.352801 15.436250
18.421469 -16.076011 14.626438
20.854610 -8.789654 19.224453
16.059147 -14.611094 18.402144
4.145024 15.305002 27.325779
12.928628 12.639626 28.441677
7.281089 19.525293 27.092628
3.991738 10.861352 28.024542
28.179039 2.915040 22.132237
21.508915 8.403524 26.890428
31.883756 8.568694 22.978195
23.406495 0.000000 23.130905
15.003888 28.539092 24.276801
17.576782 17.034978 28.439831
11.301215 24.717661 26.813620
20.975260 26.417580 23.054041
12.421422 18.520608 28.113533
3.829507 2.366766 28.423598
12.244132 7.567289 28.249501
3.900332 6.465197 28.384529
7.715320 0.000000 27.914291
8.194389 9.347950 28.430712
31.581901 19.518688 18.917024
23.580206 14.573369 27.720195
31.823841 14.060750 20.964882
26.791266 23.380149 21.271962
28.202005 11.886382 25.997519
22.771014 20.717753 26.093260
15.280406 -4.603453 24.724216
16.812035 5.064879 27.202443
19.081934 -2.496364 24.003318
11.663105 -2.402732 26.646705
20.315662 2.657764 25.555236
12.089407 2.490555 27.620676
34.134230 0.000000 -15.046525
39.465302 0.000000 -5.496883
37.240774 5.304472 -14.433248
31.744304 -4.521570 -12.303005
34.134230 0.000000 15.046525
39.465302 0.000000 5.496883
37.240774 5.304472 14.433248
31.744304 -4.521570 12.303005
38.036862 16.486250 -10.189063
40.063862 5.397798 -3.336023
37.619890 10.842922 -12.369329
39.938520 17.480854 -3.601254
39.086571 5.370905 -8.902820
27.129698 -11.758777 -7.267324
35.258421 -4.750362 -2.935885
29.369444 -8.464953 -9.656602
27.868479 -12.197869 -2.512899
34.026032 -4.675534 -7.750172
38.036862 16.486250 10.189063
40.063862 5.397798 3.336023
37.619890 10.842922 12.369329
39.938520 17.480854 3.601254
39.086571 5.370905 8.902820
40.223644 11.117542 0.000000
27.129698 -11.758777 7.267324
35.258421 -4.750362 2.935885
29.369444 -8.464953 9.656602
27.868479 -12.197869 2.512899
34.026032 -4.675534 7.750172
31.513521 -8.710123 0.000000
-17.635522 22.453765 -2.322777
-21.703337 17.359903 -6.782507
-16.450615 22.826309 -6.134524
-28.776738 4.365118 -16.117675
-25.385121 11.539221 -11.281277
-13.221555 22.073335 -13.642072
-20.168132 17.156038 -10.603015
-14.949262 22.692373 -10.026187
-18.427845 19.990453 -8.425435
-30.895176 -39.336121 -4.069208
-35.206259 -28.160520 -11.002303
-26.445260 -36.694536 -9.861582
-34.656994 -5.257089 -19.411171
-35.180117 -15.991696 -15.634224
-18.818315 -31.417106 -19.416839
-30.834544 -26.229430 -16.210679
-22.354805 -33.933688 -14.992945
-29.393277 -31.885710 -13.438964
-4.145024 -15.305002 -27.325779
-12.928628 -12.639626 -28.441677
-7.281089 -19.525293 -27.092628
-3.991738 -10.861352 -28.024542
-28.179039 -2.915040 -22.132237
-21.508915 -8.403524 -26.890428
-31.883756 -8.568694 -22.978195
-15.003888 -28.539092 -24.276801
-17.576782 -17.034978 -28.439831
-11.301215 -24.717661 -26.813620
-20.975260 -26.417580 -23.054041
-12.421422 -18.520608 -28.113533
-3.829507 -2.366766 -28.423598
-12.244132 -7.567289 -28.249501
-3.900332 -6.465197 -28.384529
-8.194389 -9.347950 -28.430712
-31.581901 -19.518688 -18.917024
-23.580206 -14.573369 -27.720195
-31.823841 -14.060750 -20.964882
-26.791266 -23.380149 -21.271962
-28.202005 -11.886382 -25.997519
-22.771014 -20.717753 -26.093260
-3.853810 14.229731 -25.405974
-10.911100 10.667197 -24.003318
-6.263149 16.795541 -23.304917
-3.793599 10.322226 -26.633484
-25.690873 2.657646 -20.177995
-17.881518 6.986301 -22.355459
-24.716185 6.642424 -17.812623
-23.406495 0.000000 -23.130905
-10.883852 20.702317 -17.610443
-13.323969 12.913258 -21.558635
-8.691687 19.010183 -20.622171
-14.666838 18.472352 -16.120415
-9.917313 14.786928 -22.445957
-3.787310 2.340686 -28.110400
-11.044344 6.825780 -25.481367
-3.784159 6.272628 -27.539086
-7.715320 0.000000 -27.914291
-7.513747 8.571491 -26.069202
-22.023925 13.611534 -13.191959
-17.338476 10.715768 -20.382601
-23.431602 10.352801 -15.436250
-18.421469 16.076011 -14.626438
-20.854610 8.789654 -19.224453
-16.059147 14.611094 -18.402144
-16.812035 -5.064879 -27.202443
-15.280406 4.603453 -24.724216
-20.315662 -2.657764 -25.555236
-12.089407 -2.490555 -27.620676
-19.081934 2.496364 -24.003318
-11.663105 2.402732 -26.646705
-17.635522 22.453765 2.322777
-21.703337 17.359903 6.782507
-16.450615 22.826309 6.134524
-19.992721 20.230922 0.000000
-28.776738 4.365118 16.117675
-25.385121 11.539221 11.281277
-13.221555 22.073335 13.642072
-20.168132 17.156038 10.603015
-14.949262 22.692373 10.026187
-18.427845 19.990453 8.425435
-24.536791 15.164571 -4.568556
-24.536791 15.164571 4.568556
-22.334230 17.755057 -2.322777
-22.334230 17.755057 2.322777
-30.895176 -39.336121 4.069208
-35.206259 -28.160520 11.002303
-26.445260 -36.694536 9.861582
-39.750046 -40.223644 0.000000
-34.656994 -5.257089 19.411171
-35.180117 -15.991696 15.634224
-18.818315 -31.417106 19.416839
-30.834544 -26.229430 16.210679
-22.354805 -33.933688 14.992945
-29.393277 -31.885710 13.438964
-38.640056 -23.880868 -7.194472
-38.640056 -23.880868 7.194472
-39.294361 -31.237864 -4.086644
-39.294361 -31.237864 4.086644
-4.145024 -15.305002 27.325779
-12.928628 -12.639626 28.441677
-7.281089 -19.525293 27.092628
-3.991738 -10.861352 28.024542
-28.179039 -2.915040 22.132237
-21.508915 -8.403524 26.890428
-31.883756 -8.568694 22.978195
-15.003888 -28.539092 24.276801
-17.576782 -17.034978 28.439831
-11.301215 -24.717661 26.813620
-20.975260 -26.417580 23.054041
-12.421422 -18.520608 28.113533
-3.829507 -2.366766 28.423598
-12.244132 -7.567289 28.249501
-3.900332 -6.465197 28.384529
-8.194389 -9.347950 28.430712
-31.581901 -19.518688 18.917024
-23.580206 -14.573369 27.720195
-31.823841 -14.060750 20.964882
-26.791266 -23.380149 21.271962
-28.202005 -11.886382 25.997519
-22.771014 -20.717753 26.093260
-3.853810 14.229731 25.405974
-10.911100 10.667197 24.003318
-6.263149 16.795541 23.304917
-3.793599 10.322226 26.633484
-25.690873 2.657646 20.177995
-17.881518 6.986301 22.355459
-24.716185 6.642424 17.812623
-23.406495 0.000000 23.130905
-10.883852 20.702317 17.610443
-13.323969 12.913258 21.558635
-8.691687 19.010183 20.622171
-14.666838 18.472352 16.120415
-9.917313 14.786928 22.445957
-3.787310 2.340686 28.110400
-11.044344 6.825780 25.481367
-3.784159 6.272628 27.539086
-7.715320 0.000000 27.914291
-7.513747 8.571491 26.069202
-22.023925 13.611534 13.191959
-17.338476 10.715768 20.382601
-23.431602 10.352801 15.436250
-18.421469 16.076011 14.626438
-20.854610 8.789654 19.224453
-16.059147 14.611094 18.402144
-16.812035 -5.064879 27.202443
-15.280406 4.603453 24.724216
-20.315662 -2.657764 25.555236
-12.089407 -2.490555 27.620676
-19.081934 2.496364 24.003318
-11.663105 2.402732 26.646705
-34.134230 0.000000 -15.046525
-39.465302 0.000000 -5.496883
-31.744304 4.521570 -12.303005
-37.240774 -5.304472 -14.433248
-34.134230 0.000000 15.046525
-39.465302 0.000000 5.496883
-31.744304 4.521570 12.303005
-37.240774 -5.304472 14.433248
-27.129698 11.758777 -7.267324
-35.258421 4.750362 -2.935885
-29.369444 8.464953 -9.656602
-27.868479 12.197869 -2.512899
-34.026032 4.675534 -7.750172
-38.036862 -16.486250 -10.189063
-40.063862 -5.397798 -3.336023
-37.619890 -10.842922 -12.369329
-39.938520 -17.480854 -3.601254
-39.086571 -5.370905 -8.902820
-27.129698 11.758777 7.267324
-35.258421 4.750362 2.935885
-29.369444 8.464953 9.656602
-27.868479 12.197869 2.512899
-34.026032 4.675534 7.750172
-31.513521 8.710123 0.000000
-38.036862 -16.486250 10.189063
-40.063862 -5.397798 3.336023
-37.619890 -10.842922 12.369329
-39.938520 -17.480854 3.601254
-39.086571 -5.370905 8.902820
-40.223644 -11.117542 0.000000
-13.868009 26.355635 0.000000
-10.657957 29.565687 0.000000
-2.607106 37.616537 0.000000
-6.998115 33.225528 0.000000
21.165184 40.223644 0.000000
14.499979 40.223644 0.000000
2.787798 40.223644 0.000000
8.472091 40.223644 0.000000
-21.165184 -40.223644 0.000000
-14.499979 -40.223644 0.000000
-2.787798 -40.223644 0.000000
-8.472091 -40.223644 0.000000
13.868009 -26.355635 0.000000
10.657957 -29.565687 0.000000
2.607106 -37.616537 0.000000
6.998115 -33.225528 0.000000
-23.520123 -39.944312 3.054774
-20.373489 -38.327384 8.676524
-19.955339 -40.009101 2.949039
-14.044801 -33.937376 18.142062
-17.153342 -36.188117 13.645571
-13.417610 -40.077687 2.797329
-17.140775 -38.668643 8.472765
-16.582682 -40.049841 2.866655
-18.578631 -39.447827 5.795267
-1.282525 -18.052856 25.852442
-4.124789 -22.345491 25.356927
-11.030225 -31.663871 22.355716
-7.508943 -27.422694 24.712183
-1.660419 -40.130058 2.686614
-4.961559 -39.309796 8.027972
-4.466145 -40.121779 2.699043
-11.153929 -34.621422 18.047437
-8.166298 -37.500515 13.213348
-12.622481 -35.682607 15.832743
-10.259087 -40.096423 2.761198
-7.823981 -39.213257 8.091500
-7.339678 -40.110988 2.721970
-12.136331 -39.675443 5.549321
-6.157328 -39.793414 5.414115
-15.587454 -37.718582 11.109922
-9.516153 -38.319607 10.813712
-14.111248 -36.726433 13.514476
-13.935950 -38.893517 8.362532
-11.100513 -37.155177 13.368871
-10.820042 -39.070101 8.236297
14.872593 -25.258181 1.931640
13.665182 -25.707463 5.819636
13.353615 -26.773093 1.973423
10.382697 -25.088395 13.411621
12.163440 -25.661004 9.676078
10.061360 -30.052747 2.097612
12.078654 -27.248778 5.970535
11.747903 -28.373073 2.030865
12.752044 -27.076291 3.977769
1.247322 -17.557346 25.142851
3.722420 -20.165712 22.883385
0.000000 -19.529401 24.865076
8.351432 -23.974006 16.926422
6.112553 -22.323073 20.116618
-2.749191 -23.905564 24.190384
2.549835 -22.172066 22.436233
-1.331303 -21.648395 24.547477
1.286266 -20.916056 23.717065
1.591601 -38.466826 2.575264
4.366626 -34.596217 7.065350
4.014315 -36.062745 2.425986
0.000000 -39.512796 5.323553
8.560430 -26.571286 13.851066
6.657160 -30.570392 10.771511
9.536084 -26.957642 11.961386
8.170360 -31.932882 2.199024
6.501023 -32.582680 6.723307
6.201427 -33.890504 2.299842
9.315681 -30.454326 4.259583
5.316603 -34.359999 4.674869
-3.281316 -38.676948 10.690046
2.959420 -34.882752 9.641356
-1.659604 -39.381114 8.061185
1.567222 -37.188969 7.612460
11.282107 -27.300487 8.041296
7.621823 -30.691526 8.661084
10.450909 -27.199906 10.008935
10.354370 -28.897769 6.213336
8.615217 -28.836495 10.375711
8.495140 -30.675111 6.466564
-9.408447 -33.336156 20.602878
-2.953682 -31.925004 19.730738
-7.925425 -32.200099 22.679084
-7.992556 -35.019463 18.315916
7.315627 -25.920845 16.019963
2.659867 -28.749290 17.768038
6.205913 -25.213920 17.758598
6.402985 -28.054740 14.673219
-4.342367 -26.474525 23.749833
-1.455539 -29.254620 20.556661
-6.033240 -29.174951 23.263735
-1.390256 -25.411105 22.813815
-4.500299 -30.694155 21.584988
-4.948303 -37.681598 13.391901
-1.554215 -33.296231 17.469773
-6.491365 -36.480789 15.890563
-1.633878 -37.249770 13.218354
-4.812674 -35.338664 18.521683
3.831838 -23.361932 20.957581
1.384488 -27.826574 19.553201
5.036155 -24.353345 19.419047
1.333251 -24.369173 21.878379
3.885488 -26.500856 18.636142
0.000000 -26.732979 21.251934
4.266864 -32.492402 11.547680
1.463417 -31.351061 16.449187
5.384351 -30.259483 13.180642
1.523290 -34.728543 12.323678
4.038040 -29.650654 15.540486
0.000000 -34.201599 14.969838
-14.872593 25.258181 1.931640
-13.665182 25.707463 5.819636
-13.353615 26.773093 1.973423
-10.382697 25.088395 13.411621
-12.163440 25.661004 9.676078
-10.061360 30.052747 2.097612
-12.078654 27.248778 5.970535
-11.747903 28.373073 2.030865
-12.752044 27.076291 3.977769
-1.247322 17.557346 25.142851
-3.722420 20.165712 22.883385
-8.351432 23.974006 16.926422
-6.112553 22.323073 20.116618
-1.591601 38.466826 2.575264
-4.366626 34.596217 7.065350
-4.014315 36.062745 2.425986
-8.560430 26.571286 13.851066
-6.657160 30.570392 10.771511
-9.536084 26.957642 11.961386
-8.170360 31.932882 2.199024
-6.501023 32.582680 6.723307
-6.201427 33.890504 2.299842
-9.315681 30.454326 4.259583
-5.316603 34.359999 4.674869
-11.282107 27.300487 8.041296
-7.621823 30.691526 8.661084
-10.450909 27.199906 10.008935
-10.354370 28.897769 6.213336
-8.615217 28.836495 10.375711
-8.495140 30.675111 6.466564
23.520123 39.944312 3.054774
20.373489 38.327384 8.676524
19.955339 40.009101 2.949039
14.044801 33.937376 18.142062
17.153342 36.188117 13.645571
13.417610 40.077687 2.797329
17.140775 38.668643 8.472765
16.582682 40.049841 2.866655
18.578631 39.447827 5.795267
1.282525 18.052856 25.852442
4.124789 22.345491 25.356927
0.000000 19.529401 24.865076
11.030225 31.663871 22.355716
7.508943 27.422694 24.712183
-2.549835 22.172066 22.436233
2.749191 23.905564 24.190384
-1.286266 20.916056 23.717065
1.331303 21.648395 24.547477
1.660419 40.130058 2.686614
4.961559 39.309796 8.027972
4.466145 40.121779 2.699043
0.000000 39.512796 5.323553
11.153929 34.621422 18.047437
8.166298 37.500515 13.213348
12.622481 35.682607 15.832743
10.259087 40.096423 2.761198
7.823981 39.213257 8.091500
7.339678 40.110988 2.721970
12.136331 39.675443 5.549321
6.157328 39.793414 5.414115
-2.959420 34.882752 9.641356
3.281316 38.676948 10.690046
-1.567222 37.188969 7.612460
1.659604 39.381114 8.061185
15.587454 37.718582 11.109922
9.516153 38.319607 10.813712
14.111248 36.726433 13.514476
13.935950 38.893517 8.362532
11.100513 37.155177 13.368871
10.820042 39.070101 8.236297
-7.315627 25.920845 16.019963
-2.659867 28.749290 17.768038
-6.205913 25.213920 17.758598
-6.402985 28.054740 14.673219
9.408447 33.336156 20.602878
2.953682 31.925004 19.730738
7.925425 32.200099 22.679084
7.992556 35.019463 18.315916
-3.831838 23.361932 20.957581
-1.384488 27.826574 19.553201
-5.036155 24.353345 19.419047
-1.333251 24.369173 21.878379
-3.885488 26.500856 18.636142
-4.266864 32.492402 11.547680
-1.463417 31.351061 16.449187
-5.384351 30.259483 13.180642
-1.523290 34.728543 12.323678
-4.038040 29.650654 15.540486
4.342367 26.474525 23.749833
1.455539 29.254620 20.556661
6.033240 29.174951 23.263735
1.390256 25.411105 22.813815
4.500299 30.694155 21.584988
0.000000 26.732979 21.251934
4.948303 37.681598 13.391901
1.554215 33.296231 17.469773
6.491365 36.480789 15.890563
1.633878 37.249770 13.218354
4.812674 35.338664 18.521683
0.000000 34.201599 14.969838
0.000000 -14.026606 26.657042
0.000000 -9.935342 27.561118
0.000000 -1.968908 28.408317
0.000000 -5.925318 28.132118
0.000000 14.026606 26.657042
0.000000 9.935342 27.561118
0.000000 1.968908 28.408317
0.000000 5.925318 28.132118
-23.520123 -39.944312 -3.054774
-20.373489 -38.327384 -8.676524
-19.955339 -40.009101 -2.949039
-14.044801 -33.937376 -18.142062
-17.153342 -36.188117 -13.645571
-13.417610 -40.077687 -2.797329
-17.140775 -38.668643 -8.472765
-16.582682 -40.049841 -2.866655
-18.578631 -39.447827 -5.795267
-1.282525 -18.052856 -25.852442
-4.124789 -22.345491 -25.356927
-11.030225 -31.663871 -22.355716
-7.508943 -27.422694 -24.712183
-1.660419 -40.130058 -2.686614
-4.961559 -39.309796 -8.027972
-4.466145 -40.121779 -2.699043
-11.153929 -34.621422 -18.047437
-8.166298 -37.500515 -13.213348
-12.622481 -35.682607 -15.832743
-10.259087 -40.096423 -2.761198
-7.823981 -39.213257 -8.091500
-7.339678 -40.110988 -2.721970
-12.136331 -39.675443 -5.549321
-6.157328 -39.793414 -5.414115
-15.587454 -37.718582 -11.109922
-9.516153 -38.319607 -10.813712
-14.111248 -36.726433 -13.514476
-13.935950 -38.893517 -8.362532
-11.100513 -37.155177 -13.368871
-10.820042 -39.070101 -8.236297
14.872593 -25.258181 -1.931640
13.665182 -25.707463 -5.819636
13.353615 -26.773093 -1.973423
10.382697 -25.088395 -13.411621
12.163440 -25.661004 -9.676078
10.061360 -30.052747 -2.097612
12.078654 -27.248778 -5.970535
11.747903 -28.373073 -2.030865
12.752044 -27.076291 -3.977769
1.247322 -17.557346 -25.142851
3.722420 -20.165712 -22.883385
0.000000 -19.529401 -24.865076
8.351432 -23.974006 -16.926422
6.112553 -22.323073 -20.116618
-2.749191 -23.905564 -24.190384
2.549835 -22.172066 -22.436233
-1.331303 -21.648395 -24.547477
1.286266 -20.916056 -23.717065
1.591601 -38.466826 -2.575264
4.366626 -34.596217 -7.065350
4.014315 -36.062745 -2.425986
0.000000 -39.512796 -5.323553
8.560430 -26.571286 -13.851066
6.657160 -30.570392 -10.771511
9.536084 -26.957642 -11.961386
8.170360 -31.932882 -2.199024
6.501023 -32.582680 -6.723307
6.201427 -33.890504 -2.299842
9.315681 -30.454326 -4.259583
5.316603 -34.359999 -4.674869
-3.281316 -38.676948 -10.690046
2.959420 -34.882752 -9.641356
-1.659604 -39.381114 -8.061185
1.567222 -37.188969 -7.612460
11.282107 -27.300487 -8.041296
7.621823 -30.691526 -8.661084
10.450909 -27.199906 -10.008935
10.354370 -28.897769 -6.213336
8.615217 -28.836495 -10.375711
8.495140 -30.675111 -6.466564
-9.408447 -33.336156 -20.602878
-2.953682 -31.925004 -19.730738
-7.925425 -32.200099 -22.679084
-7.992556 -35.019463 -18.315916
7.315627 -25.920845 -16.019963
2.659867 -28.749290 -17.768038
6.205913 -25.213920 -17.758598
6.402985 -28.054740 -14.673219
-4.342367 -26.474525 -23.749833
-1.455539 -29.254620 -20.556661
-6.033240 -29.174951 -23.263735
-1.390256 -25.411105 -22.813815
-4.500299 -30.694155 -21.584988
-4.948303 -37.681598 -13.391901
-1.554215 -33.296231 -17.469773
-6.491365 -36.480789 -15.890563
-1.633878 -37.249770 -13.218354
-4.812674 -35.338664 -18.521683
3.831838 -23.361932 -20.957581
1.384488 -27.826574 -19.553201
5.036155 -24.353345 -19.419047
1.333251 -24.369173 -21.878379
3.885488 -26.500856 -18.636142
0.000000 -26.732979 -21.251934
4.266864 -32.492402 -11.547680
1.463417 -31.351061 -16.449187
5.384351 -30.259483 -13.180642
1.523290 -34.728543 -12.323678
4.038040 -29.650654 -15.540486
0.000000 -34.201599 -14.969838
-14.872593 25.258181 -1.931640
-13.665182 25.707463 -5.819636
-13.353615 26.773093 -1.973423
-10.382697 25.088395 -13.411621
-12.163440 25.661004 -9.676078
-10.061360 30.052747 -2.097612
-12.078654 27.248778 -5.970535
-11.747903 28.373073 -2.030865
-12.752044 27.076291 -3.977769
-1.247322 17.557346 -25.142851
-3.722420 20.165712 -22.883385
-8.351432 23.974006 -16.926422
-6.112553 22.323073 -20.116618
-1.591601 38.466826 -2.575264
-4.366626 34.596217 -7.065350
-4.014315 36.062745 -2.425986
-8.560430 26.571286 -13.851066
-6.657160 30.570392 -10.771511
-9.536084 26.957642 -11.961386
-8.170360 31.932882 -2.199024
-6.501023 32.582680 -6.723307
-6.201427 33.890504 -2.299842
-9.315681 30.454326 -4.259583
-5.316603 34.359999 -4.674869
-11.282107 27.300487 -8.041296
-7.621823 30.691526 -8.661084
-10.450909 27.199906 -10.008935
-10.354370 28.897769 -6.213336
-8.615217 28.836495 -10.375711
-8.495140 30.675111 -6.466564
23.520123 39.944312 -3.054774
20.373489 38.327384 -8.676524
19.955339 40.009101 -2.949039
14.044801 33.937376 -18.142062
17.153342 36.188117 -13.645571
13.417610 40.077687 -2.797329
17.140775 38.668643 -8.472765
16.582682 40.049841 -2.866655
18.578631 39.447827 -5.795267
1.282525 18.052856 -25.852442
4.124789 22.345491 -25.356927
0.000000 19.529401 -24.865076
11.030225 31.663871 -22.355716
7.508943 27.422694 -24.712183
-2.549835 22.172066 -22.436233
2.749191 23.905564 -24.190384
-1.286266 20.916056 -23.717065
1.331303 21.648395 -24.547477
1.660419 40.130058 -2.686614
4.961559 39.309796 -8.027972
4.466145 40.121779 -2.699043
0.000000 39.512796 -5.323553
11.153929 34.621422 -18.047437
8.166298 37.500515 -13.213348
12.622481 35.682607 -15.832743
10.259087 40.096423 -2.761198
7.823981 39.213257 -8.091500
7.339678 40.110988 -2.721970
12.136331 39.675443 -5.549321
6.157328 39.793414 -5.414115
-2.959420 34.882752 -9.641356
3.281316 38.676948 -10.690046
-1.567222 37.188969 -7.612460
1.659604 39.381114 -8.061185
15.587454 37.718582 -11.109922
9.516153 38.319607 -10.813712
14.111248 36.726433 -13.514476
13.935950 38.893517 -8.362532
11.100513 37.155177 -13.368871
10.820042 39.070101 -8.236297
-7.315627 25.920845 -16.019963
-2.659867 28.749290 -17.768038
-6.205913 25.213920 -17.758598
-6.402985 28.054740 -14.673219
9.408447 33.336156 -20.602878
2.953682 31.925004 -19.730738
7.925425 32.200099 -22.679084
7.992556 35.019463 -18.315916
-3.831838 23.361932 -20.957581
-1.384488 27.826574 -19.553201
-5.036155 24.353345 -19.419047
-1.333251 24.369173 -21.878379
-3.885488 26.500856 -18.636142
-4.266864 32.492402 -11.547680
-1.463417 31.351061 -16.449187
-5.384351 30.259483 -13.180642
-1.523290 34.728543 -12.323678
-4.038040 29.650654 -15.540486
4.342367 26.474525 -23.749833
1.455539 29.254620 -20.556661
6.033240 29.174951 -23.263735
1.390256 25.411105 -22.813815
4.500299 30.694155 -21.584988
0.000000 26.732979 -21.251934
4.948303 37.681598 -13.391901
1.554215 33.296231 -17.469773
6.491365 36.480789 -15.890563
1.633878 37.249770 -13.218354
4.812674 35.338664 -18.521683
0.000000 34.201599 -14.969838
0.000000 -14.026606 -26.657042
0.000000 -9.935342 -27.561118
0.000000 -1.968908 -28.408317
0.000000 -5.925318 -28.132118
0.000000 14.026606 -26.657042
0.000000 9.935342 -27.561118
0.000000 1.968908 -28.408317
0.000000 5.925318 -28.132118
27.975716 40.062390 -1.987472
33.125604 37.589843 -6.114707
26.227226 39.308579 -5.061152
35.288232 24.914631 -12.292784
34.964667 31.508694 -9.574103
22.503775 37.060399 -10.587944
30.507094 36.045584 -9.010696
24.352848 38.237203 -7.940579
28.645109 38.047884 -7.098183
32.346813 2.473749 -19.046542
34.899885 7.900610 -18.551551
35.247697 18.842527 -14.587070
35.096589 13.233985 -16.635952
15.666424 32.173395 -19.884251
21.968230 30.494890 -18.846879
17.267368 33.363945 -17.746725
33.271345 24.172445 -14.939393
28.064488 27.951784 -17.275153
33.004200 27.207634 -13.709000
20.654034 35.788060 -13.175935
23.828523 31.766332 -16.652846
18.934710 34.577005 -15.505542
24.345594 35.287894 -12.519591
20.551864 32.654348 -17.256971
31.786281 33.283267 -10.822058
27.167860 30.583726 -15.865477
32.547910 30.304170 -12.340116
28.133910 34.512432 -11.751342
30.234823 29.102950 -14.905208
25.907919 33.082838 -14.298658
16.524949 -23.664416 -1.173978
18.702849 -21.223377 -3.452388
16.002222 -23.983650 -3.088000
22.651785 -15.992892 -7.890832
20.731745 -18.682581 -5.676812
14.738225 -24.271684 -6.934281
18.109153 -21.396826 -5.348791
15.404443 -24.187019 -5.022829
17.083903 -22.691705 -4.233347
29.555245 -2.260261 -17.402803
27.963253 -6.330300 -14.864281
24.490879 -13.092204 -10.135418
26.263096 -9.903111 -12.448834
11.355785 -23.320839 -14.413071
15.016319 -20.844692 -12.882728
12.290778 -23.748196 -12.631980
21.865460 -15.885791 -9.817958
18.471900 -18.397719 -11.370416
20.986885 -17.300934 -8.717351
13.977174 -24.218801 -8.916531
15.874666 -21.162869 -11.094199
13.169958 -24.049890 -10.784814
15.742253 -22.817720 -8.095369
14.122345 -22.438644 -11.858238
19.127180 -20.027981 -6.512100
17.637877 -19.855521 -10.300161
20.070480 -18.686890 -7.609461
17.460150 -21.418716 -7.292986
19.313044 -18.590039 -9.520973
16.711115 -21.339078 -9.222914
1.968237 -15.154370 -25.736723
5.675097 -13.325789 -25.068983
3.191328 -16.537672 -24.786166
1.943285 -13.149680 -26.364217
12.627818 -9.775911 -23.622177
9.189184 -11.551384 -24.369759
5.619289 -19.024966 -22.478903
6.870904 -14.603523 -24.049849
4.419889 -17.836707 -23.691617
5.071083 -15.552431 -24.419380
1.908643 -9.154956 -27.345368
5.643696 -11.417444 -25.757125
1.925468 -11.138213 -26.900574
3.828968 -12.275013 -26.063416
27.910643 -1.384631 -19.490106
23.599960 -3.838985 -20.797185
27.340669 -3.520231 -18.242071
16.099228 -7.943298 -22.802395
19.714550 -5.990382 -21.876905
26.016121 -7.432657 -15.797481
23.242275 -5.810118 -19.671044
26.699059 -5.544495 -17.004333
25.230866 -4.707051 -18.995561
10.167681 -22.644323 -16.451654
11.551856 -18.766660 -18.691296
9.111512 -21.935820 -18.083206
12.098165 -21.464812 -15.675906
13.851634 -10.913439 -22.412414
12.767183 -14.881638 -20.657737
12.149148 -11.820988 -22.840469
6.856203 -20.137870 -21.086270
10.459515 -17.910753 -20.162706
7.997954 -21.095158 -19.640931
7.499061 -17.953516 -22.023939
9.814603 -19.908664 -19.163362
15.766331 -19.111113 -14.168722
13.468297 -17.710401 -17.969840
13.969414 -20.282114 -14.912651
12.805278 -19.584056 -16.865239
8.705785 -13.646818 -23.646381
11.076713 -15.849646 -21.129514
10.427796 -12.733982 -23.253747
8.116498 -15.783339 -22.877274
11.630319 -13.850910 -22.007368
9.323304 -16.893013 -21.571350
1.898592 -1.173394 -28.359341
5.656249 -3.495754 -27.696411
1.898281 -3.141114 -28.218310
12.733708 -7.869865 -24.427795
9.294853 -5.744535 -26.379521
10.992940 -8.764001 -24.775036
1.908980 -7.092714 -27.721030
5.641254 -5.454744 -27.338803
1.900465 -5.124523 -28.005277
3.794167 -8.297820 -27.126789
3.790450 -4.310777 -27.859573
7.491717 -10.511036 -25.434646
7.514985 -6.613247 -26.630195
9.240377 -9.648414 -25.111303
5.667421 -9.444615 -26.358755
9.277302 -7.703179 -25.783762
5.668247 -7.446389 -26.888174
22.874106 -14.136975 -11.138254
21.036852 -13.001489 -15.154749
23.691871 -12.602020 -12.261627
21.113929 -15.419653 -11.900397
15.891007 -9.821183 -21.872640
18.685050 -11.547996 -18.760389
17.631455 -8.883890 -21.387824
15.325038 -11.827377 -20.984374
25.248431 -9.295605 -14.571394
21.659977 -11.354798 -16.247556
24.489684 -10.982034 -13.410793
24.092486 -8.547636 -16.621731
22.741340 -12.018204 -14.312854
17.613086 -17.871099 -13.394292
19.189790 -14.227052 -15.831238
19.354776 -16.667790 -12.655360
16.554814 -17.280954 -15.379895
20.213399 -14.862128 -13.922086
21.258381 -6.912165 -20.302240
20.407812 -10.586666 -18.128484
19.426131 -7.910486 -20.864454
22.750390 -7.746415 -18.545706
19.078118 -9.770945 -19.820105
22.217308 -9.602492 -17.398877
14.131063 -15.724425 -19.060317
17.982450 -13.477749 -17.722829
14.736280 -13.804198 -20.042238
15.383951 -16.559180 -17.285512
16.713717 -12.690232 -19.408107
17.297462 -15.394587 -16.570628
2.045084 15.746056 -26.741586
6.293889 14.778783 -27.802411
3.422406 17.735135 -26.580889
2.007740 13.585827 -27.238662
15.149490 11.728080 -28.339332
10.699769 13.450283 -28.375836
6.551368 22.180660 -26.207506
7.923631 16.841006 -27.734653
4.925926 19.878845 -26.404088
5.651947 17.333875 -27.216484
1.951255 9.359347 -27.955873
6.155232 12.452304 -28.091710
1.978637 11.445780 -27.643396
4.072906 13.057037 -27.723879
29.347830 1.455929 -20.493699
26.790268 4.357949 -23.608606
31.319594 4.032535 -20.896865
26.913106 0.000000 -21.137955
19.468249 9.605560 -27.574162
23.429398 7.119161 -25.999208
33.482282 9.565696 -20.331075
28.477048 7.118709 -24.101482
33.418482 6.939893 -21.283858
30.020050 5.600517 -22.601194
22.508950 -2.558099 -22.243927
24.305312 2.762252 -24.019139
24.630770 -1.335820 -21.721852
25.698125 1.393707 -22.663151
13.814041 30.765087 -22.351587
16.100706 26.156531 -26.051490
12.287010 29.580783 -24.385475
16.888277 29.963526 -21.882578
17.503333 13.790544 -28.320988
17.532515 20.436187 -28.368206
15.128115 14.719490 -28.440943
8.448019 24.813313 -25.981904
14.275307 24.444871 -27.518371
10.475833 27.630735 -25.725968
9.181136 21.980574 -26.964012
13.463778 27.310920 -26.288506
22.980720 27.856014 -20.652074
19.027417 25.020474 -25.386998
19.973112 28.998849 -21.321729
18.014342 27.550660 -23.725856
10.359055 16.238412 -28.136939
14.723709 21.068125 -28.086384
12.723328 15.537188 -28.372731
9.818990 19.094006 -27.675943
14.992959 17.855582 -28.370292
11.931210 21.618310 -27.605268
1.903842 1.176639 -28.437763
5.799784 3.584464 -28.399242
1.912430 3.164525 -28.428628
3.814769 0.000000 -28.314211
14.681645 9.073756 -28.164633
9.976639 6.165902 -28.314482
12.594733 10.041013 -28.385031
1.941755 7.214492 -28.196983
5.868911 5.674874 -28.442080
1.923766 5.187353 -28.348638
3.951047 8.640916 -28.248421
3.869411 4.400577 -28.439931
7.616740 -2.337963 -27.557625
7.790153 2.391192 -28.185038
5.735361 -1.180773 -28.018820
5.783985 1.190783 -28.256362
8.348288 11.712824 -28.342736
8.024088 7.061262 -28.434262
10.465457 10.927591 -28.440534
6.084275 10.139291 -28.297512
10.224393 8.489573 -28.415945
5.989348 7.868220 -28.411365
33.442965 20.668889 -16.284625
29.728454 18.373195 -21.416097
33.509752 17.824281 -17.342830
31.280707 22.844524 -17.630676
20.277401 12.532123 -27.910143
26.047972 16.098532 -26.152999
22.524003 11.349078 -27.322725
20.628912 15.920738 -28.246899
33.515174 12.339136 -19.342304
29.940984 15.695945 -22.459296
33.530710 15.036347 -18.361749
31.866462 11.305721 -21.985102
31.725492 16.766094 -19.967264
26.032857 26.414211 -19.797308
27.396509 20.311403 -22.601637
28.769846 24.775784 -18.811521
23.953770 25.004449 -22.253736
29.310641 21.550977 -20.187860
26.641331 8.662432 -25.443081
28.088749 14.571194 -24.951544
24.669523 10.045640 -26.496071
30.145332 10.264362 -24.573928
25.982734 13.307175 -26.993256
30.053799 12.989484 -23.535810
19.993804 22.248226 -26.968123
25.412781 19.046741 -25.045885
20.834760 19.516944 -28.336542
21.936689 23.612503 -24.648212
23.529358 17.865147 -27.322486
24.758810 22.035119 -23.718453
14.828730 -6.771642 -23.993389
15.707236 -2.351366 -25.414842
16.626467 -5.810279 -23.606503
13.137396 -5.732794 -25.118294
17.102839 7.810130 -27.672975
16.477520 2.466677 -26.661187
19.057238 6.659736 -27.057748
14.562961 6.354871 -27.843929
20.409083 -3.731552 -22.750508
17.644030 -1.249307 -25.109593
18.492013 -4.795737 -23.190755
21.179424 -1.290657 -23.590644
17.144094 -3.574408 -24.379143
9.558106 -3.531717 -26.894219
13.836524 -1.230979 -26.371498
11.365678 -4.642930 -26.092776
9.714291 -1.200752 -27.375202
13.507427 -3.509770 -25.771656
22.652757 4.141781 -25.251587
18.145381 1.284806 -25.823076
20.928003 5.427489 -26.245719
21.933528 1.336612 -24.430601
18.611823 3.880418 -26.466273
19.710215 0.000000 -24.793638
9.983782 3.689004 -28.091968
14.137380 1.257745 -26.944911
12.188524 4.979066 -27.981826
9.857464 1.218450 -27.778669
14.376159 3.735501 -27.429163
11.892518 0.000000 -27.170844
27.975716 40.062390 1.987472
33.125604 37.589843 6.114707
26.227226 39.308579 5.061152
31.592250 40.223644 0.000000
35.288232 24.914631 12.292784
34.964667 31.508694 9.574103
22.503775 37.060399 10.587944
30.507094 36.045584 9.010696
24.352848 38.237203 7.940579
28.645109 38.047884 7.098183
36.987466 37.428149 -4.253637
36.987466 37.428149 4.253637
35.074748 39.771842 -2.156978
35.074748 39.771842 2.156978
32.346813 2.473749 19.046542
34.899885 7.900610 18.551551
35.247697 18.842527 14.587070
35.096589 13.233985 16.635952
15.666424 32.173395 19.884251
21.968230 30.494890 18.846879
17.267368 33.363945 17.746725
33.271345 24.172445 14.939393
28.064488 27.951784 17.275153
33.004200 27.207634 13.709000
20.654034 35.788060 13.175935
23.828523 31.766332 16.652846
18.934710 34.577005 15.505542
24.345594 35.287894 12.519591
20.551864 32.654348 17.256971
31.786281 33.283267 10.822058
27.167860 30.583726 15.865477
32.547910 30.304170 12.340116
28.133910 34.512432 11.751342
30.234823 29.102950 14.905208
25.907919 33.082838 14.298658
37.064154 22.906907 -10.460598
39.790159 24.591671 -3.681362
37.226323 26.219140 -9.162532
37.064154 22.906907 10.460598
39.790159 24.591671 3.681362
37.226323 26.219140 9.162532
37.402570 33.553191 -6.134792
40.059149 28.148797 -1.993110
37.362278 29.792205 -7.726340
39.707789 35.649222 -2.172435
38.952625 27.392574 -5.711135
37.402570 33.553191 6.134792
40.059149 28.148797 1.993110
37.362278 29.792205 7.726340
39.707789 35.649222 2.172435
38.952625 27.392574 5.711135
40.223644 31.976616 0.000000
16.524949 -23.664416 1.173978
18.702849 -21.223377 3.452388
16.002222 -23.983650 3.088000
17.694626 -22.529017 0.000000
22.651785 -15.992892 7.890832
20.731745 -18.682581 5.676812
14.738225 -24.271684 6.934281
18.109153 -21.396826 5.348791
15.404443 -24.187019 5.022829
17.083903 -22.691705 4.233347
19.927717 -20.165143 -2.291730
19.927717 -20.165143 2.291730
18.834043 -21.356236 -1.158230
18.834043 -21.356236 1.158230
29.555245 -2.260261 17.402803
27.963253 -6.330300 14.864281
24.490879 -13.092204 10.135418
26.263096 -9.903111 12.448834
11.355785 -23.320839 14.413071
15.016319 -20.844692 12.882728
12.290778 -23.748196 12.631980
21.865460 -15.885791 9.817958
18.471900 -18.397719 11.370416
20.986885 -17.300934 8.717351
13.977174 -24.218801 8.916531
15.874666 -21.162869 11.094199
13.169958 -24.049890 10.784814
15.742253 -22.817720 8.095369
14.122345 -22.438644 11.858238
19.127180 -20.027981 6.512100
17.637877 -19.855521 10.300161
20.070480 -18.686890 7.609461
17.460150 -21.418716 7.292986
19.313044 -18.590039 9.520973
16.711115 -21.339078 9.222914
24.136084 -14.916920 -6.811915
24.778695 -15.314076 -2.292510
23.123691 -16.286414 -5.691445
24.136084 -14.916920 6.811915
24.778695 -15.314076 2.292510
23.123691 -16.286414 5.691445
21.046155 -18.880138 -3.452003
23.603567 -16.585775 -1.174376
22.088472 -17.613066 -4.567790
21.177408 -19.012847 -1.158628
23.443048 -16.485806 -3.437160
21.046155 -18.880138 3.452003
23.603567 -16.585775 1.174376
22.088472 -17.613066 4.567790
21.177408 -19.012847 1.158628
23.443048 -16.485806 3.437160
22.409081 -17.814562 0.000000
1.968237 -15.154370 25.736723
5.675097 -13.325789 25.068983
3.191328 -16.537672 24.786166
1.943285 -13.149680 26.364217
12.627818 -9.775911 23.622177
9.189184 -11.551384 24.369759
5.619289 -19.024966 22.478903
6.870904 -14.603523 24.049849
4.419889 -17.836707 23.691617
5.071083 -15.552431 24.419380
1.908643 -9.154956 27.345368
5.643696 -11.417444 25.757125
1.925468 -11.138213 26.900574
3.828968 -12.275013 26.063416
27.910643 -1.384631 19.490106
23.599960 -3.838985 20.797185
27.340669 -3.520231 18.242071
16.099228 -7.943298 22.802395
19.714550 -5.990382 21.876905
26.016121 -7.432657 15.797481
23.242275 -5.810118 19.671044
26.699059 -5.544495 17.004333
25.230866 -4.707051 18.995561
10.167681 -22.644323 16.451654
11.551856 -18.766660 18.691296
9.111512 -21.935820 18.083206
12.098165 -21.464812 15.675906
13.851634 -10.913439 22.412414
12.767183 -14.881638 20.657737
12.149148 -11.820988 22.840469
6.856203 -20.137870 21.086270
10.459515 -17.910753 20.162706
7.997954 -21.095158 19.640931
7.499061 -17.953516 22.023939
9.814603 -19.908664 19.163362
15.766331 -19.111113 14.168722
13.468297 -17.710401 17.969840
13.969414 -20.282114 14.912651
12.805278 -19.584056 16.865239
8.705785 -13.646818 23.646381
11.076713 -15.849646 21.129514
10.427796 -12.733982 23.253747
8.116498 -15.783339 22.877274
11.630319 -13.850910 22.007368
9.323304 -16.893013 21.571350
1.898592 -1.173394 28.359341
5.656249 -3.495754 27.696411
1.898281 -3.141114 28.218310
12.733708 -7.869865 24.427795
9.294853 -5.744535 26.379521
10.992940 -8.764001 24.775036
1.908980 -7.092714 27.721030
5.641254 -5.454744 27.338803
1.900465 -5.124523 28.005277
3.794167 -8.297820 27.126789
3.790450 -4.310777 27.859573
7.491717 -10.511036 25.434646
7.514985 -6.613247 26.630195
9.240377 -9.648414 25.111303
5.667421 -9.444615 26.358755
9.277302 -7.703179 25.783762
5.668247 -7.446389 26.888174
22.874106 -14.136975 11.138254
21.036852 -13.001489 15.154749
23.691871 -12.602020 12.261627
21.113929 -15.419653 11.900397
15.891007 -9.821183 21.872640
18.685050 -11.547996 18.760389
17.631455 -8.883890 21.387824
15.325038 -11.827377 20.984374
25.248431 -9.295605 14.571394
21.659977 -11.354798 16.247556
24.489684 -10.982034 13.410793
24.092486 -8.547636 16.621731
22.741340 -12.018204 14.312854
17.613086 -17.871099 13.394292
19.189790 -14.227052 15.831238
19.354776 -16.667790 12.655360
16.554814 -17.280954 15.379895
20.213399 -14.862128 13.922086
21.258381 -6.912165 20.302240
20.407812 -10.586666 18.128484
19.426131 -7.910486 20.864454
22.750390 -7.746415 18.545706
19.078118 -9.770945 19.820105
22.217308 -9.602492 17.398877
14.131063 -15.724425 19.060317
17.982450 -13.477749 17.722829
14.736280 -13.804198 20.042238
15.383951 -16.559180 17.285512
16.713717 -12.690232 19.408107
17.297462 -15.394587 16.570628
2.045084 15.746056 26.741586
6.293889 14.778783 27.802411
3.422406 17.735135 26.580889
2.007740 13.585827 27.238662
15.149490 11.728080 28.339332
10.699769 13.450283 28.375836
6.551368 22.180660 26.207506
7.923631 16.841006 27.734653
4.925926 19.878845 26.404088
5.651947 17.333875 27.216484
1.951255 9.359347 27.955873
6.155232 12.452304 28.091710
1.978637 11.445780 27.643396
4.072906 13.057037 27.723879
29.347830 1.455929 20.493699
26.790268 4.357949 23.608606
31.319594 4.032535 20.896865
26.913106 0.000000 21.137955
19.468249 9.605560 27.574162
23.429398 7.119161 25.999208
33.482282 9.565696 20.331075
28.477048 7.118709 24.101482
33.418482 6.939893 21.283858
30.020050 5.600517 22.601194
22.508950 -2.558099 22.243927
24.305312 2.762252 24.019139
24.630770 -1.335820 21.721852
25.698125 1.393707 22.663151
13.814041 30.765087 22.351587
16.100706 26.156531 26.051490
12.287010 29.580783 24.385475
16.888277 29.963526 21.882578
17.503333 13.790544 28.320988
17.532515 20.436187 28.368206
15.128115 14.719490 28.440943
8.448019 24.813313 25.981904
14.275307 24.444871 27.518371
10.475833 27.630735 25.725968
9.181136 21.980574 26.964012
13.463778 27.310920 26.288506
22.980720 27.856014 20.652074
19.027417 25.020474 25.386998
19.973112 28.998849 21.321729
18.014342 27.550660 23.725856
10.359055 16.238412 28.136939
14.723709 21.068125 28.086384
12.723328 15.537188 28.372731
9.818990 19.094006 27.675943
14.992959 17.855582 28.370292
11.931210 21.618310 27.605268
1.903842 1.176639 28.437763
5.799784 3.584464 28.399242
1.912430 3.164525 28.428628
3.814769 0.000000 28.314211
14.681645 9.073756 28.164633
9.976639 6.165902 28.314482
12.594733 10.041013 28.385031
1.941755 7.214492 28.196983
5.868911 5.674874 28.442080
1.923766 5.187353 28.348638
3.951047 8.640916 28.248421
3.869411 4.400577 28.439931
7.616740 -2.337963 27.557625
7.790153 2.391192 28.185038
5.735361 -1.180773 28.018820
5.783985 1.190783 28.256362
8.348288 11.712824 28.342736
8.024088 7.061262 28.434262
10.465457 10.927591 28.440534
6.084275 10.139291 28.297512
10.224393 8.489573 28.415945
5.989348 7.868220 28.411365
33.442965 20.668889 16.284625
29.728454 18.373195 21.416097
33.509752 17.824281 17.342830
31.280707 22.844524 17.630676
20.277401 12.532123 27.910143
26.047972 16.098532 26.152999
22.524003 11.349078 27.322725
20.628912 15.920738 28.246899
33.515174 12.339136 19.342304
29.940984 15.695945 22.459296
33.530710 15.036347 18.361749
31.866462 11.305721 21.985102
31.725492 16.766094 19.967264
26.032857 26.414211 19.797308
27.396509 20.311403 22.601637
28.769846 24.775784 18.811521
23.953770 25.004449 22.253736
29.310641 21.550977 20.187860
26.641331 8.662432 25.443081
28.088749 14.571194 24.951544
24.669523 10.045640 26.496071
30.145332 10.264362 24.573928
25.982734 13.307175 26.993256
30.053799 12.989484 23.535810
19.993804 22.248226 26.968123
25.412781 19.046741 25.045885
20.834760 19.516944 28.336542
21.936689 23.612503 24.648212
23.529358 17.865147 27.322486
24.758810 22.035119 23.718453
14.828730 -6.771642 23.993389
15.707236 -2.351366 25.414842
16.626467 -5.810279 23.606503
13.137396 -5.732794 25.118294
17.102839 7.810130 27.672975
16.477520 2.466677 26.661187
19.057238 6.659736 27.057748
14.562961 6.354871 27.843929
20.409083 -3.731552 22.750508
17.644030 -1.249307 25.109593
18.492013 -4.795737 23.190755
21.179424 -1.290657 23.590644
17.144094 -3.574408 24.379143
9.558106 -3.531717 26.894219
13.836524 -1.230979 26.371498
11.365678 -4.642930 26.092776
9.714291 -1.200752 27.375202
13.507427 -3.509770 25.771656
22.652757 4.141781 25.251587
18.145381 1.284806 25.823076
20.928003 5.427489 26.245719
21.933528 1.336612 24.430601
18.611823 3.880418 26.466273
19.710215 0.000000 24.793638
9.983782 3.689004 28.091968
14.137380 1.257745 26.944911
12.188524 4.979066 27.981826
9.857464 1.218450 27.778669
14.376159 3.735501 27.429163
11.892518 0.000000 27.170844
32.269429 0.000000 -16.979774
35.835529 0.000000 -12.918134
34.547960 2.546503 -17.231486
31.310322 -2.307859 -15.616649
40.031810 0.000000 -2.774503
38.549807 0.000000 -8.119540
36.229434 7.938305 -16.059539
38.062412 2.656668 -12.742916
36.087732 5.301636 -16.996137
36.645083 2.622952 -15.172938
29.342222 -6.429234 -13.006622
34.382501 -2.399819 -11.510918
30.328140 -4.455497 -14.283558
32.939735 -2.357734 -13.638735
32.269429 0.000000 16.979774
35.835529 0.000000 12.918134
34.547960 2.546503 17.231486
31.310322 -2.307859 15.616649
40.031810 0.000000 2.774503
38.549807 0.000000 8.119540
36.229434 7.938305 16.059539
38.062412 2.656668 12.742916
36.087732 5.301636 16.996137
36.645083 2.622952 15.172938
29.342222 -6.429234 13.006622
34.382501 -2.399819 11.510918
30.328140 -4.455497 14.283558
32.939735 -2.357734 13.638735
36.865958 19.217468 -11.877048
38.872948 13.696926 -8.465166
36.702762 16.285396 -12.983354
38.327486 20.046082 -8.747552
40.186812 2.690414 -1.662767
39.829858 8.134181 -5.027200
39.960080 2.688165 -4.448146
36.390949 10.718871 -15.038801
38.652218 10.907574 -9.598753
36.542516 13.446799 -14.040582
37.428743 8.047589 -13.411106
37.824508 13.609704 -11.300483
40.132100 21.056398 -1.873302
39.703153 14.110355 -5.213772
39.483395 20.694017 -5.377134
39.174608 17.063956 -6.970702
38.904111 2.679091 -9.954022
39.268095 8.102816 -7.834923
39.526899 2.682334 -7.232799
38.259805 5.351319 -11.703301
39.682341 5.399003 -6.140141
38.457696 8.107197 -10.650443
25.329086 -13.203533 -8.160232
29.001009 -10.218538 -6.315404
26.325591 -11.680938 -9.312499
25.836606 -13.513089 -5.896736
37.643166 -2.520122 -1.557521
33.041148 -6.747769 -4.170350
37.284895 -2.508202 -4.150358
28.319377 -8.341408 -11.703170
30.256400 -8.538292 -7.513765
27.326881 -10.055659 -10.499696
30.554775 -6.569611 -10.948092
28.248137 -10.164013 -8.439438
26.357051 -13.828944 -1.230305
29.401956 -10.449347 -3.861031
26.183172 -13.723111 -3.565813
27.598158 -12.021403 -4.910797
35.645041 -2.454658 -9.120155
32.467043 -6.699446 -6.477950
36.607914 -2.484248 -6.698670
32.991968 -4.614517 -10.091921
34.767317 -4.730287 -5.379628
31.608074 -6.663240 -8.753514
36.865958 19.217468 11.877048
38.872948 13.696926 8.465166
36.702762 16.285396 12.983354
38.327486 20.046082 8.747552
40.186812 2.690414 1.662767
39.829858 8.134181 5.027200
39.960080 2.688165 4.448146
40.223644 5.419326 0.000000
36.390949 10.718871 15.038801
38.652218 10.907574 9.598753
36.542516 13.446799 14.040582
37.428743 8.047589 13.411106
37.824508 13.609704 11.300483
40.132100 21.056398 1.873302
39.703153 14.110355 5.213772
39.483395 20.694017 5.377134
40.223644 17.605652 0.000000
39.174608 17.063956 6.970702
38.904111 2.679091 9.954022
39.268095 8.102816 7.834923
39.526899 2.682334 7.232799
38.259805 5.351319 11.703301
39.682341 5.399003 6.140141
38.457696 8.107197 10.650443
40.025926 11.062894 -3.395762
40.025926 11.062894 3.395762
40.178846 8.224478 -1.693222
40.163893 14.252452 -1.761700
40.178846 8.224478 1.693222
40.163893 14.252452 1.761700
25.329086 -13.203533 8.160232
29.001009 -10.218538 6.315404
26.325591 -11.680938 9.312499
25.836606 -13.513089 5.896736
37.643166 -2.520122 1.557521
33.041148 -6.747769 4.170350
37.284895 -2.508202 4.150358
35.447771 -4.775873 0.000000
28.319377 -8.341408 11.703170
30.256400 -8.538292 7.513765
27.326881 -10.055659 10.499696
30.554775 -6.569611 10.948092
28.248137 -10.164013 8.439438
26.357051 -13.828944 1.230305
29.401956 -10.449347 3.861031
26.183172 -13.723111 3.565813
27.977887 -12.245756 0.000000
27.598158 -12.021403 4.910797
35.645041 -2.454658 9.120155
32.467043 -6.699446 6.477950
36.607914 -2.484248 6.698670
32.991968 -4.614517 10.091921
34.767317 -4.730287 5.379628
31.608074 -6.663240 8.753514
31.375211 -8.671895 -2.661844
31.375211 -8.671895 2.661844
33.348237 -6.826275 -1.405366
29.657404 -10.524147 -1.300856
33.348237 -6.826275 1.405366
29.657404 -10.524147 1.300856
-16.524949 23.664416 -1.173978
-18.702849 21.223377 -3.452388
-16.002222 23.983650 -3.088000
-22.651785 15.992892 -7.890832
-20.731745 18.682581 -5.676812
-14.738225 24.271684 -6.934281
-18.109153 21.396826 -5.348791
-15.404443 24.187019 -5.022829
-17.083903 22.691705 -4.233347
-29.555245 2.260261 -17.402803
-27.963253 6.330300 -14.864281
-24.490879 13.092204 -10.135418
-26.263096 9.903111 -12.448834
-11.355785 23.320839 -14.413071
-15.016319 20.844692 -12.882728
-12.290778 23.748196 -12.631980
-21.865460 15.885791 -9.817958
-18.471900 18.397719 -11.370416
-20.986885 17.300934 -8.717351
-13.977174 24.218801 -8.916531
-15.874666 21.162869 -11.094199
-13.169958 24.049890 -10.784814
-15.742253 22.817720 -8.095369
-14.122345 22.438644 -11.858238
-19.127180 20.027981 -6.512100
-17.637877 19.855521 -10.300161
-20.070480 18.686890 -7.609461
-17.460150 21.418716 -7.292986
-19.313044 18.590039 -9.520973
-16.711115 21.339078 -9.222914
-27.975716 -40.062390 -1.987472
-33.125604 -37.589843 -6.114707
-26.227226 -39.308579 -5.061152
-35.288232 -24.914631 -12.292784
-34.964667 -31.508694 -9.574103
-22.503775 -37.060399 -10.587944
-30.507094 -36.045584 -9.010696
-24.352848 -38.237203 -7.940579
-28.645109 -38.047884 -7.098183
-32.346813 -2.473749 -19.046542
-34.899885 -7.900610 -18.551551
-35.247697 -18.842527 -14.587070
-35.096589 -13.233985 -16.635952
-15.666424 -32.173395 -19.884251
-21.968230 -30.494890 -18.846879
-17.267368 -33.363945 -17.746725
-33.271345 -24.172445 -14.939393
-28.064488 -27.951784 -17.275153
-33.004200 -27.207634 -13.709000
-20.654034 -35.788060 -13.175935
-23.828523 -31.766332 -16.652846
-18.934710 -34.577005 -15.505542
-24.345594 -35.287894 -12.519591
-20.551864 -32.654348 -17.256971
-31.786281 -33.283267 -10.822058
-27.167860 -30.583726 -15.865477
-32.547910 -30.304170 -12.340116
-28.133910 -34.512432 -11.751342
-30.234823 -29.102950 -14.905208
-25.907919 -33.082838 -14.298658
-2.045084 -15.746056 -26.741586
-6.293889 -14.778783 -27.802411
-3.422406 -17.735135 -26.580889
-2.007740 -13.585827 -27.238662
-15.149490 -11.728080 -28.339332
-10.699769 -13.450283 -28.375836
-6.551368 -22.180660 -26.207506
-7.923631 -16.841006 -27.734653
-4.925926 -19.878845 -26.404088
-5.651947 -17.333875 -27.216484
-1.951255 -9.359347 -27.955873
-6.155232 -12.452304 -28.091710
-1.978637 -11.445780 -27.643396
-4.072906 -13.057037 -27.723879
-29.347830 -1.455929 -20.493699
-26.790268 -4.357949 -23.608606
-31.319594 -4.032535 -20.896865
-19.468249 -9.605560 -27.574162
-23.429398 -7.119161 -25.999208
-33.482282 -9.565696 -20.331075
-28.477048 -7.118709 -24.101482
-33.418482 -6.939893 -21.283858
-30.020050 -5.600517 -22.601194
-13.814041 -30.765087 -22.351587
-16.100706 -26.156531 -26.051490
-12.287010 -29.580783 -24.385475
-16.888277 -29.963526 -21.882578
-17.503333 -13.790544 -28.320988
-17.532515 -20.436187 -28.368206
-15.128115 -14.719490 -28.440943
-8.448019 -24.813313 -25.981904
-14.275307 -24.444871 -27.518371
-10.475833 -27.630735 -25.725968
-9.181136 -21.980574 -26.964012
-13.463778 -27.310920 -26.288506
-22.980720 -27.856014 -20.652074
-19.027417 -25.020474 -25.386998
-19.973112 -28.998849 -21.321729
-18.014342 -27.550660 -23.725856
-10.359055 -16.238412 -28.136939
-14.723709 -21.068125 -28.086384
-12.723328 -15.537188 -28.372731
-9.818990 -19.094006 -27.675943
-14.992959 -17.855582 -28.370292
-11.931210 -21.618310 -27.605268
-1.903842 -1.176639 -28.437763
-5.799784 -3.584464 -28.399242
-1.912430 -3.164525 -28.428628
-14.681645 -9.073756 -28.164633
-9.976639 -6.165902 -28.314482
-12.594733 -10.041013 -28.385031
-1.941755 -7.214492 -28.196983
-5.868911 -5.674874 -28.442080
-1.923766 -5.187353 -28.348638
-3.951047 -8.640916 -28.248421
-3.869411 -4.400577 -28.439931
-8.348288 -11.712824 -28.342736
-8.024088 -7.061262 -28.434262
-10.465457 -10.927591 -28.440534
-6.084275 -10.139291 -28.297512
-10.224393 -8.489573 -28.415945
-5.989348 -7.868220 -28.411365
-33.442965 -20.668889 -16.284625
-29.728454 -18.373195 -21.416097
-33.509752 -17.824281 -17.342830
-31.280707 -22.844524 -17.630676
-20.277401 -12.532123 -27.910143
-26.047972 -16.098532 -26.152999
-22.524003 -11.349078 -27.322725
-20.628912 -15.920738 -28.246899
-33.515174 -12.339136 -19.342304
-29.940984 -15.695945 -22.459296
-33.530710 -15.036347 -18.361749
-31.866462 -11.305721 -21.985102
-31.725492 -16.766094 -19.967264
-26.032857 -26.414211 -19.797308
-27.396509 -20.311403 -22.601637
-28.769846 -24.775784 -18.811521
-23.953770 -25.004449 -22.253736
-29.310641 -21.550977 -20.187860
-26.641331 -8.662432 -25.443081
-28.088749 -14.571194 -24.951544
-24.669523 -10.045640 -26.496071
-30.145332 -10.264362 -24.573928
-25.982734 -13.307175 -26.993256
-30.053799 -12.989484 -23.535810
-19.993804 -22.248226 -26.968123
-25.412781 -19.046741 -25.045885
-20.834760 -19.516944 -28.336542
-21.936689 -23.612503 -24.648212
-23.529358 -17.865147 -27.322486
-24.758810 -22.035119 -23.718453
-1.968237 15.154370 -25.736723
