2.9046709 -13.33856 -4.6998563
4.3704617 -12.354899 -5.4819967
3.4039403 -13.303896 -0.91615875
2.7181622 -13.623243 -2.8111023
2.5275259 -13.812809 -0.93735056
3.9584301 -12.940688 -1.8099868
2.1639318 -13.985001 -1.9027372
-1.319779 -15.556263 -4.2996455
1.2170613 -14.345528 -3.9650064
-0.64702509 -15.353401 -3.1427909
0.62105942 -14.737256 -3.016668
5.0232608 -12.155306 -3.5803177
3.2837127 -13.222841 -3.7314578
4.7127447 -12.265556 -4.5134404
4.4993274 -12.557068 -2.699907
3.8261892 -12.806861 -4.6080599
3.6262742 -13.094117 -2.760347
-4.3608255 -15.451345 -9.5494564
-1.3416187 -14.500944 -8.9620762
-3.6329783 -14.760377 -10.395988
-3.5851872 -15.708533 -8.2158931
3.5068357 -12.425475 -7.6793659
1.2467073 -13.47509 -8.3280636
3.0453801 -12.373033 -8.7145401
2.9579588 -12.960325 -6.7785228
-2.1707243 -13.234461 -11.872404
-0.69040104 -13.876244 -9.7505706
-2.898289 -14.015262 -11.175592
-0.70351498 -12.858852 -11.544538
-2.1023143 -14.338773 -10.083426
-2.0630957 -15.710585 -5.5834843
-0.68244105 -14.620061 -7.6708125
-2.8067437 -15.773603 -6.870779
-0.66243197 -15.102372 -5.3591872
-2.0652871 -15.165057 -7.9483023
1.9718675 -12.022072 -10.78479
0.66557808 -13.377332 -9.3999946
2.5317999 -12.24303 -9.7624366
0.68106094 -12.448437 -11.176072
1.8888279 -12.882695 -9.0594711
0 -13.187579 -10.483739
1.8261198 -13.906001 -4.9421416
0.65584211 -14.050227 -7.3718336
2.3941236 -13.454722 -5.8607042
0.63594115 -14.498424 -5.144872
1.8397243 -13.508788 -7.0802191
0 -14.598927 -6.3898643
-6.5924262 11.195942 -0.85621871
-6.1052811 11.485488 -2.600076
-5.8490703 11.726989 -0.86438707
-4.9112614 11.867404 -6.344014
-5.5557702 11.720915 -4.4196434
-4.2752959 12.770082 -0.89132199
-5.3277892 12.019199 -2.6335509
-5.0738205 12.254091 -0.87711348
-5.5947873 11.879357 -1.7451924
-0.69488239 9.7811857 -14.007065
-2.0096535 10.887029 -12.354242
-4.1291073 11.853205 -8.3687456
-3.1667387 11.564944 -10.421844
-0.61398419 14.839161 -0.99344728
-1.784291 14.136708 -2.8870435
-1.5947507 14.326501 -0.96376174
-3.9989 12.412451 -6.4703562
-2.9046709 13.33856 -4.6998563
-4.3704617 12.354899 -5.4819967
-3.4039403 13.303896 -0.91615875
-2.7181622 13.623243 -2.8111023
-2.5275259 13.812809 -0.93735056
-3.9584301 12.940688 -1.8099868
-2.1639318 13.985001 -1.9027372
-5.0232608 12.155306 -3.5803177
-3.2837127 13.222841 -3.7314578
-4.7127447 12.265556 -4.5134404
-4.4993274 12.557068 -2.699907
-3.8261892 12.806861 -4.6080599
-3.6262742 13.094117 -2.760347
11.481886 19.49973 -1.4912577
9.9453658 18.709601 -4.2354655
9.492405 19.031628 -1.4028062
6.8147988 16.467047 -8.8028665
8.376385 17.671518 -6.6634568
5.9503543 17.773392 -1.2405414
8.1094251 18.294416 -4.0085264
7.6220172 18.408396 -1.3176213
8.8038738 18.693179 -2.7462087
0.71002951 9.994397 -14.312393
2.1758364 11.787302 -13.375842
0 10.6616 -13.574481
5.25224 15.077322 -10.645076
3.6972474 13.502365 -12.167766
-1.3424648 11.673391 -11.812472
1.4237274 12.380009 -12.52751
-0.69045451 11.227522 -12.731075
0.70936667 11.535054 -13.07979
0.63964104 15.459253 -1.0349609
2.0171325 15.981481 -3.263789
1.7804415 15.994661 -1.075981
0 15.1099 -2.0357546
5.2219563 16.208777 -8.4493028
3.5546157 16.323176 -5.751489
5.9398952 16.791544 -7.4505825
4.3841841 17.135062 -1.179988
3.2990288 16.534507 -3.41183
3.0292086 16.55448 -1.123403
5.3424417 17.465225 -2.4428243
2.5193671 16.282099 -2.2152701
-1.2170613 14.345528 -3.9650064
1.319779 15.556263 -4.2996455
-0.62105942 14.737256 -3.016668
0.64702509 15.353401 -3.1427909
7.3660458 17.824386 -5.2501324
4.1572957 16.740581 -4.7241567
6.6596002 17.332511 -6.3779623
6.3496779 17.721168 -3.810245
5.033366 16.847473 -6.0619198
4.7407529 17.118389 -3.6086965
-3.5068357 12.425475 -7.6793659
-1.2467073 13.47509 -8.3280636
-3.0453801 12.373033 -8.7145401
-2.9579588 12.960325 -6.7785228
4.3608255 15.451345 -9.5494564
1.3416187 14.500944 -8.9620762
3.6329783 14.760377 -10.395988
3.5851872 15.708533 -8.2158931
-1.9718675 12.022072 -10.78479
-0.66557808 13.377332 -9.3999946
-2.5317999 12.24303 -9.7624366
-0.68106094 12.448437 -11.176072
-1.8888279 12.882695 -9.0594711
-1.8261198 13.906001 -4.9421416
-0.65584211 14.050227 -7.3718336
-2.3941236 13.454722 -5.8607042
-0.63594115 14.498424 -5.144872
-1.8397243 13.508788 -7.0802191
2.1707243 13.234461 -11.872404
0.69040104 13.876244 -9.7505706
2.898289 14.015262 -11.175592
0.70351498 12.858852 -11.544538
2.1023143 14.338773 -10.083426
0 13.187579 -10.483739
2.0630957 15.710585 -5.5834843
0.68244105 14.620061 -7.6708125
2.8067437 15.773603 -6.870779
0.66243197 15.102372 -5.3591872
2.0652871 15.165057 -7.9483023
0 14.598927 -6.3898643
0 -8.0364307 -15.272937
0 -5.8344734 -16.185111
0 -1.1858883 -17.110547
0 -3.5381236 -16.798241
0 8.0364307 -15.272937
0 5.8344734 -16.185111
0 1.1858883 -17.110547
0 3.5381236 -16.798241
13.675138 19.583367 -0.97151951
15.337062 17.403992 -2.8310921
12.915713 19.357684 -2.4923866
15.49726 10.941566 -5.398527
15.595388 14.053911 -4.2703637
11.185769 18.421311 -5.2628631
14.478224 17.106711 -4.2763456
12.059311 18.934718 -3.9321033
13.942447 18.519064 -3.454902
14.502305 1.1090755 -8.5392881
14.878569 3.3681993 -7.9089239
15.329621 8.1948276 -6.3440813
15.131763 5.7057831 -7.1725288
7.7469083 15.909459 -9.8325866
10.801208 14.993545 -9.2665205
8.5846562 16.587241 -8.8229732
14.696252 10.677186 -6.5988641
13.010524 12.958276 -8.0086547
14.735819 12.14775 -6.1208374
10.289935 17.829777 -6.5643116
11.67667 15.566427 -8.1603797
9.4351789 17.229745 -7.7264222
12.077243 17.505445 -6.2106572
10.254645 16.293351 -8.6106107
14.690924 15.382798 -5.0017188
12.887987 14.508418 -7.5263222
14.746507 13.729934 -5.5909461
13.551843 16.624319 -5.6605126
13.872107 13.35279 -6.8386919
12.607025 16.098405 -6.9578548
7.398319 -10.594701 -0.52559697
8.5253881 -9.6743294 -1.5737146
7.1734805 -10.751397 -1.3842895
10.750088 -7.5899094 -3.7448324
9.6356908 -8.683281 -2.6384662
6.6959242 -11.0272 -3.1504077
8.3099062 -9.8185497 -2.4544468
6.9396979 -10.896247 -2.2627835
7.7476377 -10.290805 -1.9198444
14.236929 -1.0887807 -8.383029
13.818341 -3.1281857 -7.3453441
11.870785 -6.3458213 -4.9126606
12.947257 -4.8820641 -6.1370621
5.5195322 -11.335202 -7.0055402
7.3389575 -10.187471 -6.2962032
5.8503963 -11.304114 -6.012808
10.563402 -7.6745693 -4.7431447
9.0073414 -8.9711691 -5.5444874
10.00639 -8.2489561 -4.156368
6.4309529 -11.143166 -4.1025312
7.6033928 -10.136251 -5.3137213
6.1535205 -11.237051 -5.039088
7.2781729 -10.549399 -3.7427614
6.7500137 -10.72493 -5.6678454
8.8894319 -9.3080828 -3.0265243
8.4495473 -9.5119248 -4.9343637
9.4455537 -8.7944099 -3.5811586
8.0993158 -9.9355935 -3.383029
9.2376053 -8.8917856 -4.5539684
7.8649347 -10.043043 -4.3406809
1.1200314 -8.6236429 -14.645565
3.2746135 -7.6891735 -14.465167
1.7948949 -9.3012649 -13.940457
1.1220447 -7.5925691 -15.222586
7.3466675 -5.6874725 -13.743014
5.3467793 -6.7212384 -14.179683
3.0657114 -10.379436 -12.263798
3.9223138 -8.3365451 -13.72906
2.4513599 -9.8925974 -13.139849
2.8754245 -8.8185978 -13.846369
1.1268126 -5.4048451 -16.143985
3.2958182 -6.667585 -15.041704
1.1254319 -6.510263 -15.723331
2.2249241 -7.1327249 -15.144845
13.673986 -0.67835854 -9.5485955
12.419719 -2.0203048 -10.944731
13.656565 -1.7583427 -9.1118487
9.2368693 -4.5574362 -13.082786
10.945182 -3.3257583 -12.145685
13.205358 -3.7726949 -8.0185429
12.358042 -3.0892705 -10.459199
13.497186 -2.802911 -8.5962073
13.029279 -2.430732 -9.8093526
5.0779381 -11.309016 -8.2162764
6.1326843 -9.9629014 -9.9228917
4.6590328 -11.216548 -9.2465723
6.0636815 -10.758308 -7.8568692
7.9690809 -6.2786875 -12.894244
7.1224226 -8.3020123 -11.524322
7.0030988 -6.8139383 -13.165866
3.6667557 -10.769904 -11.277116
5.677634 -9.7223149 -10.94472
4.1860601 -11.041023 -10.279893
4.1256673 -9.8772675 -12.116643
5.1791591 -10.505788 -10.112493
7.9107167 -9.5889524 -7.1091204
7.1524984 -9.4053177 -9.5430957
7.0125725 -10.181515 -7.4860728
6.6132427 -10.11412 -8.7099959
4.9964245 -7.8321819 -13.571131
6.1665823 -8.8237499 -11.763136
6.0047983 -7.3328049 -13.390563
4.5722859 -8.8912661 -12.887509
6.604924 -7.8660098 -12.498108
5.1645572 -9.3577267 -11.949248
1.1437839 -0.70689732 -17.084745
3.3856945 -2.0924743 -16.578404
1.1414901 -1.8888405 -16.968467
7.4433878 -4.6002666 -14.279073
5.5066514 -3.4032977 -15.628308
6.4504957 -5.1425869 -14.537626
1.1364767 -4.2225204 -16.503219
3.3675639 -3.2562263 -16.319983
1.1382279 -3.0691831 -16.772939
2.2488366 -4.9181918 -16.078289
2.2721879 -2.5840981 -16.700441
4.3915074 -6.161377 -14.909324
4.4634417 -3.9278645 -15.816709
5.4258084 -5.6654011 -14.744973
3.3417762 -5.5689865 -15.542355
5.4797925 -4.5500108 -15.229607
3.3667495 -4.4229067 -15.970678
11.224431 -6.9370797 -5.4655934
10.903903 -6.7389825 -7.8550682
11.771105 -6.2612065 -6.0920853
10.448548 -7.6306497 -5.8890925
9.0785586 -5.6108578 -12.495875
10.241893 -6.3298382 -10.283189
9.9673839 -5.0222252 -12.090928
8.6733512 -6.6938163 -11.876306
12.780687 -4.7054102 -7.3760004
11.386174 -5.9689678 -8.5409837
12.300669 -5.5160518 -6.7359684
12.531004 -4.4458035 -8.6453085
11.61675 -6.1391494 -7.3113043
8.8137464 -8.9428585 -6.7026238
10.047102 -7.4487866 -8.2886823
9.6412304 -8.3027571 -6.3040383
8.5243701 -8.8982727 -7.9193831
10.281486 -7.5595779 -7.0814283
11.599672 -3.771635 -11.077952
11.038647 -5.7263594 -9.8057515
10.814638 -4.4038128 -11.615361
12.140868 -4.1339159 -9.8970154
10.573715 -5.4153762 -10.984948
11.805457 -5.1024096 -9.2451206
7.7050924 -8.5738881 -10.392814
9.701926 -7.2715408 -9.5618548
8.2070205 -7.6879196 -11.162048
8.1590452 -8.7823408 -9.1675587
9.2551539 -7.027165 -10.747161
9.1305667 -8.1261227 -8.7469032
1.153169 8.8787843 -15.078872
3.5206705 8.2669441 -15.552091
1.8927845 9.8085352 -14.700738
1.1499974 7.7817168 -15.601814
7.9175697 6.1294403 -14.81097
5.8352305 7.3352523 -15.475058
3.4403907 11.64797 -13.762631
4.3243366 9.1910104 -15.136239
2.6608616 10.738053 -14.262826
3.1123354 9.5451765 -14.987194
1.1456111 5.4950137 -16.413314
3.4984721 7.0775627 -15.966591
1.1486655 6.6446617 -16.047925
2.3274527 7.4614139 -15.842747
13.78165 0.68369967 -9.6237773
12.627193 2.0540543 -11.127564
13.993758 1.8017577 -9.3368284
13.209456 0 -10.374904
9.7082878 4.7900323 -13.750487
11.26036 3.4215269 -12.495432
14.290324 4.0826635 -8.6773548
12.775923 3.1937326 -10.812872
14.159415 2.9404337 -9.0179738
13.408967 2.5015664 -10.095209
11.918917 -1.3545621 -11.778583
12.020812 1.3661423 -11.879278
12.58773 -0.68268037 -11.101106
12.647244 0.68590804 -11.153592
6.7547416 15.043405 -10.929402
7.7816241 12.6417 -12.590932
5.9249415 14.264203 -11.758964
8.3607468 14.833808 -10.833236
8.7221633 6.8720268 -14.112757
8.365192 9.7506047 -13.535165
7.7538162 7.5443781 -14.577219
4.2808082 12.573483 -13.165636
6.9258946 11.859822 -13.350979
5.0933776 13.434136 -12.508033
4.7648347 11.407499 -13.993809
6.4861604 13.157006 -12.664459
11.041586 13.384027 -9.9227377
9.1112086 11.980962 -12.156471
9.8139814 14.248865 -10.476637
8.8040475 13.464679 -11.595403
5.5649589 8.7233923 -15.115366
7.2778402 10.413847 -13.882929
6.6928752 8.1730552 -14.924959
5.1930018 10.09831 -14.637067
7.5429697 8.9831577 -14.273117
6.0681914 10.995033 -14.039988
1.1461767 0.70837614 -17.120486
3.4430949 2.1279496 -16.85947
1.1479105 1.8994644 -17.063908
2.2923575 0 -17.014473
7.8589072 4.8570717 -15.076187
5.7154543 3.532345 -16.220907
6.8740114 5.4802302 -15.492113
1.1510922 4.2768232 -16.715455
3.45823 3.3438948 -16.759372
1.1487206 3.0974764 -16.927561
2.3155316 5.0640535 -16.555133
2.3062772 2.622867 -16.950996
4.5377199 -1.3928561 -16.417625
4.5991325 1.4117067 -16.639818
3.4339616 -0.70697014 -16.77585
3.4534177 0.71097568 -16.870899
4.6994001 6.593357 -15.954631
4.6441342 4.0868753 -16.457013
5.8116007 6.0682292 -15.793388
3.5065134 5.8435168 -16.308535
5.7725426 4.7930887 -16.043227
3.4939029 4.5899483 -16.573849
14.629515 9.0415375 -7.1236558
13.062602 8.0731317 -9.4101745
14.562389 7.7459278 -7.5367028
13.879678 10.136428 -7.8229723
9.7746401 6.0410598 -13.453973
11.476761 7.0930286 -11.523036
10.588258 5.3350625 -12.844078
9.6590641 7.4545582 -13.22603
14.396434 5.3002726 -8.3084814
13.024642 6.8279011 -9.7700295
14.485488 6.4958011 -7.9323967
13.646936 4.8417189 -9.4152053
13.791131 7.2882526 -8.6798071
12.137098 12.314893 -9.2299456
12.255085 9.0857557 -10.11023
13.049817 11.238136 -8.5327848
11.219855 11.711989 -10.423565
13.062636 9.6044497 -8.9969603
12.072445 3.9253572 -11.529462
12.222527 6.3405034 -10.857405
11.355568 4.624084 -12.196342
12.872557 4.3830531 -10.493475
11.42573 5.8517397 -11.8701
12.953089 5.5984251 -10.143858
9.3454947 10.399256 -12.605428
11.396129 8.5413369 -11.231598
9.5179708 8.9159513 -12.94502
10.287774 11.07369 -11.559413
10.551874 8.0117262 -12.252923
11.3291 10.082797 -10.853055
8.5834372 -3.9196861 -13.888293
8.9243829 -1.335976 -14.439955
9.4944526 -3.317928 -13.480364
7.6703371 -3.3471218 -14.665446
8.9409145 4.0829306 -14.466704
9.0230083 1.3507402 -14.599534
9.7807835 3.4179892 -13.886901
7.9482605 3.4683998 -15.196827
11.154083 -2.0393882 -12.433732
9.7813228 -0.69257848 -13.920008
10.359032 -2.6865216 -12.991218
11.290758 -0.68804982 -12.57618
9.6746592 -2.0170898 -13.757501
5.6588792 -2.0909541 -15.922729
7.9437367 -0.70672201 -15.140236
6.6848865 -2.7308058 -15.34684
5.729151 -0.70816201 -16.144942
7.8372239 -2.0364244 -14.953124
11.304957 2.0669736 -12.601914
9.8279049 0.69587678 -13.9863
10.571882 2.7417223 -13.258152
11.333934 0.69068091 -12.624271
9.8236236 2.0481477 -13.969331
10.584483 0 -13.314306
5.7858797 2.1378808 -16.280078
7.9964215 0.71140916 -15.24065
6.8857558 2.8128618 -15.807986
5.7714994 0.71339656 -16.264282
7.995231 2.077481 -15.254595
6.8958601 0 -15.754976
13.675138 19.583367 0.97151951
15.337062 17.403992 2.8310921
12.915713 19.357684 2.4923866
14.991138 19.086903 0
15.49726 10.941566 5.398527
15.595388 14.053911 4.2703637
11.185769 18.421311 5.2628631
14.478224 17.106711 4.2763456
12.059311 18.934718 3.9321033
13.942447 18.519064 3.454902
16.216592 16.409803 -1.8649426
16.216592 16.409803 1.8649426
15.826962 17.946456 -0.97330444
15.826962 17.946456 0.97330444
14.502305 1.1090755 8.5392881
14.878569 3.3681993 7.9089239
15.329621 8.1948276 6.3440813
15.131763 5.7057831 7.1725288
7.7469083 15.909459 9.8325866
10.801208 14.993545 9.2665205
8.5846562 16.587241 8.8229732
14.696252 10.677186 6.5988641
13.010524 12.958276 8.0086547
14.735819 12.14775 6.1208374
10.289935 17.829777 6.5643116
11.67667 15.566427 8.1603797
9.4351789 17.229745 7.7264222
12.077243 17.505445 6.2106572
10.254645 16.293351 8.6106107
14.690924 15.382798 5.0017188
12.887987 14.508418 7.5263222
14.746507 13.729934 5.5909461
13.551843 16.624319 5.6605126
13.872107 13.35279 6.8386919
12.607025 16.098405 6.9578548
16.188402 10.004983 -4.5688448
17.401663 10.754819 -1.6099915
16.279645 11.466035 -4.0069164
16.188402 10.004983 4.5688448
17.401663 10.754819 1.6099915
16.279645 11.466035 4.0069164
16.350301 14.667569 -2.6817862
17.360253 12.198717 -0.86374505
16.343937 13.032448 -3.3798478
16.82818 15.108158 -0.92067914
16.952502 11.921473 -2.4855326
16.350301 14.667569 2.6817862
17.360253 12.198717 0.86374505
16.343937 13.032448 3.3798478
16.82818 15.108158 0.92067914
16.952502 11.921473 2.4855326
17.193023 13.667949 0
7.398319 -10.594701 0.52559697
8.5253881 -9.6743294 1.5737146
7.1734805 -10.751397 1.3842895
7.9703427 -10.147939 0
10.750088 -7.5899094 3.7448324
9.6356908 -8.683281 2.6384662
6.6959242 -11.0272 3.1504077
8.3099062 -9.8185497 2.4544468
6.9396979 -10.896247 2.2627835
7.7476377 -10.290805 1.9198444
9.0967772 -9.2051597 -1.0461487
9.0967772 -9.2051597 1.0461487
8.5389985 -9.682513 -0.52511944
8.5389985 -9.682513 0.52511944
14.236929 -1.0887807 8.383029
13.818341 -3.1281857 7.3453441
11.870785 -6.3458213 4.9126606
12.947257 -4.8820641 6.1370621
5.5195322 -11.335202 7.0055402
7.3389575 -10.187471 6.2962032
5.8503963 -11.304114 6.012808
10.563402 -7.6745693 4.7431447
9.0073414 -8.9711691 5.5444874
10.00639 -8.2489561 4.156368
6.4309529 -11.143166 4.1025312
7.6033928 -10.136251 5.3137213
6.1535205 -11.237051 5.039088
7.2781729 -10.549399 3.7427614
6.7500137 -10.72493 5.6678454
8.8894319 -9.3080828 3.0265243
8.4495473 -9.5119248 4.9343637
9.4455537 -8.7944099 3.5811586
8.0993158 -9.9355935 3.383029
9.2376053 -8.8917856 4.5539684
7.8649347 -10.043043 4.3406809
11.367532 -7.0255209 -3.2082528
11.422089 -7.0592395 -1.0567649
10.802606 -7.6084617 -2.6588503
11.367532 -7.0255209 3.2082528
11.422089 -7.0592395 1.0567649
10.802606 -7.6084617 2.6588503
9.6799175 -8.6836847 -1.5877059
10.849753 -7.6239135 -0.53982049
10.236848 -8.162732 -2.116931
9.6867629 -8.6966705 -0.5299682
10.834579 -7.6191789 -1.5885384
9.6799175 -8.6836847 1.5877059
10.849753 -7.6239135 0.53982049
10.236848 -8.162732 2.116931
9.6867629 -8.6966705 0.5299682
10.834579 -7.6191789 1.5885384
10.273712 -8.1673 0
1.1200314 -8.6236429 14.645565
3.2746135 -7.6891735 14.465167
1.7948949 -9.3012649 13.940457
1.1220447 -7.5925691 15.222586
7.3466675 -5.6874725 13.743014
5.3467793 -6.7212384 14.179683
3.0657114 -10.379436 12.263798
3.9223138 -8.3365451 13.72906
2.4513599 -9.8925974 13.139849
2.8754245 -8.8185978 13.846369
1.1268126 -5.4048451 16.143985
3.2958182 -6.667585 15.041704
1.1254319 -6.510263 15.723331
2.2249241 -7.1327249 15.144845
13.673986 -0.67835854 9.5485955
12.419719 -2.0203048 10.944731
13.656565 -1.7583427 9.1118487
9.2368693 -4.5574362 13.082786
10.945182 -3.3257583 12.145685
13.205358 -3.7726949 8.0185429
12.358042 -3.0892705 10.459199
13.497186 -2.802911 8.5962073
13.029279 -2.430732 9.8093526
5.0779381 -11.309016 8.2162764
6.1326843 -9.9629014 9.9228917
4.6590328 -11.216548 9.2465723
6.0636815 -10.758308 7.8568692
7.9690809 -6.2786875 12.894244
7.1224226 -8.3020123 11.524322
7.0030988 -6.8139383 13.165866
3.6667557 -10.769904 11.277116
5.677634 -9.7223149 10.94472
4.1860601 -11.041023 10.279893
4.1256673 -9.8772675 12.116643
5.1791591 -10.505788 10.112493
7.9107167 -9.5889524 7.1091204
7.1524984 -9.4053177 9.5430957
7.0125725 -10.181515 7.4860728
6.6132427 -10.11412 8.7099959
4.9964245 -7.8321819 13.571131
6.1665823 -8.8237499 11.763136
6.0047983 -7.3328049 13.390563
4.5722859 -8.8912661 12.887509
6.604924 -7.8660098 12.498108
5.1645572 -9.3577267 11.949248
1.1437839 -0.70689732 17.084745
3.3856945 -2.0924743 16.578404
1.1414901 -1.8888405 16.968467
7.4433878 -4.6002666 14.279073
5.5066514 -3.4032977 15.628308
6.4504957 -5.1425869 14.537626
1.1364767 -4.2225204 16.503219
3.3675639 -3.2562263 16.319983
1.1382279 -3.0691831 16.772939
2.2488366 -4.9181918 16.078289
2.2721879 -2.5840981 16.700441
4.3915074 -6.161377 14.909324
4.4634417 -3.9278645 15.816709
5.4258084 -5.6654011 14.744973
3.3417762 -5.5689865 15.542355
5.4797925 -4.5500108 15.229607
3.3667495 -4.4229067 15.970678
11.224431 -6.9370797 5.4655934
10.903903 -6.7389825 7.8550682
11.771105 -6.2612065 6.0920853
10.448548 -7.6306497 5.8890925
9.0785586 -5.6108578 12.495875
10.241893 -6.3298382 10.283189
9.9673839 -5.0222252 12.090928
8.6733512 -6.6938163 11.876306
12.780687 -4.7054102 7.3760004
11.386174 -5.9689678 8.5409837
12.300669 -5.5160518 6.7359684
12.531004 -4.4458035 8.6453085
11.61675 -6.1391494 7.3113043
8.8137464 -8.9428585 6.7026238
10.047102 -7.4487866 8.2886823
9.6412304 -8.3027571 6.3040383
8.5243701 -8.8982727 7.9193831
10.281486 -7.5595779 7.0814283
11.599672 -3.771635 11.077952
11.038647 -5.7263594 9.8057515
10.814638 -4.4038128 11.615361
12.140868 -4.1339159 9.8970154
10.573715 -5.4153762 10.984948
11.805457 -5.1024096 9.2451206
7.7050924 -8.5738881 10.392814
9.701926 -7.2715408 9.5618548
8.2070205 -7.6879196 11.162048
8.1590452 -8.7823408 9.1675587
9.2551539 -7.027165 10.747161
9.1305667 -8.1261227 8.7469032
1.153169 8.8787843 15.078872
3.5206705 8.2669441 15.552091
1.8927845 9.8085352 14.700738
1.1499974 7.7817168 15.601814
7.9175697 6.1294403 14.81097
5.8352305 7.3352523 15.475058
3.4403907 11.64797 13.762631
4.3243366 9.1910104 15.136239
2.6608616 10.738053 14.262826
3.1123354 9.5451765 14.987194
1.1456111 5.4950137 16.413314
3.4984721 7.0775627 15.966591
1.1486655 6.6446617 16.047925
2.3274527 7.4614139 15.842747
13.78165 0.68369967 9.6237773
12.627193 2.0540543 11.127564
13.993758 1.8017577 9.3368284
13.209456 0 10.374904
9.7082878 4.7900323 13.750487
11.26036 3.4215269 12.495432
14.290324 4.0826635 8.6773548
12.775923 3.1937326 10.812872
14.159415 2.9404337 9.0179738
13.408967 2.5015664 10.095209
11.918917 -1.3545621 11.778583
12.020812 1.3661423 11.879278
12.58773 -0.68268037 11.101106
12.647244 0.68590804 11.153592
6.7547416 15.043405 10.929402
7.7816241 12.6417 12.590932
5.9249415 14.264203 11.758964
8.3607468 14.833808 10.833236
8.7221633 6.8720268 14.112757
8.365192 9.7506047 13.535165
7.7538162 7.5443781 14.577219
4.2808082 12.573483 13.165636
6.9258946 11.859822 13.350979
5.0933776 13.434136 12.508033
4.7648347 11.407499 13.993809
6.4861604 13.157006 12.664459
11.041586 13.384027 9.9227377
9.1112086 11.980962 12.156471
9.8139814 14.248865 10.476637
8.8040475 13.464679 11.595403
5.5649589 8.7233923 15.115366
7.2778402 10.413847 13.882929
6.6928752 8.1730552 14.924959
5.1930018 10.09831 14.637067
7.5429697 8.9831577 14.273117
6.0681914 10.995033 14.039988
1.1461767 0.70837614 17.120486
3.4430949 2.1279496 16.85947
1.1479105 1.8994644 17.063908
2.2923575 0 17.014473
7.8589072 4.8570717 15.076187
5.7154543 3.532345 16.220907
6.8740114 5.4802302 15.492113
1.1510922 4.2768232 16.715455
3.45823 3.3438948 16.759372
1.1487206 3.0974764 16.927561
2.3155316 5.0640535 16.555133
2.3062772 2.622867 16.950996
4.5377199 -1.3928561 16.417625
4.5991325 1.4117067 16.639818
3.4339616 -0.70697014 16.77585
3.4534177 0.71097568 16.870899
4.6994001 6.593357 15.954631
4.6441342 4.0868753 16.457013
5.8116007 6.0682292 15.793388
3.5065134 5.8435168 16.308535
5.7725426 4.7930887 16.043227
3.4939029 4.5899483 16.573849
14.629515 9.0415375 7.1236558
13.062602 8.0731317 9.4101745
14.562389 7.7459278 7.5367028
13.879678 10.136428 7.8229723
9.7746401 6.0410598 13.453973
11.476761 7.0930286 11.523036
10.588258 5.3350625 12.844078
9.6590641 7.4545582 13.22603
14.396434 5.3002726 8.3084814
13.024642 6.8279011 9.7700295
14.485488 6.4958011 7.9323967
13.646936 4.8417189 9.4152053
13.791131 7.2882526 8.6798071
12.137098 12.314893 9.2299456
12.255085 9.0857557 10.11023
13.049817 11.238136 8.5327848
11.219855 11.711989 10.423565
13.062636 9.6044497 8.9969603
12.072445 3.9253572 11.529462
12.222527 6.3405034 10.857405
11.355568 4.624084 12.196342
12.872557 4.3830531 10.493475
11.42573 5.8517397 11.8701
12.953089 5.5984251 10.143858
9.3454947 10.399256 12.605428
11.396129 8.5413369 11.231598
9.5179708 8.9159513 12.94502
10.287774 11.07369 11.559413
10.551874 8.0117262 12.252923
11.3291 10.082797 10.853055
8.5834372 -3.9196861 13.888293
8.9243829 -1.335976 14.439955
9.4944526 -3.317928 13.480364
7.6703371 -3.3471218 14.665446
8.9409145 4.0829306 14.466704
9.0230083 1.3507402 14.599534
9.7807835 3.4179892 13.886901
7.9482605 3.4683998 15.196827
11.154083 -2.0393882 12.433732
9.7813228 -0.69257848 13.920008
10.359032 -2.6865216 12.991218
11.290758 -0.68804982 12.57618
9.6746592 -2.0170898 13.757501
5.6588792 -2.0909541 15.922729
7.9437367 -0.70672201 15.140236
6.6848865 -2.7308058 15.34684
5.729151 -0.70816201 16.144942
7.8372239 -2.0364244 14.953124
11.304957 2.0669736 12.601914
9.8279049 0.69587678 13.9863
10.571882 2.7417223 13.258152
11.333934 0.69068091 12.624271
9.8236236 2.0481477 13.969331
10.584483 0 13.314306
5.7858797 2.1378808 16.280078
7.9964215 0.71140916 15.24065
6.8857558 2.8128618 15.807986
5.7714994 0.71339656 16.264282
7.995231 2.077481 15.254595
6.8958601 0 15.754976
14.792888 0 -7.7838349
15.712752 0 -5.6641955
15.087457 1.1120845 -7.5251706
14.721252 -1.0850918 -7.3425186
16.678958 0 -1.1559761
16.351147 0 -3.4439546
15.517593 3.4000911 -6.8785337
16.090745 1.1230966 -5.3870209
15.326506 2.2516118 -7.2182811
15.622558 1.1182189 -6.4685379
14.153772 -3.1012616 -6.2739886
15.47994 -1.0804638 -5.1825295
14.50322 -2.1306631 -6.8305404
15.137462 -1.083497 -6.2676832
14.792888 0 7.7838349
15.712752 0 5.6641955
15.087457 1.1120845 7.5251706
14.721252 -1.0850918 7.3425186
16.678958 0 1.1559761
16.351147 0 3.4439546
15.517593 3.4000911 6.8785337
16.090745 1.1230966 5.3870209
15.326506 2.2516118 7.2182811
15.622558 1.1182189 6.4685379
14.153772 -3.1012616 6.2739886
15.47994 -1.0804638 5.1825295
14.50322 -2.1306631 6.8305404
15.137462 -1.083497 6.2676832
16.063079 8.3733534 -5.175017
17.070298 6.0147382 -3.7173127
15.948783 7.0766404 -5.6417739
16.771078 8.7716265 -3.8276938
17.155131 1.148496 -0.70980959
17.501754 3.5742641 -2.2090167
17.038226 1.1461829 -1.8966056
15.687219 4.6206345 -6.4828471
16.896746 4.7682259 -4.196077
15.823876 5.8228195 -6.0799434
16.129798 3.468083 -5.7794736
16.48371 5.9310333 -4.9246876
17.709591 9.2918187 -0.82665539
17.578048 6.2471736 -2.3083288
17.362479 9.1000138 -2.3645478
17.245399 7.5118742 -3.0686339
16.505378 1.1366255 -4.2230729
17.156043 3.5400815 -3.4230402
16.817199 1.1412314 -3.0772819
16.420522 2.296704 -5.0228775
17.204854 2.3408161 -2.6621471
16.688426 3.5180567 -4.6216793
12.043876 -6.2782257 -3.8801569
13.478625 -4.7492085 -2.9351723
12.609982 -5.5951799 -4.4606958
12.084453 -6.320423 -2.7580568
16.168411 -1.0824375 -0.66898315
14.873965 -3.0376086 -1.8773453
16.098319 -1.0829542 -1.7919802
13.684636 -4.0307784 -5.6552666
14.054573 -3.9661709 -3.4902621
13.166633 -4.8450157 -5.0589618
14.412373 -3.0988179 -5.1641024
13.341048 -4.8002666 -3.9857833
12.118918 -6.3585198 -0.5656917
13.503482 -4.7990878 -1.7732615
12.108261 -6.3461758 -1.6489905
12.800409 -5.5756939 -2.2776957
15.760254 -1.0853133 -4.0324251
14.77711 -3.0491982 -2.9483863
15.962269 -1.083215 -2.9208432
15.109407 -2.113321 -4.6218201
15.45359 -2.1025469 -2.39117
14.617658 -3.0815218 -4.0482024
16.063079 8.3733534 5.175017
17.070298 6.0147382 3.7173127
15.948783 7.0766404 5.6417739
16.771078 8.7716265 3.8276938
17.155131 1.148496 0.70980959
17.501754 3.5742641 2.2090167
17.038226 1.1461829 1.8966056
17.523611 2.3609535 0
15.687219 4.6206345 6.4828471
16.896746 4.7682259 4.196077
15.823876 5.8228195 6.0799434
16.129798 3.468083 5.7794736
16.48371 5.9310333 4.9246876
17.709591 9.2918187 0.82665539
17.578048 6.2471736 2.3083288
17.362479 9.1000138 2.3645478
17.870341 7.8217427 0
17.245399 7.5118742 3.0686339
16.505378 1.1366255 4.2230729
17.156043 3.5400815 3.4230402
16.817199 1.1412314 3.0772819
16.420522 2.296704 5.0228775
17.204854 2.3408161 2.6621471
16.688426 3.5180567 4.6216793
17.75196 4.906521 -1.5060598
17.75196 4.906521 1.5060598
17.730929 3.629463 -0.74721918
17.879111 6.3445334 -0.78422746
17.730929 3.629463 0.74721918
17.879111 6.3445334 0.78422746
12.043876 -6.2782257 3.8801569
13.478625 -4.7492085 2.9351723
12.609982 -5.5951799 4.4606958
12.084453 -6.320423 2.7580568
16.168411 -1.0824375 0.66898315
14.873965 -3.0376086 1.8773453
16.098319 -1.0829542 1.7919802
15.573797 -2.0982554 0
13.684636 -4.0307784 5.6552666
14.054573 -3.9661709 3.4902621
13.166633 -4.8450157 5.0589618
14.412373 -3.0988179 5.1641024
13.341048 -4.8002666 3.9857833
12.118918 -6.3585198 0.5656917
13.503482 -4.7990878 1.7732615
12.108261 -6.3461758 1.6489905
12.821298 -5.6118066 0
12.800409 -5.5756939 2.2776957
15.760254 -1.0853133 4.0324251
14.77711 -3.0491982 2.9483863
15.962269 -1.083215 2.9208432
15.109407 -2.113321 4.6218201
15.45359 -2.1025469 2.39117
14.617658 -3.0815218 4.0482024
14.233508 -3.934045 -1.2075577
14.233508 -3.934045 1.2075577
14.915054 -3.0530627 -0.62855221
13.533109 -4.8023227 -0.59359973
14.915054 -3.0530627 0.62855221
13.533109 -4.8023227 0.59359973
-7.398319 10.594701 -0.52559697
-8.5253881 9.6743294 -1.5737146
-7.1734805 10.751397 -1.3842895
-10.750088 7.5899094 -3.7448324
-9.6356908 8.683281 -2.6384662
-6.6959242 11.0272 -3.1504077
-8.3099062 9.8185497 -2.4544468
-6.9396979 10.896247 -2.2627835
-7.7476377 10.290805 -1.9198444
-14.236929 1.0887807 -8.383029
-13.818341 3.1281857 -7.3453441
-11.870785 6.3458213 -4.9126606
-12.947257 4.8820641 -6.1370621
-5.5195322 11.335202 -7.0055402
-7.3389575 10.187471 -6.2962032
-5.8503963 11.304114 -6.012808
-10.563402 7.6745693 -4.7431447
-9.0073414 8.9711691 -5.5444874
-10.00639 8.2489561 -4.156368
-6.4309529 11.143166 -4.1025312
-7.6033928 10.136251 -5.3137213
-6.1535205 11.237051 -5.039088
-7.2781729 10.549399 -3.7427614
-6.7500137 10.72493 -5.6678454
-8.8894319 9.3080828 -3.0265243
-8.4495473 9.5119248 -4.9343637
-9.4455537 8.7944099 -3.5811586
-8.0993158 9.9355935 -3.383029
-9.2376053 8.8917856 -4.5539684
-7.8649347 10.043043 -4.3406809
-13.675138 -19.583367 -0.97151951
-15.337062 -17.403992 -2.8310921
-12.915713 -19.357684 -2.4923866
-15.49726 -10.941566 -5.398527
-15.595388 -14.053911 -4.2703637
-11.185769 -18.421311 -5.2628631
-14.478224 -17.106711 -4.2763456
-12.059311 -18.934718 -3.9321033
-13.942447 -18.519064 -3.454902
-14.502305 -1.1090755 -8.5392881
-14.878569 -3.3681993 -7.9089239
-15.329621 -8.1948276 -6.3440813
-15.131763 -5.7057831 -7.1725288
-7.7469083 -15.909459 -9.8325866
-10.801208 -14.993545 -9.2665205
-8.5846562 -16.587241 -8.8229732
-14.696252 -10.677186 -6.5988641
-13.010524 -12.958276 -8.0086547
-14.735819 -12.14775 -6.1208374
-10.289935 -17.829777 -6.5643116
-11.67667 -15.566427 -8.1603797
-9.4351789 -17.229745 -7.7264222
-12.077243 -17.505445 -6.2106572
-10.254645 -16.293351 -8.6106107
-14.690924 -15.382798 -5.0017188
-12.887987 -14.508418 -7.5263222
-14.746507 -13.729934 -5.5909461
-13.551843 -16.624319 -5.6605126
-13.872107 -13.35279 -6.8386919
-12.607025 -16.098405 -6.9578548
-1.153169 -8.8787843 -15.078872
-3.5206705 -8.2669441 -15.552091
-1.8927845 -9.8085352 -14.700738
-1.1499974 -7.7817168 -15.601814
-7.9175697 -6.1294403 -14.81097
-5.8352305 -7.3352523 -15.475058
-3.4403907 -11.64797 -13.762631
-4.3243366 -9.1910104 -15.136239
-2.6608616 -10.738053 -14.262826
-3.1123354 -9.5451765 -14.987194
-1.1456111 -5.4950137 -16.413314
-3.4984721 -7.0775627 -15.966591
-1.1486655 -6.6446617 -16.047925
-2.3274527 -7.4614139 -15.842747
-13.78165 -0.68369967 -9.6237773
-12.627193 -2.0540543 -11.127564
-13.993758 -1.8017577 -9.3368284
-9.7082878 -4.7900323 -13.750487
-11.26036 -3.4215269 -12.495432
-14.290324 -4.0826635 -8.6773548
-12.775923 -3.1937326 -10.812872
-14.159415 -2.9404337 -9.0179738
-13.408967 -2.5015664 -10.095209
-6.7547416 -15.043405 -10.929402
-7.7816241 -12.6417 -12.590932
-5.9249415 -14.264203 -11.758964
-8.3607468 -14.833808 -10.833236
-8.7221633 -6.8720268 -14.112757
-8.365192 -9.7506047 -13.535165
-7.7538162 -7.5443781 -14.577219
-4.2808082 -12.573483 -13.165636
-6.9258946 -11.859822 -13.350979
-5.0933776 -13.434136 -12.508033
-4.7648347 -11.407499 -13.993809
-6.4861604 -13.157006 -12.664459
-11.041586 -13.384027 -9.9227377
-9.1112086 -11.980962 -12.156471
-9.8139814 -14.248865 -10.476637
-8.8040475 -13.464679 -11.595403
-5.5649589 -8.7233923 -15.115366
-7.2778402 -10.413847 -13.882929
-6.6928752 -8.1730552 -14.924959
-5.1930018 -10.09831 -14.637067
-7.5429697 -8.9831577 -14.273117
-6.0681914 -10.995033 -14.039988
-1.1461767 -0.70837614 -17.120486
-3.4430949 -2.1279496 -16.85947
-1.1479105 -1.8994644 -17.063908
-7.8589072 -4.8570717 -15.076187
-5.7154543 -3.532345 -16.220907
-6.8740114 -5.4802302 -15.492113
-1.1510922 -4.2768232 -16.715455
-3.45823 -3.3438948 -16.759372
-1.1487206 -3.0974764 -16.927561
-2.3155316 -5.0640535 -16.555133
-2.3062772 -2.622867 -16.950996
-4.6994001 -6.593357 -15.954631
-4.6441342 -4.0868753 -16.457013
-5.8116007 -6.0682292 -15.793388
-3.5065134 -5.8435168 -16.308535
-5.7725426 -4.7930887 -16.043227
-3.4939029 -4.5899483 -16.573849
-14.629515 -9.0415375 -7.1236558
-13.062602 -8.0731317 -9.4101745
-14.562389 -7.7459278 -7.5367028
-13.879678 -10.136428 -7.8229723
-9.7746401 -6.0410598 -13.453973
-11.476761 -7.0930286 -11.523036
-10.588258 -5.3350625 -12.844078
-9.6590641 -7.4545582 -13.22603
-14.396434 -5.3002726 -8.3084814
-13.024642 -6.8279011 -9.7700295
-14.485488 -6.4958011 -7.9323967
-13.646936 -4.8417189 -9.4152053
-13.791131 -7.2882526 -8.6798071
-12.137098 -12.314893 -9.2299456
-12.255085 -9.0857557 -10.11023
-13.049817 -11.238136 -8.5327848
-11.219855 -11.711989 -10.423565
-13.062636 -9.6044497 -8.9969603
-12.072445 -3.9253572 -11.529462
-12.222527 -6.3405034 -10.857405
-11.355568 -4.624084 -12.196342
-12.872557 -4.3830531 -10.493475
-11.42573 -5.8517397 -11.8701
-12.953089 -5.5984251 -10.143858
-9.3454947 -10.399256 -12.605428
-11.396129 -8.5413369 -11.231598
-9.5179708 -8.9159513 -12.94502
-10.287774 -11.07369 -11.559413
-10.551874 -8.0117262 -12.252923
-11.3291 -10.082797 -10.853055
-1.1200314 8.6236429 -14.645565
-3.2746135 7.6891735 -14.465167
-1.7948949 9.3012649 -13.940457
-1.1220447 7.5925691 -15.222586
-7.3466675 5.6874725 -13.743014
-5.3467793 6.7212384 -14.179683
-3.0657114 10.379436 -12.263798
-3.9223138 8.3365451 -13.72906
-2.4513599 9.8925974 -13.139849
-2.8754245 8.8185978 -13.846369
-1.1268126 5.4048451 -16.143985
-3.2958182 6.667585 -15.041704
-1.1254319 6.510263 -15.723331
-2.2249241 7.1327249 -15.144845
-13.673986 0.67835854 -9.5485955
-12.419719 2.0203048 -10.944731
-13.656565 1.7583427 -9.1118487
-13.209456 0 -10.374904
-9.2368693 4.5574362 -13.082786
-10.945182 3.3257583 -12.145685
-13.205358 3.7726949 -8.0185429
-12.358042 3.0892705 -10.459199
-13.497186 2.802911 -8.5962073
-13.029279 2.430732 -9.8093526
-12.020812 -1.3661423 -11.879278
-11.918917 1.3545621 -11.778583
-12.647244 -0.68590804 -11.153592
-12.58773 0.68268037 -11.101106
-5.0779381 11.309016 -8.2162764
-6.1326843 9.9629014 -9.9228917
-4.6590328 11.216548 -9.2465723
-6.0636815 10.758308 -7.8568692
-7.9690809 6.2786875 -12.894244
-7.1224226 8.3020123 -11.524322
-7.0030988 6.8139383 -13.165866
-3.6667557 10.769904 -11.277116
-5.677634 9.7223149 -10.94472
-4.1860601 11.041023 -10.279893
-4.1256673 9.8772675 -12.116643
-5.1791591 10.505788 -10.112493
-7.9107167 9.5889524 -7.1091204
-7.1524984 9.4053177 -9.5430957
-7.0125725 10.181515 -7.4860728
-6.6132427 10.11412 -8.7099959
-4.9964245 7.8321819 -13.571131
-6.1665823 8.8237499 -11.763136
-6.0047983 7.3328049 -13.390563
-4.5722859 8.8912661 -12.887509
-6.604924 7.8660098 -12.498108
-5.1645572 9.3577267 -11.949248
-1.1437839 0.70689732 -17.084745
-3.3856945 2.0924743 -16.578404
-1.1414901 1.8888405 -16.968467
-2.2923575 0 -17.014473
-7.4433878 4.6002666 -14.279073
-5.5066514 3.4032977 -15.628308
-6.4504957 5.1425869 -14.537626
-1.1364767 4.2225204 -16.503219
-3.3675639 3.2562263 -16.319983
-1.1382279 3.0691831 -16.772939
-2.2488366 4.9181918 -16.078289
-2.2721879 2.5840981 -16.700441
-4.5991325 -1.4117067 -16.639818
-4.5377199 1.3928561 -16.417625
-3.4534177 -0.71097568 -16.870899
-3.4339616 0.70697014 -16.77585
-4.3915074 6.161377 -14.909324
-4.4634417 3.9278645 -15.816709
-5.4258084 5.6654011 -14.744973
-3.3417762 5.5689865 -15.542355
-5.4797925 4.5500108 -15.229607
-3.3667495 4.4229067 -15.970678
-11.224431 6.9370797 -5.4655934
-10.903903 6.7389825 -7.8550682
-11.771105 6.2612065 -6.0920853
-10.448548 7.6306497 -5.8890925
-9.0785586 5.6108578 -12.495875
-10.241893 6.3298382 -10.283189
-9.9673839 5.0222252 -12.090928
-8.6733512 6.6938163 -11.876306
-12.780687 4.7054102 -7.3760004
-11.386174 5.9689678 -8.5409837
-12.300669 5.5160518 -6.7359684
-12.531004 4.4458035 -8.6453085
-11.61675 6.1391494 -7.3113043
-8.8137464 8.9428585 -6.7026238
-10.047102 7.4487866 -8.2886823
-9.6412304 8.3027571 -6.3040383
-8.5243701 8.8982727 -7.9193831
-10.281486 7.5595779 -7.0814283
-11.599672 3.771635 -11.077952
-11.038647 5.7263594 -9.8057515
-10.814638 4.4038128 -11.615361
-12.140868 4.1339159 -9.8970154
-10.573715 5.4153762 -10.984948
-11.805457 5.1024096 -9.2451206
-7.7050924 8.5738881 -10.392814
-9.701926 7.2715408 -9.5618548
-8.2070205 7.6879196 -11.162048
-8.1590452 8.7823408 -9.1675587
-9.2551539 7.027165 -10.747161
-9.1305667 8.1261227 -8.7469032
-8.9409145 -4.0829306 -14.466704
-9.0230083 -1.3507402 -14.599534
-9.7807835 -3.4179892 -13.886901
-7.9482605 -3.4683998 -15.196827
-8.5834372 3.9196861 -13.888293
-8.9243829 1.335976 -14.439955
-9.4944526 3.317928 -13.480364
-7.6703371 3.3471218 -14.665446
-11.304957 -2.0669736 -12.601914
-9.8279049 -0.69587678 -13.9863
-10.571882 -2.7417223 -13.258152
-11.333934 -0.69068091 -12.624271
-9.8236236 -2.0481477 -13.969331
-5.7858797 -2.1378808 -16.280078
-7.9964215 -0.71140916 -15.24065
-6.8857558 -2.8128618 -15.807986
-5.7714994 -0.71339656 -16.264282
-7.995231 -2.077481 -15.254595
-11.154083 2.0393882 -12.433732
-9.7813228 0.69257848 -13.920008
-10.359032 2.6865216 -12.991218
-11.290758 0.68804982 -12.57618
-9.6746592 2.0170898 -13.757501
-10.584483 0 -13.314306
-5.6588792 2.0909541 -15.922729
-7.9437367 0.70672201 -15.140236
-6.6848865 2.7308058 -15.34684
-5.729151 0.70816201 -16.144942
-7.8372239 2.0364244 -14.953124
-6.8958601 0 -15.754976
-7.398319 10.594701 0.52559697
-8.5253881 9.6743294 1.5737146
-7.1734805 10.751397 1.3842895
-7.9703427 10.147939 0
-10.750088 7.5899094 3.7448324
-9.6356908 8.683281 2.6384662
-6.6959242 11.0272 3.1504077
-8.3099062 9.8185497 2.4544468
-6.9396979 10.896247 2.2627835
-7.7476377 10.290805 1.9198444
-9.0967772 9.2051597 -1.0461487
-9.0967772 9.2051597 1.0461487
-8.5389985 9.682513 -0.52511944
-8.5389985 9.682513 0.52511944
-14.236929 1.0887807 8.383029
-13.818341 3.1281857 7.3453441
-11.870785 6.3458213 4.9126606
-12.947257 4.8820641 6.1370621
-5.5195322 11.335202 7.0055402
-7.3389575 10.187471 6.2962032
-5.8503963 11.304114 6.012808
-10.563402 7.6745693 4.7431447
-9.0073414 8.9711691 5.5444874
-10.00639 8.2489561 4.156368
-6.4309529 11.143166 4.1025312
-7.6033928 10.136251 5.3137213
-6.1535205 11.237051 5.039088
-7.2781729 10.549399 3.7427614
-6.7500137 10.72493 5.6678454
-8.8894319 9.3080828 3.0265243
-8.4495473 9.5119248 4.9343637
-9.4455537 8.7944099 3.5811586
-8.0993158 9.9355935 3.383029
-9.2376053 8.8917856 4.5539684
-7.8649347 10.043043 4.3406809
-11.367532 7.0255209 -3.2082528
-11.422089 7.0592395 -1.0567649
-10.802606 7.6084617 -2.6588503
-11.367532 7.0255209 3.2082528
-11.422089 7.0592395 1.0567649
-10.802606 7.6084617 2.6588503
-9.6799175 8.6836847 -1.5877059
-10.849753 7.6239135 -0.53982049
-10.236848 8.162732 -2.116931
-9.6867629 8.6966705 -0.5299682
-10.834579 7.6191789 -1.5885384
-9.6799175 8.6836847 1.5877059
-10.849753 7.6239135 0.53982049
-10.236848 8.162732 2.116931
-9.6867629 8.6966705 0.5299682
-10.834579 7.6191789 1.5885384
-10.273712 8.1673 0
-13.675138 -19.583367 0.97151951
-15.337062 -17.403992 2.8310921
-12.915713 -19.357684 2.4923866
-14.991138 -19.086903 0
-15.49726 -10.941566 5.398527
-15.595388 -14.053911 4.2703637
-11.185769 -18.421311 5.2628631
-14.478224 -17.106711 4.2763456
-12.059311 -18.934718 3.9321033
-13.942447 -18.519064 3.454902
-16.216592 -16.409803 -1.8649426
-16.216592 -16.409803 1.8649426
-15.826962 -17.946456 -0.97330444
-15.826962 -17.946456 0.97330444
-14.502305 -1.1090755 8.5392881
-14.878569 -3.3681993 7.9089239
-15.329621 -8.1948276 6.3440813
-15.131763 -5.7057831 7.1725288
-7.7469083 -15.909459 9.8325866
-10.801208 -14.993545 9.2665205
-8.5846562 -16.587241 8.8229732
-14.696252 -10.677186 6.5988641
-13.010524 -12.958276 8.0086547
-14.735819 -12.14775 6.1208374
-10.289935 -17.829777 6.5643116
-11.67667 -15.566427 8.1603797
-9.4351789 -17.229745 7.7264222
-12.077243 -17.505445 6.2106572
-10.254645 -16.293351 8.6106107
-14.690924 -15.382798 5.0017188
-12.887987 -14.508418 7.5263222
-14.746507 -13.729934 5.5909461
-13.551843 -16.624319 5.6605126
-13.872107 -13.35279 6.8386919
-12.607025 -16.098405 6.9578548
-16.188402 -10.004983 -4.5688448
-17.401663 -10.754819 -1.6099915
-16.279645 -11.466035 -4.0069164
-16.188402 -10.004983 4.5688448
-17.401663 -10.754819 1.6099915
-16.279645 -11.466035 4.0069164
-16.350301 -14.667569 -2.6817862
-17.360253 -12.198717 -0.86374505
-16.343937 -13.032448 -3.3798478
-16.82818 -15.108158 -0.92067914
-16.952502 -11.921473 -2.4855326
-16.350301 -14.667569 2.6817862
-17.360253 -12.198717 0.86374505
-16.343937 -13.032448 3.3798478
-16.82818 -15.108158 0.92067914
-16.952502 -11.921473 2.4855326
-17.193023 -13.667949 0
-1.153169 -8.8787843 15.078872
-3.5206705 -8.2669441 15.552091
-1.8927845 -9.8085352 14.700738
-1.1499974 -7.7817168 15.601814
-7.9175697 -6.1294403 14.81097
-5.8352305 -7.3352523 15.475058
-3.4403907 -11.64797 13.762631
-4.3243366 -9.1910104 15.136239
-2.6608616 -10.738053 14.262826
-3.1123354 -9.5451765 14.987194
-1.1456111 -5.4950137 16.413314
-3.4984721 -7.0775627 15.966591
-1.1486655 -6.6446617 16.047925
-2.3274527 -7.4614139 15.842747
-13.78165 -0.68369967 9.6237773
-12.627193 -2.0540543 11.127564
-13.993758 -1.8017577 9.3368284
-9.7082878 -4.7900323 13.750487
-11.26036 -3.4215269 12.495432
-14.290324 -4.0826635 8.6773548
-12.775923 -3.1937326 10.812872
-14.159415 -2.9404337 9.0179738
-13.408967 -2.5015664 10.095209
-6.7547416 -15.043405 10.929402
-7.7816241 -12.6417 12.590932
-5.9249415 -14.264203 11.758964
-8.3607468 -14.833808 10.833236
-8.7221633 -6.8720268 14.112757
-8.365192 -9.7506047 13.535165
-7.7538162 -7.5443781 14.577219
-4.2808082 -12.573483 13.165636
-6.9258946 -11.859822 13.350979
-5.0933776 -13.434136 12.508033
-4.7648347 -11.407499 13.993809
-6.4861604 -13.157006 12.664459
-11.041586 -13.384027 9.9227377
-9.1112086 -11.980962 12.156471
-9.8139814 -14.248865 10.476637
-8.8040475 -13.464679 11.595403
-5.5649589 -8.7233923 15.115366
-7.2778402 -10.413847 13.882929
-6.6928752 -8.1730552 14.924959
-5.1930018 -10.09831 14.637067
-7.5429697 -8.9831577 14.273117
-6.0681914 -10.995033 14.039988
-1.1461767 -0.70837614 17.120486
-3.4430949 -2.1279496 16.85947
-1.1479105 -1.8994644 17.063908
-7.8589072 -4.8570717 15.076187
-5.7154543 -3.532345 16.220907
-6.8740114 -5.4802302 15.492113
-1.1510922 -4.2768232 16.715455
-3.45823 -3.3438948 16.759372
-1.1487206 -3.0974764 16.927561
-2.3155316 -5.0640535 16.555133
-2.3062772 -2.622867 16.950996
-4.6994001 -6.593357 15.954631
-4.6441342 -4.0868753 16.457013
-5.8116007 -6.0682292 15.793388
-3.5065134 -5.8435168 16.308535
-5.7725426 -4.7930887 16.043227
-3.4939029 -4.5899483 16.573849
-14.629515 -9.0415375 7.1236558
-13.062602 -8.0731317 9.4101745
-14.562389 -7.7459278 7.5367028
-13.879678 -10.136428 7.8229723
-9.7746401 -6.0410598 13.453973
-11.476761 -7.0930286 11.523036
-10.588258 -5.3350625 12.844078
-9.6590641 -7.4545582 13.22603
-14.396434 -5.3002726 8.3084814
-13.024642 -6.8279011 9.7700295
-14.485488 -6.4958011 7.9323967
-13.646936 -4.8417189 9.4152053
-13.791131 -7.2882526 8.6798071
-12.137098 -12.314893 9.2299456
-12.255085 -9.0857557 10.11023
-13.049817 -11.238136 8.5327848
-11.219855 -11.711989 10.423565
-13.062636 -9.6044497 8.9969603
-12.072445 -3.9253572 11.529462
-12.222527 -6.3405034 10.857405
-11.355568 -4.624084 12.196342
-12.872557 -4.3830531 10.493475
-11.42573 -5.8517397 11.8701
-12.953089 -5.5984251 10.143858
-9.3454947 -10.399256 12.605428
-11.396129 -8.5413369 11.231598
-9.5179708 -8.9159513 12.94502
-10.287774 -11.07369 11.559413
-10.551874 -8.0117262 12.252923
-11.3291 -10.082797 10.853055
-1.1200314 8.6236429 14.645565
-3.2746135 7.6891735 14.465167
-1.7948949 9.3012649 13.940457
-1.1220447 7.5925691 15.222586
-7.3466675 5.6874725 13.743014
-5.3467793 6.7212384 14.179683
-3.0657114 10.379436 12.263798
-3.9223138 8.3365451 13.72906
-2.4513599 9.8925974 13.139849
-2.8754245 8.8185978 13.846369
-1.1268126 5.4048451 16.143985
-3.2958182 6.667585 15.041704
-1.1254319 6.510263 15.723331
-2.2249241 7.1327249 15.144845
-13.673986 0.67835854 9.5485955
-12.419719 2.0203048 10.944731
-13.656565 1.7583427 9.1118487
-13.209456 0 10.374904
-9.2368693 4.5574362 13.082786
-10.945182 3.3257583 12.145685
-13.205358 3.7726949 8.0185429
-12.358042 3.0892705 10.459199
-13.497186 2.802911 8.5962073
-13.029279 2.430732 9.8093526
-12.020812 -1.3661423 11.879278
-11.918917 1.3545621 11.778583
-12.647244 -0.68590804 11.153592
-12.58773 0.68268037 11.101106
-5.0779381 11.309016 8.2162764
-6.1326843 9.9629014 9.9228917
-4.6590328 11.216548 9.2465723
-6.0636815 10.758308 7.8568692
-7.9690809 6.2786875 12.894244
-7.1224226 8.3020123 11.524322
-7.0030988 6.8139383 13.165866
-3.6667557 10.769904 11.277116
-5.677634 9.7223149 10.94472
-4.1860601 11.041023 10.279893
-4.1256673 9.8772675 12.116643
-5.1791591 10.505788 10.112493
-7.9107167 9.5889524 7.1091204
-7.1524984 9.4053177 9.5430957
-7.0125725 10.181515 7.4860728
-6.6132427 10.11412 8.7099959
-4.9964245 7.8321819 13.571131
-6.1665823 8.8237499 11.763136
-6.0047983 7.3328049 13.390563
-4.5722859 8.8912661 12.887509
-6.604924 7.8660098 12.498108
-5.1645572 9.3577267 11.949248
-1.1437839 0.70689732 17.084745
-3.3856945 2.0924743 16.578404
-1.1414901 1.8888405 16.968467
-2.2923575 0 17.014473
-7.4433878 4.6002666 14.279073
-5.5066514 3.4032977 15.628308
-6.4504957 5.1425869 14.537626
-1.1364767 4.2225204 16.503219
-3.3675639 3.2562263 16.319983
-1.1382279 3.0691831 16.772939
-2.2488366 4.9181918 16.078289
-2.2721879 2.5840981 16.700441
-4.5991325 -1.4117067 16.639818
-4.5377199 1.3928561 16.417625
-3.4534177 -0.71097568 16.870899
-3.4339616 0.70697014 16.77585
-4.3915074 6.161377 14.909324
-4.4634417 3.9278645 15.816709
-5.4258084 5.6654011 14.744973
-3.3417762 5.5689865 15.542355
-5.4797925 4.5500108 15.229607
-3.3667495 4.4229067 15.970678
-11.224431 6.9370797 5.4655934
-10.903903 6.7389825 7.8550682
-11.771105 6.2612065 6.0920853
-10.448548 7.6306497 5.8890925
-9.0785586 5.6108578 12.495875
-10.241893 6.3298382 10.283189
-9.9673839 5.0222252 12.090928
-8.6733512 6.6938163 11.876306
-12.780687 4.7054102 7.3760004
-11.386174 5.9689678 8.5409837
-12.300669 5.5160518 6.7359684
-12.531004 4.4458035 8.6453085
-11.61675 6.1391494 7.3113043
-8.8137464 8.9428585 6.7026238
-10.047102 7.4487866 8.2886823
-9.6412304 8.3027571 6.3040383
-8.5243701 8.8982727 7.9193831
-10.281486 7.5595779 7.0814283
-11.599672 3.771635 11.077952
-11.038647 5.7263594 9.8057515
-10.814638 4.4038128 11.615361
-12.140868 4.1339159 9.8970154
-10.573715 5.4153762 10.984948
-11.805457 5.1024096 9.2451206
-7.7050924 8.5738881 10.392814
-9.701926 7.2715408 9.5618548
-8.2070205 7.6879196 11.162048
-8.1590452 8.7823408 9.1675587
-9.2551539 7.027165 10.747161
-9.1305667 8.1261227 8.7469032
-8.9409145 -4.0829306 14.466704
-9.0230083 -1.3507402 14.599534
-9.7807835 -3.4179892 13.886901
-7.9482605 -3.4683998 15.196827
-8.5834372 3.9196861 13.888293
-8.9243829 1.335976 14.439955
-9.4944526 3.317928 13.480364
-7.6703371 3.3471218 14.665446
-11.304957 -2.0669736 12.601914
-9.8279049 -0.69587678 13.9863
-10.571882 -2.7417223 13.258152
-11.333934 -0.69068091 12.624271
-9.8236236 -2.0481477 13.969331
-5.7858797 -2.1378808 16.280078
-7.9964215 -0.71140916 15.24065
-6.8857558 -2.8128618 15.807986
-5.7714994 -0.71339656 16.264282
-7.995231 -2.077481 15.254595
-11.154083 2.0393882 12.433732
-9.7813228 0.69257848 13.920008
-10.359032 2.6865216 12.991218
-11.290758 0.68804982 12.57618
-9.6746592 2.0170898 13.757501
-10.584483 0 13.314306
-5.6588792 2.0909541 15.922729
-7.9437367 0.70672201 15.140236
-6.6848865 2.7308058 15.34684
-5.729151 0.70816201 16.144942
-7.8372239 2.0364244 14.953124
-6.8958601 0 15.754976
-14.792888 0 -7.7838349
-15.712752 0 -5.6641955
-14.721252 1.0850918 -7.3425186
-15.087457 -1.1120845 -7.5251706
-16.678958 0 -1.1559761
-16.351147 0 -3.4439546
-14.153772 3.1012616 -6.2739886
-15.47994 1.0804638 -5.1825295
-14.50322 2.1306631 -6.8305404
-15.137462 1.083497 -6.2676832
-15.517593 -3.4000911 -6.8785337
-16.090745 -1.1230966 -5.3870209
-15.326506 -2.2516118 -7.2182811
-15.622558 -1.1182189 -6.4685379
-14.792888 0 7.7838349
-15.712752 0 5.6641955
-14.721252 1.0850918 7.3425186
-15.087457 -1.1120845 7.5251706
-16.678958 0 1.1559761
-16.351147 0 3.4439546
-14.153772 3.1012616 6.2739886
-15.47994 1.0804638 5.1825295
-14.50322 2.1306631 6.8305404
-15.137462 1.083497 6.2676832
-15.517593 -3.4000911 6.8785337
-16.090745 -1.1230966 5.3870209
-15.326506 -2.2516118 7.2182811
-15.622558 -1.1182189 6.4685379
-12.043876 6.2782257 -3.8801569
-13.478625 4.7492085 -2.9351723
-12.609982 5.5951799 -4.4606958
-12.084453 6.320423 -2.7580568
-16.168411 1.0824375 -0.66898315
-14.873965 3.0376086 -1.8773453
-16.098319 1.0829542 -1.7919802
-13.684636 4.0307784 -5.6552666
