-5.8498587 21.838149 -9.4652703
-5.6352231 24.740648 -3.3996245
-7.2751797 22.126621 -6.3774036
16.808949 30.010948 -4.5523347
11.915222 26.811623 -12.187661
11.729894 30.26556 -4.310942
2.0263031 15.384565 -19.587819
7.260544 23.233007 -18.583445
0 17.615634 -17.825514
2.5359707 30.455662 -4.1032868
7.412704 27.672417 -11.994007
6.9215747 30.388192 -4.1756563
0 28.643572 -7.9168885
9.5662162 29.094545 -8.3857203
-3.8862838 20.872445 -12.89988
4.7947971 25.751886 -15.915541
-2.029876 19.517894 -15.516153
-2.212021 24.531688 -10.737375
2.2248048 21.392196 -17.006169
2.5200058 27.947293 -12.232365
0 -9.1516383 -20.761213
0 -3.0143349 -21.641652
0 9.1516383 -20.761213
0 3.0143349 -21.641652
23.621684 30.075421 -3.1112152
26.917831 21.530834 -8.4120876
20.219389 28.055731 -7.5399205
26.497877 4.0194399 -14.841299
26.897844 12.226854 -11.953539
14.388016 24.020739 -14.845633
23.575327 20.054371 -12.394283
17.091929 25.944855 -11.463233
22.47337 24.379022 -10.275098
13.483682 -17.167591 -1.7759376
16.593832 -13.272951 -5.1857362
12.577731 -17.452429 -4.6903047
22.001979 -3.337461 -12.323174
19.408833 -8.8226019 -8.6253845
10.108872 -16.876724 -10.430389
15.420053 -13.11708 -8.1068015
11.429834 -17.350025 -7.6657736
14.089472 -15.284204 -6.4418782
2.9465275 -10.879699 -19.424777
8.3423561 -8.155874 -18.352341
4.7886482 -12.841453 -17.818361
2.9004918 -7.8921176 -20.363301
19.642603 -2.0319704 -15.427594
13.671764 -5.3415525 -17.092429
18.897382 -5.0786328 -13.619089
8.3215231 -15.828478 -13.464507
10.187176 -9.873156 -16.483197
6.645448 -14.534714 -15.7672
11.2139 -14.123502 -12.325269
7.5825312 -11.305718 -17.161621
2.8956832 -1.7896306 -21.492514
8.4442312 -5.2188219 -19.482421
2.8932741 -4.795896 -21.055701
5.7448241 -6.5535491 -19.931865
16.838946 -10.407041 -10.086244
13.256568 -8.1930099 -15.584031
17.915221 -7.9154946 -11.802173
14.084598 -12.291319 -11.183011
15.944917 -6.7203508 -14.698539
12.278425 -11.17128 -14.069823
3.1691821 11.701824 -20.892612
9.8849082 9.6639444 -21.7458
5.5669394 14.928554 -20.71435
3.0519835 8.3043201 -21.426869
21.544993 2.2287672 -16.921759
16.445182 6.4251256 -20.559753
24.377528 6.5514109 -17.568557
17.896025 0 -17.685315
11.4716 21.820281 -18.561439
13.438771 13.024521 -21.744388
8.6406285 18.89851 -20.501028
16.037162 20.198226 -17.626547
9.4971106 14.160397 -21.494909
2.9279461 1.8095702 -21.731977
9.3615588 5.7857615 -21.598867
2.9820969 4.9431287 -21.702106
5.8989423 0 -21.342574
6.2652259 7.1472102 -21.737416
24.146737 14.923504 -14.463487
18.02884 11.142436 -21.194172
24.331718 10.7505 -16.029228
20.483937 17.875881 -16.264014
21.562552 9.0880322 -19.877057
17.410151 15.840279 -19.950258
11.683019 -3.5196858 -18.903521
12.854064 3.872481 -20.798313
14.589573 -1.9086575 -18.352341
8.9173207 -1.8370691 -20.373408
15.532851 2.0320604 -19.538898
9.2432604 1.9042164 -21.118083
23.621684 30.075421 3.1112152
26.917831 21.530834 8.4120876
20.219389 28.055731 7.5399205
30.391898 30.753999 0
26.497877 4.0194399 14.841299
26.897844 12.226854 11.953539
14.388016 24.020739 14.845633
23.575327 20.054371 12.394283
17.091929 25.944855 11.463233
22.47337 24.379022 10.275098
29.543227 18.258718 -5.5007148
29.543227 18.258718 5.5007148
30.043492 23.883695 -3.1245462
30.043492 23.883695 3.1245462
13.483682 -17.167591 1.7759376
16.593832 -13.272951 5.1857362
12.577731 -17.452429 4.6903047
15.285938 -15.468061 0
22.001979 -3.337461 12.323174
19.408833 -8.8226019 8.6253845
10.108872 -16.876724 10.430389
15.420053 -13.11708 8.1068015
11.429834 -17.350025 7.6657736
14.089472 -15.284204 6.4418782
18.760221 -11.594454 -3.4930045
18.760221 -11.594454 3.4930045
17.076197 -13.575076 -1.7759376
17.076197 -13.575076 1.7759376
2.9465275 -10.879699 19.424777
8.3423561 -8.155874 18.352341
4.7886482 -12.841453 17.818361
2.9004918 -7.8921176 20.363301
19.642603 -2.0319704 15.427594
13.671764 -5.3415525 17.092429
18.897382 -5.0786328 13.619089
8.3215231 -15.828478 13.464507
10.187176 -9.873156 16.483197
6.645448 -14.534714 15.7672
11.2139 -14.123502 12.325269
7.5825312 -11.305718 17.161621
2.8956832 -1.7896306 21.492514
8.4442312 -5.2188219 19.482421
2.8932741 -4.795896 21.055701
5.7448241 -6.5535491 19.931865
16.838946 -10.407041 10.086244
13.256568 -8.1930099 15.584031
17.915221 -7.9154946 11.802173
14.084598 -12.291319 11.183011
15.944917 -6.7203508 14.698539
12.278425 -11.17128 14.069823
3.1691821 11.701824 20.892612
9.8849082 9.6639444 21.7458
5.5669394 14.928554 20.71435
3.0519835 8.3043201 21.426869
21.544993 2.2287672 16.921759
16.445182 6.4251256 20.559753
24.377528 6.5514109 17.568557
17.896025 0 17.685315
11.4716 21.820281 18.561439
13.438771 13.024521 21.744388
8.6406285 18.89851 20.501028
16.037162 20.198226 17.626547
9.4971106 14.160397 21.494909
2.9279461 1.8095702 21.731977
9.3615588 5.7857615 21.598867
2.9820969 4.9431287 21.702106
5.8989423 0 21.342574
6.2652259 7.1472102 21.737416
24.146737 14.923504 14.463487
18.02884 11.142436 21.194172
24.331718 10.7505 16.029228
20.483937 17.875881 16.264014
21.562552 9.0880322 19.877057
17.410151 15.840279 19.950258
11.683019 -3.5196858 18.903521
12.854064 3.872481 20.798313
14.589573 -1.9086575 18.352341
8.9173207 -1.8370691 20.373408
15.532851 2.0320604 19.538898
9.2432604 1.9042164 21.118083
26.098184 0 -11.5042
30.17419 0 -4.2027804
28.473371 4.0556676 -11.035303
24.270907 -3.4570803 -9.4065718
26.098184 0 11.5042
30.17419 0 4.2027804
28.473371 4.0556676 11.035303
24.270907 -3.4570803 9.4065718
29.08204 12.604977 -7.7903043
30.631834 4.1270224 -2.5506401
28.763234 8.2902288 -9.457282
30.536 13.365427 -2.7534294
29.884621 4.1064603 -6.8068754
20.742693 -8.990469 -5.5564154
26.957713 -3.6320086 -2.2447048
22.455147 -6.4720925 -7.3831984
21.307546 -9.3261874 -1.9213003
26.015459 -3.5747968 -5.9255891
29.08204 12.604977 7.7903043
30.631834 4.1270224 2.5506401
28.763234 8.2902288 9.457282
30.536 13.365427 2.7534294
29.884621 4.1064603 6.8068754
30.753999 8.5001962 0
20.742693 -8.990469 5.5564154
26.957713 -3.6320086 2.2447048
22.455147 -6.4720925 7.3831984
21.307546 -9.3261874 1.9213003
26.015459 -3.5747968 5.9255891
24.094455 -6.6595436 0
-13.483682 17.167591 -1.7759376
-16.593832 13.272951 -5.1857362
-12.577731 17.452429 -4.6903047
-22.001979 3.337461 -12.323174
-19.408833 8.8226019 -8.6253845
-10.108872 16.876724 -10.430389
-15.420053 13.11708 -8.1068015
-11.429834 17.350025 -7.6657736
-14.089472 15.284204 -6.4418782
-23.621684 -30.075421 -3.1112152
-26.917831 -21.530834 -8.4120876
-20.219389 -28.055731 -7.5399205
-26.497877 -4.0194399 -14.841299
-26.897844 -12.226854 -11.953539
-14.388016 -24.020739 -14.845633
-23.575327 -20.054371 -12.394283
-17.091929 -25.944855 -11.463233
-22.47337 -24.379022 -10.275098
-3.1691821 -11.701824 -20.892612
-9.8849082 -9.6639444 -21.7458
-5.5669394 -14.928554 -20.71435
-3.0519835 -8.3043201 -21.426869
-21.544993 -2.2287672 -16.921759
-16.445182 -6.4251256 -20.559753
-24.377528 -6.5514109 -17.568557
-11.4716 -21.820281 -18.561439
-13.438771 -13.024521 -21.744388
-8.6406285 -18.89851 -20.501028
-16.037162 -20.198226 -17.626547
-9.4971106 -14.160397 -21.494909
-2.9279461 -1.8095702 -21.731977
-9.3615588 -5.7857615 -21.598867
-2.9820969 -4.9431287 -21.702106
-6.2652259 -7.1472102 -21.737416
-24.146737 -14.923504 -14.463487
-18.02884 -11.142436 -21.194172
-24.331718 -10.7505 -16.029228
-20.483937 -17.875881 -16.264014
-21.562552 -9.0880322 -19.877057
-17.410151 -15.840279 -19.950258
-2.9465275 10.879699 -19.424777
-8.3423561 8.155874 -18.352341
-4.7886482 12.841453 -17.818361
-2.9004918 7.8921176 -20.363301
-19.642603 2.0319704 -15.427594
-13.671764 5.3415525 -17.092429
-18.897382 5.0786328 -13.619089
-17.896025 0 -17.685315
-8.3215231 15.828478 -13.464507
-10.187176 9.873156 -16.483197
-6.645448 14.534714 -15.7672
-11.2139 14.123502 -12.325269
-7.5825312 11.305718 -17.161621
-2.8956832 1.7896306 -21.492514
-8.4442312 5.2188219 -19.482421
-2.8932741 4.795896 -21.055701
-5.8989423 0 -21.342574
-5.7448241 6.5535491 -19.931865
-16.838946 10.407041 -10.086244
-13.256568 8.1930099 -15.584031
-17.915221 7.9154946 -11.802173
-14.084598 12.291319 -11.183011
-15.944917 6.7203508 -14.698539
-12.278425 11.17128 -14.069823
-12.854064 -3.872481 -20.798313
-11.683019 3.5196858 -18.903521
-15.532851 -2.0320604 -19.538898
-9.2432604 -1.9042164 -21.118083
-14.589573 1.9086575 -18.352341
-8.9173207 1.8370691 -20.373408
-13.483682 17.167591 1.7759376
-16.593832 13.272951 5.1857362
-12.577731 17.452429 4.6903047
-15.285938 15.468061 0
-22.001979 3.337461 12.323174
-19.408833 8.8226019 8.6253845
-10.108872 16.876724 10.430389
-15.420053 13.11708 8.1068015
-11.429834 17.350025 7.6657736
-14.089472 15.284204 6.4418782
-18.760221 11.594454 -3.4930045
-18.760221 11.594454 3.4930045
-17.076197 13.575076 -1.7759376
-17.076197 13.575076 1.7759376
-23.621684 -30.075421 3.1112152
-26.917831 -21.530834 8.4120876
-20.219389 -28.055731 7.5399205
-30.391898 -30.753999 0
-26.497877 -4.0194399 14.841299
-26.897844 -12.226854 11.953539
-14.388016 -24.020739 14.845633
-23.575327 -20.054371 12.394283
-17.091929 -25.944855 11.463233
-22.47337 -24.379022 10.275098
-29.543227 -18.258718 -5.5007148
-29.543227 -18.258718 5.5007148
-30.043492 -23.883695 -3.1245462
-30.043492 -23.883695 3.1245462
-3.1691821 -11.701824 20.892612
-9.8849082 -9.6639444 21.7458
-5.5669394 -14.928554 20.71435
-3.0519835 -8.3043201 21.426869
-21.544993 -2.2287672 16.921759
-16.445182 -6.4251256 20.559753
-24.377528 -6.5514109 17.568557
-11.4716 -21.820281 18.561439
-13.438771 -13.024521 21.744388
-8.6406285 -18.89851 20.501028
-16.037162 -20.198226 17.626547
-9.4971106 -14.160397 21.494909
-2.9279461 -1.8095702 21.731977
-9.3615588 -5.7857615 21.598867
-2.9820969 -4.9431287 21.702106
-6.2652259 -7.1472102 21.737416
-24.146737 -14.923504 14.463487
-18.02884 -11.142436 21.194172
-24.331718 -10.7505 16.029228
-20.483937 -17.875881 16.264014
-21.562552 -9.0880322 19.877057
-17.410151 -15.840279 19.950258
-2.9465275 10.879699 19.424777
-8.3423561 8.155874 18.352341
-4.7886482 12.841453 17.818361
-2.9004918 7.8921176 20.363301
-19.642603 2.0319704 15.427594
-13.671764 5.3415525 17.092429
-18.897382 5.0786328 13.619089
-17.896025 0 17.685315
-8.3215231 15.828478 13.464507
-10.187176 9.873156 16.483197
-6.645448 14.534714 15.7672
-11.2139 14.123502 12.325269
-7.5825312 11.305718 17.161621
-2.8956832 1.7896306 21.492514
-8.4442312 5.2188219 19.482421
-2.8932741 4.795896 21.055701
-5.8989423 0 21.342574
-5.7448241 6.5535491 19.931865
-16.838946 10.407041 10.086244
-13.256568 8.1930099 15.584031
-17.915221 7.9154946 11.802173
-14.084598 12.291319 11.183011
-15.944917 6.7203508 14.698539
-12.278425 11.17128 14.069823
-12.854064 -3.872481 20.798313
-11.683019 3.5196858 18.903521
-15.532851 -2.0320604 19.538898
-9.2432604 -1.9042164 21.118083
-14.589573 1.9086575 18.352341
-8.9173207 1.8370691 20.373408
-26.098184 0 -11.5042
-30.17419 0 -4.2027804
-24.270907 3.4570803 -9.4065718
-28.473371 -4.0556676 -11.035303
-26.098184 0 11.5042
-30.17419 0 4.2027804
-24.270907 3.4570803 9.4065718
-28.473371 -4.0556676 11.035303
-20.742693 8.990469 -5.5564154
-26.957713 3.6320086 -2.2447048
-22.455147 6.4720925 -7.3831984
-21.307546 9.3261874 -1.9213003
-26.015459 3.5747968 -5.9255891
-29.08204 -12.604977 -7.7903043
-30.631834 -4.1270224 -2.5506401
-28.763234 -8.2902288 -9.457282
-30.536 -13.365427 -2.7534294
-29.884621 -4.1064603 -6.8068754
-20.742693 8.990469 5.5564154
-26.957713 3.6320086 2.2447048
-22.455147 6.4720925 7.3831984
-21.307546 9.3261874 1.9213003
-26.015459 3.5747968 5.9255891
-24.094455 6.6595436 0
-29.08204 -12.604977 7.7903043
-30.631834 -4.1270224 2.5506401
-28.763234 -8.2902288 9.457282
-30.536 -13.365427 2.7534294
-29.884621 -4.1064603 6.8068754
-30.753999 -8.5001962 0
-10.603135 20.150864 0
-8.148809 22.60519 0
-1.9933287 28.76067 0
-5.3505851 25.403414 0
16.182374 30.753999 0
11.086324 30.753999 0
2.1314812 30.753999 0
6.4775502 30.753999 0
-16.182374 -30.753999 0
-11.086324 -30.753999 0
-2.1314812 -30.753999 0
-6.4775502 -30.753999 0
10.603135 -20.150864 0
8.148809 -22.60519 0
1.9933287 -28.76067 0
5.3505851 -25.403414 0
-17.982902 -30.540429 2.335604
-15.577064 -29.304166 6.633855
-15.257356 -30.589965 2.254762
-10.738306 -25.947675 13.87097
-13.115019 -27.668536 10.433065
-10.258771 -30.642404 2.1387685
-13.105411 -29.565084 6.4780653
-12.678707 -30.621114 2.1917734
-14.20476 -30.160829 4.4309171
-0.9805865 -13.802765 19.766135
-3.1537111 -17.084808 19.387277
-8.4334362 -24.20941 17.092625
-5.7411512 -20.966711 18.894322
-1.2695149 -30.682446 2.0541183
-3.7934852 -30.055294 6.137988
-3.4147037 -30.676116 2.0636209
-8.5280174 -26.470679 13.798622
-6.2437486 -28.671962 10.102597
-9.6508353 -27.282035 12.105322
-7.8438434 -30.656729 2.1111433
-5.9820215 -29.981482 6.1865601
-5.6117352 -30.667865 2.081151
-9.2791371 -30.334858 4.2428729
-4.7077398 -30.425056 4.1394981
-11.91778 -28.838691 8.4943705
-7.2758143 -29.29822 8.2678957
-10.78911 -28.080119 10.332833
-10.655081 -29.737017 6.3937839
-8.4871768 -28.407925 10.221507
-8.2727356 -29.872029 6.297268
11.371216 -19.311778 1.4768838
10.448059 -19.655287 4.4495491
10.209843 -20.470042 1.5088305
7.9383524 -19.181963 10.254192
9.2998638 -19.619766 7.398089
7.6926658 -22.977584 1.6037819
9.235039 -20.833739 4.5649226
8.9821548 -21.693347 1.5527489
9.7498959 -20.701859 3.0413031
0.95367164 -13.423911 19.2236
2.8460699 -15.418203 17.496068
0 -14.931695 19.011219
6.3852978 -18.329929 12.941522
4.6735064 -17.067667 15.380667
-2.101963 -18.2776 18.495367
1.9495404 -16.952211 17.154186
-1.0178811 -16.551825 18.768391
0.98344742 -15.991897 18.133479
1.2168985 -29.410779 1.9689832
3.338614 -26.451408 5.401991
3.0692454 -27.572679 1.8548487
0 -30.210503 4.0702565
6.5450919 -20.315745 10.590181
5.0898992 -23.373362 8.2356299
7.2910525 -20.611144 9.1453783
6.2468547 -24.415089 1.6813193
4.9705203 -24.911908 5.1404735
4.7414572 -25.911838 1.7584024
7.1225383 -23.284621 3.256771
4.0649423 -26.270802 3.5742887
-2.508813 -29.571434 8.1733433
2.2626993 -26.670486 7.371541
-1.2688921 -30.109821 6.1633817
1.1982594 -28.433762 5.8202979
8.626019 -20.873275 6.1481754
5.8274566 -23.465979 6.6220496
7.9905058 -20.796373 7.6525832
7.9166939 -22.094516 4.7505628
6.5869807 -22.047668 7.9330112
6.4951734 -23.453428 4.9441744
-7.1934648 -25.487997 15.752448
-2.2583122 -24.409065 15.085632
-6.0595829 -24.619396 17.339864
-6.1109101 -26.775012 14.003895
5.5933469 -19.818434 12.248466
2.0336684 -21.980993 13.585001
4.7448872 -19.277937 13.577783
4.8955631 -21.449957 11.218779
-3.3200664 -20.241764 18.158532
-1.1128693 -22.367356 15.717112
-4.6128654 -22.306443 17.786874
-1.062955 -19.4287 17.442876
-3.4408167 -23.467989 16.503345
-3.78335 -28.810414 10.239115
-1.188314 -25.457471 13.356954
-4.9631368 -27.892305 12.14953
-1.2492228 -28.480249 10.106425
-3.6796514 -27.019065 14.161219
2.9297283 -17.861953 16.023646
1.0585453 -21.275508 14.949892
3.8505189 -18.619963 14.847321
1.0193706 -18.632064 16.727665
2.9707476 -20.261896 14.248732
0 -20.439371 16.248701
3.2623385 -24.842884 8.8290694
1.1188926 -23.970243 12.57664
4.1167408 -23.135649 10.077591
1.16467 -26.552581 9.422378
3.0873853 -22.670153 11.881869
0 -26.149693 11.445566
-11.371216 19.311778 1.4768838
-10.448059 19.655287 4.4495491
-10.209843 20.470042 1.5088305
-7.9383524 19.181963 10.254192
-9.2998638 19.619766 7.398089
-7.6926658 22.977584 1.6037819
-9.235039 20.833739 4.5649226
-8.9821548 21.693347 1.5527489
-9.7498959 20.701859 3.0413031
-0.95367164 13.423911 19.2236
-2.8460699 15.418203 17.496068
-6.3852978 18.329929 12.941522
-4.6735064 17.067667 15.380667
-1.2168985 29.410779 1.9689832
-3.338614 26.451408 5.401991
-3.0692454 27.572679 1.8548487
-6.5450919 20.315745 10.590181
-5.0898992 23.373362 8.2356299
-7.2910525 20.611144 9.1453783
-6.2468547 24.415089 1.6813193
-4.9705203 24.911908 5.1404735
-4.7414572 25.911838 1.7584024
-7.1225383 23.284621 3.256771
-4.0649423 26.270802 3.5742887
-8.626019 20.873275 6.1481754
-5.8274566 23.465979 6.6220496
-7.9905058 20.796373 7.6525832
-7.9166939 22.094516 4.7505628
-6.5869807 22.047668 7.9330112
-6.4951734 23.453428 4.9441744
17.982902 30.540429 2.335604
15.577064 29.304166 6.633855
15.257356 30.589965 2.254762
10.738306 25.947675 13.87097
13.115019 27.668536 10.433065
10.258771 30.642404 2.1387685
13.105411 29.565084 6.4780653
12.678707 30.621114 2.1917734
14.20476 30.160829 4.4309171
0.9805865 13.802765 19.766135
3.1537111 17.084808 19.387277
0 14.931695 19.011219
8.4334362 24.20941 17.092625
5.7411512 20.966711 18.894322
-1.9495404 16.952211 17.154186
2.101963 18.2776 18.495367
-0.98344742 15.991897 18.133479
1.0178811 16.551825 18.768391
1.2695149 30.682446 2.0541183
3.7934852 30.055294 6.137988
3.4147037 30.676116 2.0636209
0 30.210503 4.0702565
8.5280174 26.470679 13.798622
6.2437486 28.671962 10.102597
9.6508353 27.282035 12.105322
7.8438434 30.656729 2.1111433
5.9820215 29.981482 6.1865601
5.6117352 30.667865 2.081151
9.2791371 30.334858 4.2428729
4.7077398 30.425056 4.1394981
-2.2626993 26.670486 7.371541
2.508813 29.571434 8.1733433
-1.1982594 28.433762 5.8202979
1.2688921 30.109821 6.1633817
11.91778 28.838691 8.4943705
7.2758143 29.29822 8.2678957
10.78911 28.080119 10.332833
10.655081 29.737017 6.3937839
8.4871768 28.407925 10.221507
8.2727356 29.872029 6.297268
-5.5933469 19.818434 12.248466
-2.0336684 21.980993 13.585001
-4.7448872 19.277937 13.577783
-4.8955631 21.449957 11.218779
7.1934648 25.487997 15.752448
2.2583122 24.409065 15.085632
6.0595829 24.619396 17.339864
6.1109101 26.775012 14.003895
-2.9297283 17.861953 16.023646
-1.0585453 21.275508 14.949892
-3.8505189 18.619963 14.847321
-1.0193706 18.632064 16.727665
-2.9707476 20.261896 14.248732
-3.2623385 24.842884 8.8290694
-1.1188926 23.970243 12.57664
-4.1167408 23.135649 10.077591
-1.16467 26.552581 9.422378
-3.0873853 22.670153 11.881869
3.3200664 20.241764 18.158532
1.1128693 22.367356 15.717112
4.6128654 22.306443 17.786874
1.062955 19.4287 17.442876
3.4408167 23.467989 16.503345
0 20.439371 16.248701
3.78335 28.810414 10.239115
1.188314 25.457471 13.356954
4.9631368 27.892305 12.14953
1.2492228 28.480249 10.106425
3.6796514 27.019065 14.161219
0 26.149693 11.445566
0 -10.724395 20.381313
0 -7.5963156 21.072546
0 -1.5053781 21.720293
0 -4.5303506 21.509119
0 10.724395 20.381313
0 7.5963156 21.072546
0 1.5053781 21.720293
0 4.5303506 21.509119
-17.982902 -30.540429 -2.335604
-15.577064 -29.304166 -6.633855
-15.257356 -30.589965 -2.254762
-10.738306 -25.947675 -13.87097
-13.115019 -27.668536 -10.433065
-10.258771 -30.642404 -2.1387685
-13.105411 -29.565084 -6.4780653
-12.678707 -30.621114 -2.1917734
-14.20476 -30.160829 -4.4309171
-0.9805865 -13.802765 -19.766135
-3.1537111 -17.084808 -19.387277
-8.4334362 -24.20941 -17.092625
-5.7411512 -20.966711 -18.894322
-1.2695149 -30.682446 -2.0541183
-3.7934852 -30.055294 -6.137988
-3.4147037 -30.676116 -2.0636209
-8.5280174 -26.470679 -13.798622
-6.2437486 -28.671962 -10.102597
-9.6508353 -27.282035 -12.105322
-7.8438434 -30.656729 -2.1111433
-5.9820215 -29.981482 -6.1865601
-5.6117352 -30.667865 -2.081151
-9.2791371 -30.334858 -4.2428729
-4.7077398 -30.425056 -4.1394981
-11.91778 -28.838691 -8.4943705
-7.2758143 -29.29822 -8.2678957
-10.78911 -28.080119 -10.332833
-10.655081 -29.737017 -6.3937839
-8.4871768 -28.407925 -10.221507
-8.2727356 -29.872029 -6.297268
11.371216 -19.311778 -1.4768838
10.448059 -19.655287 -4.4495491
10.209843 -20.470042 -1.5088305
7.9383524 -19.181963 -10.254192
9.2998638 -19.619766 -7.398089
7.6926658 -22.977584 -1.6037819
9.235039 -20.833739 -4.5649226
8.9821548 -21.693347 -1.5527489
9.7498959 -20.701859 -3.0413031
0.95367164 -13.423911 -19.2236
2.8460699 -15.418203 -17.496068
0 -14.931695 -19.011219
6.3852978 -18.329929 -12.941522
4.6735064 -17.067667 -15.380667
-2.101963 -18.2776 -18.495367
1.9495404 -16.952211 -17.154186
-1.0178811 -16.551825 -18.768391
0.98344742 -15.991897 -18.133479
1.2168985 -29.410779 -1.9689832
3.338614 -26.451408 -5.401991
3.0692454 -27.572679 -1.8548487
0 -30.210503 -4.0702565
6.5450919 -20.315745 -10.590181
5.0898992 -23.373362 -8.2356299
7.2910525 -20.611144 -9.1453783
6.2468547 -24.415089 -1.6813193
4.9705203 -24.911908 -5.1404735
4.7414572 -25.911838 -1.7584024
7.1225383 -23.284621 -3.256771
4.0649423 -26.270802 -3.5742887
-2.508813 -29.571434 -8.1733433
2.2626993 -26.670486 -7.371541
-1.2688921 -30.109821 -6.1633817
1.1982594 -28.433762 -5.8202979
8.626019 -20.873275 -6.1481754
5.8274566 -23.465979 -6.6220496
7.9905058 -20.796373 -7.6525832
7.9166939 -22.094516 -4.7505628
6.5869807 -22.047668 -7.9330112
6.4951734 -23.453428 -4.9441744
-7.1934648 -25.487997 -15.752448
-2.2583122 -24.409065 -15.085632
-6.0595829 -24.619396 -17.339864
-6.1109101 -26.775012 -14.003895
5.5933469 -19.818434 -12.248466
2.0336684 -21.980993 -13.585001
4.7448872 -19.277937 -13.577783
4.8955631 -21.449957 -11.218779
-3.3200664 -20.241764 -18.158532
-1.1128693 -22.367356 -15.717112
-4.6128654 -22.306443 -17.786874
-1.062955 -19.4287 -17.442876
-3.4408167 -23.467989 -16.503345
-3.78335 -28.810414 -10.239115
-1.188314 -25.457471 -13.356954
-4.9631368 -27.892305 -12.14953
-1.2492228 -28.480249 -10.106425
-3.6796514 -27.019065 -14.161219
2.9297283 -17.861953 -16.023646
1.0585453 -21.275508 -14.949892
3.8505189 -18.619963 -14.847321
1.0193706 -18.632064 -16.727665
2.9707476 -20.261896 -14.248732
0 -20.439371 -16.248701
3.2623385 -24.842884 -8.8290694
1.1188926 -23.970243 -12.57664
4.1167408 -23.135649 -10.077591
1.16467 -26.552581 -9.422378
3.0873853 -22.670153 -11.881869
0 -26.149693 -11.445566
-11.371216 19.311778 -1.4768838
-10.448059 19.655287 -4.4495491
-10.209843 20.470042 -1.5088305
-7.9383524 19.181963 -10.254192
-9.2998638 19.619766 -7.398089
-7.6926658 22.977584 -1.6037819
-9.235039 20.833739 -4.5649226
-8.9821548 21.693347 -1.5527489
-9.7498959 20.701859 -3.0413031
-0.95367164 13.423911 -19.2236
-2.8460699 15.418203 -17.496068
-6.3852978 18.329929 -12.941522
-4.6735064 17.067667 -15.380667
-1.2168985 29.410779 -1.9689832
-3.338614 26.451408 -5.401991
-3.0692454 27.572679 -1.8548487
-6.5450919 20.315745 -10.590181
-5.0898992 23.373362 -8.2356299
-7.2910525 20.611144 -9.1453783
-6.2468547 24.415089 -1.6813193
-4.9705203 24.911908 -5.1404735
-4.7414572 25.911838 -1.7584024
-7.1225383 23.284621 -3.256771
-4.0649423 26.270802 -3.5742887
-8.626019 20.873275 -6.1481754
-5.8274566 23.465979 -6.6220496
-7.9905058 20.796373 -7.6525832
-7.9166939 22.094516 -4.7505628
-6.5869807 22.047668 -7.9330112
-6.4951734 23.453428 -4.9441744
17.982902 30.540429 -2.335604
15.577064 29.304166 -6.633855
15.257356 30.589965 -2.254762
10.738306 25.947675 -13.87097
13.115019 27.668536 -10.433065
10.258771 30.642404 -2.1387685
13.105411 29.565084 -6.4780653
12.678707 30.621114 -2.1917734
14.20476 30.160829 -4.4309171
0.9805865 13.802765 -19.766135
3.1537111 17.084808 -19.387277
0 14.931695 -19.011219
8.4334362 24.20941 -17.092625
5.7411512 20.966711 -18.894322
-1.9495404 16.952211 -17.154186
2.101963 18.2776 -18.495367
-0.98344742 15.991897 -18.133479
1.0178811 16.551825 -18.768391
1.2695149 30.682446 -2.0541183
3.7934852 30.055294 -6.137988
3.4147037 30.676116 -2.0636209
0 30.210503 -4.0702565
8.5280174 26.470679 -13.798622
6.2437486 28.671962 -10.102597
9.6508353 27.282035 -12.105322
7.8438434 30.656729 -2.1111433
5.9820215 29.981482 -6.1865601
5.6117352 30.667865 -2.081151
9.2791371 30.334858 -4.2428729
4.7077398 30.425056 -4.1394981
-2.2626993 26.670486 -7.371541
2.508813 29.571434 -8.1733433
-1.1982594 28.433762 -5.8202979
1.2688921 30.109821 -6.1633817
11.91778 28.838691 -8.4943705
7.2758143 29.29822 -8.2678957
10.78911 28.080119 -10.332833
10.655081 29.737017 -6.3937839
8.4871768 28.407925 -10.221507
8.2727356 29.872029 -6.297268
-5.5933469 19.818434 -12.248466
-2.0336684 21.980993 -13.585001
-4.7448872 19.277937 -13.577783
-4.8955631 21.449957 -11.218779
7.1934648 25.487997 -15.752448
2.2583122 24.409065 -15.085632
6.0595829 24.619396 -17.339864
6.1109101 26.775012 -14.003895
-2.9297283 17.861953 -16.023646
-1.0585453 21.275508 -14.949892
-3.8505189 18.619963 -14.847321
-1.0193706 18.632064 -16.727665
-2.9707476 20.261896 -14.248732
-3.2623385 24.842884 -8.8290694
-1.1188926 23.970243 -12.57664
-4.1167408 23.135649 -10.077591
-1.16467 26.552581 -9.422378
-3.0873853 22.670153 -11.881869
3.3200664 20.241764 -18.158532
1.1128693 22.367356 -15.717112
4.6128654 22.306443 -17.786874
1.062955 19.4287 -17.442876
3.4408167 23.467989 -16.503345
0 20.439371 -16.248701
3.78335 28.810414 -10.239115
1.188314 25.457471 -13.356954
4.9631368 27.892305 -12.14953
1.2492228 28.480249 -10.106425
3.6796514 27.019065 -14.161219
0 26.149693 -11.445566
0 -10.724395 -20.381313
0 -7.5963156 -21.072546
0 -1.5053781 -21.720293
0 -4.5303506 -21.509119
0 10.724395 -20.381313
0 7.5963156 -21.072546
0 1.5053781 -21.720293
0 4.5303506 -21.509119
21.389537 30.630708 -1.5195717
25.327014 28.740261 -4.6751528
20.052685 30.054363 -3.869631
26.980506 19.049108 -9.3987576
26.733116 24.090764 -7.320121
17.205828 28.335461 -8.0952786
23.324967 27.559558 -6.8893545
18.619583 29.235215 -6.0711696
21.901339 29.090467 -5.4270947
24.73157 1.8913668 -14.562513
26.683585 6.04061 -14.184055
26.949513 14.406528 -11.152911
26.83398 10.118376 -12.719436
11.978159 24.598978 -15.203005
16.796363 23.315636 -14.409855
13.202201 25.509244 -13.568705
25.438444 18.481651 -11.422288
21.45741 21.37124 -13.208153
25.234192 20.802281 -10.481561
15.791561 27.362662 -10.073993
18.218697 24.287748 -12.732353
14.477009 26.436719 -11.855152
18.614036 26.980247 -9.5721684
15.713445 24.966703 -13.194251
24.303001 25.447559 -8.2742771
20.771871 23.383557 -12.13035
24.885324 23.169816 -9.4349463
21.510489 26.387349 -8.9847844
23.116795 22.251393 -11.396152
19.808552 25.294316 -10.932399
12.634566 -18.093224 -0.89759438
14.299734 -16.226867 -2.6396101
12.234902 -18.337303 -2.3610082
17.318992 -12.227768 -6.0331341
15.850978 -14.284237 -4.3403498
11.268481 -18.557526 -5.3017789
13.845809 -16.359482 -4.0895528
11.777854 -18.492794 -3.8403306
13.061928 -17.349514 -3.2367117
22.597206 -1.7281396 -13.305751
21.380009 -4.8399902 -11.36486
18.725117 -10.009974 -7.7492892
20.080111 -7.5716727 -9.5180695
8.6823513 -17.830534 -11.019876
11.481104 -15.937334 -9.8498141
9.3972237 -18.157281 -9.6580982
16.717787 -12.145881 -7.5065672
14.123156 -14.066439 -8.6935374
16.046051 -13.227864 -6.6650702
10.6866 -18.517094 -6.817358
12.137376 -16.180604 -8.482349
10.069423 -18.387948 -8.2458012
12.036135 -17.445862 -6.1895181
10.797594 -17.15603 -9.066514
14.624166 -15.312897 -4.9789903
13.485483 -15.181038 -7.8752475
15.34539 -14.287532 -5.8180047
13.349597 -16.376219 -5.5760355
14.766273 -14.213482 -7.2794994
12.776904 -16.315329 -7.0516111
1.5048649 -11.586655 -19.677659
4.3390386 -10.188567 -19.167122
2.4400098 -12.644293 -18.950887
1.4857878 -10.053919 -20.157426
9.6549158 -7.4744186 -18.060929
7.0258221 -8.8319009 -18.632513
4.2963691 -14.546017 -17.186811
5.2533225 -11.165491 -18.387917
3.3793377 -13.637503 -18.114022
3.8772239 -11.891002 -18.670451
1.4593011 -6.9996522 -20.907589
4.3150296 -8.7294945 -19.693258
1.4721647 -8.5160012 -20.567511
2.9275335 -9.3851702 -19.92744
21.339784 -1.0586543 -14.901651
18.043943 -2.9351923 -15.901011
20.903997 -2.6914812 -13.947435
12.30907 -6.0732481 -17.434145
15.073256 -4.5800977 -16.726538
19.89128 -5.6828246 -12.078361
17.770466 -4.4422716 -15.039992
20.413438 -4.2391835 -13.001091
19.290893 -3.5988939 -14.523534
7.7739566 -17.313287 -12.578526
8.8322622 -14.348522 -14.2909
6.9664355 -16.771583 -13.82597
9.2499566 -16.411462 -11.985408
10.590615 -8.3441447 -17.135975
9.7614713 -11.378131 -15.794392
9.2889369 -9.0380338 -17.463255
5.2420827 -15.396915 -16.122038
7.9970855 -13.694117 -15.415904
6.1150372 -16.128834 -15.016968
5.733596 -13.726813 -16.838957
7.5040016 -15.22167 -14.651831
12.054545 -14.611882 -10.833053
10.297526 -13.540933 -13.739293
10.680667 -15.507201 -11.401843
9.7905975 -14.973482 -12.894743
6.6562273 -10.434018 -18.079435
8.4689798 -12.118246 -16.155101
7.972834 -9.7360865 -17.779238
6.2056725 -12.067549 -17.491395
8.8922534 -10.590062 -16.826287
7.1283665 -12.915978 -16.492918
1.4516161 -0.89714811 -21.682847
4.3246278 -2.6727669 -21.175988
1.4513786 -2.4016175 -21.575019
9.735877 -6.0171029 -18.676885
7.106614 -4.392129 -20.169127
8.4049291 -6.7007376 -18.942377
1.4595583 -5.4229131 -21.194811
4.3131626 -4.1705617 -20.90257
1.4530485 -3.9180834 -21.412139
2.9009259 -6.3443071 -20.740469
2.8980838 -3.2959127 -21.300738
5.7279806 -8.0364769 -19.446698
5.7457707 -5.0563242 -20.360786
7.0649631 -7.3769375 -19.199478
4.333169 -7.2211177 -20.153249
7.0931946 -5.8896596 -19.713624
4.3338009 -5.6933242 -20.55803
17.488973 -10.80878 -8.5160324
16.084254 -9.9406159 -11.586945
18.114216 -9.6351914 -9.3749356
16.143185 -11.789484 -9.0987482
12.14987 -7.5090323 -16.723277
14.286125 -8.8293109 -14.343728
13.480573 -6.7924013 -16.352599
11.717144 -9.0429184 -16.044131
19.304323 -7.1071889 -11.140926
16.56068 -8.6815962 -12.422478
18.724204 -8.3965901 -10.25356
18.420517 -6.5353103 -12.708563
17.387463 -9.1888206 -10.943253
13.466528 -13.663799 -10.240943
14.672036 -10.877651 -12.104171
14.798181 -12.743778 -9.6759743
12.6574 -13.212588 -11.759085
15.454663 -11.363214 -10.644481
16.25363 -5.2848698 -15.522588
15.603306 -8.0943016 -13.860588
14.852737 -6.048161 -15.952443
17.394383 -5.9227164 -14.179586
14.586655 -7.4706216 -15.15396
16.986802 -7.3418268 -13.302749
10.80426 -12.022505 -14.573045
13.748935 -10.304752 -13.550435
11.266994 -10.554347 -15.323797
11.762187 -12.660738 -13.216073
12.778893 -9.7026362 -14.838957
13.22521 -11.770319 -12.669491
1.5636208 12.039044 -20.445953
4.812151 11.29949 -21.257033
2.6166866 13.559844 -20.323087
1.5350682 10.387386 -20.826004
11.582924 8.9669988 -21.667549
8.1807774 10.283753 -21.69546
5.009013 16.958782 -20.037608
6.0582117 12.876215 -21.205227
3.7662406 15.198871 -20.18791
4.3213385 13.253051 -20.809048
1.491881 7.1559245 -21.374366
4.7061371 9.5207221 -21.478224
1.5128165 8.7511588 -21.135454
3.1140425 9.9830858 -21.196989
22.438622 1.113167 -15.668973
20.483174 3.3319797 -18.050554
23.946184 3.0831761 -15.977224
20.577092 0 -16.161555
14.88494 7.3441727 -21.08252
17.913536 5.4431335 -19.878349
25.599721 7.3136936 -15.544635
21.772844 5.4427882 -18.427394
25.550941 5.3060699 -16.273109
22.952584 4.2820161 -17.280311
17.209784 -1.9558589 -17.007154
18.583238 2.1119493 -18.364437
18.832075 -1.0213349 -16.607988
19.648148 1.0655937 -17.327682
10.561872 23.522221 -17.089468
12.3102 19.998634 -19.918322
9.3943429 22.616732 -18.644529
12.912357 22.909368 -16.730875
13.382614 10.543907 -21.653524
13.404926 15.625001 -21.689625
11.566581 11.254156 -21.745239
6.4591458 18.971642 -19.865119
10.914545 18.689941 -21.039863
8.0095618 21.125774 -19.669436
7.0196685 16.805801 -20.616014
10.29407 20.881251 -20.099538
17.570488 21.298016 -15.790063
14.54789 19.130033 -19.410268
15.270945 22.1718 -16.302064
13.773318 21.064551 -18.1402
7.920276 12.415487 -21.512805
11.257382 16.108165 -21.474151
9.7279405 11.879348 -21.693085
7.507356 14.598803 -21.160338
11.463244 13.651934 -21.69122
9.1223066 16.528823 -21.106302
1.4556303 0.89962898 -21.742807
4.4343706 2.7405917 -21.713355
1.4621961 2.4195173 -21.735823
2.9166779 0 -21.648342
11.225221 6.9375683 -21.533979
7.6278903 4.7142955 -21.64855
9.62962 7.6771089 -21.70249
1.484618 5.5160213 -21.558713
4.4872233 4.3388677 -21.746108
1.4708637 3.9661214 -21.674664
3.0208727 6.6066301 -21.598041
2.9584554 3.3645717 -21.744465
5.8235704 -1.7875487 -21.069875
5.9561574 1.8282464 -21.54958
4.3851143 -0.90278962 -21.422494
4.422291 0.91044341 -21.604113
6.3828939 8.955334 -21.670152
6.1350188 5.3988656 -21.74013
8.0016287 8.3549644 -21.744926
4.6518852 7.7522503 -21.635575
7.8173166 6.4909165 -21.726126
4.5793068 6.015846 -21.722624
25.56966 15.802919 -12.45082
22.729637 14.047689 -16.374216
25.620724 13.628003 -13.259897
23.916451 17.466356 -13.479977
15.503597 9.5817498 -21.339402
19.915632 12.308538 -19.995933
17.221293 8.6772228 -20.890277
15.772354 12.172601 -21.596877
25.62487 9.4341972 -14.788645
22.892132 12.00073 -17.17182
25.636748 11.496417 -14.038937
24.364305 8.6440732 -16.809263
24.256523 12.818939 -15.266474
19.904076 20.19565 -15.13653
20.94669 15.529594 -17.28065
21.996709 18.942949 -14.382822
18.314457 19.11778 -17.014654
22.410188 16.477342 -15.435136
20.3693 6.6230805 -19.453147
21.47596 11.140773 -19.077331
18.861705 7.6806468 -20.258238
23.048372 7.8478765 -18.788615
19.865753 10.174336 -20.638373
22.978388 9.9314366 -17.994896
15.286766 17.010441 -20.619157
19.429981 14.562665 -19.149462
15.92974 14.92217 -21.665416
16.772247 18.053533 -18.845411
17.989963 13.659248 -20.890094
18.929971 16.847505 -18.13454
11.337679 -5.1774295 -18.344749
12.009363 -1.7977961 -19.431557
12.712183 -4.4423951 -18.048946
10.044527 -4.3831522 -19.204824
13.076406 5.9714314 -21.158069
12.598302 1.8859601 -20.384481
14.570691 5.0918684 -20.687682
11.134478 4.8587765 -21.288777
15.604278 -2.8530521 -17.394473
13.490187 -0.95518914 -19.198171
14.138534 -3.6667013 -17.731075
16.193261 -0.98680449 -18.03682
13.107949 -2.7329034 -18.639687
7.3078908 -2.7002634 -20.562652
10.579062 -0.94117623 -20.162993
8.6899152 -3.5498689 -19.949889
7.4273055 -0.91806544 -20.930399
10.327443 -2.6834832 -19.704368
17.319735 3.1667025 -19.306736
13.873508 0.98233061 -19.743683
16.001031 4.1497232 -20.066825
16.769831 1.0219402 -18.679031
14.230137 2.9668708 -20.235455
15.06994 0 -18.9566
7.6333517 2.8205211 -21.478421
10.80909 0.96164085 -20.60141
9.3190427 3.8068703 -21.394209
7.5367723 0.93159629 -21.238881
10.991654 2.8560717 -20.971656
9.0927239 0 -20.774152
21.389537 30.630708 1.5195717
25.327014 28.740261 4.6751528
20.052685 30.054363 3.869631
24.15465 30.753999 0
26.980506 19.049108 9.3987576
26.733116 24.090764 7.320121
17.205828 28.335461 8.0952786
23.324967 27.559558 6.8893545
18.619583 29.235215 6.0711696
21.901339 29.090467 5.4270947
28.279698 28.616633 -3.2522255
28.279698 28.616633 3.2522255
26.817281 30.408563 -1.6491718
26.817281 30.408563 1.6491718
24.73157 1.8913668 14.562513
26.683585 6.04061 14.184055
26.949513 14.406528 11.152911
26.83398 10.118376 12.719436
11.978159 24.598978 15.203005
16.796363 23.315636 14.409855
13.202201 25.509244 13.568705
25.438444 18.481651 11.422288
21.45741 21.37124 13.208153
25.234192 20.802281 10.481561
15.791561 27.362662 10.073993
18.218697 24.287748 12.732353
14.477009 26.436719 11.855152
18.614036 26.980247 9.5721684
15.713445 24.966703 13.194251
24.303001 25.447559 8.2742771
20.771871 23.383557 12.13035
24.885324 23.169816 9.4349463
21.510489 26.387349 8.9847844
23.116795 22.251393 11.396152
19.808552 25.294316 10.932399
28.338331 17.514052 -7.9979133
30.422568 18.802181 -2.8146779
28.462322 20.046503 -7.005444
28.338331 17.514052 7.9979133
30.422568 18.802181 2.8146779
28.462322 20.046503 7.005444
28.597076 25.653937 -4.6905097
30.628231 21.521871 -1.5238823
28.566269 22.77838 -5.9073675
30.359589 27.256509 -1.66099
29.782209 20.943682 -4.3665916
28.597076 25.653937 4.6905097
30.628231 21.521871 1.5238823
28.566269 22.77838 5.9073675
30.359589 27.256509 1.66099
29.782209 20.943682 4.3665916
30.753999 24.448527 0
12.634566 -18.093224 0.89759438
14.299734 -16.226867 2.6396101
12.234902 -18.337303 2.3610082
13.528872 -17.225127 0
17.318992 -12.227768 6.0331341
15.850978 -14.284237 4.3403498
11.268481 -18.557526 5.3017789
13.845809 -16.359482 4.0895528
11.777854 -18.492794 3.8403306
13.061928 -17.349514 3.2367117
15.236237 -15.417768 -1.7521997
15.236237 -15.417768 1.7521997
14.400041 -16.328447 -0.8855537
14.400041 -16.328447 0.8855537
22.597206 -1.7281396 13.305751
21.380009 -4.8399902 11.36486
18.725117 -10.009974 7.7492892
20.080111 -7.5716727 9.5180695
8.6823513 -17.830534 11.019876
11.481104 -15.937334 9.8498141
9.3972237 -18.157281 9.6580982
16.717787 -12.145881 7.5065672
14.123156 -14.066439 8.6935374
16.046051 -13.227864 6.6650702
10.6866 -18.517094 6.817358
12.137376 -16.180604 8.482349
10.069423 -18.387948 8.2458012
12.036135 -17.445862 6.1895181
10.797594 -17.15603 9.066514
14.624166 -15.312897 4.9789903
13.485483 -15.181038 7.8752475
15.34539 -14.287532 5.8180047
13.349597 -16.376219 5.5760355
14.766273 -14.213482 7.2794994
12.776904 -16.315329 7.0516111
18.45385 -11.405107 -5.2082211
18.945175 -11.708762 -1.7527963
17.6798 -12.452188 -4.3515371
18.45385 -11.405107 5.2082211
18.945175 -11.708762 1.7527963
17.6798 -12.452188 4.3515371
16.091367 -14.435284 -2.6393158
18.046701 -12.681071 -0.8978987
16.888297 -13.466513 -3.4924187
16.19172 -14.536751 -0.88585805
17.923972 -12.604638 -2.6279671
16.091367 -14.435284 2.6393158
18.046701 -12.681071 0.8978987
16.888297 -13.466513 3.4924187
16.19172 -14.536751 0.88585805
17.923972 -12.604638 2.6279671
17.133427 -13.620572 0
1.5048649 -11.586655 19.677659
4.3390386 -10.188567 19.167122
2.4400098 -12.644293 18.950887
1.4857878 -10.053919 20.157426
9.6549158 -7.4744186 18.060929
7.0258221 -8.8319009 18.632513
4.2963691 -14.546017 17.186811
5.2533225 -11.165491 18.387917
3.3793377 -13.637503 18.114022
3.8772239 -11.891002 18.670451
1.4593011 -6.9996522 20.907589
4.3150296 -8.7294945 19.693258
1.4721647 -8.5160012 20.567511
2.9275335 -9.3851702 19.92744
21.339784 -1.0586543 14.901651
18.043943 -2.9351923 15.901011
20.903997 -2.6914812 13.947435
12.30907 -6.0732481 17.434145
15.073256 -4.5800977 16.726538
19.89128 -5.6828246 12.078361
17.770466 -4.4422716 15.039992
20.413438 -4.2391835 13.001091
19.290893 -3.5988939 14.523534
7.7739566 -17.313287 12.578526
8.8322622 -14.348522 14.2909
6.9664355 -16.771583 13.82597
9.2499566 -16.411462 11.985408
10.590615 -8.3441447 17.135975
9.7614713 -11.378131 15.794392
9.2889369 -9.0380338 17.463255
5.2420827 -15.396915 16.122038
7.9970855 -13.694117 15.415904
6.1150372 -16.128834 15.016968
5.733596 -13.726813 16.838957
7.5040016 -15.22167 14.651831
12.054545 -14.611882 10.833053
10.297526 -13.540933 13.739293
10.680667 -15.507201 11.401843
9.7905975 -14.973482 12.894743
6.6562273 -10.434018 18.079435
8.4689798 -12.118246 16.155101
7.972834 -9.7360865 17.779238
6.2056725 -12.067549 17.491395
8.8922534 -10.590062 16.826287
7.1283665 -12.915978 16.492918
1.4516161 -0.89714811 21.682847
4.3246278 -2.6727669 21.175988
1.4513786 -2.4016175 21.575019
9.735877 -6.0171029 18.676885
7.106614 -4.392129 20.169127
8.4049291 -6.7007376 18.942377
1.4595583 -5.4229131 21.194811
4.3131626 -4.1705617 20.90257
1.4530485 -3.9180834 21.412139
2.9009259 -6.3443071 20.740469
2.8980838 -3.2959127 21.300738
5.7279806 -8.0364769 19.446698
5.7457707 -5.0563242 20.360786
7.0649631 -7.3769375 19.199478
4.333169 -7.2211177 20.153249
7.0931946 -5.8896596 19.713624
4.3338009 -5.6933242 20.55803
17.488973 -10.80878 8.5160324
16.084254 -9.9406159 11.586945
18.114216 -9.6351914 9.3749356
16.143185 -11.789484 9.0987482
12.14987 -7.5090323 16.723277
14.286125 -8.8293109 14.343728
13.480573 -6.7924013 16.352599
11.717144 -9.0429184 16.044131
19.304323 -7.1071889 11.140926
16.56068 -8.6815962 12.422478
18.724204 -8.3965901 10.25356
18.420517 -6.5353103 12.708563
17.387463 -9.1888206 10.943253
13.466528 -13.663799 10.240943
14.672036 -10.877651 12.104171
14.798181 -12.743778 9.6759743
12.6574 -13.212588 11.759085
15.454663 -11.363214 10.644481
16.25363 -5.2848698 15.522588
15.603306 -8.0943016 13.860588
14.852737 -6.048161 15.952443
17.394383 -5.9227164 14.179586
14.586655 -7.4706216 15.15396
16.986802 -7.3418268 13.302749
10.80426 -12.022505 14.573045
13.748935 -10.304752 13.550435
11.266994 -10.554347 15.323797
11.762187 -12.660738 13.216073
12.778893 -9.7026362 14.838957
13.22521 -11.770319 12.669491
1.5636208 12.039044 20.445953
4.812151 11.29949 21.257033
2.6166866 13.559844 20.323087
1.5350682 10.387386 20.826004
11.582924 8.9669988 21.667549
8.1807774 10.283753 21.69546
5.009013 16.958782 20.037608
6.0582117 12.876215 21.205227
3.7662406 15.198871 20.18791
4.3213385 13.253051 20.809048
1.491881 7.1559245 21.374366
4.7061371 9.5207221 21.478224
1.5128165 8.7511588 21.135454
3.1140425 9.9830858 21.196989
22.438622 1.113167 15.668973
20.483174 3.3319797 18.050554
23.946184 3.0831761 15.977224
20.577092 0 16.161555
14.88494 7.3441727 21.08252
17.913536 5.4431335 19.878349
25.599721 7.3136936 15.544635
21.772844 5.4427882 18.427394
25.550941 5.3060699 16.273109
22.952584 4.2820161 17.280311
17.209784 -1.9558589 17.007154
18.583238 2.1119493 18.364437
18.832075 -1.0213349 16.607988
19.648148 1.0655937 17.327682
10.561872 23.522221 17.089468
12.3102 19.998634 19.918322
9.3943429 22.616732 18.644529
12.912357 22.909368 16.730875
13.382614 10.543907 21.653524
13.404926 15.625001 21.689625
11.566581 11.254156 21.745239
6.4591458 18.971642 19.865119
10.914545 18.689941 21.039863
8.0095618 21.125774 19.669436
7.0196685 16.805801 20.616014
10.29407 20.881251 20.099538
17.570488 21.298016 15.790063
14.54789 19.130033 19.410268
15.270945 22.1718 16.302064
13.773318 21.064551 18.1402
7.920276 12.415487 21.512805
11.257382 16.108165 21.474151
9.7279405 11.879348 21.693085
7.507356 14.598803 21.160338
11.463244 13.651934 21.69122
9.1223066 16.528823 21.106302
1.4556303 0.89962898 21.742807
4.4343706 2.7405917 21.713355
1.4621961 2.4195173 21.735823
2.9166779 0 21.648342
11.225221 6.9375683 21.533979
7.6278903 4.7142955 21.64855
9.62962 7.6771089 21.70249
1.484618 5.5160213 21.558713
4.4872233 4.3388677 21.746108
1.4708637 3.9661214 21.674664
3.0208727 6.6066301 21.598041
2.9584554 3.3645717 21.744465
5.8235704 -1.7875487 21.069875
5.9561574 1.8282464 21.54958
4.3851143 -0.90278962 21.422494
4.422291 0.91044341 21.604113
6.3828939 8.955334 21.670152
6.1350188 5.3988656 21.74013
8.0016287 8.3549644 21.744926
4.6518852 7.7522503 21.635575
7.8173166 6.4909165 21.726126
4.5793068 6.015846 21.722624
25.56966 15.802919 12.45082
22.729637 14.047689 16.374216
25.620724 13.628003 13.259897
23.916451 17.466356 13.479977
15.503597 9.5817498 21.339402
19.915632 12.308538 19.995933
17.221293 8.6772228 20.890277
15.772354 12.172601 21.596877
25.62487 9.4341972 14.788645
22.892132 12.00073 17.17182
25.636748 11.496417 14.038937
24.364305 8.6440732 16.809263
24.256523 12.818939 15.266474
19.904076 20.19565 15.13653
20.94669 15.529594 17.28065
21.996709 18.942949 14.382822
18.314457 19.11778 17.014654
22.410188 16.477342 15.435136
20.3693 6.6230805 19.453147
21.47596 11.140773 19.077331
18.861705 7.6806468 20.258238
23.048372 7.8478765 18.788615
19.865753 10.174336 20.638373
22.978388 9.9314366 17.994896
15.286766 17.010441 20.619157
19.429981 14.562665 19.149462
15.92974 14.92217 21.665416
16.772247 18.053533 18.845411
17.989963 13.659248 20.890094
18.929971 16.847505 18.13454
11.337679 -5.1774295 18.344749
12.009363 -1.7977961 19.431557
12.712183 -4.4423951 18.048946
10.044527 -4.3831522 19.204824
13.076406 5.9714314 21.158069
12.598302 1.8859601 20.384481
14.570691 5.0918684 20.687682
11.134478 4.8587765 21.288777
15.604278 -2.8530521 17.394473
13.490187 -0.95518914 19.198171
14.138534 -3.6667013 17.731075
16.193261 -0.98680449 18.03682
13.107949 -2.7329034 18.639687
7.3078908 -2.7002634 20.562652
10.579062 -0.94117623 20.162993
8.6899152 -3.5498689 19.949889
7.4273055 -0.91806544 20.930399
10.327443 -2.6834832 19.704368
17.319735 3.1667025 19.306736
13.873508 0.98233061 19.743683
16.001031 4.1497232 20.066825
16.769831 1.0219402 18.679031
14.230137 2.9668708 20.235455
15.06994 0 18.9566
7.6333517 2.8205211 21.478421
10.80909 0.96164085 20.60141
9.3190427 3.8068703 21.394209
7.5367723 0.93159629 21.238881
10.991654 2.8560717 20.971656
9.0927239 0 20.774152
24.672404 0 -12.982314
27.398955 0 -9.8768846
26.414512 1.9469927 -13.174766
23.939094 -1.7645316 -11.940102
30.607327 0 -2.1213158
29.474225 0 -6.2079983
27.700126 6.0694305 -12.278725
29.101574 2.0312222 -9.7429168
27.591784 4.0534995 -12.994824
28.01792 2.0054441 -11.600852
22.434334 -4.9156324 -9.9445402
26.288006 -1.8348417 -8.8009622
23.188143 -3.4065622 -10.920854
25.184903 -1.8026647 -10.427838
24.672404 0 12.982314
27.398955 0 9.8768846
26.414512 1.9469927 13.174766
23.939094 -1.7645316 11.940102
30.607327 0 2.1213158
29.474225 0 6.2079983
27.700126 6.0694305 12.278725
29.101574 2.0312222 9.7429168
27.591784 4.0534995 12.994824
28.01792 2.0054441 11.600852
22.434334 -4.9156324 9.9445402
26.288006 -1.8348417 8.8009622
23.188143 -3.4065622 10.920854
25.184903 -1.8026647 10.427838
28.186796 14.693198 -9.080896
29.721291 10.472329 -6.4722556
28.06202 12.45141 -9.9267497
29.304244 15.326736 -6.6881613
30.725838 2.0570233 -1.2713103
30.45292 6.2191925 -3.8436723
30.552484 2.055304 -3.4009417
27.823616 8.1953826 -11.498294
29.552526 8.3396603 -7.3389678
27.9395 10.281089 -10.735081
28.617087 6.1529868 -10.253798
28.919679 10.405642 -8.6400687
30.684007 16.099199 -1.4322803
30.356045 10.788427 -3.9863204
30.188023 15.822131 -4.111223
29.951932 13.046677 -5.3296253
29.745117 2.0483661 -7.6105979
30.02341 6.1952118 -5.9903871
30.221286 2.0508457 -5.5300182
29.252496 4.0914853 -8.9480532
30.340132 4.1279438 -4.6945993
29.403799 6.1985613 -8.1430643
19.36599 -10.095093 -6.2391108
22.173451 -7.81284 -4.8286007
20.127893 -8.9309549 -7.1201058
19.754027 -10.331772 -4.5084979
28.78103 -1.9268229 -1.1908421
25.262441 -5.1591763 -3.1885463
28.507105 -1.9177088 -3.1732608
21.652292 -6.3776332 -8.9479532
23.133292 -6.5281661 -5.7448384
20.893454 -7.6883069 -8.027807
23.361422 -5.0229614 -8.3706393
21.597824 -7.771152 -6.4525848
20.151947 -10.573267 -0.94066063
22.480006 -7.9893113 -2.9520481
20.019003 -10.49235 -2.7263325
21.100866 -9.1912663 -3.754673
27.253313 -1.8767706 -6.9730439
24.823494 -5.1222298 -4.9528798
27.989501 -1.8993946 -5.1216369
25.224839 -3.5281453 -7.7160322
26.582227 -3.6166598 -4.1131299
24.166748 -5.0945481 -6.6927197
28.186796 14.693198 9.080896
29.721291 10.472329 6.4722556
28.06202 12.45141 9.9267497
29.304244 15.326736 6.6881613
30.725838 2.0570233 1.2713103
30.45292 6.2191925 3.8436723
30.552484 2.055304 3.4009417
30.753999 4.1434817 0
27.823616 8.1953826 11.498294
29.552526 8.3396603 7.3389678
27.9395 10.281089 10.735081
28.617087 6.1529868 10.253798
28.919679 10.405642 8.6400687
30.684007 16.099199 1.4322803
30.356045 10.788427 3.9863204
30.188023 15.822131 4.111223
30.753999 13.460844 0
29.951932 13.046677 5.3296253
29.745117 2.0483661 7.6105979
30.02341 6.1952118 5.9903871
30.221286 2.0508457 5.5300182
29.252496 4.0914853 8.9480532
30.340132 4.1279438 4.6945993
29.403799 6.1985613 8.1430643
30.602829 8.4584138 -2.5963156
30.602829 8.4584138 2.5963156
30.719747 6.2882315 -1.2945957
30.708315 10.89707 -1.346952
30.719747 6.2882315 1.2945957
30.708315 10.89707 1.346952
19.36599 -10.095093 6.2391108
22.173451 -7.81284 4.8286007
20.127893 -8.9309549 7.1201058
19.754027 -10.331772 4.5084979
28.78103 -1.9268229 1.1908421
25.262441 -5.1591763 3.1885463
28.507105 -1.9177088 3.1732608
27.102485 -3.6515138 0
21.652292 -6.3776332 8.9479532
23.133292 -6.5281661 5.7448384
20.893454 -7.6883069 8.027807
23.361422 -5.0229614 8.3706393
21.597824 -7.771152 6.4525848
20.151947 -10.573267 0.94066063
22.480006 -7.9893113 2.9520481
20.019003 -10.49235 2.7263325
21.391198 -9.3628011 0
21.100866 -9.1912663 3.754673
27.253313 -1.8767706 6.9730439
24.823494 -5.1222298 4.9528798
27.989501 -1.8993946 5.1216369
25.224839 -3.5281453 7.7160322
26.582227 -3.6166598 4.1131299
24.166748 -5.0945481 6.6927197
23.988707 -6.6303155 -2.0351796
23.988707 -6.6303155 2.0351796
25.497234 -5.2192001 -1.0745078
22.675314 -8.0465014 -0.99460227
25.497234 -5.2192001 1.0745078
22.675314 -8.0465014 0.99460227
-12.634566 18.093224 -0.89759438
-14.299734 16.226867 -2.6396101
-12.234902 18.337303 -2.3610082
-17.318992 12.227768 -6.0331341
-15.850978 14.284237 -4.3403498
-11.268481 18.557526 -5.3017789
-13.845809 16.359482 -4.0895528
-11.777854 18.492794 -3.8403306
-13.061928 17.349514 -3.2367117
-22.597206 1.7281396 -13.305751
-21.380009 4.8399902 -11.36486
-18.725117 10.009974 -7.7492892
-20.080111 7.5716727 -9.5180695
-8.6823513 17.830534 -11.019876
-11.481104 15.937334 -9.8498141
-9.3972237 18.157281 -9.6580982
-16.717787 12.145881 -7.5065672
-14.123156 14.066439 -8.6935374
