42.751471 69.173333 0.000000
-42.751471 -69.173333 0.000000
26.349038 -42.633639 0.000000
0.000000 -21.207014 34.313670
0.000000 21.207014 34.313670
0.000000 -21.207014 -34.313670
0.000000 21.207014 -34.313670
44.086411 0.000000 -27.246901
44.086411 0.000000 27.246901
-44.086411 0.000000 -27.246901
-44.086411 0.000000 27.246901
0.000000 59.722950 0.000000
0.000000 -59.722950 0.000000
-17.225742 -45.097579 27.871837
14.295356 -37.425727 23.130371
-14.295356 37.425727 23.130371
17.225742 45.097579 27.871837
0.000000 0.000000 37.017512
-17.225742 -45.097579 -27.871837
14.295356 -37.425727 -23.130371
-14.295356 37.425727 -23.130371
17.225742 45.097579 -27.871837
0.000000 0.000000 -37.017512
55.277822 34.163573 -21.114249
39.878488 -24.646261 -15.232227
20.079310 -12.409696 -32.489006
22.272627 13.765240 -36.037867
55.277822 34.163573 21.114249
39.878488 -24.646261 15.232227
20.079310 -12.409696 32.489006
22.272627 13.765240 36.037867
62.566968 0.000000 0.000000
-39.878488 24.646261 -15.232227
-55.277822 -34.163573 -21.114249
-22.272627 -13.765240 -36.037867
-20.079310 12.409696 -32.489006
-39.878488 24.646261 15.232227
-55.277822 -34.163573 21.114249
-22.272627 -13.765240 36.037867
-20.079310 12.409696 32.489006
-62.566968 0.000000 0.000000
-14.598684 51.389515 0.000000
18.806016 66.199943 0.000000
-18.806016 -66.199943 0.000000
14.598684 -51.389515 0.000000
-29.902508 -59.452941 17.911097
-7.386876 -31.906396 32.286541
-9.876210 -57.816338 15.980043
21.427218 -42.602150 12.834541
6.866454 -29.658521 30.011884
8.654545 -50.664590 14.003348
0.000000 -42.003906 25.959842
-21.427218 42.602150 12.834541
-6.866454 29.658521 30.011884
-8.654545 50.664590 14.003348
29.902508 59.452941 17.911097
7.386876 31.906396 32.286541
9.876210 57.816338 15.980043
0.000000 42.003906 25.959842
0.000000 -10.332956 36.373523
0.000000 10.332956 36.373523
-29.902508 -59.452941 -17.911097
-7.386876 -31.906396 -32.286541
-9.876210 -57.816338 -15.980043
21.427218 -42.602150 -12.834541
6.866454 -29.658521 -30.011884
8.654545 -50.664590 -14.003348
0.000000 -42.003906 -25.959842
-21.427218 42.602150 -12.834541
-6.866454 29.658521 -30.011884
-8.654545 50.664590 -14.003348
29.902508 59.452941 -17.911097
7.386876 31.906396 -32.286541
9.876210 57.816338 -15.980043
0.000000 42.003906 -25.959842
0.000000 -10.332956 -36.373523
0.000000 10.332956 -36.373523
55.317045 55.976114 -12.806841
51.396297 15.483911 -25.850331
37.654163 44.086262 -27.246808
34.135827 -34.542535 -7.903027
43.296808 -13.043817 -21.776604
27.165906 -31.806397 -19.657434
10.118135 -16.892189 -33.585487
31.090327 -7.113193 -30.724267
17.755577 -24.537604 -28.729127
9.927134 -6.135306 -35.916706
30.547314 -18.879278 -26.090521
10.852364 18.117980 -36.022638
33.769845 7.726243 -33.372236
21.123239 29.191598 -34.178118
10.185511 6.294992 -36.851526
38.169051 23.589771 -32.600261
21.654882 0.000000 -35.038336
55.317045 55.976114 12.806841
51.396297 15.483911 25.850331
37.654163 44.086262 27.246808
65.802989 40.668484 0.000000
34.135827 -34.542535 7.903027
43.296808 -13.043817 21.776604
27.165906 -31.806397 19.657434
43.741333 -27.033631 0.000000
10.118135 -16.892189 33.585487
31.090327 -7.113193 30.724267
17.755577 -24.537604 28.729127
9.927134 -6.135306 35.916706
30.547314 -18.879278 26.090521
10.852364 18.117980 36.022638
33.769845 7.726243 33.372236
21.123239 29.191598 34.178118
10.185511 6.294992 36.851526
38.169051 23.589771 32.600261
21.654882 0.000000 35.038336
57.006527 0.000000 -16.194360
57.006527 0.000000 16.194360
63.581203 17.573412 -10.860966
52.779818 -14.587983 -9.015869
63.581203 17.573412 10.860966
52.779818 -14.587983 9.015869
-34.135827 34.542535 -7.903027
-43.296808 13.043817 -21.776604
-27.165906 31.806397 -19.657434
-55.317045 -55.976114 -12.806841
-51.396297 -15.483911 -25.850331
-37.654163 -44.086262 -27.246808
-10.852364 -18.117980 -36.022638
-33.769845 -7.726243 -33.372236
-21.123239 -29.191598 -34.178118
-10.185511 -6.294992 -36.851526
-38.169051 -23.589771 -32.600261
-10.118135 16.892189 -33.585487
-31.090327 7.113193 -30.724267
-17.755577 24.537604 -28.729127
-9.927134 6.135306 -35.916706
-30.547314 18.879278 -26.090521
-21.654882 0.000000 -35.038336
-34.135827 34.542535 7.903027
-43.296808 13.043817 21.776604
-27.165906 31.806397 19.657434
-43.741333 27.033631 0.000000
-55.317045 -55.976114 12.806841
-51.396297 -15.483911 25.850331
-37.654163 -44.086262 27.246808
-65.802989 -40.668484 0.000000
-10.852364 -18.117980 36.022638
-33.769845 -7.726243 33.372236
-21.123239 -29.191598 34.178118
-10.185511 -6.294992 36.851526
-38.169051 -23.589771 32.600261
-10.118135 16.892189 33.585487
-31.090327 7.113193 30.724267
-17.755577 24.537604 28.729127
-9.927134 6.135306 35.916706
-30.547314 18.879278 26.090521
-21.654882 0.000000 35.038336
-57.006527 0.000000 -16.194360
-57.006527 0.000000 16.194360
-52.779818 14.587983 -9.015869
-63.581203 -17.573412 -10.860966
-52.779818 14.587983 9.015869
-63.581203 -17.573412 10.860966
-20.727938 47.022963 0.000000
-7.754708 55.675528 0.000000
30.107646 68.301570 0.000000
8.816645 63.299787 0.000000
-30.107646 -68.301570 0.000000
-8.816645 -63.299787 0.000000
20.727938 -47.022963 0.000000
7.754708 -55.675528 0.000000
-36.888058 -65.860489 9.990320
-23.264418 -52.349573 23.796353
-25.330812 -65.358749 9.309518
-3.462341 -26.287586 33.469680
-11.932765 -38.183644 30.542049
-5.034530 -60.462028 8.146040
-14.006744 -52.288675 22.663388
-14.431601 -63.359899 8.706314
-19.494429 -59.290059 17.088766
24.263447 -43.320321 6.571222
18.013538 -40.534048 18.425413
18.470592 -47.657958 6.788267
3.355641 -25.477467 32.438226
10.530025 -33.695017 26.951719
0.000000 -30.885917 31.253904
4.675834 -56.154278 7.565658
11.831720 -44.169076 19.144125
11.858857 -52.064629 7.154226
0.000000 -54.572209 15.083388
15.345624 -46.671949 13.451934
-8.159405 -43.822513 27.083803
7.418678 -39.844218 24.625081
-3.861746 -37.131903 29.518774
-4.509882 -50.015359 21.891428
3.699193 -35.568900 28.276232
4.253565 -47.172761 20.647239
-24.263447 43.320321 6.571222
-18.013538 40.534048 18.425413
-18.470592 47.657958 6.788267
-3.355641 25.477467 32.438226
-10.530025 33.695017 26.951719
-4.675834 56.154278 7.565658
-11.831720 44.169076 19.144125
-11.858857 52.064629 7.154226
-15.345624 46.671949 13.451934
36.888058 65.860489 9.990320
23.264418 52.349573 23.796353
25.330812 65.358749 9.309518
3.462341 26.287586 33.469680
11.932765 38.183644 30.542049
0.000000 30.885917 31.253904
5.034530 60.462028 8.146040
14.006744 52.288675 22.663388
14.431601 63.359899 8.706314
0.000000 54.572209 15.083388
19.494429 59.290059 17.088766
-7.418678 39.844218 24.625081
8.159405 43.822513 27.083803
-3.699193 35.568900 28.276232
-4.253565 47.172761 20.647239
3.861746 37.131903 29.518774
4.509882 50.015359 21.891428
0.000000 -15.666200 35.540011
0.000000 -5.133772 36.858315
0.000000 15.666200 35.540011
0.000000 5.133772 36.858315
-36.888058 -65.860489 -9.990320
-23.264418 -52.349573 -23.796353
-25.330812 -65.358749 -9.309518
-3.462341 -26.287586 -33.469680
-11.932765 -38.183644 -30.542049
-5.034530 -60.462028 -8.146040
-14.006744 -52.288675 -22.663388
-14.431601 -63.359899 -8.706314
-19.494429 -59.290059 -17.088766
24.263447 -43.320321 -6.571222
18.013538 -40.534048 -18.425413
18.470592 -47.657958 -6.788267
3.355641 -25.477467 -32.438226
10.530025 -33.695017 -26.951719
0.000000 -30.885917 -31.253904
4.675834 -56.154278 -7.565658
11.831720 -44.169076 -19.144125
11.858857 -52.064629 -7.154226
0.000000 -54.572209 -15.083388
15.345624 -46.671949 -13.451934
-8.159405 -43.822513 -27.083803
7.418678 -39.844218 -24.625081
-3.861746 -37.131903 -29.518774
-4.509882 -50.015359 -21.891428
3.699193 -35.568900 -28.276232
4.253565 -47.172761 -20.647239
-24.263447 43.320321 -6.571222
-18.013538 40.534048 -18.425413
-18.470592 47.657958 -6.788267
-3.355641 25.477467 -32.438226
-10.530025 33.695017 -26.951719
-4.675834 56.154278 -7.565658
-11.831720 44.169076 -19.144125
-11.858857 52.064629 -7.154226
-15.345624 46.671949 -13.451934
36.888058 65.860489 -9.990320
23.264418 52.349573 -23.796353
25.330812 65.358749 -9.309518
3.462341 26.287586 -33.469680
11.932765 38.183644 -30.542049
0.000000 30.885917 -31.253904
5.034530 60.462028 -8.146040
14.006744 52.288675 -22.663388
14.431601 63.359899 -8.706314
0.000000 54.572209 -15.083388
19.494429 59.290059 -17.088766
-7.418678 39.844218 -24.625081
8.159405 43.822513 -27.083803
-3.699193 35.568900 -28.276232
-4.253565 47.172761 -20.647239
3.861746 37.131903 -29.518774
4.509882 50.015359 -21.891428
0.000000 -15.666200 -35.540011
0.000000 -5.133772 -36.858315
0.000000 15.666200 -35.540011
0.000000 5.133772 -36.858315
51.568029 65.657053 -6.792032
55.901056 44.713720 -17.469631
42.979737 59.637211 -16.027379
48.033629 7.286179 -26.903342
53.820707 24.465081 -23.918197
27.204162 45.417246 -28.069402
47.447027 40.360852 -24.944378
34.567756 52.472453 -23.183941
46.272305 50.196013 -21.156261
30.491166 -38.821730 -4.015996
37.275647 -29.815767 -11.649007
27.937617 -38.765279 -10.418090
44.037028 -6.679939 -24.664871
41.899599 -19.046146 -18.620396
20.820367 -34.759523 -21.482567
33.481619 -28.481167 -17.602329
24.567622 -37.292654 -16.477040
31.059310 -33.693016 -14.200694
5.156133 -19.038402 -33.991446
15.042641 -14.706383 -33.092292
8.607220 -23.081507 -32.027108
5.023058 -13.667533 -35.265070
37.331442 -3.861830 -29.320672
25.378731 -9.915460 -31.728469
37.367696 -10.042492 -26.930397
16.217354 -30.847239 -26.240229
19.020887 -18.434569 -30.776442
12.398871 -27.118418 -29.417952
22.540113 -28.388456 -24.773981
13.899009 -20.723723 -31.457772
4.950475 -3.059562 -36.743709
14.959878 -9.245713 -34.515237
4.972855 -8.243013 -36.189781
10.065279 -11.482214 -34.921831
35.584710 -21.992561 -21.314640
25.296502 -15.634098 -29.737822
36.742056 -16.233768 -24.204899
29.109278 -25.403026 -23.112437
30.988793 -13.060938 -28.566470
24.032903 -21.865858 -27.539257
5.359777 19.790332 -35.333954
16.499577 16.130752 -36.297404
9.297460 24.932484 -34.595461
5.166420 14.057615 -36.271562
39.169983 4.052021 -30.764689
28.078843 10.970392 -35.104146
42.515802 11.426035 -30.640568
32.615720 0.000000 -32.231699
19.568281 37.221081 -31.662143
21.985350 21.307651 -35.573043
14.097415 30.833421 -33.447973
28.905249 36.405116 -31.769943
15.619877 23.289574 -35.352630
4.982253 3.079202 -36.979580
15.855123 9.799005 -36.580733
5.059146 8.386049 -36.817758
10.116240 0.000000 -36.600901
10.565225 12.052540 -36.656412
47.008808 29.053041 -28.157481
29.706286 18.359494 -34.921833
45.299688 20.014793 -29.842488
38.661763 33.739270 -30.697002
36.193270 15.254484 -33.364125
29.704560 27.026101 -34.038397
20.959425 -6.314343 -33.913063
22.121385 6.664402 -35.793153
26.420274 -3.456390 -33.234276
15.568468 -3.207281 -35.569290
27.363524 3.579789 -34.420797
15.892771 3.274091 -36.310224
51.568029 65.657053 6.792032
55.901056 44.713720 17.469631
42.979737 59.637211 16.027379
60.764633 61.488606 0.000000
48.033629 7.286179 26.903342
53.820707 24.465081 23.918197
27.204162 45.417246 28.069402
47.447027 40.360852 24.944378
34.567756 52.472453 23.183941
46.272305 50.196013 21.156261
62.392429 38.560642 -11.616976
62.392429 38.560642 11.616976
63.163205 50.212894 -6.569022
63.163205 50.212894 6.569022
30.491166 -38.821730 4.015996
37.275647 -29.815767 11.649007
27.937617 -38.765279 10.418090
34.918876 -35.334913 0.000000
44.037028 -6.679939 24.664871
41.899599 -19.046146 18.620396
20.820367 -34.759523 21.482567
33.481619 -28.481167 17.602329
24.567622 -37.292654 16.477040
31.059310 -33.693016 14.200694
42.747358 -26.419320 -7.959219
42.747358 -26.419320 7.959219
39.119899 -31.099172 -4.068499
39.119899 -31.099172 4.068499
5.156133 -19.038402 33.991446
15.042641 -14.706383 33.092292
8.607220 -23.081507 32.027108
5.023058 -13.667533 35.265070
37.331442 -3.861830 29.320672
25.378731 -9.915460 31.728469
37.367696 -10.042492 26.930397
16.217354 -30.847239 26.240229
19.020887 -18.434569 30.776442
12.398871 -27.118418 29.417952
22.540113 -28.388456 24.773981
13.899009 -20.723723 31.457772
4.950475 -3.059562 36.743709
14.959878 -9.245713 34.515237
4.972855 -8.243013 36.189781
10.065279 -11.482214 34.921831
35.584710 -21.992561 21.314640
25.296502 -15.634098 29.737822
36.742056 -16.233768 24.204899
29.109278 -25.403026 23.112437
30.988793 -13.060938 28.566470
24.032903 -21.865858 27.539257
5.359777 19.790332 35.333954
16.499577 16.130752 36.297404
9.297460 24.932484 34.595461
5.166420 14.057615 36.271562
39.169983 4.052021 30.764689
28.078843 10.970392 35.104146
42.515802 11.426035 30.640568
32.615720 0.000000 32.231699
19.568281 37.221081 31.662143
21.985350 21.307651 35.573043
14.097415 30.833421 33.447973
28.905249 36.405116 31.769943
15.619877 23.289574 35.352630
4.982253 3.079202 36.979580
15.855123 9.799005 36.580733
5.059146 8.386049 36.817758
10.116240 0.000000 36.600901
10.565225 12.052540 36.656412
47.008808 29.053041 28.157481
29.706286 18.359494 34.921833
45.299688 20.014793 29.842488
38.661763 33.739270 30.697002
36.193270 15.254484 33.364125
29.704560 27.026101 34.038397
20.959425 -6.314343 33.913063
22.121385 6.664402 35.793153
26.420274 -3.456390 33.234276
15.568468 -3.207281 35.569290
27.363524 3.579789 34.420797
15.892771 3.274091 36.310224
51.023790 0.000000 -22.491522
61.104371 0.000000 -8.510858
55.129942 7.852555 -21.366477
50.342552 -7.170653 -19.511048
51.023790 0.000000 22.491522
61.104371 0.000000 8.510858
55.129942 7.852555 21.366477
50.342552 -7.170653 19.511048
60.613327 26.271527 -16.236697
64.280841 8.660548 -5.352513
58.432947 16.841726 -19.212612
65.436834 28.641316 -5.900436
60.983893 8.379826 -13.890414
46.376540 -20.100902 -12.423041
58.494315 -7.880930 -4.870683
48.749438 -14.050715 -16.028698
48.704978 -21.317882 -4.391725
55.573934 -7.636441 -12.658178
60.613327 26.271527 16.236697
64.280841 8.660548 5.352513
58.432947 16.841726 19.212612
65.436834 28.641316 5.900436
60.983893 8.379826 13.890414
65.924615 18.221116 0.000000
46.376540 -20.100902 12.423041
58.494315 -7.880930 4.870683
48.749438 -14.050715 16.028698
48.704978 -21.317882 4.391725
55.573934 -7.636441 12.658178
54.347206 -15.021198 0.000000
-30.491166 38.821730 -4.015996
-37.275647 29.815767 -11.649007
-27.937617 38.765279 -10.418090
-44.037028 6.679939 -24.664871
-41.899599 19.046146 -18.620396
-20.820367 34.759523 -21.482567
-33.481619 28.481167 -17.602329
-24.567622 37.292654 -16.477040
-31.059310 33.693016 -14.200694
-51.568029 -65.657053 -6.792032
-55.901056 -44.713720 -17.469631
-42.979737 -59.637211 -16.027379
-48.033629 -7.286179 -26.903342
-53.820707 -24.465081 -23.918197
-27.204162 -45.417246 -28.069402
-47.447027 -40.360852 -24.944378
-34.567756 -52.472453 -23.183941
-46.272305 -50.196013 -21.156261
-5.359777 -19.790332 -35.333954
-16.499577 -16.130752 -36.297404
-9.297460 -24.932484 -34.595461
-5.166420 -14.057615 -36.271562
-39.169983 -4.052021 -30.764689
-28.078843 -10.970392 -35.104146
-42.515802 -11.426035 -30.640568
-19.568281 -37.221081 -31.662143
-21.985350 -21.307651 -35.573043
-14.097415 -30.833421 -33.447973
-28.905249 -36.405116 -31.769943
-15.619877 -23.289574 -35.352630
-4.982253 -3.079202 -36.979580
-15.855123 -9.799005 -36.580733
-5.059146 -8.386049 -36.817758
-10.565225 -12.052540 -36.656412
-47.008808 -29.053041 -28.157481
-29.706286 -18.359494 -34.921833
-45.299688 -20.014793 -29.842488
-38.661763 -33.739270 -30.697002
-36.193270 -15.254484 -33.364125
-29.704560 -27.026101 -34.038397
-5.156133 19.038402 -33.991446
-15.042641 14.706383 -33.092292
-8.607220 23.081507 -32.027108
-5.023058 13.667533 -35.265070
-37.331442 3.861830 -29.320672
-25.378731 9.915460 -31.728469
-37.367696 10.042492 -26.930397
-32.615720 0.000000 -32.231699
-16.217354 30.847239 -26.240229
-19.020887 18.434569 -30.776442
-12.398871 27.118418 -29.417952
-22.540113 28.388456 -24.773981
-13.899009 20.723723 -31.457772
-4.950475 3.059562 -36.743709
-14.959878 9.245713 -34.515237
-4.972855 8.243013 -36.189781
-10.116240 0.000000 -36.600901
-10.065279 11.482214 -34.921831
-35.584710 21.992561 -21.314640
-25.296502 15.634098 -29.737822
-36.742056 16.233768 -24.204899
-29.109278 25.403026 -23.112437
-30.988793 13.060938 -28.566470
-24.032903 21.865858 -27.539257
-22.121385 -6.664402 -35.793153
-20.959425 6.314343 -33.913063
-27.363524 -3.579789 -34.420797
-15.892771 -3.274091 -36.310224
-26.420274 3.456390 -33.234276
-15.568468 3.207281 -35.569290
-30.491166 38.821730 4.015996
-37.275647 29.815767 11.649007
-27.937617 38.765279 10.418090
-34.918876 35.334913 0.000000
-44.037028 6.679939 24.664871
-41.899599 19.046146 18.620396
-20.820367 34.759523 21.482567
-33.481619 28.481167 17.602329
-24.567622 37.292654 16.477040
-31.059310 33.693016 14.200694
-42.747358 26.419320 -7.959219
-42.747358 26.419320 7.959219
-39.119899 31.099172 -4.068499
-39.119899 31.099172 4.068499
-51.568029 -65.657053 6.792032
-55.901056 -44.713720 17.469631
-42.979737 -59.637211 16.027379
-60.764633 -61.488606 0.000000
-48.033629 -7.286179 26.903342
-53.820707 -24.465081 23.918197
-27.204162 -45.417246 28.069402
-47.447027 -40.360852 24.944378
-34.567756 -52.472453 23.183941
-46.272305 -50.196013 21.156261
-62.392429 -38.560642 -11.616976
-62.392429 -38.560642 11.616976
-63.163205 -50.212894 -6.569022
-63.163205 -50.212894 6.569022
-5.359777 -19.790332 35.333954
-16.499577 -16.130752 36.297404
-9.297460 -24.932484 34.595461
-5.166420 -14.057615 36.271562
-39.169983 -4.052021 30.764689
-28.078843 -10.970392 35.104146
-42.515802 -11.426035 30.640568
-19.568281 -37.221081 31.662143
-21.985350 -21.307651 35.573043
-14.097415 -30.833421 33.447973
-28.905249 -36.405116 31.769943
-15.619877 -23.289574 35.352630
-4.982253 -3.079202 36.979580
-15.855123 -9.799005 36.580733
-5.059146 -8.386049 36.817758
-10.565225 -12.052540 36.656412
-47.008808 -29.053041 28.157481
-29.706286 -18.359494 34.921833
-45.299688 -20.014793 29.842488
-38.661763 -33.739270 30.697002
-36.193270 -15.254484 33.364125
-29.704560 -27.026101 34.038397
-5.156133 19.038402 33.991446
-15.042641 14.706383 33.092292
-8.607220 23.081507 32.027108
-5.023058 13.667533 35.265070
-37.331442 3.861830 29.320672
-25.378731 9.915460 31.728469
-37.367696 10.042492 26.930397
-32.615720 0.000000 32.231699
-16.217354 30.847239 26.240229
-19.020887 18.434569 30.776442
-12.398871 27.118418 29.417952
-22.540113 28.388456 24.773981
-13.899009 20.723723 31.457772
-4.950475 3.059562 36.743709
-14.959878 9.245713 34.515237
-4.972855 8.243013 36.189781
-10.116240 0.000000 36.600901
-10.065279 11.482214 34.921831
-35.584710 21.992561 21.314640
-25.296502 15.634098 29.737822
-36.742056 16.233768 24.204899
-29.109278 25.403026 23.112437
-30.988793 13.060938 28.566470
-24.032903 21.865858 27.539257
-22.121385 -6.664402 35.793153
-20.959425 6.314343 33.913063
-27.363524 -3.579789 34.420797
-15.892771 -3.274091 36.310224
-26.420274 3.456390 33.234276
-15.568468 3.207281 35.569290
-51.023790 0.000000 -22.491522
-61.104371 0.000000 -8.510858
-50.342552 7.170653 -19.511048
-55.129942 -7.852555 -21.366477
-51.023790 0.000000 22.491522
-61.104371 0.000000 8.510858
-50.342552 7.170653 19.511048
-55.129942 -7.852555 21.366477
-46.376540 20.100902 -12.423041
-58.494315 7.880930 -4.870683
-48.749438 14.050715 -16.028698
-48.704978 21.317882 -4.391725
-55.573934 7.636441 -12.658178
-60.613327 -26.271527 -16.236697
-64.280841 -8.660548 -5.352513
-58.432947 -16.841726 -19.212612
-65.436834 -28.641316 -5.900436
-60.983893 -8.379826 -13.890414
-46.376540 20.100902 12.423041
-58.494315 7.880930 4.870683
-48.749438 14.050715 16.028698
-48.704978 21.317882 4.391725
-55.573934 7.636441 12.658178
-54.347206 15.021198 0.000000
-60.613327 -26.271527 16.236697
-64.280841 -8.660548 5.352513
-58.432947 -16.841726 19.212612
-65.436834 -28.641316 5.900436
-60.983893 -8.379826 13.890414
-65.924615 -18.221116 0.000000
-23.589526 44.831017 0.000000
-17.739590 49.210479 0.000000
-4.001998 57.742681 0.000000
-11.278965 53.550070 0.000000
36.287499 68.963042 0.000000
24.282010 67.359469 0.000000
4.268312 61.585177 0.000000
13.657570 64.843172 0.000000
-36.287499 -68.963042 0.000000
-24.282010 -67.359469 0.000000
-4.268312 -61.585177 0.000000
-13.657570 -64.843172 0.000000
23.589526 -44.831017 0.000000
17.739590 -49.210479 0.000000
4.001998 -57.742681 0.000000
11.278965 -53.550070 0.000000
-40.173723 -68.227182 5.217729
-33.385188 -62.805488 14.217859
-33.922771 -68.012856 5.013174
-20.158883 -48.711235 26.039794
-26.519610 -55.947974 21.096484
-22.243690 -66.440720 4.637408
-27.904261 -62.950474 13.793206
-27.893523 -67.367339 4.821965
-30.999050 -65.819981 9.669591
-1.682976 -23.689622 33.924526
-5.356943 -29.020520 32.931530
-14.481852 -41.572269 29.351364
-9.572538 -34.958952 31.503543
-2.503173 -60.498287 4.050219
-7.517447 -59.559766 12.163485
-6.928862 -62.245685 4.187346
-15.730804 -48.827887 25.452976
-12.051057 -55.339742 19.499019
-18.560318 -52.468335 23.280745
-16.686355 -65.216636 4.491075
-12.137824 -60.833942 12.552843
-11.680967 -63.835927 4.331968
-19.728794 -64.496319 9.020965
-9.594835 -62.009247 8.436703
-24.616025 -59.565954 17.545016
-14.575082 -58.690882 16.562443
-21.553308 -56.095401 20.641807
-22.413993 -62.554691 13.449943
-16.691412 -55.868802 20.102254
-17.122198 -61.826562 13.033545
25.406474 -43.147910 3.299771
22.931268 -43.139176 9.765814
22.613986 -45.339508 3.341939
16.174418 -39.083310 20.892949
19.776875 -41.722941 15.732605
16.645912 -49.720453 3.470372
20.064650 -45.264743 9.918049
19.685169 -47.542845 3.402983
21.425147 -45.491807 6.683186
1.659018 -23.352393 33.441599
5.091200 -27.580895 31.297891
0.000000 -25.903573 32.980750
12.406460 -35.614555 25.145026
8.680618 -31.701655 28.568204
-3.614028 -31.425749 31.800167
3.484052 -30.295544 30.656496
-1.759140 -28.605476 32.436227
1.729368 -28.121359 31.887279
2.409597 -58.236669 3.898809
6.764156 -53.591533 10.944634
6.258145 -56.220277 3.782009
0.000000 -58.394748 7.867516
13.142479 -40.793814 21.264978
10.341318 -47.488442 16.732605
14.984519 -42.359875 18.795516
13.298703 -51.976401 3.579300
10.301025 -51.628034 10.653240
9.901773 -54.112720 3.672141
15.254946 -49.870652 6.975303
8.376783 -54.137252 7.365674
-4.776584 -56.301695 15.561406
4.469183 -52.678361 14.559941
-2.433481 -57.744602 11.820131
2.348438 -55.726610 11.407054
18.449441 -44.644029 13.149797
12.089519 -48.682026 13.737965
16.778126 -43.667344 16.068571
16.980731 -47.391126 10.189611
13.623453 -45.599855 16.407366
13.715824 -49.526482 10.440587
-12.572624 -44.547519 27.531881
-3.975082 -42.964842 26.553733
-10.108044 -41.067834 28.924783
-10.960900 -48.025290 25.118237
10.912491 -38.665307 23.896474
3.789547 -40.959489 25.314356
9.037594 -36.718716 25.861624
9.622116 -42.159396 22.050251
-5.667180 -34.551637 30.995669
-1.971587 -39.626563 27.844827
-7.798072 -37.709154 30.068800
-1.856200 -33.927631 30.459859
-5.924010 -40.404534 28.413597
-7.093501 -54.017395 19.197583
-2.145882 -45.971636 24.120269
-9.119088 -51.248313 22.323107
-2.306869 -52.592862 18.662962
-6.408253 -47.054728 24.662300
5.339124 -32.551547 29.201424
1.926474 -38.719851 27.207697
7.166735 -34.656195 27.634409
1.819446 -33.255850 29.856741
5.536190 -37.759420 26.553479
0.000000 -36.383469 28.923790
6.459467 -49.189189 17.481657
2.088232 -44.736581 23.472264
8.134337 -45.714117 19.912482
2.235130 -50.957326 18.082580
5.922152 -43.485371 22.791531
0.000000 -48.660042 21.298213
-25.406474 43.147910 3.299771
-22.931268 43.139176 9.765814
-22.613986 45.339508 3.341939
-16.174418 39.083310 20.892949
-19.776875 41.722941 15.732605
-16.645912 49.720453 3.470372
-20.064650 45.264743 9.918049
-19.685169 47.542845 3.402983
-21.425147 45.491807 6.683186
-1.659018 23.352393 33.441599
-5.091200 27.580895 31.297891
-12.406460 35.614555 25.145026
-8.680618 31.701655 28.568204
-2.409597 58.236669 3.898809
-6.764156 53.591533 10.944634
-6.258145 56.220277 3.782009
-13.142479 40.793814 21.264978
-10.341318 47.488442 16.732605
-14.984519 42.359875 18.795516
-13.298703 51.976401 3.579300
-10.301025 51.628034 10.653240
-9.901773 54.112720 3.672141
-15.254946 49.870652 6.975303
-8.376783 54.137252 7.365674
-18.449441 44.644029 13.149797
-12.089519 48.682026 13.737965
-16.778126 43.667344 16.068571
-16.980731 47.391126 10.189611
-13.623453 45.599855 16.407366
-13.715824 49.526482 10.440587
40.173723 68.227182 5.217729
33.385188 62.805488 14.217859
33.922771 68.012856 5.013174
20.158883 48.711235 26.039794
26.519610 55.947974 21.096484
22.243690 66.440720 4.637408
27.904261 62.950474 13.793206
27.893523 67.367339 4.821965
30.999050 65.819981 9.669591
1.682976 23.689622 33.924526
5.356943 29.020520 32.931530
0.000000 25.903573 32.980750
14.481852 41.572269 29.351364
9.572538 34.958952 31.503543
-3.484052 30.295544 30.656496
3.614028 31.425749 31.800167
-1.729368 28.121359 31.887279
1.759140 28.605476 32.436227
2.503173 60.498287 4.050219
7.517447 59.559766 12.163485
6.928862 62.245685 4.187346
0.000000 58.394748 7.867516
15.730804 48.827887 25.452976
12.051057 55.339742 19.499019
18.560318 52.468335 23.280745
16.686355 65.216636 4.491075
12.137824 60.833942 12.552843
11.680967 63.835927 4.331968
19.728794 64.496319 9.020965
9.594835 62.009247 8.436703
-4.469183 52.678361 14.559941
4.776584 56.301695 15.561406
-2.348438 55.726610 11.407054
2.433481 57.744602 11.820131
24.616025 59.565954 17.545016
14.575082 58.690882 16.562443
21.553308 56.095401 20.641807
22.413993 62.554691 13.449943
16.691412 55.868802 20.102254
17.122198 61.826562 13.033545
-10.912491 38.665307 23.896474
-3.789547 40.959489 25.314356
-9.037594 36.718716 25.861624
-9.622116 42.159396 22.050251
12.572624 44.547519 27.531881
3.975082 42.964842 26.553733
10.108044 41.067834 28.924783
10.960900 48.025290 25.118237
-5.339124 32.551547 29.201424
-1.926474 38.719851 27.207697
-7.166735 34.656195 27.634409
-1.819446 33.255850 29.856741
-5.536190 37.759420 26.553479
-6.459467 49.189189 17.481657
-2.088232 44.736581 23.472264
-8.134337 45.714117 19.912482
-2.235130 50.957326 18.082580
-5.922152 43.485371 22.791531
5.667180 34.551637 30.995669
1.971587 39.626563 27.844827
7.798072 37.709154 30.068800
1.856200 33.927631 30.459859
5.924010 40.404534 28.413597
0.000000 36.383469 28.923790
7.093501 54.017395 19.197583
2.145882 45.971636 24.120269
9.119088 51.248313 22.323107
2.306869 52.592862 18.662962
6.408253 47.054728 24.662300
0.000000 48.660042 21.298213
0.000000 -18.405912 34.979751
0.000000 -12.978337 36.002534
0.000000 -2.562839 36.977823
0.000000 -7.721005 36.657651
0.000000 18.405912 34.979751
0.000000 12.978337 36.002534
0.000000 2.562839 36.977823
0.000000 7.721005 36.657651
-40.173723 -68.227182 -5.217729
-33.385188 -62.805488 -14.217859
-33.922771 -68.012856 -5.013174
-20.158883 -48.711235 -26.039794
-26.519610 -55.947974 -21.096484
-22.243690 -66.440720 -4.637408
-27.904261 -62.950474 -13.793206
-27.893523 -67.367339 -4.821965
-30.999050 -65.819981 -9.669591
-1.682976 -23.689622 -33.924526
-5.356943 -29.020520 -32.931530
-14.481852 -41.572269 -29.351364
-9.572538 -34.958952 -31.503543
-2.503173 -60.498287 -4.050219
-7.517447 -59.559766 -12.163485
-6.928862 -62.245685 -4.187346
-15.730804 -48.827887 -25.452976
-12.051057 -55.339742 -19.499019
-18.560318 -52.468335 -23.280745
-16.686355 -65.216636 -4.491075
-12.137824 -60.833942 -12.552843
-11.680967 -63.835927 -4.331968
-19.728794 -64.496319 -9.020965
-9.594835 -62.009247 -8.436703
-24.616025 -59.565954 -17.545016
-14.575082 -58.690882 -16.562443
-21.553308 -56.095401 -20.641807
-22.413993 -62.554691 -13.449943
-16.691412 -55.868802 -20.102254
-17.122198 -61.826562 -13.033545
25.406474 -43.147910 -3.299771
22.931268 -43.139176 -9.765814
22.613986 -45.339508 -3.341939
16.174418 -39.083310 -20.892949
19.776875 -41.722941 -15.732605
16.645912 -49.720453 -3.470372
20.064650 -45.264743 -9.918049
19.685169 -47.542845 -3.402983
21.425147 -45.491807 -6.683186
1.659018 -23.352393 -33.441599
5.091200 -27.580895 -31.297891
0.000000 -25.903573 -32.980750
12.406460 -35.614555 -25.145026
8.680618 -31.701655 -28.568204
-3.614028 -31.425749 -31.800167
3.484052 -30.295544 -30.656496
-1.759140 -28.605476 -32.436227
1.729368 -28.121359 -31.887279
2.409597 -58.236669 -3.898809
6.764156 -53.591533 -10.944634
6.258145 -56.220277 -3.782009
0.000000 -58.394748 -7.867516
13.142479 -40.793814 -21.264978
10.341318 -47.488442 -16.732605
14.984519 -42.359875 -18.795516
13.298703 -51.976401 -3.579300
10.301025 -51.628034 -10.653240
9.901773 -54.112720 -3.672141
15.254946 -49.870652 -6.975303
8.376783 -54.137252 -7.365674
-4.776584 -56.301695 -15.561406
4.469183 -52.678361 -14.559941
-2.433481 -57.744602 -11.820131
2.348438 -55.726610 -11.407054
18.449441 -44.644029 -13.149797
12.089519 -48.682026 -13.737965
16.778126 -43.667344 -16.068571
16.980731 -47.391126 -10.189611
13.623453 -45.599855 -16.407366
13.715824 -49.526482 -10.440587
-12.572624 -44.547519 -27.531881
-3.975082 -42.964842 -26.553733
-10.108044 -41.067834 -28.924783
-10.960900 -48.025290 -25.118237
10.912491 -38.665307 -23.896474
3.789547 -40.959489 -25.314356
9.037594 -36.718716 -25.861624
9.622116 -42.159396 -22.050251
-5.667180 -34.551637 -30.995669
-1.971587 -39.626563 -27.844827
-7.798072 -37.709154 -30.068800
-1.856200 -33.927631 -30.459859
-5.924010 -40.404534 -28.413597
-7.093501 -54.017395 -19.197583
-2.145882 -45.971636 -24.120269
-9.119088 -51.248313 -22.323107
-2.306869 -52.592862 -18.662962
-6.408253 -47.054728 -24.662300
5.339124 -32.551547 -29.201424
1.926474 -38.719851 -27.207697
7.166735 -34.656195 -27.634409
1.819446 -33.255850 -29.856741
5.536190 -37.759420 -26.553479
0.000000 -36.383469 -28.923790
6.459467 -49.189189 -17.481657
2.088232 -44.736581 -23.472264
8.134337 -45.714117 -19.912482
2.235130 -50.957326 -18.082580
5.922152 -43.485371 -22.791531
0.000000 -48.660042 -21.298213
-25.406474 43.147910 -3.299771
-22.931268 43.139176 -9.765814
-22.613986 45.339508 -3.341939
-16.174418 39.083310 -20.892949
-19.776875 41.722941 -15.732605
-16.645912 49.720453 -3.470372
-20.064650 45.264743 -9.918049
-19.685169 47.542845 -3.402983
-21.425147 45.491807 -6.683186
-1.659018 23.352393 -33.441599
-5.091200 27.580895 -31.297891
-12.406460 35.614555 -25.145026
-8.680618 31.701655 -28.568204
-2.409597 58.236669 -3.898809
-6.764156 53.591533 -10.944634
-6.258145 56.220277 -3.782009
-13.142479 40.793814 -21.264978
-10.341318 47.488442 -16.732605
-14.984519 42.359875 -18.795516
-13.298703 51.976401 -3.579300
-10.301025 51.628034 -10.653240
-9.901773 54.112720 -3.672141
-15.254946 49.870652 -6.975303
-8.376783 54.137252 -7.365674
-18.449441 44.644029 -13.149797
-12.089519 48.682026 -13.737965
-16.778126 43.667344 -16.068571
-16.980731 47.391126 -10.189611
-13.623453 45.599855 -16.407366
-13.715824 49.526482 -10.440587
40.173723 68.227182 -5.217729
33.385188 62.805488 -14.217859
33.922771 68.012856 -5.013174
20.158883 48.711235 -26.039794
26.519610 55.947974 -21.096484
22.243690 66.440720 -4.637408
27.904261 62.950474 -13.793206
27.893523 67.367339 -4.821965
30.999050 65.819981 -9.669591
1.682976 23.689622 -33.924526
5.356943 29.020520 -32.931530
0.000000 25.903573 -32.980750
14.481852 41.572269 -29.351364
9.572538 34.958952 -31.503543
-3.484052 30.295544 -30.656496
3.614028 31.425749 -31.800167
-1.729368 28.121359 -31.887279
1.759140 28.605476 -32.436227
2.503173 60.498287 -4.050219
7.517447 59.559766 -12.163485
6.928862 62.245685 -4.187346
0.000000 58.394748 -7.867516
15.730804 48.827887 -25.452976
12.051057 55.339742 -19.499019
18.560318 52.468335 -23.280745
16.686355 65.216636 -4.491075
12.137824 60.833942 -12.552843
11.680967 63.835927 -4.331968
19.728794 64.496319 -9.020965
9.594835 62.009247 -8.436703
-4.469183 52.678361 -14.559941
4.776584 56.301695 -15.561406
-2.348438 55.726610 -11.407054
2.433481 57.744602 -11.820131
24.616025 59.565954 -17.545016
14.575082 58.690882 -16.562443
21.553308 56.095401 -20.641807
22.413993 62.554691 -13.449943
16.691412 55.868802 -20.102254
17.122198 61.826562 -13.033545
-10.912491 38.665307 -23.896474
-3.789547 40.959489 -25.314356
-9.037594 36.718716 -25.861624
-9.622116 42.159396 -22.050251
12.572624 44.547519 -27.531881
3.975082 42.964842 -26.553733
10.108044 41.067834 -28.924783
10.960900 48.025290 -25.118237
-5.339124 32.551547 -29.201424
-1.926474 38.719851 -27.207697
-7.166735 34.656195 -27.634409
-1.819446 33.255850 -29.856741
-5.536190 37.759420 -26.553479
-6.459467 49.189189 -17.481657
-2.088232 44.736581 -23.472264
-8.134337 45.714117 -19.912482
-2.235130 50.957326 -18.082580
-5.922152 43.485371 -22.791531
5.667180 34.551637 -30.995669
1.971587 39.626563 -27.844827
7.798072 37.709154 -30.068800
1.856200 33.927631 -30.459859
5.924010 40.404534 -28.413597
0.000000 36.383469 -28.923790
7.093501 54.017395 -19.197583
2.145882 45.971636 -24.120269
9.119088 51.248313 -22.323107
2.306869 52.592862 -18.662962
6.408253 47.054728 -24.662300
0.000000 48.660042 -21.298213
0.000000 -18.405912 -34.979751
0.000000 -12.978337 -36.002534
0.000000 -2.562839 -36.977823
0.000000 -7.721005 -36.657651
0.000000 18.405912 -34.979751
0.000000 12.978337 -36.002534
0.000000 2.562839 -36.977823
0.000000 7.721005 -36.657651
47.704268 68.314498 -3.389043
54.035051 61.317194 -9.974414
44.240825 66.306821 -8.537294
55.694175 39.321886 -19.401269
55.832133 50.313580 -15.288078
36.352953 59.867952 -17.103931
49.477871 58.460460 -14.613980
40.279955 63.244874 -13.133830
47.370401 62.919765 -11.738262
46.105071 3.525923 -27.147718
49.815579 11.277213 -26.480209
54.659877 29.219787 -22.620696
52.736237 19.885424 -24.997231
22.113637 45.413731 -28.067229
32.425060 45.010392 -27.817952
25.368855 49.017607 -26.073115
51.664510 37.535528 -23.198232
42.723553 42.551981 -26.298570
51.713555 42.631043 -21.480330
32.438689 56.207797 -20.693781
36.299582 48.391775 -25.368394
28.832913 52.652286 -23.611132
38.677401 56.061233 -19.889646
30.807802 48.949753 -25.868667
50.771225 53.162313 -17.285733
41.905281 47.174111 -24.471831
51.449294 47.902558 -19.506329
44.931353 55.118194 -18.767520
47.041663 45.280608 -23.190669
40.517411 51.738270 -22.361679
28.482902 -40.788701 -2.023504
32.375485 -36.738633 -5.976241
27.430154 -41.111492 -5.293285
38.646882 -27.285947 -13.462783
35.770371 -32.234761 -9.794722
24.731909 -40.729807 -11.636272
31.065715 -36.705621 -9.175693
26.170525 -41.091197 -8.533258
29.324774 -38.950650 -7.266603
44.150808 -3.376469 -25.997004
43.750909 -9.904298 -23.256444
40.964602 -21.898640 -16.952980
42.678442 -16.092899 -20.229787
17.590596 -36.124974 -22.326462
24.005602 -33.323039 -20.594771
19.481844 -37.642747 -20.022676
36.665509 -26.638388 -16.463429
30.319293 -30.197535 -18.663103
35.496888 -29.262528 -14.744391
23.071468 -39.976844 -14.718101
25.928247 -34.565519 -18.120263
21.330974 -38.952864 -17.467831
26.345457 -38.186610 -13.548010
22.741185 -36.132906 -19.095298
32.719925 -34.260882 -11.139930
29.192302 -32.862705 -17.047710
34.174901 -31.819002 -12.956969
29.570093 -36.274228 -12.351226
32.333966 -31.123509 -15.940046
27.835484 -35.544220 -15.362486
2.612688 -20.116302 -34.163591
7.651325 -17.966200 -33.798702
4.283988 -22.199909 -33.272557
2.567833 -17.375821 -34.837342
17.537616 -13.576865 -32.806672
12.575676 -15.808417 -33.350751
7.771151 -26.310425 -31.087020
9.386333 -19.949853 -32.854466
6.015301 -24.275078 -32.243387
6.868429 -21.064686 -33.074352
2.505082 -12.015825 -35.890630
7.558810 -15.291805 -34.497469
2.534801 -14.663010 -35.413525
5.094243 -16.331270 -34.676026
40.655893 -2.016915 -28.390161
34.140650 -5.553629 -30.086043
40.739914 -5.245443 -27.182232
22.686662 -11.193513 -32.132612
28.174216 -8.560902 -31.264453
40.414551 -11.546206 -24.540480
34.240713 -8.559513 -28.979546
40.653259 -8.442313 -25.891607
37.411004 -6.979368 -28.165621
15.313200 -34.103847 -24.777278
17.026360 -27.660309 -27.549229
13.406870 -32.276827 -26.608010
18.532364 -32.880499 -24.012864
19.573356 -15.421476 -31.670356
18.417270 -21.467471 -29.799769
17.026314 -16.566416 -32.009569
9.665605 -28.389576 -29.726593
15.088491 -25.837357 -29.085936
11.508300 -30.353938 -28.261443
10.487914 -25.109133 -30.801878
14.298719 -29.004577 -27.918759
24.897061 -30.178901 -22.374231
20.147857 -26.493819 -26.881925
21.740824 -31.565381 -23.208800
19.385227 -29.647257 -25.531386
11.998886 -18.808941 -32.590996
15.818740 -22.635003 -30.175222
14.492265 -17.697340 -32.317421
11.265925 -21.907715 -31.754293
16.452073 -19.593286 -31.131287
13.180295 -23.881543 -30.495278
2.473659 -1.528805 -36.949140
7.433766 -4.594320 -36.400205
2.476399 -4.097734 -36.812143
17.507186 -10.820036 -33.585028
12.434480 -7.684932 -35.290028
15.017509 -11.972544 -33.845295
2.499246 -9.285819 -36.292521
7.441877 -7.195836 -36.065036
2.483211 -6.695873 -36.592627
5.003421 -10.942452 -35.772477
4.966942 -5.648770 -36.506718
10.102320 -14.173767 -34.297736
10.007040 -8.806276 -35.461075
12.541590 -13.095401 -34.082553
7.547900 -12.578386 -35.104724
12.496683 -10.376313 -34.731164
7.510977 -9.867188 -35.629438
37.867830 -23.403606 -18.439257
33.118889 -20.468599 -23.858534
38.718223 -20.594736 -20.038452
34.617424 -25.281352 -19.511343
22.676932 -14.015115 -31.212897
27.927275 -17.260005 -28.039879
25.368451 -12.782298 -30.773180
22.118920 -17.070678 -30.287147
39.978724 -14.718794 -23.072553
33.598437 -17.613290 -25.202820
39.428522 -17.681133 -21.591449
37.116498 -13.168351 -25.607172
36.221588 -19.142164 -22.796999
28.207785 -28.621000 -21.451284
29.885166 -22.156460 -24.654735
31.380102 -27.023663 -20.518270
25.808764 -26.940809 -23.977079
32.314405 -23.759528 -22.256718
31.082209 -10.106384 -29.684221
30.811076 -15.983416 -27.369817
28.180235 -11.475232 -30.266718
34.114583 -11.615876 -27.809590
28.094669 -14.388812 -29.187328
33.896921 -14.650511 -26.545446
20.877746 -23.231838 -28.160405
27.247740 -20.422033 -26.854352
21.518333 -20.157281 -29.266243
23.333992 -25.116550 -26.218232
24.698476 -18.752823 -28.680075
26.593201 -23.667711 -25.475763
2.666081 20.527396 -34.861753
8.087152 18.989573 -35.723909
4.442192 23.019734 -34.501287
2.613419 17.684292 -35.455807
19.374625 14.998997 -36.243065
13.657032 17.167750 -36.218513
8.389174 28.402837 -33.559304
10.116946 21.502710 -35.411792
6.356418 25.651675 -34.071853
7.268704 22.292283 -35.001842
2.536174 12.164960 -36.336087
7.925614 16.033866 -36.171517
2.573035 14.884183 -35.947692
5.267907 16.888007 -35.858141
41.702320 2.068828 -29.120885
36.517670 5.940297 -32.180764
43.581191 5.611269 -29.077972
38.310644 0.000000 -30.089752
25.179846 12.423640 -35.663872
30.949431 9.404167 -34.344063
47.020560 13.433504 -28.551773
38.056842 9.513472 -32.209318
45.378404 9.423566 -28.900999
40.876127 7.625818 -30.774409
31.890015 -3.624239 -31.514539
33.250474 3.778853 -32.858979
35.013408 -1.898910 -30.878290
35.816771 1.942479 -31.586775
18.501088 41.203556 -29.935390
20.438606 33.203700 -33.070359
15.698633 37.794210 -31.156369
23.248230 41.247486 -30.123334
22.192423 17.484989 -35.908095
21.634218 25.217199 -35.004901
19.145394 18.628259 -35.993453
10.700989 31.430677 -32.910916
17.574806 30.094894 -33.878782
13.085395 34.513634 -32.134383
11.607399 27.789296 -34.089688
16.730295 33.936963 -32.666496
33.191078 40.232470 -29.827812
24.866645 32.698882 -33.177886
28.205349 40.951189 -30.109820
24.168879 36.963248 -31.831712
13.155446 20.621917 -35.732410
18.269361 26.141591 -34.849933
16.111396 19.674553 -35.928045
12.427681 24.166865 -35.028834
18.779220 22.364758 -35.534810
14.923644 27.040341 -34.528871
2.477615 1.531250 -37.008235
7.541747 4.661056 -36.928944
2.487024 4.115315 -36.970082
4.973895 0.000000 -36.917539
18.951861 11.712894 -36.356429
12.945209 8.000579 -36.739515
16.195512 12.911694 -36.500187
2.523468 9.375813 -36.644250
7.611897 7.360234 -36.888988
2.500594 6.742745 -36.848782
5.118589 11.194323 -36.595881
5.026090 5.716036 -36.941449
10.035777 -3.080488 -36.309783
10.166915 3.120741 -36.784244
7.509093 -1.545942 -36.683995
7.545840 1.553507 -36.863511
10.721660 15.042714 -36.400418
10.385783 9.139572 -36.803192
13.434795 14.028048 -36.509895
7.851721 13.084697 -36.517776
13.197851 10.958511 -36.679873
7.748251 10.178895 -36.754981
51.250231 31.674385 -24.955646
42.609271 26.333978 -30.695316
50.608195 26.919169 -26.192057
47.426468 34.635889 -26.730876
25.850715 15.976621 -35.581343
33.830952 20.908678 -33.967360
28.929177 14.576427 -35.092517
25.843651 19.945307 -35.387372
48.497152 17.854986 -27.988715
41.839919 21.933718 -31.384911
49.685871 22.280888 -27.208475
43.999850 15.610456 -30.356090
46.280525 24.458050 -29.127853
38.361783 38.923743 -29.173134
38.584845 28.606285 -31.831817
43.063164 37.084788 -28.157385
33.830406 35.314302 -31.429413
43.015895 31.627918 -29.627426
35.017585 11.385972 -33.442595
37.258394 19.327998 -33.097041
32.010564 13.034974 -34.380646
39.432307 13.426540 -32.144502
32.985194 16.893517 -34.268056
40.713474 17.596678 -31.883644
25.386667 28.249167 -34.242146
33.998045 25.481350 -33.507200
25.696505 24.071179 -34.948811
29.447869 31.697486 -33.087826
29.811611 22.635076 -34.617490
34.089541 30.339387 -32.657109
20.541221 -9.380291 -33.236393
21.332054 -3.193399 -34.515989
23.173699 -8.098273 -32.902360
17.907821 -7.814475 -34.239197
22.243431 10.157617 -35.990628
21.921145 3.281585 -35.469158
25.005010 8.738242 -35.502482
18.981068 8.282810 -36.291213
28.771488 -5.260516 -32.072287
24.045890 -1.702599 -34.220216
25.927834 -6.724150 -32.515987
29.435439 -1.793772 -32.786583
23.630379 -4.926747 -33.602731
12.709156 -4.696029 -35.760516
18.538635 -1.649307 -35.333411
15.281700 -6.242642 -35.082991
12.835065 -1.586501 -36.169651
18.253935 -4.743103 -34.827811
30.473391 5.571688 -33.969441
24.430412 1.729825 -34.767437
27.771717 7.202344 -34.828392
30.011820 1.828896 -33.428584
24.749428 5.160060 -35.194034
26.929050 0.000000 -33.874270
13.031017 4.814957 -36.666155
18.768635 1.669769 -35.771776
15.903078 6.496478 -36.509520
12.943844 1.599947 -36.476192
18.914677 4.914790 -36.088482
15.753847 0.000000 -35.992825
47.704268 68.314498 3.389043
54.035051 61.317194 9.974414
44.240825 66.306821 8.537294
53.037183 67.527598 0.000000
55.694175 39.321886 19.401269
55.832133 50.313580 15.288078
36.352953 59.867952 17.103931
49.477871 58.460460 14.613980
40.279955 63.244874 13.133830
47.370401 62.919765 11.738262
59.090674 59.794703 -6.795553
59.090674 59.794703 6.795553
56.978980 64.609416 -3.504014
56.978980 64.609416 3.504014
46.105071 3.525923 27.147718
49.815579 11.277213 26.480209
54.659877 29.219787 22.620696
52.736237 19.885424 24.997231
22.113637 45.413731 28.067229
32.425060 45.010392 27.817952
25.368855 49.017607 26.073115
51.664510 37.535528 23.198232
42.723553 42.551981 26.298570
51.713555 42.631043 21.480330
32.438689 56.207797 20.693781
36.299582 48.391775 25.368394
28.832913 52.652286 23.611132
38.677401 56.061233 19.889646
30.807802 48.949753 25.868667
50.771225 53.162313 17.285733
41.905281 47.174111 24.471831
51.449294 47.902558 19.506329
44.931353 55.118194 18.767520
47.041663 45.280608 23.190669
40.517411 51.738270 22.361679
59.048442 36.493944 -16.665213
64.862624 40.087306 -6.001051
59.563736 41.951765 -14.660449
59.048442 36.493944 16.665213
64.862624 40.087306 6.001051
59.563736 41.951765 14.660449
59.894283 53.730113 -9.823897
65.038737 45.701475 -3.235949
59.898816 47.762554 -12.386788
62.697948 56.289537 -3.430240
62.936534 44.258729 -9.227594
59.894283 53.730113 9.823897
65.038737 45.701475 3.235949
59.898816 47.762554 12.386788
62.697948 56.289537 3.430240
62.936534 44.258729 9.227594
64.536706 51.304788 0.000000
28.482902 -40.788701 2.023504
32.375485 -36.738633 5.976241
27.430154 -41.111492 5.293285
30.665774 -39.044043 0.000000
38.646882 -27.285947 13.462783
35.770371 -32.234761 9.794722
24.731909 -40.729807 11.636272
31.065715 -36.705621 9.175693
26.170525 -41.091197 8.533258
29.324774 -38.950650 7.266603
34.722565 -35.136263 -3.993169
34.722565 -35.136263 3.993169
32.759031 -37.146012 -2.014569
32.759031 -37.146012 2.014569
44.150808 -3.376469 25.997004
43.750909 -9.904298 23.256444
40.964602 -21.898640 16.952980
42.678442 -16.092899 20.229787
17.590596 -36.124974 22.326462
24.005602 -33.323039 20.594771
19.481844 -37.642747 20.022676
36.665509 -26.638388 16.463429
30.319293 -30.197535 18.663103
35.496888 -29.262528 14.744391
23.071468 -39.976844 14.718101
25.928247 -34.565519 18.120263
21.330974 -38.952864 17.467831
26.345457 -38.186610 13.548010
22.741185 -36.132906 19.095298
32.719925 -34.260882 11.139930
29.192302 -32.862705 17.047710
34.174901 -31.819002 12.956969
29.570093 -36.274228 12.351226
32.333966 -31.123509 15.940046
27.835484 -35.544220 15.362486
41.528457 -25.665998 -11.720556
43.491581 -26.879275 -4.023815
40.039017 -28.200169 -9.854821
41.528457 -25.665998 11.720556
43.491581 -26.879275 4.023815
40.039017 -28.200169 9.854821
36.668743 -32.894888 -6.014429
41.481813 -29.148476 -2.063893
38.405363 -30.623948 -7.942045
37.078007 -33.288232 -2.028558
40.997299 -28.830446 -6.010919
36.668743 -32.894888 6.014429
41.481813 -29.148476 2.063893
38.405363 -30.623948 7.942045
37.078007 -33.288232 2.028558
40.997299 -28.830446 6.010919
39.349549 -31.281737 0.000000
2.612688 -20.116302 34.163591
7.651325 -17.966200 33.798702
4.283988 -22.199909 33.272557
2.567833 -17.375821 34.837342
17.537616 -13.576865 32.806672
12.575676 -15.808417 33.350751
7.771151 -26.310425 31.087020
9.386333 -19.949853 32.854466
6.015301 -24.275078 32.243387
6.868429 -21.064686 33.074352
2.505082 -12.015825 35.890630
7.558810 -15.291805 34.497469
2.534801 -14.663010 35.413525
5.094243 -16.331270 34.676026
40.655893 -2.016915 28.390161
34.140650 -5.553629 30.086043
40.739914 -5.245443 27.182232
22.686662 -11.193513 32.132612
28.174216 -8.560902 31.264453
40.414551 -11.546206 24.540480
34.240713 -8.559513 28.979546
40.653259 -8.442313 25.891607
37.411004 -6.979368 28.165621
15.313200 -34.103847 24.777278
17.026360 -27.660309 27.549229
13.406870 -32.276827 26.608010
18.532364 -32.880499 24.012864
19.573356 -15.421476 31.670356
18.417270 -21.467471 29.799769
17.026314 -16.566416 32.009569
9.665605 -28.389576 29.726593
15.088491 -25.837357 29.085936
11.508300 -30.353938 28.261443
10.487914 -25.109133 30.801878
14.298719 -29.004577 27.918759
24.897061 -30.178901 22.374231
20.147857 -26.493819 26.881925
21.740824 -31.565381 23.208800
19.385227 -29.647257 25.531386
11.998886 -18.808941 32.590996
15.818740 -22.635003 30.175222
14.492265 -17.697340 32.317421
11.265925 -21.907715 31.754293
16.452073 -19.593286 31.131287
13.180295 -23.881543 30.495278
2.473659 -1.528805 36.949140
7.433766 -4.594320 36.400205
2.476399 -4.097734 36.812143
17.507186 -10.820036 33.585028
12.434480 -7.684932 35.290028
15.017509 -11.972544 33.845295
2.499246 -9.285819 36.292521
7.441877 -7.195836 36.065036
2.483211 -6.695873 36.592627
5.003421 -10.942452 35.772477
4.966942 -5.648770 36.506718
10.102320 -14.173767 34.297736
10.007040 -8.806276 35.461075
12.541590 -13.095401 34.082553
7.547900 -12.578386 35.104724
12.496683 -10.376313 34.731164
7.510977 -9.867188 35.629438
37.867830 -23.403606 18.439257
33.118889 -20.468599 23.858534
38.718223 -20.594736 20.038452
34.617424 -25.281352 19.511343
22.676932 -14.015115 31.212897
27.927275 -17.260005 28.039879
25.368451 -12.782298 30.773180
22.118920 -17.070678 30.287147
39.978724 -14.718794 23.072553
33.598437 -17.613290 25.202820
39.428522 -17.681133 21.591449
37.116498 -13.168351 25.607172
36.221588 -19.142164 22.796999
28.207785 -28.621000 21.451284
29.885166 -22.156460 24.654735
31.380102 -27.023663 20.518270
25.808764 -26.940809 23.977079
32.314405 -23.759528 22.256718
31.082209 -10.106384 29.684221
30.811076 -15.983416 27.369817
28.180235 -11.475232 30.266718
34.114583 -11.615876 27.809590
28.094669 -14.388812 29.187328
33.896921 -14.650511 26.545446
20.877746 -23.231838 28.160405
27.247740 -20.422033 26.854352
21.518333 -20.157281 29.266243
23.333992 -25.116550 26.218232
24.698476 -18.752823 28.680075
26.593201 -23.667711 25.475763
2.666081 20.527396 34.861753
8.087152 18.989573 35.723909
4.442192 23.019734 34.501287
2.613419 17.684292 35.455807
19.374625 14.998997 36.243065
13.657032 17.167750 36.218513
8.389174 28.402837 33.559304
10.116946 21.502710 35.411792
