4.441475938 -2.74498309 32.96578944
13.62935265 -8.42340318 31.44546555
4.459526026 -7.392117658 32.45404441
9.085091622 -10.36404124 31.52103747
34.51742747 -21.33294338 20.67535535
23.66669473 -14.62682175 27.82186827
35.80068907 -15.81784362 23.58474642
27.46546049 -23.96850303 21.80726446
29.52254179 -12.44295235 27.21483229
22.33376266 -20.31992854 25.59221472
4.695813339 17.3387268 30.95682154
14.47240628 14.14889525 31.8378324
8.057536065 21.60744966 29.9817568
4.564010798 12.41848369 32.04226409
37.1613451 3.844233566 29.18707491
25.26471882 9.870914799 31.58593059
39.79820284 10.69568594 28.68203054
30.65300699 0 30.29209533
16.75254017 31.865225 27.1061794
19.11190181 18.5227774 30.92370672
12.0999066 26.46453348 28.70862063
24.92899727 31.39717001 27.39961941
13.51767596 20.15514676 30.5946958
4.45723338 2.754721725 33.08274527
14.09576865 8.711664121 32.52157449
4.502587732 7.463496812 32.76742446
9.098595754 0 32.91902869
9.340401376 10.65529211 32.40684344
43.0313532 26.59483886 25.77505289
26.23882459 16.21648542 30.84558827
41.7602649 18.45096721 27.51079054
34.12631328 29.78128269 27.09590611
32.75482837 13.80527366 30.19445842
25.76741062 23.44396465 29.52682516
19.31095354 -5.817716505 31.24577918
19.94263996 6.008021582 32.26786927
24.57954494 -3.215579664 30.91880772
14.14585243 -2.914205867 32.31903831
25.11971452 3.286246485 31.59829138
14.31435282 2.948918857 32.70401127
51.28060265 0 -22.6047255
63.56118955 0 -8.853053702
54.82064708 7.80850019 -21.24660447
51.49990788 -7.335503352 -19.95959974
51.28060265 0 22.6047255
63.56118955 0 8.853053702
54.82064708 7.80850019 21.24660447
51.49990788 -7.335503352 19.95959974
59.22699896 25.67065365 -15.86533647
65.47666591 8.82166152 -5.452086657
57.40355223 16.54503066 -18.87414978
64.72276976 28.32877454 -5.836048508
61.66309794 8.473156279 -14.04511775
47.64802821 -20.65200079 -12.76363843
62.24019684 -8.385612521 -5.182593555
50.23679976 -14.47940693 -16.51773882
51.05483352 -22.34639947 -4.603611466
58.29235765 -8.009981217 -13.27735801
59.22699896 25.67065365 15.86533647
65.47666591 8.82166152 5.452086657
57.40355223 16.54503066 18.87414978
64.72276976 28.32877454 5.836048508
61.66309794 8.473156279 14.04511775
66.06772528 18.26067016 0
47.64802821 -20.65200079 12.76363843
62.24019684 -8.385612521 5.182593555
50.23679976 -14.47940693 16.51773882
51.05483352 -22.34639947 4.603611466
58.29235765 -8.009981217 13.27735801
58.14471046 -16.07080272 0
-29.30450721 37.31086136 -3.859700589
-36.66173268 29.32471358 -11.45715301
-26.39861791 36.62981771 -9.84418889
-43.78968605 6.642419397 -24.52633589
-41.86967556 19.0325443 -18.60709756
-18.99807439 31.71721325 -19.60231582
-32.18433077 27.37762699 -16.92030401
-22.76125955 34.55066938 -15.26554655
-29.6010696 32.11112254 -13.53396907
-52.01543976 -66.22670183 -6.850960572
-53.74533194 -42.98941567 -16.79594625
-41.682929 -57.83780408 -15.54379203
-46.58806588 -7.0669032 -26.09369135
-51.18079555 -23.26506584 -22.74500682
-23.71668042 -39.59490814 -24.47099901
-43.74718688 -37.21357988 -22.99925721
-31.47802985 -47.78237336 -21.11171962
-43.4811713 -47.16820164 -19.8801204
-4.695813339 -17.3387268 -30.95682154
-14.47240628 -14.14889525 -31.8378324
-8.057536065 -21.60744966 -29.9817568
-4.564010798 -12.41848369 -32.04226409
-37.1613451 -3.844233566 -29.18707491
-25.26471882 -9.870914799 -31.58593059
-39.79820284 -10.69568594 -28.68203054
-16.75254017 -31.865225 -27.1061794
-19.11190181 -18.5227774 -30.92370672
-12.0999066 -26.46453348 -28.70862063
-24.92899727 -31.39717001 -27.39961941
-13.51767596 -20.15514676 -30.5946958
-4.45723338 -2.754721725 -33.08274527
-14.09576865 -8.711664121 -32.52157449
-4.502587732 -7.463496812 -32.76742446
-9.340401376 -10.65529211 -32.40684344
-43.0313532 -26.59483886 -25.77505289
-26.23882459 -16.21648542 -30.84558827
-41.7602649 -18.45096721 -27.51079054
-34.12631328 -29.78128269 -27.09590611
-32.75482837 -13.80527366 -30.19445842
-25.76741062 -23.44396465 -29.52682516
-4.589518955 16.94624756 -30.25608323
-13.70084061 13.39457688 -30.14046582
-7.681654356 20.59946843 -28.58311659
-4.491323889 12.22070563 -31.53195567
-35.96229792 3.720195606 -28.24532536
-23.72064909 9.267647418 -29.65553589
-36.35889798 9.771379766 -26.2033697
-30.65300699 0 -30.29209533
-14.62719927 27.82258636 -23.66730558
-17.46307791 16.92477849 -28.2558536
-11.11426794 24.30877573 -26.3700632
-20.74796891 26.13131607 -22.80422455
-12.57786477 18.75386799 -28.46761142
-4.441475938 2.74498309 -32.96578944
-13.62935265 8.42340318 -31.44546555
-4.459526026 7.392117658 -32.45404441
-9.098595754 0 -32.91902869
-9.085091622 10.36404124 -31.52103747
-34.51742747 21.33294338 -20.67535535
-23.66669473 14.62682175 -27.82186827
-35.80068907 15.81784362 -23.58474642
-27.46546049 23.96850303 -21.80726446
-29.52254179 12.44295235 -27.21483229
-22.33376266 20.31992854 -25.59221472
-19.94263996 -6.008021582 -32.26786927
-19.31095354 5.817716505 -31.24577918
-25.11971452 -3.286246485 -31.59829138
-14.31435282 -2.948918857 -32.70401127
-24.57954494 3.215579664 -30.91880772
-14.14585243 2.914205867 -32.31903831
-29.30450721 37.31086136 3.859700589
-36.66173268 29.32471358 11.45715301
-26.39861791 36.62981771 9.84418889
-34.26004438 34.66823171 0
-43.78968605 6.642419397 24.52633589
-41.86967556 19.0325443 18.60709756
-18.99807439 31.71721325 19.60231582
-32.18433077 27.37762699 16.92030401
-22.76125955 34.55066938 15.26554655
-29.6010696 32.11112254 13.53396907
-43.38527894 26.813577 -8.077995173
-43.38527894 26.813577 8.077995173
-39.11183475 31.09276104 -4.067660745
-39.11183475 31.09276104 4.067660745
-52.01543976 -66.22670183 6.850960572
-53.74533194 -42.98941567 16.79594625
-41.682929 -57.83780408 15.54379203
-59.85300254 -60.56611421 0
-46.58806588 -7.0669032 26.09369135
-51.18079555 -23.26506584 22.74500682
-23.71668042 -39.59490814 24.47099901
-43.74718688 -37.21357988 22.99925721
-31.47802985 -47.78237336 21.11171962
-43.4811713 -47.16820164 19.8801204
-60.9330549 -37.65869896 -11.34525201
-60.9330549 -37.65869896 11.34525201
-61.67569843 -49.03037062 -6.414319836
-61.67569843 -49.03037062 6.414319836
-4.695813339 -17.3387268 30.95682154
-14.47240628 -14.14889525 31.8378324
-8.057536065 -21.60744966 29.9817568
-4.564010798 -12.41848369 32.04226409
-37.1613451 -3.844233566 29.18707491
-25.26471882 -9.870914799 31.58593059
-39.79820284 -10.69568594 28.68203054
-16.75254017 -31.865225 27.1061794
-19.11190181 -18.5227774 30.92370672
-12.0999066 -26.46453348 28.70862063
-24.92899727 -31.39717001 27.39961941
-13.51767596 -20.15514676 30.5946958
-4.45723338 -2.754721725 33.08274527
-14.09576865 -8.711664121 32.52157449
-4.502587732 -7.463496812 32.76742446
-9.340401376 -10.65529211 32.40684344
-43.0313532 -26.59483886 25.77505289
-26.23882459 -16.21648542 30.84558827
-41.7602649 -18.45096721 27.51079054
-34.12631328 -29.78128269 27.09590611
-32.75482837 -13.80527366 30.19445842
-25.76741062 -23.44396465 29.52682516
-4.589518955 16.94624756 30.25608323
-13.70084061 13.39457688 30.14046582
-7.681654356 20.59946843 28.58311659
-4.491323889 12.22070563 31.53195567
-35.96229792 3.720195606 28.24532536
-23.72064909 9.267647418 29.65553589
-36.35889798 9.771379766 26.2033697
-30.65300699 0 30.29209533
-14.62719927 27.82258636 23.66730558
-17.46307791 16.92477849 28.2558536
-11.11426794 24.30877573 26.3700632
-20.74796891 26.13131607 22.80422455
-12.57786477 18.75386799 28.46761142
-4.441475938 2.74498309 32.96578944
-13.62935265 8.42340318 31.44546555
-4.459526026 7.392117658 32.45404441
-9.098595754 0 32.91902869
-9.085091622 10.36404124 31.52103747
-34.51742747 21.33294338 20.67535535
-23.66669473 14.62682175 27.82186827
-35.80068907 15.81784362 23.58474642
-27.46546049 23.96850303 21.80726446
-29.52254179 12.44295235 27.21483229
-22.33376266 20.31992854 25.59221472
-19.94263996 -6.008021582 32.26786927
-19.31095354 5.817716505 31.24577918
-25.11971452 -3.286246485 31.59829138
-14.31435282 -2.948918857 32.70401127
-24.57954494 3.215579664 30.91880772
-14.14585243 2.914205867 32.31903831
-51.28060265 0 -22.6047255
-63.56118955 0 -8.853053702
-51.49990788 7.335503352 -19.95959974
-54.82064708 -7.80850019 -21.24660447
-51.28060265 0 22.6047255
-63.56118955 0 8.853053702
-51.49990788 7.335503352 19.95959974
-54.82064708 -7.80850019 21.24660447
-47.64802821 20.65200079 -12.76363843
-62.24019684 8.385612521 -5.182593555
-50.23679976 14.47940693 -16.51773882
-51.05483352 22.34639947 -4.603611466
-58.29235765 8.009981217 -13.27735801
-59.22699896 -25.67065365 -15.86533647
-65.47666591 -8.82166152 -5.452086657
-57.40355223 -16.54503066 -18.87414978
-64.72276976 -28.32877454 -5.836048508
-61.66309794 -8.473156279 -14.04511775
-47.64802821 20.65200079 12.76363843
-62.24019684 8.385612521 5.182593555
-50.23679976 14.47940693 16.51773882
-51.05483352 22.34639947 4.603611466
-58.29235765 8.009981217 13.27735801
-58.14471046 16.07080272 0
-59.22699896 -25.67065365 15.86533647
-65.47666591 -8.82166152 5.452086657
-57.40355223 -16.54503066 18.87414978
-64.72276976 -28.32877454 5.836048508
-61.66309794 -8.473156279 14.04511775
-66.06772528 -18.26067016 0
-22.15304768 42.10104238 0
-16.41748328 45.54289181 0
-3.67517652 53.02715005 0
-10.34992346 49.13918432 0
37.6088691 71.47425558 0
24.290894 67.38411355 0
3.97479373 57.35016601 0
13.10182841 62.20463021 0
-37.6088691 -71.47425558 0
-24.290894 -67.38411355 0
-3.97479373 -57.35016601 0
-13.10182841 -62.20463021 0
22.15304768 -42.10104238 0
16.41748328 -45.54289181 0
3.67517652 -53.02715005 0
10.34992346 -49.13918432 0
-41.3864976 -70.28684275 5.375243136
-32.37661473 -60.90812271 13.78833492
-34.68195087 -69.5349594 5.125366654
-17.57941038 -42.47828612 22.70781686
-24.09774476 -50.83860651 19.16987845
-21.92524312 -65.48953569 4.571017271
-26.76728929 -60.38552864 13.23119526
-28.05275579 -67.75191082 4.849491707
-30.78074863 -65.35646406 9.601495946
-1.473986668 -20.74788118 29.71182974
-4.641675293 -25.14565419 28.53445947
-12.43455425 -35.69520306 25.20196613
-8.225704893 -30.0403124 27.0710715
-2.313898117 -55.92376509 3.7439658
-6.856120424 -54.32015752 11.09343588
-6.472955972 -58.15003716 3.911826076
-13.6834752 -42.47304674 22.14032797
-10.71889874 -49.22233078 17.34354248
-16.37445526 -46.28909853 20.53895333
-16.102924 -62.93636345 4.334046271
-11.17871789 -56.02696892 11.56094321
-11.072651 -60.51150957 4.106369566
-18.94095471 -61.9207552 8.660726047
-8.927408512 -57.69581977 7.849837206
-22.80979672 -55.19523519 16.25763058
-13.23228241 -53.2837012 15.03654781
-19.42293792 -50.55082507 18.60153199
-21.1935549 -59.14859843 12.71759574
-14.93122206 -49.97716589 17.98237427
-15.9618874 -57.63679486 12.1503077
23.97120308 -40.71038332 3.113359484
21.308746 -40.08682585 9.074825428
21.1513265 -42.40697519 3.125784474
14.5418151 -35.13834477 18.78406995
18.04568663 -38.07068136 14.35543545
15.35158617 -45.85437181 3.200528502
18.48661435 -41.70478258 9.138019223
18.27032095 -44.12575951 3.158398077
19.90631155 -42.26687763 6.209412642
1.461122829 -20.56680938 29.4525274
4.491506361 -24.33213412 27.61130371
0 -22.68866566 28.88749
11.04716172 -31.71249028 22.39004228
7.684686133 -28.06450938 25.29056056
-3.132312292 -27.23699418 27.56150619
3.056700253 -26.57951036 26.89618886
-1.532408365 -24.91858377 28.25559805
1.51562039 -24.64559351 27.94604984
2.210475647 -53.42418489 3.576624728
6.099874482 -48.3285185 9.86980424
5.725751186 -51.43749558 3.460264969
0 -53.30389596 7.181626024
11.71949522 -36.37691894 18.9625416
9.224928304 -42.36185858 14.92624754
13.44849869 -38.01768494 16.8688413
12.20389387 -47.69746785 3.284635802
9.313705347 -46.67965369 9.632161721
9.061967839 -49.52322201 3.360693744
13.97635823 -45.69076216 6.39067099
7.619285919 -49.24171965 6.69960986
-4.274255965 -50.38074846 13.9248964
3.989037897 -47.01887686 12.99569794
-2.201625163 -52.24284925 10.69393995
2.117036144 -50.23561774 10.28306624
16.8367576 -40.7416518 12.00036057
10.87895368 -43.80732658 12.36233493
15.17717308 -39.50064736 14.53532271
15.52309031 -43.32303099 9.314925607
12.22941901 -40.93380302 14.72846555
12.45793725 -44.98437784 9.483074722
-10.83772853 -38.40040896 23.73275792
-3.439362188 -37.17449523 22.97510157
-8.690806735 -35.30975868 24.86927124
-9.510518782 -41.67043025 21.79451189
9.673443852 -34.27509732 21.18317511
3.311125387 -35.78844222 22.11847369
7.981576126 -32.42823543 22.83976478
8.509475087 -37.2843476 19.50049836
-4.889999111 -29.81332192 26.74500966
-1.707564361 -34.32002261 24.11602248
-6.709319789 -32.44427194 25.87064969
-1.610127556 -29.42992411 26.42186642
-5.108661805 -34.84347707 24.50290652
-6.27259032 -47.76611364 16.9759011
-1.865838976 -39.97221394 20.97250887
-7.981207796 -44.85354615 19.5376284
-2.035785105 -46.41258995 16.46984747
-5.560149874 -40.82725026 21.398358
4.691734195 -28.60454137 25.66063377
1.677929983 -33.72440669 23.69749458
6.311256291 -30.51935544 24.33574576
1.587976408 -29.02504525 26.05837058
4.853189138 -33.10103328 23.27757137
0 -31.61168333 25.13036073
5.727232324 -43.61318308 15.49996485
1.823367511 -39.06233987 20.4951187
7.192375735 -40.42039316 17.60660392
1.974470862 -45.01472492 15.97380482
5.200256855 -38.18461603 20.01330187
0 -42.60394668 18.64749615
-23.97120308 40.71038332 3.113359484
-21.308746 40.08682585 9.074825428
-21.1513265 42.40697519 3.125784474
-14.5418151 35.13834477 18.78406995
-18.04568663 38.07068136 14.35543545
-15.35158617 45.85437181 3.200528502
-18.48661435 41.70478258 9.138019223
-18.27032095 44.12575951 3.158398077
-19.90631155 42.26687763 6.209412642
-1.461122829 20.56680938 29.4525274
-4.491506361 24.33213412 27.61130371
-11.04716172 31.71249028 22.39004228
-7.684686133 28.06450938 25.29056056
-2.210475647 53.42418489 3.576624728
-6.099874482 48.3285185 9.86980424
-5.725751186 51.43749558 3.460264969
-11.71949522 36.37691894 18.9625416
-9.224928304 42.36185858 14.92624754
-13.44849869 38.01768494 16.8688413
-12.20389387 47.69746785 3.284635802
-9.313705347 46.67965369 9.632161721
-9.061967839 49.52322201 3.360693744
-13.97635823 45.69076216 6.39067099
-7.619285919 49.24171965 6.69960986
-16.8367576 40.7416518 12.00036057
-10.87895368 43.80732658 12.36233493
-15.17717308 39.50064736 14.53532271
-15.52309031 43.32303099 9.314925607
-12.22941901 40.93380302 14.72846555
-12.45793725 44.98437784 9.483074722
41.3864976 70.28684275 5.375243136
32.37661473 60.90812271 13.78833492
34.68195087 69.5349594 5.125366654
17.57941038 42.47828612 22.70781686
24.09774476 50.83860651 19.16987845
21.92524312 65.48953569 4.571017271
26.76728929 60.38552864 13.23119526
28.05275579 67.75191082 4.849491707
30.78074863 65.35646406 9.601495946
1.473986668 20.74788118 29.71182974
4.641675293 25.14565419 28.53445947
0 22.68866566 28.88749
12.43455425 35.69520306 25.20196613
8.225704893 30.0403124 27.0710715
-3.056700253 26.57951036 26.89618886
3.132312292 27.23699418 27.56150619
-1.51562039 24.64559351 27.94604984
1.532408365 24.91858377 28.25559805
2.313898117 55.92376509 3.7439658
6.856120424 54.32015752 11.09343588
6.472955972 58.15003716 3.911826076
0 53.30389596 7.181626024
13.6834752 42.47304674 22.14032797
10.71889874 49.22233078 17.34354248
16.37445526 46.28909853 20.53895333
16.102924 62.93636345 4.334046271
11.17871789 56.02696892 11.56094321
11.072651 60.51150957 4.106369566
18.94095471 61.9207552 8.660726047
8.927408512 57.69581977 7.849837206
-3.989037897 47.01887686 12.99569794
4.274255965 50.38074846 13.9248964
-2.117036144 50.23561774 10.28306624
2.201625163 52.24284925 10.69393995
22.80979672 55.19523519 16.25763058
13.23228241 53.2837012 15.03654781
19.42293792 50.55082507 18.60153199
21.1935549 59.14859843 12.71759574
14.93122206 49.97716589 17.98237427
15.9618874 57.63679486 12.1503077
-9.673443852 34.27509732 21.18317511
-3.311125387 35.78844222 22.11847369
-7.981576126 32.42823543 22.83976478
-8.509475087 37.2843476 19.50049836
10.83772853 38.40040896 23.73275792
3.439362188 37.17449523 22.97510157
8.690806735 35.30975868 24.86927124
9.510518782 41.67043025 21.79451189
-4.691734195 28.60454137 25.66063377
-1.677929983 33.72440669 23.69749458
-6.311256291 30.51935544 24.33574576
-1.587976408 29.02504525 26.05837058
-4.853189138 33.10103328 23.27757137
-5.727232324 43.61318308 15.49996485
-1.823367511 39.06233987 20.4951187
-7.192375735 40.42039316 17.60660392
-1.974470862 45.01472492 15.97380482
-5.200256855 38.18461603 20.01330187
4.889999111 29.81332192 26.74500966
1.707564361 34.32002261 24.11602248
6.709319789 32.44427194 25.87064969
1.610127556 29.42992411 26.42186642
5.108661805 34.84347707 24.50290652
0 31.61168333 25.13036073
6.27259032 47.76611364 16.9759011
1.865838976 39.97221394 20.97250887
7.981207796 44.85354615 19.5376284
2.035785105 46.41258995 16.46984747
5.560149874 40.82725026 21.398358
0 42.60394668 18.64749615
0 -16.2610501 30.90352033
0 -11.5351662 31.99910835
0 -2.29390942 33.09758821
0 -6.893826133 32.73038632
0 16.2610501 30.90352033
0 11.5351662 31.99910835
0 2.29390942 33.09758821
0 6.893826133 32.73038632
-41.3864976 -70.28684275 -5.375243136
-32.37661473 -60.90812271 -13.78833492
-34.68195087 -69.5349594 -5.125366654
-17.57941038 -42.47828612 -22.70781686
-24.09774476 -50.83860651 -19.16987845
-21.92524312 -65.48953569 -4.571017271
-26.76728929 -60.38552864 -13.23119526
-28.05275579 -67.75191082 -4.849491707
-30.78074863 -65.35646406 -9.601495946
-1.473986668 -20.74788118 -29.71182974
-4.641675293 -25.14565419 -28.53445947
-12.43455425 -35.69520306 -25.20196613
-8.225704893 -30.0403124 -27.0710715
-2.313898117 -55.92376509 -3.7439658
-6.856120424 -54.32015752 -11.09343588
-6.472955972 -58.15003716 -3.911826076
-13.6834752 -42.47304674 -22.14032797
-10.71889874 -49.22233078 -17.34354248
-16.37445526 -46.28909853 -20.53895333
-16.102924 -62.93636345 -4.334046271
-11.17871789 -56.02696892 -11.56094321
-11.072651 -60.51150957 -4.106369566
-18.94095471 -61.9207552 -8.660726047
-8.927408512 -57.69581977 -7.849837206
-22.80979672 -55.19523519 -16.25763058
-13.23228241 -53.2837012 -15.03654781
-19.42293792 -50.55082507 -18.60153199
-21.1935549 -59.14859843 -12.71759574
-14.93122206 -49.97716589 -17.98237427
-15.9618874 -57.63679486 -12.1503077
23.97120308 -40.71038332 -3.113359484
21.308746 -40.08682585 -9.074825428
21.1513265 -42.40697519 -3.125784474
14.5418151 -35.13834477 -18.78406995
18.04568663 -38.07068136 -14.35543545
15.35158617 -45.85437181 -3.200528502
18.48661435 -41.70478258 -9.138019223
18.27032095 -44.12575951 -3.158398077
19.90631155 -42.26687763 -6.209412642
1.461122829 -20.56680938 -29.4525274
4.491506361 -24.33213412 -27.61130371
0 -22.68866566 -28.88749
11.04716172 -31.71249028 -22.39004228
7.684686133 -28.06450938 -25.29056056
-3.132312292 -27.23699418 -27.56150619
3.056700253 -26.57951036 -26.89618886
-1.532408365 -24.91858377 -28.25559805
1.51562039 -24.64559351 -27.94604984
2.210475647 -53.42418489 -3.576624728
6.099874482 -48.3285185 -9.86980424
5.725751186 -51.43749558 -3.460264969
0 -53.30389596 -7.181626024
11.71949522 -36.37691894 -18.9625416
9.224928304 -42.36185858 -14.92624754
13.44849869 -38.01768494 -16.8688413
12.20389387 -47.69746785 -3.284635802
9.313705347 -46.67965369 -9.632161721
9.061967839 -49.52322201 -3.360693744
13.97635823 -45.69076216 -6.39067099
7.619285919 -49.24171965 -6.69960986
-4.274255965 -50.38074846 -13.9248964
3.989037897 -47.01887686 -12.99569794
-2.201625163 -52.24284925 -10.69393995
2.117036144 -50.23561774 -10.28306624
16.8367576 -40.7416518 -12.00036057
10.87895368 -43.80732658 -12.36233493
15.17717308 -39.50064736 -14.53532271
15.52309031 -43.32303099 -9.314925607
12.22941901 -40.93380302 -14.72846555
12.45793725 -44.98437784 -9.483074722
-10.83772853 -38.40040896 -23.73275792
-3.439362188 -37.17449523 -22.97510157
-8.690806735 -35.30975868 -24.86927124
-9.510518782 -41.67043025 -21.79451189
9.673443852 -34.27509732 -21.18317511
3.311125387 -35.78844222 -22.11847369
7.981576126 -32.42823543 -22.83976478
8.509475087 -37.2843476 -19.50049836
-4.889999111 -29.81332192 -26.74500966
-1.707564361 -34.32002261 -24.11602248
-6.709319789 -32.44427194 -25.87064969
-1.610127556 -29.42992411 -26.42186642
-5.108661805 -34.84347707 -24.50290652
-6.27259032 -47.76611364 -16.9759011
-1.865838976 -39.97221394 -20.97250887
-7.981207796 -44.85354615 -19.5376284
-2.035785105 -46.41258995 -16.46984747
-5.560149874 -40.82725026 -21.398358
4.691734195 -28.60454137 -25.66063377
1.677929983 -33.72440669 -23.69749458
6.311256291 -30.51935544 -24.33574576
1.587976408 -29.02504525 -26.05837058
4.853189138 -33.10103328 -23.27757137
0 -31.61168333 -25.13036073
5.727232324 -43.61318308 -15.49996485
1.823367511 -39.06233987 -20.4951187
7.192375735 -40.42039316 -17.60660392
1.974470862 -45.01472492 -15.97380482
5.200256855 -38.18461603 -20.01330187
0 -42.60394668 -18.64749615
-23.97120308 40.71038332 -3.113359484
-21.308746 40.08682585 -9.074825428
-21.1513265 42.40697519 -3.125784474
-14.5418151 35.13834477 -18.78406995
-18.04568663 38.07068136 -14.35543545
-15.35158617 45.85437181 -3.200528502
-18.48661435 41.70478258 -9.138019223
-18.27032095 44.12575951 -3.158398077
-19.90631155 42.26687763 -6.209412642
-1.461122829 20.56680938 -29.4525274
-4.491506361 24.33213412 -27.61130371
-11.04716172 31.71249028 -22.39004228
-7.684686133 28.06450938 -25.29056056
-2.210475647 53.42418489 -3.576624728
-6.099874482 48.3285185 -9.86980424
-5.725751186 51.43749558 -3.460264969
-11.71949522 36.37691894 -18.9625416
-9.224928304 42.36185858 -14.92624754
-13.44849869 38.01768494 -16.8688413
-12.20389387 47.69746785 -3.284635802
-9.313705347 46.67965369 -9.632161721
-9.061967839 49.52322201 -3.360693744
-13.97635823 45.69076216 -6.39067099
-7.619285919 49.24171965 -6.69960986
-16.8367576 40.7416518 -12.00036057
-10.87895368 43.80732658 -12.36233493
-15.17717308 39.50064736 -14.53532271
-15.52309031 43.32303099 -9.314925607
-12.22941901 40.93380302 -14.72846555
-12.45793725 44.98437784 -9.483074722
41.3864976 70.28684275 -5.375243136
32.37661473 60.90812271 -13.78833492
34.68195087 69.5349594 -5.125366654
17.57941038 42.47828612 -22.70781686
24.09774476 50.83860651 -19.16987845
21.92524312 65.48953569 -4.571017271
26.76728929 60.38552864 -13.23119526
28.05275579 67.75191082 -4.849491707
30.78074863 65.35646406 -9.601495946
1.473986668 20.74788118 -29.71182974
4.641675293 25.14565419 -28.53445947
0 22.68866566 -28.88749
12.43455425 35.69520306 -25.20196613
8.225704893 30.0403124 -27.0710715
-3.056700253 26.57951036 -26.89618886
3.132312292 27.23699418 -27.56150619
-1.51562039 24.64559351 -27.94604984
1.532408365 24.91858377 -28.25559805
2.313898117 55.92376509 -3.7439658
6.856120424 54.32015752 -11.09343588
6.472955972 58.15003716 -3.911826076
0 53.30389596 -7.181626024
13.6834752 42.47304674 -22.14032797
10.71889874 49.22233078 -17.34354248
16.37445526 46.28909853 -20.53895333
16.102924 62.93636345 -4.334046271
11.17871789 56.02696892 -11.56094321
11.072651 60.51150957 -4.106369566
18.94095471 61.9207552 -8.660726047
8.927408512 57.69581977 -7.849837206
-3.989037897 47.01887686 -12.99569794
4.274255965 50.38074846 -13.9248964
-2.117036144 50.23561774 -10.28306624
2.201625163 52.24284925 -10.69393995
22.80979672 55.19523519 -16.25763058
13.23228241 53.2837012 -15.03654781
19.42293792 50.55082507 -18.60153199
21.1935549 59.14859843 -12.71759574
14.93122206 49.97716589 -17.98237427
15.9618874 57.63679486 -12.1503077
-9.673443852 34.27509732 -21.18317511
-3.311125387 35.78844222 -22.11847369
-7.981576126 32.42823543 -22.83976478
-8.509475087 37.2843476 -19.50049836
10.83772853 38.40040896 -23.73275792
3.439362188 37.17449523 -22.97510157
8.690806735 35.30975868 -24.86927124
9.510518782 41.67043025 -21.79451189
-4.691734195 28.60454137 -25.66063377
-1.677929983 33.72440669 -23.69749458
-6.311256291 30.51935544 -24.33574576
-1.587976408 29.02504525 -26.05837058
-4.853189138 33.10103328 -23.27757137
-5.727232324 43.61318308 -15.49996485
-1.823367511 39.06233987 -20.4951187
-7.192375735 40.42039316 -17.60660392
-1.974470862 45.01472492 -15.97380482
-5.200256855 38.18461603 -20.01330187
4.889999111 29.81332192 -26.74500966
1.707564361 34.32002261 -24.11602248
6.709319789 32.44427194 -25.87064969
1.610127556 29.42992411 -26.42186642
5.108661805 34.84347707 -24.50290652
0 31.61168333 -25.13036073
6.27259032 47.76611364 -16.9759011
1.865838976 39.97221394 -20.97250887
7.981207796 44.85354615 -19.5376284
2.035785105 46.41258995 -16.46984747
5.560149874 40.82725026 -21.398358
0 42.60394668 -18.64749615
0 -16.2610501 -30.90352033
0 -11.5351662 -31.99910835
0 -2.29390942 -33.09758821
0 -6.893826133 -32.73038632
0 16.2610501 -30.90352033
0 11.5351662 -31.99910835
0 2.29390942 -33.09758821
0 6.893826133 -32.73038632
49.07924274 70.28351915 -3.486724686
53.50651193 60.71742594 -9.876849992
44.88634971 67.27431381 -8.661862847
53.26229559 37.60490078 -18.55411504
54.05019276 48.7077702 -14.80014353
34.72670646 57.18976402 -16.33878767
48.33596226 57.11123978 -14.27670122
39.76700052 62.43946759 -12.9665746
47.11580574 62.5815984 -11.67517381
44.95374873 3.437874285 -26.46979351
48.01283876 10.86911026 -25.52193556
51.96875196 27.78117974 -21.50698865
50.27960785 18.95909501 -23.8327767
19.15290132 39.33340786 -24.30938295
28.54687217 39.62693971 -24.49079561
22.28879288 43.06632309 -22.90754777
48.45767131 35.20568181 -21.75830796
38.71706003 38.56157735 -23.83236546
48.80317934 40.23182003 -20.27144353
29.94884433 51.89354576 -19.10542171
32.66962253 43.55259611 -22.83155343
25.88408738 47.26738375 -21.19635338
36.33335216 52.66363551 -18.6842316
27.35717773 43.46714209 -22.97125021
48.86007674 51.161159 -16.63505741
38.32397199 43.14251708 -22.38041974
48.97051462 45.59465687 -18.56653252
42.82753242 52.53739487 -17.88876833
43.720773 42.08403852 -21.55353157
37.49721857 47.88166799 -20.69482647
27.18795238 -38.93427986 -1.931507078
31.31393869 -35.53402539 -5.780288492
26.02403583 -39.00404387 -5.02194165
38.19561065 -26.96733463 -13.30558036
34.99785874 -31.53860465 -9.583191217
23.05739137 -37.97212306 -10.84841784
29.77629395 -35.18210839 -8.794844092
24.62607735 -38.66620913 -8.029669446
27.96791343 -37.14839848 -6.930376022
43.59957019 -3.334312387 -25.67242227
43.69776103 -9.892266213 -23.22819208
40.81838036 -21.82047325 -16.8924673
42.71662662 -16.10729712 -20.2478871
15.88216733 -32.6164561 -20.15807846
22.15822916 -30.75863463 -19.00988165
17.6975746 -34.19518813 -18.18887356
35.79941158 -26.00914693 -16.07453682
28.72321768 -28.60786897 -17.68063537
34.50904127 -28.4481781 -14.3340678
21.30039319 -36.90803278 -13.58827038
24.12169776 -32.1571686 -16.85773475
19.52358333 -35.6523563 -15.98776753
24.64546476 -35.72254405 -12.67379815
20.89626482 -33.20155759 -17.54615671
31.51701239 -33.00131702 -10.73038246
27.53814721 -31.00057026 -16.08171756
33.07271084 -30.79279264 -12.53908737
28.0584597 -34.4198765 -11.71982734
30.9468087 -29.78828141 -15.25620369
26.14253308 -33.38242506 -14.42814177
2.312936101 -17.80837108 -30.24402281
6.848483047 -16.08103505 -30.25225658
3.794877479 -19.66530764 -29.4737729
2.279731098 -15.42631528 -30.92871594
16.0713655 -12.44175656 -30.06383512
11.38600866 -14.31293011 -30.19574775
6.901036171 -23.36451669 -27.60628842
8.415595713 -17.88663442 -29.45664896
5.334156385 -21.52628133 -28.59229663
6.120776986 -18.77172261 -29.47409536
2.234986512 -10.72028823 -32.02093107
6.778958283 -13.71413043 -30.93832202
2.256366622 -13.05235799 -31.5235409
4.54552507 -14.57217348 -30.94095415
39.47432423 -1.958298366 -27.56506737
32.62986909 -5.307871953 -28.75468537
39.8629214 -5.132525897 -26.59709076
21.05984883 -10.39084933 -29.82844976
26.52221495 -8.05893159 -29.43125552
39.8722227 -11.39126541 -24.21116781
32.87939686 -8.219210913 -27.82739951
39.98998314 -8.304572725 -25.46917425
36.25903288 -6.764456675 -27.29833678
13.74772851 -30.61740421 -22.244292
15.43208276 -25.07031354 -24.96963442
11.99213325 -28.87087092 -23.80024619
16.80068238 -29.80811441 -21.76907931
18.02077302 -14.19822494 -29.15822325
16.84624785 -19.6362622 -27.25780161
15.56808773 -15.14757871 -29.26809551
8.600299108 -25.26058456 -26.45024056
13.63034782 -23.34045002 -26.2750887
10.26368046 -27.07116761 -25.20497503
9.378967769 -22.4542036 -27.54502289
12.85338311 -26.07275022 -25.09668858
23.07640591 -27.97199873 -20.73806397
18.43936868 -24.24720865 -24.6024049
19.92113595 -28.92338612 -21.26624345
17.65639448 -27.00322551 -23.25442004
10.82825544 -16.97391146 -29.41136698
14.35849331 -20.54553835 -27.38971143
13.16263364 -16.07364971 -29.35237228
10.12334901 -19.68586199 -28.53381257
14.9939224 -17.85672945 -28.37211513
11.87348554 -21.51371905 -27.47171102
2.215926983 -1.369518192 -33.0993889
6.686231945 -4.132318598 -32.73982709
2.218161684 -3.670424666 -32.97339448
16.04252997 -9.914828785 -30.77529503
11.27110233 -6.965924332 -31.98827045
13.68598322 -10.911 -30.84440651
2.234084294 -8.300624257 -32.44200277
6.695090055 -6.473738487 -32.44593418
2.222640011 -5.993254319 -32.75284899
4.481657758 -9.801358012 -32.04207493
4.456698446 -5.068483154 -32.75645896
9.109001931 -12.78012077 -30.92538616
9.035588216 -7.951389944 -32.0186248
11.36799733 -11.86998504 -30.89324281
6.78062546 -11.29974257 -31.53618819
11.33198821 -9.409237614 -31.49420906
6.754724243 -8.8736969 -32.04204084
37.14597372 -22.95747431 -18.08775816
31.79809048 -19.6523007 -22.90704331
38.10334945 -20.26767634 -19.72022692
33.434355 -24.41734877 -18.84453244
21.05848619 -13.01486021 -28.98524185
26.33721089 -16.2772915 -26.44340417
23.73811621 -11.96082807 -28.7955042
20.49391005 -15.81654734 -28.06204188
39.47211771 -14.53227841 -22.78017992
32.33211483 -16.94944672 -24.25292821
38.8921776 -17.44061708 -21.29774156
36.17326437 -12.83370665 -24.95642278
35.23161654 -18.61898988 -22.17393528
26.48846137 -26.87648963 -20.14378282
28.32270768 -20.99807487 -23.36573461
29.86680782 -25.72045677 -19.52878335
24.04020963 -25.09468 -22.33404074
30.89877701 -22.71867171 -21.28169692
29.57088803 -9.614978035 -28.24087426
29.34860718 -15.22475256 -26.07069025
26.5836571 -10.82509154 -28.55192819
32.83660108 -11.18072852 -26.76780226
26.51685893 -13.5807298 -27.5481539
32.64677855 -14.11018967 -25.56643163
19.20012282 -21.36505261 -25.89758677
25.6068263 -19.19217706 -25.23712875
19.87072169 -18.61388209 -27.02539155
21.58554631 -23.23453531 -24.25366657
23.0415741 -17.49478684 -26.75606705
24.8894656 -22.15140176 -23.84361827
2.340898292 18.02366499 -30.60965727
7.075765306 16.61472024 -31.25624551
3.879336503 20.10297992 -30.12974298
2.303181664 15.58499883 -31.24686569
17.05646582 13.20437866 -31.90660907
11.95380606 15.0266872 -31.70154907
7.248230004 24.53999468 -28.9951716
8.804023422 18.71220455 -30.8162412
5.520567652 22.27855425 -29.59150359
6.333746251 19.42487498 -30.49963125
2.250598075 10.79517032 -32.24459988
6.967398977 14.09535423 -31.7983419
2.275763148 13.16456068 -31.79452841
4.63468724 14.8580121 -31.54787251
40.17753389 1.993184191 -28.0561213
34.12871014 5.551687102 -30.07552128
41.79264225 5.380985917 -27.88462712
36.6843552 0 -28.81243992
22.44904228 11.0762721 -31.79605586
28.15762351 8.555860137 -31.24604088
44.49533154 12.7120611 -27.01840694
35.31091274 8.827042679 -29.88530721
43.24030762 8.979555656 -27.53926966
38.54383903 7.190708315 -29.01849871
30.14917179 -3.426395522 -29.79419233
30.97978342 3.52079294 -30.61502426
33.31311525 -1.806696725 -29.37880315
33.82039207 1.834208273 -29.82617007
15.88074841 35.36782769 -25.69559069
17.49968984 28.42926118 -28.31509296
13.44371827 32.36553888 -26.68114154
20.0064686 35.4958859 -25.92289954
19.45902642 15.33139749 -31.48536614
18.67181436 21.7641724 -30.21163027
16.71532272 16.26382578 -31.42490397
9.202198706 27.02846909 -28.30138422
15.07485876 25.81401385 -29.05965837
11.21701034 29.58564117 -27.54610948
10.00638557 23.95630569 -29.38768172
14.32247642 29.05276744 -27.96514563
28.98360598 35.13239422 -26.04668496
21.34138777 28.06327543 -28.47437307
24.40807489 35.43794774 -26.05614781
20.73496396 31.71150874 -27.30906143
11.44468447 17.94019933 -31.08569213
15.73744177 22.51867284 -30.02014065
14.03060386 17.13357811 -31.28792603
10.75587162 20.9158653 -30.31664962
16.27377309 19.38094351 -30.7939011
12.85090741 23.28472214 -29.73317428
2.217879677 1.370725023 -33.12855637
6.740186139 4.165664125 -33.00401939
2.223413592 3.679115076 -33.0514651
4.458223131 0 -33.09009146
16.81099011 10.38976327 -32.24947571
11.5326594 7.127575493 -32.73058989
14.30379049 11.40354007 -32.23677256
2.246153481 8.345466693 -32.6172641
6.780312926 6.556143738 -32.85894366
2.231258951 6.016494925 -32.87985779
4.539504624 9.927868751 -32.45565706
4.486095798 5.101915971 -32.97252769
9.047101515 -2.777013667 -32.73272078
9.113190912 2.797299851 -32.97183446
6.746534655 -1.388949305 -32.95868451
6.764866743 1.392723441 -33.04824182
9.428314325 13.22812276 -32.00946312
9.227727337 8.120473909 -32.69949143
11.83161747 12.35407771 -32.15315951
6.934975062 11.55696232 -32.25405679
11.69301175 9.709004628 -32.49757675
6.874305113 9.030790566 -32.60929052
47.86852049 29.58437265 -23.30896556
38.36103919 23.70842606 -27.63492942
47.24091222 25.12806703 -24.44933378
43.47141749 31.74748735 -24.50170004
22.84245545 14.11741386 -31.44072608
29.94226238 18.50533585 -30.06299145
25.79043729 12.99492275 -31.28507076
22.60767369 17.44788283 -30.95639068
45.58262044 16.7819557 -26.3066781
37.86449678 19.84968426 -28.4028721
46.483028 20.84462074 -25.4545664
40.85210891 14.49368728 -28.18442071
42.45262255 22.43510311 -26.71866344
33.95519869 34.45260685 -25.82204147
34.13124686 25.30444776 -28.15767706
38.74376758 33.3650454 -25.33309377
29.45133767 30.74315514 -27.36113309
38.61804371 28.39434897 -26.5983829
31.98795256 10.40088688 -30.54922615
33.41846894 17.33601589 -29.68599317
28.85870144 11.75150896 -30.99541827
36.26428263 12.34784009 -29.56198617
29.45427456 15.08514056 -30.59981164
37.11460548 16.04121895 -29.06528808
21.87130635 24.33742822 -29.50054328
29.81497643 22.34616269 -29.38452388
22.28284243 20.87343421 -30.30602265
25.4201568 27.36208398 -28.56226098
26.06680108 19.79175236 -30.26898571
29.72352777 26.45367385 -28.47455471
18.94918257 -8.653275659 -30.66042145
19.5967464 -2.933623966 -31.70820175
21.50188327 -7.514040528 -30.5286915
16.40605273 -7.159145083 -31.36786359
19.87495648 9.076036738 -32.1583551
19.91713672 2.98158625 -32.22660417
22.52127553 7.870276986 -31.97603969
16.97567221 7.407711181 -32.45695836
27.02188608 -4.940622591 -30.12196289
22.17027682 -1.569793469 -31.55099073
24.20254701 -6.276712397 -30.35231146
27.52300447 -1.677230034 -30.65642374
21.87675927 -4.561130917 -31.1090588
11.50986095 -4.252890138 -32.38598781
16.89839108 -1.503381255 -32.20721505
13.91340343 -5.683686967 -31.94172138
11.5961982 -1.433368926 -32.67848068
16.69397093 -4.337761821 -31.8514593
28.025772 5.1241709 -31.24101929
22.38461021 1.584969605 -31.85601312
25.25748624 6.550301377 -31.67530627
27.86363355 1.6979877 -31.03583251
22.50006665 4.691085565 -31.99541064
24.91439304 0 -31.34001585
11.67438107 4.313680275 -32.84890798
17.0204039 1.514236241 -32.43976343
14.23644391 5.815650434 -32.68334215
11.65173783 1.440234001 -32.83499322
17.04446864 4.428835153 -32.52019554
14.26163305 0 -32.58356238
49.07924274 70.28351915 3.486724686
53.50651193 60.71742594 9.876849992
44.88634971 67.27431381 8.661862847
53.89294858 68.61716931 0
53.26229559 37.60490078 18.55411504
54.05019276 48.7077702 14.80014353
34.72670646 57.18976402 16.33878767
48.33596226 57.11123978 14.27670122
39.76700052 62.43946759 12.9665746
47.11580574 62.5815984 11.67517381
58.16472314 58.85772001 -6.689066938
58.16472314 58.85772001 6.689066938
56.84556492 64.45813487 -3.495809392
56.84556492 64.45813487 3.495809392
44.95374873 3.437874285 26.46979351
48.01283876 10.86911026 25.52193556
51.96875196 27.78117974 21.50698865
50.27960785 18.95909501 23.8327767
19.15290132 39.33340786 24.30938295
28.54687217 39.62693971 24.49079561
22.28879288 43.06632309 22.90754777
48.45767131 35.20568181 21.75830796
38.71706003 38.56157735 23.83236546
48.80317934 40.23182003 20.27144353
29.94884433 51.89354576 19.10542171
32.66962253 43.55259611 22.83155343
25.88408738 47.26738375 21.19635338
36.33335216 52.66363551 18.6842316
27.35717773 43.46714209 22.97125021
48.86007674 51.161159 16.63505741
38.32397199 43.14251708 22.38041974
48.97051462 45.59465687 18.56653252
42.82753242 52.53739487 17.88876833
43.720773 42.08403852 21.55353157
37.49721857 47.88166799 20.69482647
57.13271663 35.30996074 -16.1245385
63.59713345 39.30519006 -5.883968959
57.77297689 40.69050274 -14.2196887
57.13271663 35.30996074 16.1245385
63.59713345 39.30519006 5.883968959
57.77297689 40.69050274 14.2196887
58.50837525 52.48684013 -9.596579134
63.6196223 44.70428994 -3.165341729
58.27338749 46.46645783 -12.05065697
61.32351251 55.0555839 -3.355043559
61.45908688 43.21974693 -9.010974683
58.50837525 52.48684013 9.596579134
63.6196223 44.70428994 3.165341729
58.27338749 46.46645783 12.05065697
61.32351251 55.0555839 3.355043559
61.45908688 43.21974693 9.010974683
63.02239701 50.10095647 0
27.18795238 -38.93427986 1.931507078
31.31393869 -35.53402539 5.780288492
26.02403583 -39.00404387 5.02194165
29.53553225 -37.6050053 0
38.19561065 -26.96733463 13.30558036
34.99785874 -31.53860465 9.583191217
23.05739137 -37.97212306 10.84841784
29.77629395 -35.18210839 8.794844092
24.62607735 -38.66620913 8.029669446
27.96791343 -37.14839848 6.930376022
33.99158953 -34.39657839 -3.909105132
33.99158953 -34.39657839 3.909105132
31.8203075 -36.08157778 -1.95684096
31.8203075 -36.08157778 1.95684096
43.59957019 -3.334312387 25.67242227
43.69776103 -9.892266213 23.22819208
40.81838036 -21.82047325 16.8924673
42.71662662 -16.10729712 20.2478871
15.88216733 -32.6164561 20.15807846
22.15822916 -30.75863463 19.00988165
17.6975746 -34.19518813 18.18887356
35.79941158 -26.00914693 16.07453682
28.72321768 -28.60786897 17.68063537
34.50904127 -28.4481781 14.3340678
21.30039319 -36.90803278 13.58827038
24.12169776 -32.1571686 16.85773475
19.52358333 -35.6523563 15.98776753
24.64546476 -35.72254405 12.67379815
20.89626482 -33.20155759 17.54615671
31.51701239 -33.00131702 10.73038246
27.53814721 -31.00057026 16.08171756
33.07271084 -30.79279264 12.53908737
28.0584597 -34.4198765 11.71982734
30.9468087 -29.78828141 15.25620369
26.14253308 -33.38242506 14.42814177
41.71452038 -25.78099142 -11.77306856
44.45851999 -27.47687644 -4.113275826
40.00156067 -28.1737882 -9.845602063
41.71452038 -25.78099142 11.77306856
44.45851999 -27.47687644 4.113275826
40.00156067 -28.1737882 9.845602063
36.17056656 -32.44798264 -5.932718227
42.01105611 -29.52036439 -2.090225377
38.13552467 -30.40878221 -7.886243549
36.7376077 -32.98262543 -2.009934999
41.31767754 -29.05574517 -6.057892578
36.17056656 -32.44798264 5.932718227
42.01105611 -29.52036439 2.090225377
38.13552467 -30.40878221 7.886243549
36.7376077 -32.98262543 2.009934999
41.31767754 -29.05574517 6.057892578
39.43867189 -31.35258698 0
2.312936101 -17.80837108 30.24402281
6.848483047 -16.08103505 30.25225658
3.794877479 -19.66530764 29.4737729
2.279731098 -15.42631528 30.92871594
16.0713655 -12.44175656 30.06383512
11.38600866 -14.31293011 30.19574775
6.901036171 -23.36451669 27.60628842
8.415595713 -17.88663442 29.45664896
5.334156385 -21.52628133 28.59229663
6.120776986 -18.77172261 29.47409536
2.234986512 -10.72028823 32.02093107
6.778958283 -13.71413043 30.93832202
2.256366622 -13.05235799 31.5235409
4.54552507 -14.57217348 30.94095415
39.47432423 -1.958298366 27.56506737
32.62986909 -5.307871953 28.75468537
39.8629214 -5.132525897 26.59709076
21.05984883 -10.39084933 29.82844976
26.52221495 -8.05893159 29.43125552
39.8722227 -11.39126541 24.21116781
32.87939686 -8.219210913 27.82739951
39.98998314 -8.304572725 25.46917425
36.25903288 -6.764456675 27.29833678
13.74772851 -30.61740421 22.244292
15.43208276 -25.07031354 24.96963442
11.99213325 -28.87087092 23.80024619
16.80068238 -29.80811441 21.76907931
18.02077302 -14.19822494 29.15822325
16.84624785 -19.6362622 27.25780161
15.56808773 -15.14757871 29.26809551
8.600299108 -25.26058456 26.45024056
13.63034782 -23.34045002 26.2750887
10.26368046 -27.07116761 25.20497503
9.378967769 -22.4542036 27.54502289
12.85338311 -26.07275022 25.09668858
23.07640591 -27.97199873 20.73806397
18.43936868 -24.24720865 24.6024049
19.92113595 -28.92338612 21.26624345
17.65639448 -27.00322551 23.25442004
10.82825544 -16.97391146 29.41136698
14.35849331 -20.54553835 27.38971143
13.16263364 -16.07364971 29.35237228
10.12334901 -19.68586199 28.53381257
14.9939224 -17.85672945 28.37211513
11.87348554 -21.51371905 27.47171102
2.215926983 -1.369518192 33.0993889
6.686231945 -4.132318598 32.73982709
2.218161684 -3.670424666 32.97339448
16.04252997 -9.914828785 30.77529503
11.27110233 -6.965924332 31.98827045
13.68598322 -10.911 30.84440651
2.234084294 -8.300624257 32.44200277
6.695090055 -6.473738487 32.44593418
2.222640011 -5.993254319 32.75284899
4.481657758 -9.801358012 32.04207493
4.456698446 -5.068483154 32.75645896
9.109001931 -12.78012077 30.92538616
9.035588216 -7.951389944 32.0186248
11.36799733 -11.86998504 30.89324281
6.78062546 -11.29974257 31.53618819
11.33198821 -9.409237614 31.49420906
6.754724243 -8.8736969 32.04204084
37.14597372 -22.95747431 18.08775816
31.79809048 -19.6523007 22.90704331
38.10334945 -20.26767634 19.72022692
33.434355 -24.41734877 18.84453244
21.05848619 -13.01486021 28.98524185
26.33721089 -16.2772915 26.44340417
23.73811621 -11.96082807 28.7955042
20.49391005 -15.81654734 28.06204188
39.47211771 -14.53227841 22.78017992
32.33211483 -16.94944672 24.25292821
38.8921776 -17.44061708 21.29774156
36.17326437 -12.83370665 24.95642278
35.23161654 -18.61898988 22.17393528
26.48846137 -26.87648963 20.14378282
28.32270768 -20.99807487 23.36573461
29.86680782 -25.72045677 19.52878335
24.04020963 -25.09468 22.33404074
30.89877701 -22.71867171 21.28169692
29.57088803 -9.614978035 28.24087426
29.34860718 -15.22475256 26.07069025
26.5836571 -10.82509154 28.55192819
32.83660108 -11.18072852 26.76780226
26.51685893 -13.5807298 27.5481539
32.64677855 -14.11018967 25.56643163
19.20012282 -21.36505261 25.89758677
25.6068263 -19.19217706 25.23712875
19.87072169 -18.61388209 27.02539155
21.58554631 -23.23453531 24.25366657
23.0415741 -17.49478684 26.75606705
24.8894656 -22.15140176 23.84361827
2.340898292 18.02366499 30.60965727
7.075765306 16.61472024 31.25624551
3.879336503 20.10297992 30.12974298
2.303181664 15.58499883 31.24686569
17.05646582 13.20437866 31.90660907
11.95380606 15.0266872 31.70154907
7.248230004 24.53999468 28.9951716
8.804023422 18.71220455 30.8162412
5.520567652 22.27855425 29.59150359
6.333746251 19.42487498 30.49963125
2.250598075 10.79517032 32.24459988
6.967398977 14.09535423 31.7983419
2.275763148 13.16456068 31.79452841
4.63468724 14.8580121 31.54787251
40.17753389 1.993184191 28.0561213
34.12871014 5.551687102 30.07552128
41.79264225 5.380985917 27.88462712
36.6843552 0 28.81243992
22.44904228 11.0762721 31.79605586
28.15762351 8.555860137 31.24604088
44.49533154 12.7120611 27.01840694
35.31091274 8.827042679 29.88530721
43.24030762 8.979555656 27.53926966
38.54383903 7.190708315 29.01849871
30.14917179 -3.426395522 29.79419233
30.97978342 3.52079294 30.61502426
33.31311525 -1.806696725 29.37880315
33.82039207 1.834208273 29.82617007
15.88074841 35.36782769 25.69559069
17.49968984 28.42926118 28.31509296
13.44371827 32.36553888 26.68114154
20.0064686 35.4958859 25.92289954
19.45902642 15.33139749 31.48536614
18.67181436 21.7641724 30.21163027
16.71532272 16.26382578 31.42490397
9.202198706 27.02846909 28.30138422
15.07485876 25.81401385 29.05965837
11.21701034 29.58564117 27.54610948
10.00638557 23.95630569 29.38768172
14.32247642 29.05276744 27.96514563
28.98360598 35.13239422 26.04668496
21.34138777 28.06327543 28.47437307
24.40807489 35.43794774 26.05614781
20.73496396 31.71150874 27.30906143
11.44468447 17.94019933 31.08569213
15.73744177 22.51867284 30.02014065
14.03060386 17.13357811 31.28792603
10.75587162 20.9158653 30.31664962
16.27377309 19.38094351 30.7939011
12.85090741 23.28472214 29.73317428
2.217879677 1.370725023 33.12855637
6.740186139 4.165664125 33.00401939
2.223413592 3.679115076 33.0514651
4.458223131 0 33.09009146
16.81099011 10.38976327 32.24947571
11.5326594 7.127575493 32.73058989
14.30379049 11.40354007 32.23677256
2.246153481 8.345466693 32.6172641
6.780312926 6.556143738 32.85894366
2.231258951 6.016494925 32.87985779
4.539504624 9.927868751 32.45565706
4.486095798 5.101915971 32.97252769
9.047101515 -2.777013667 32.73272078
9.113190912 2.797299851 32.97183446
6.746534655 -1.388949305 32.95868451
6.764866743 1.392723441 33.04824182
9.428314325 13.22812276 32.00946312
9.227727337 8.120473909 32.69949143
11.83161747 12.35407771 32.15315951
6.934975062 11.55696232 32.25405679
11.69301175 9.709004628 32.49757675
6.874305113 9.030790566 32.60929052
47.86852049 29.58437265 23.30896556
38.36103919 23.70842606 27.63492942
47.24091222 25.12806703 24.44933378
43.47141749 31.74748735 24.50170004
22.84245545 14.11741386 31.44072608
29.94226238 18.50533585 30.06299145
25.79043729 12.99492275 31.28507076
22.60767369 17.44788283 30.95639068
45.58262044 16.7819557 26.3066781
37.86449678 19.84968426 28.4028721
46.483028 20.84462074 25.4545664
40.85210891 14.49368728 28.18442071
42.45262255 22.43510311 26.71866344
33.95519869 34.45260685 25.82204147
34.13124686 25.30444776 28.15767706
38.74376758 33.3650454 25.33309377
29.45133767 30.74315514 27.36113309
38.61804371 28.39434897 26.5983829
31.98795256 10.40088688 30.54922615
33.41846894 17.33601589 29.68599317
28.85870144 11.75150896 30.99541827
36.26428263 12.34784009 29.56198617
29.45427456 15.08514056 30.59981164
37.11460548 16.04121895 29.06528808
21.87130635 24.33742822 29.50054328
29.81497643 22.34616269 29.38452388
22.28284243 20.87343421 30.30602265
25.4201568 27.36208398 28.56226098
26.06680108 19.79175236 30.26898571
29.72352777 26.45367385 28.47455471
18.94918257 -8.653275659 30.66042145
19.5967464 -2.933623966 31.70820175
21.50188327 -7.514040528 30.5286915
16.40605273 -7.159145083 31.36786359
19.87495648 9.076036738 32.1583551
19.91713672 2.98158625 32.22660417
22.52127553 7.870276986 31.97603969
16.97567221 7.407711181 32.45695836
27.02188608 -4.940622591 30.12196289
22.17027682 -1.569793469 31.55099073
24.20254701 -6.276712397 30.35231146
27.52300447 -1.677230034 30.65642374
21.87675927 -4.561130917 31.1090588
11.50986095 -4.252890138 32.38598781
16.89839108 -1.503381255 32.20721505
13.91340343 -5.683686967 31.94172138
11.5961982 -1.433368926 32.67848068
16.69397093 -4.337761821 31.8514593
28.025772 5.1241709 31.24101929
22.38461021 1.584969605 31.85601312
25.25748624 6.550301377 31.67530627
27.86363355 1.6979877 31.03583251
22.50006665 4.691085565 31.99541064
24.91439304 0 31.34001585
11.67438107 4.313680275 32.84890798
17.0204039 1.514236241 32.43976343
14.23644391 5.815650434 32.68334215
11.65173783 1.440234001 32.83499322
17.04446864 4.428835153 32.52019554
14.26163305 0 32.58356238
47.22847767 0 -24.8510407
55.11580638 0 -19.8683657
49.1325086 3.621518203 -24.50582073
47.61283648 -3.509504377 -23.74785388
64.89543737 0 -4.497737243
61.41143312 0 -12.93476155
52.230135 11.44425047 -23.15222148
56.95033999 3.975001272 -19.0664056
50.81437399 7.465122431 -23.93190169
53.21661302 3.809095868 -22.0343992
47.43415874 -10.39339442 -21.02629351
55.28966438 -3.859089978 -18.51042798
47.68752749 -7.005758474 -22.45925965
51.58747037 -3.692486407 -21.35985083
47.22847767 0 24.8510407
55.11580638 0 19.8683657
49.1325086 3.621518203 24.50582073
47.61283648 -3.509504377 23.74785388
64.89543737 0 4.497737243
61.41143312 0 12.93476155
52.230135 11.44425047 23.15222148
56.95033999 3.975001272 19.0664056
50.81437399 7.465122431 23.93190169
53.21661302 3.809095868 22.0343992
47.43415874 -10.39339442 21.02629351
55.28966438 -3.859089978 18.51042798
47.68752749 -7.005758474 22.45925965
51.58747037 -3.692486407 21.35985083
56.25849691 29.32640034 -18.12471218
61.5962074 21.70349154 -13.41349544
55.44350234 24.60085729 -19.61276364
60.15936335 31.46461296 -13.73028192
