5.078783 27.513629 31.221559
0.000000 24.563712 31.274822
12.287177 35.272135 24.903266
8.620934 31.483692 28.371785
-3.019218 26.253586 26.566382
3.270853 28.441670 28.780535
-1.567757 25.493396 28.907388
1.630898 26.520128 30.071616
1.536245 37.128937 2.485696
4.816202 38.158143 7.792778
4.283644 38.482276 2.588751
0.000000 36.124825 4.867092
12.183586 37.817441 19.713456
8.375047 38.459111 13.551110
13.911020 39.325189 17.448995
10.517938 41.108110 2.830867
7.874987 39.468894 8.144250
7.287780 39.827369 2.702724
12.737482 41.640694 5.824197
6.044928 39.067004 5.315283
-2.866786 33.790870 9.339567
3.127896 36.868580 10.190225
-1.474993 35.000430 7.164473
1.541629 36.581663 7.488147
17.306715 41.878858 12.335322
9.852148 39.672590 11.195521
15.636028 40.694879 14.974772
15.017600 41.912271 9.011597
11.841360 39.634908 14.261108
11.281961 40.738045 8.587913
-7.929970 28.097595 17.365269
-2.833735 30.628549 18.929484
-6.843467 27.804228 19.582996
-6.756805 29.605006 15.484041
10.121839 35.863858 22.165083
3.077078 33.258729 20.555025
8.397602 34.118503 24.030250
8.329456 36.495591 19.087962
-4.414115 26.911955 24.142244
-1.507276 30.294469 21.287343
-5.668065 27.409075 21.855648
-1.535365 28.063417 25.195031
-4.258248 29.043257 20.424030
-4.258908 32.431811 11.526146
-1.506177 32.267108 16.929816
-5.526837 31.060240 13.529442
-1.487902 33.921746 12.037380
-4.211615 30.925186 16.208493
4.990217 30.424330 27.293134
1.572474 31.604867 22.208135
6.676976 32.287865 25.745933
1.599991 29.244641 26.255522
4.819669 32.872410 23.116797
0.000000 29.858487 23.736621
4.854959 36.970771 13.139276
1.573475 33.708848 17.686264
6.557830 36.854315 16.053266
1.554984 35.451117 12.580089
4.780309 35.101012 18.397125
0.000000 33.899824 14.837753
0.000000 -19.262534 36.607728
0.000000 -14.461209 40.116092
0.000000 -3.070719 44.305761
0.000000 -9.016988 42.810698
0.000000 19.262534 36.607728
0.000000 14.461209 40.116092
0.000000 3.070719 44.305761
0.000000 9.016988 42.810698
-26.459087 -44.935566 -3.436484
-23.211630 -43.666604 -9.885213
-22.080531 -44.269968 -3.263104
-16.015731 -38.699865 -20.687968
-19.696828 -41.554066 -15.668926
-14.177558 -42.347612 -2.955765
-19.023571 -42.916128 -9.403439
-17.967076 -43.393374 -3.105976
-20.580197 -43.697732 -6.419619
-1.666778 -23.461617 -33.598013
-5.078783 -27.513629 -31.221559
-12.287177 -35.272135 -24.903266
-8.620934 -31.483692 -28.371785
-1.536245 -37.128937 -2.485696
-4.816202 -38.158143 -7.792778
-4.283644 -38.482276 -2.588751
-12.183586 -37.817441 -19.713456
-8.375047 -38.459111 -13.551110
-13.911020 -39.325189 -17.448995
-10.517938 -41.108110 -2.830867
-7.874987 -39.468894 -8.144250
-7.287780 -39.827369 -2.702724
-12.737482 -41.640694 -5.824197
-6.044928 -39.067004 -5.315283
-17.306715 -41.878858 -12.335322
-9.852148 -39.672590 -11.195521
-15.636028 -40.694879 -14.974772
-15.017600 -41.912271 -9.011597
-11.841360 -39.634908 -14.261108
-11.281961 -40.738045 -8.587913
15.645610 -26.570997 -2.032039
14.369920 -27.033243 -6.119765
13.862793 -27.793961 -2.048671
11.198756 -27.060290 -14.465746
12.892824 -27.199773 -10.256307
10.135586 -30.274457 -2.113087
12.531701 -28.270827 -6.194478
12.021236 -29.033215 -2.078116
13.220378 -28.070699 -4.123857
1.606192 -22.608813 -32.376762
4.516216 -24.465998 -27.763208
0.000000 -24.563712 -31.274822
9.263589 -26.592486 -18.775154
7.051782 -25.753142 -23.207653
-3.270853 -28.441670 -28.780535
3.019218 -26.253586 -26.566382
-1.630898 -26.520128 -30.071616
1.567757 -25.493396 -28.907388
1.469788 -35.522776 -2.378167
4.223555 -33.462680 -6.833855
3.806023 -34.191550 -2.300108
0.000000 -36.124825 -4.867092
9.127301 -28.330836 -14.768283
6.760564 -31.045232 -10.938822
10.058985 -28.435838 -12.617276
8.082476 -31.589395 -2.175370
6.417026 -32.161697 -6.636439
6.015122 -32.872356 -2.230750
9.362442 -30.607195 -4.280964
5.140393 -33.221195 -4.519928
-3.127896 -36.868580 -10.190225
2.866786 -33.790870 -9.339567
-1.541629 -36.581663 -7.488147
1.474993 -35.000430 -7.164473
11.740959 -28.410817 -8.368341
7.692246 -30.975104 -8.741109
10.935406 -28.460874 -10.472942
10.585195 -29.541974 -6.351847
8.887329 -29.747299 -10.703429
8.542071 -30.844573 -6.502288
-10.121839 -35.863858 -22.165083
-3.077078 -33.258729 -20.555025
-8.397602 -34.118503 -24.030250
-8.329456 -36.495591 -19.087962
7.929970 -28.097595 -17.365269
2.833735 -30.628549 -18.929484
6.843467 -27.804228 -19.582996
6.756805 -29.605006 -15.484041
-4.990217 -30.424330 -27.293134
-1.572474 -31.604867 -22.208135
-6.676976 -32.287865 -25.745933
-1.599991 -29.244641 -26.255522
-4.819669 -32.872410 -23.116797
-4.854959 -36.970771 -13.139276
-1.573475 -33.708848 -17.686264
-6.557830 -36.854315 -16.053266
-1.554984 -35.451117 -12.580089
-4.780309 -35.101012 -18.397125
4.414115 -26.911955 -24.142244
1.507276 -30.294469 -21.287343
5.668065 -27.409075 -21.855648
1.535365 -28.063417 -25.195031
4.258248 -29.043257 -20.424030
0.000000 -29.858487 -23.736621
4.258908 -32.431811 -11.526146
1.506177 -32.267108 -16.929816
5.526837 -31.060240 -13.529442
1.487902 -33.921746 -12.037380
4.211615 -30.925186 -16.208493
0.000000 -33.899824 -14.837753
-15.645610 26.570997 -2.032039
-14.369920 27.033243 -6.119765
-13.862793 27.793961 -2.048671
-11.198756 27.060290 -14.465746
-12.892824 27.199773 -10.256307
-10.135586 30.274457 -2.113087
-12.531701 28.270827 -6.194478
-12.021236 29.033215 -2.078116
-13.220378 28.070699 -4.123857
-1.606192 22.608813 -32.376762
-4.516216 24.465998 -27.763208
-9.263589 26.592486 -18.775154
-7.051782 25.753142 -23.207653
-1.469788 35.522776 -2.378167
-4.223555 33.462680 -6.833855
-3.806023 34.191550 -2.300108
-9.127301 28.330836 -14.768283
-6.760564 31.045232 -10.938822
-10.058985 28.435838 -12.617276
-8.082476 31.589395 -2.175370
-6.417026 32.161697 -6.636439
-6.015122 32.872356 -2.230750
-9.362442 30.607195 -4.280964
-5.140393 33.221195 -4.519928
-11.740959 28.410817 -8.368341
-7.692246 30.975104 -8.741109
-10.935406 28.460874 -10.472942
-10.585195 29.541974 -6.351847
-8.887329 29.747299 -10.703429
-8.542071 30.844573 -6.502288
26.459087 44.935566 -3.436484
23.211630 43.666604 -9.885213
22.080531 44.269968 -3.263104
16.015731 38.699865 -20.687968
19.696828 41.554066 -15.668926
14.177558 42.347612 -2.955765
19.023571 42.916128 -9.403439
17.967076 43.393374 -3.105976
20.580197 43.697732 -6.419619
1.666778 23.461617 -33.598013
5.078783 27.513629 -31.221559
0.000000 24.563712 -31.274822
12.287177 35.272135 -24.903266
8.620934 31.483692 -28.371785
-3.019218 26.253586 -26.566382
3.270853 28.441670 -28.780535
-1.567757 25.493396 -28.907388
1.630898 26.520128 -30.071616
1.536245 37.128937 -2.485696
4.816202 38.158143 -7.792778
4.283644 38.482276 -2.588751
0.000000 36.124825 -4.867092
12.183586 37.817441 -19.713456
8.375047 38.459111 -13.551110
13.911020 39.325189 -17.448995
10.517938 41.108110 -2.830867
7.874987 39.468894 -8.144250
7.287780 39.827369 -2.702724
12.737482 41.640694 -5.824197
6.044928 39.067004 -5.315283
-2.866786 33.790870 -9.339567
3.127896 36.868580 -10.190225
-1.474993 35.000430 -7.164473
1.541629 36.581663 -7.488147
17.306715 41.878858 -12.335322
9.852148 39.672590 -11.195521
15.636028 40.694879 -14.974772
15.017600 41.912271 -9.011597
11.841360 39.634908 -14.261108
11.281961 40.738045 -8.587913
-7.929970 28.097595 -17.365269
-2.833735 30.628549 -18.929484
-6.843467 27.804228 -19.582996
-6.756805 29.605006 -15.484041
10.121839 35.863858 -22.165083
3.077078 33.258729 -20.555025
8.397602 34.118503 -24.030250
8.329456 36.495591 -19.087962
-4.414115 26.911955 -24.142244
-1.507276 30.294469 -21.287343
-5.668065 27.409075 -21.855648
-1.535365 28.063417 -25.195031
-4.258248 29.043257 -20.424030
-4.258908 32.431811 -11.526146
-1.506177 32.267108 -16.929816
-5.526837 31.060240 -13.529442
-1.487902 33.921746 -12.037380
-4.211615 30.925186 -16.208493
4.990217 30.424330 -27.293134
1.572474 31.604867 -22.208135
6.676976 32.287865 -25.745933
1.599991 29.244641 -26.255522
4.819669 32.872410 -23.116797
0.000000 29.858487 -23.736621
4.854959 36.970771 -13.139276
1.573475 33.708848 -17.686264
6.557830 36.854315 -16.053266
1.554984 35.451117 -12.580089
4.780309 35.101012 -18.397125
0.000000 33.899824 -14.837753
0.000000 -19.262534 -36.607728
0.000000 -14.461209 -40.116092
0.000000 -3.070719 -44.305761
0.000000 -9.016988 -42.810698
0.000000 19.262534 -36.607728
0.000000 14.461209 -40.116092
0.000000 3.070719 -44.305761
0.000000 9.016988 -42.810698
31.779228 45.509178 -2.257684
39.761321 45.119837 -7.339604
30.093375 45.103048 -5.807215
51.324356 36.236653 -17.879027
47.014997 42.367946 -12.873751
26.459209 43.574415 -12.448960
37.520526 44.332287 -11.082211
28.307650 44.446767 -9.230097
33.832835 44.938484 -8.383688
42.400064 3.242579 -24.966126
47.676112 10.792882 -25.342943
52.463413 28.045613 -21.711702
51.277474 19.335364 -24.305770
18.520803 38.035298 -23.507107
28.113215 39.024965 -24.118755
20.532863 39.673522 -21.102872
48.050900 34.910153 -21.575661
38.279782 38.126055 -23.563198
46.461041 38.301034 -19.298586
24.494560 42.442692 -15.625942
30.446904 40.589440 -21.278180
22.538182 41.157367 -18.456407
29.698756 43.047073 -15.272426
25.385718 40.334739 -21.315857
41.117767 43.054222 -13.999086
35.861027 40.369901 -20.942110
44.117436 41.076133 -16.726551
35.272247 43.269174 -14.732977
41.180517 39.638880 -20.301232
32.895511 42.005567 -18.155130
17.616336 -25.227327 -1.251513
20.366318 -23.111026 -3.759450
17.029364 -25.523100 -3.286211
25.840738 -18.244395 -9.001715
23.087887 -20.805837 -6.321976
15.718649 -25.886297 -7.395567
19.731877 -23.314152 -5.828085
16.395292 -25.742784 -5.345909
18.395516 -24.433855 -4.558361
38.055137 -2.910297 -22.407733
34.812793 -7.880894 -18.505256
28.682578 -15.332981 -11.870131
31.664956 -11.940008 -15.009342
12.494161 -25.658669 -15.857929
16.752760 -23.255108 -14.372447
13.370916 -25.835234 -13.742103
25.081947 -18.222647 -11.262215
20.892627 -20.808725 -12.860500
23.754424 -19.582407 -9.866907
14.973776 -25.945654 -9.552299
17.550241 -23.396614 -12.265194
14.200332 -25.931474 -11.628583
17.033687 -24.689599 -8.759482
15.490135 -24.611891 -13.006742
21.105998 -22.099992 -7.185815
19.656564 -22.128021 -11.479034
22.424281 -20.878429 -8.501874
19.079912 -23.405712 -7.969549
21.690007 -20.878018 -10.692772
18.350149 -23.432025 -10.127502
2.619915 -20.171944 -34.258088
7.559998 -17.751754 -33.395278
4.119204 -21.345988 -31.992726
2.668372 -18.056144 -36.201344
16.806183 -13.010620 -31.438418
12.237831 -15.383725 -32.454785
6.849971 -23.191630 -27.402014
8.893094 -18.901516 -31.128010
5.538154 -22.349524 -29.685769
6.556013 -20.106542 -31.569939
2.773803 -13.304764 -39.740622
7.739379 -15.657104 -35.321563
2.723464 -15.754368 -38.049329
5.254981 -16.846566 -35.770149
36.724955 -1.821904 -25.645173
31.250669 -5.083519 -27.539281
35.317396 -4.547270 -23.564254
21.407378 -10.562319 -30.320678
26.178629 -7.954531 -29.049984
32.388047 -9.253079 -19.666635
30.119750 -7.529353 -25.491779
33.847238 -7.028931 -21.556929
32.657248 -6.092511 -24.586661
11.376746 -25.337018 -18.407962
13.564268 -22.035940 -21.947446
10.370507 -24.966831 -20.581878
13.610474 -24.147981 -17.635443
17.962355 -14.152199 -29.063702
15.744025 -18.351493 -25.474367
15.750125 -15.324699 -29.610327
8.142116 -23.914821 -25.041098
12.532728 -21.460899 -24.159218
9.286643 -24.494163 -22.805620
9.171114 -21.956580 -26.934578
11.462708 -23.251803 -22.381346
17.936976 -21.742254 -16.119415
15.856817 -20.851231 -21.156680
15.803379 -22.944838 -16.870449
14.736703 -22.537927 -19.409030
11.275274 -17.674638 -30.625544
13.629841 -19.502912 -25.999763
13.513334 -16.501910 -30.134426
10.218714 -19.871310 -28.802611
14.686418 -17.490513 -27.790242
11.437347 -20.723475 -26.462617
2.958865 -1.828679 -44.196688
8.562257 -5.291766 -41.925976
2.930086 -4.848456 -43.556278
17.399029 -10.753191 -33.377544
13.411294 -8.288636 -38.062303
15.034864 -11.986381 -33.884410
2.844384 -10.568162 -41.304403
8.372858 -8.096036 -40.576779
2.888855 -7.789675 -42.570203
5.507471 -12.044806 -39.376235
5.751511 -6.541039 -42.273255
10.265866 -14.403225 -34.852980
10.863234 -9.559733 -38.495094
12.649841 -13.208433 -34.376734
7.994672 -13.322921 -37.182629
13.048863 -10.834803 -36.265801
8.212982 -10.789414 -38.959504
26.680734 -16.489600 -12.991843
25.179494 -15.561783 -18.139069
28.046786 -14.918457 -14.515495
24.467773 -17.868990 -13.790717
20.611302 -12.738485 -28.369730
23.173108 -14.321768 -23.266543
22.870092 -11.523460 -27.742548
19.395052 -14.968484 -26.557391
30.868455 -11.364705 -17.814827
26.394193 -13.836613 -19.798781
29.451386 -13.207035 -16.127871
29.965330 -10.631229 -20.673485
27.281272 -14.417440 -17.170179
20.160532 -20.455862 -15.331558
22.858868 -16.947257 -18.858163
22.287974 -19.193778 -14.573269
19.225110 -20.068377 -17.860676
23.721853 -17.441758 -16.338552
27.563753 -8.962358 -26.324014
25.340419 -13.145483 -22.510173
25.196167 -10.260094 -27.061707
28.860553 -9.826900 -23.526600
24.183156 -12.385513 -25.123688
27.607401 -11.932132 -21.619981
17.046458 -18.968549 -22.992672
21.815403 -16.350526 -21.500444
18.201383 -17.050131 -24.754990
18.182491 -19.571510 -20.429971
20.683272 -15.704198 -24.017587
20.524131 -18.266293 -19.661713
2.771333 21.337786 -36.238041
8.852183 20.785957 -39.103334
4.530908 23.479467 -35.190320
2.811139 19.022210 -38.138242
22.260898 17.233425 -41.642258
15.499224 19.483501 -41.104014
8.193336 27.739796 -32.775889
10.876183 23.116405 -38.069309
6.350029 25.625892 -34.037606
7.622978 23.378802 -36.707821
2.890376 13.863913 -41.410771
8.934196 18.074271 -40.774558
2.855046 16.515527 -39.887651
5.811585 18.630945 -39.558903
39.156535 1.942533 -27.343154
37.174313 6.047113 -32.759422
41.777653 5.379056 -27.874626
36.177655 0.000000 -28.414470
28.494868 14.059260 -40.359157
33.599171 10.209306 -37.284434
46.412208 13.259702 -28.182370
39.251002 9.811989 -33.219992
44.276408 9.194719 -28.199150
40.735939 7.599665 -30.668865
30.514711 -3.467938 -30.155428
34.113581 3.876943 -33.711924
33.278579 -1.804824 -29.348346
35.310725 1.915035 -31.140494
16.120635 35.902076 -26.083735
19.888845 32.310582 -32.180827
14.117324 33.987234 -28.018016
20.642656 36.624622 -26.747223
25.038299 19.727201 -40.512819
23.025466 26.838860 -37.255987
21.548079 20.966045 -40.510514
10.186465 29.919431 -31.328497
17.600964 30.139688 -33.929207
12.122174 31.973072 -29.768959
11.651745 27.895464 -34.219927
15.913034 32.279173 -31.070767
30.372660 36.816132 -27.294985
24.546209 32.277518 -32.750350
25.459978 36.965200 -27.179077
22.689862 34.701278 -29.883767
14.448272 22.648494 -39.243941
19.185054 27.451854 -36.596673
17.967770 21.941479 -40.067718
13.094119 25.462820 -36.907265
20.499366 24.413334 -38.789741
15.356415 27.824484 -35.530174
2.977105 1.839952 -44.469131
9.025553 5.578099 -44.194556
2.977922 4.927612 -44.267381
5.942078 0.000000 -44.103651
22.019357 13.608711 -42.240981
15.339635 9.480416 -43.535085
18.870063 15.043950 -42.527882
2.942579 10.933002 -42.730337
9.070025 8.770154 -43.955410
2.963747 7.991618 -43.673810
5.947211 13.006515 -42.520201
6.007497 6.832164 -44.154731
11.523411 -3.537119 -41.692093
12.075317 3.706526 -43.688908
8.831660 -1.818226 -43.145097
8.993773 1.851602 -43.937064
12.302101 17.260106 -41.766073
12.313253 10.835761 -43.633399
15.585112 16.273319 -42.353515
9.075395 15.123919 -42.208994
15.535456 12.899483 -43.176614
9.125642 11.988377 -43.288843
49.082444 30.334619 -23.900070
42.685691 26.381208 -30.750367
49.321907 26.234976 -25.526344
44.981704 32.850460 -25.352939
28.997753 17.921597 -39.912977
35.988645 22.242206 -36.133754
32.069844 16.158902 -38.902300
28.484742 21.983617 -39.003783
48.052810 17.691395 -27.732276
42.737893 22.404462 -32.058499
48.995355 21.971236 -26.830342
44.583148 15.817402 -30.758515
46.067002 24.345209 -28.993468
35.548573 36.069323 -27.033761
38.687721 28.682557 -31.916688
40.371441 34.766752 -26.397368
32.501790 33.927409 -30.195091
41.848356 30.769472 -28.823277
37.235441 12.107109 -35.560698
39.188150 20.329070 -34.811265
34.852436 14.192209 -37.432933
40.940076 13.939929 -33.373608
35.667156 18.267096 -37.054325
42.128967 18.208465 -32.992148
26.237302 29.195716 -35.389503
35.277956 26.440637 -34.768632
27.539492 25.797596 -37.455386
29.374874 31.618915 -33.005808
31.933536 24.246191 -37.081487
34.164075 30.405721 -32.728512
20.237760 -9.241713 -32.745383
22.502033 -3.368544 -36.409054
22.666433 -7.921004 -32.182137
18.420182 -8.038055 -35.218816
25.515840 11.651985 -41.285497
24.467547 3.662781 -39.589323
28.161400 9.841273 -39.983972
22.052860 9.623255 -42.164384
27.739813 -5.071887 -30.922254
25.204792 -1.784656 -35.869474
25.176115 -6.529198 -31.573259
29.423179 -1.793025 -32.772928
23.949111 -4.993200 -34.055973
14.124434 -5.218974 -39.742768
20.328709 -1.808563 -38.745173
16.373919 -6.688819 -37.590456
14.660758 -1.812169 -41.314514
19.414046 -5.044546 -37.041258
32.455096 5.934019 -36.178496
26.423326 1.870936 -37.603595
30.501473 7.910282 -38.251768
31.046113 1.891925 -34.580629
27.431795 5.719312 -39.008398
28.057455 0.000000 -35.293699
15.395053 5.688467 -43.317986
21.154763 1.882053 -40.319578
18.656130 7.621112 -42.829844
15.101138 1.866603 -42.555520
21.740383 5.649022 -41.479821
17.884560 0.000000 -40.860865
31.779228 45.509178 2.257684
39.761321 45.119837 7.339604
30.093375 45.103048 5.807215
35.943122 45.763228 0.000000
51.324356 36.236653 17.879027
47.014997 42.367946 12.873751
26.459209 43.574415 12.448960
37.520526 44.332287 11.082211
28.307650 44.446767 9.230097
33.832835 44.938484 8.383688
44.669190 45.201396 -5.137052
44.669190 45.201396 5.137052
40.317883 45.717120 -2.479413
40.317883 45.717120 2.479413
42.400064 3.242579 24.966126
47.676112 10.792882 25.342943
52.463413 28.045613 21.711702
51.277474 19.335364 24.305770
18.520803 38.035298 23.507107
28.113215 39.024965 24.118755
20.532863 39.673522 21.102872
48.050900 34.910153 21.575661
38.279782 38.126055 23.563198
46.461041 38.301034 19.298586
24.494560 42.442692 15.625942
30.446904 40.589440 21.278180
22.538182 41.157367 18.456407
29.698756 43.047073 15.272426
25.385718 40.334739 21.315857
41.117767 43.054222 13.999086
35.861027 40.369901 20.942110
44.117436 41.076133 16.726551
35.272247 43.269174 14.732977
41.180517 39.638880 20.301232
32.895511 42.005567 18.155130
55.248716 34.145584 -15.592818
59.998560 37.081149 -5.551031
54.232686 38.197015 -13.348315
55.248716 34.145584 15.592818
59.998560 37.081149 5.551031
54.232686 38.197015 13.348315
48.901354 43.868549 -8.020830
58.196731 40.893728 -2.895530
52.119506 41.559431 -10.778064
49.887208 44.788194 -2.729357
56.708912 39.879291 -8.314516
48.901354 43.868549 8.020830
58.196731 40.893728 2.895530
52.119506 41.559431 10.778064
49.887208 44.788194 2.729357
56.708912 39.879291 8.314516
54.700408 43.485220 0.000000
17.616336 -25.227327 1.251513
20.366318 -23.111026 3.759450
17.029364 -25.523100 3.286211
19.038739 -24.240358 0.000000
25.840738 -18.244395 9.001715
23.087887 -20.805837 6.321976
15.718649 -25.886297 7.395567
19.731877 -23.314152 5.828085
16.395292 -25.742784 5.345909
18.395516 -24.433855 4.558361
21.866358 -22.126882 -2.514678
21.866358 -22.126882 2.514678
20.461929 -23.202123 -1.258339
20.461929 -23.202123 1.258339
38.055137 -2.910297 22.407733
34.812793 -7.880894 18.505256
28.682578 -15.332981 11.870131
31.664956 -11.940008 15.009342
12.494161 -25.658669 15.857929
16.752760 -23.255108 14.372447
13.370916 -25.835234 13.742103
25.081947 -18.222647 11.262215
20.892627 -20.808725 12.860500
23.754424 -19.582407 9.866907
14.973776 -25.945654 9.552299
17.550241 -23.396614 12.265194
14.200332 -25.931474 11.628583
17.033687 -24.689599 8.759482
15.490135 -24.611891 13.006742
21.105998 -22.099992 7.185815
19.656564 -22.128021 11.479034
22.424281 -20.878429 8.501874
19.079912 -23.405712 7.969549
21.690007 -20.878018 10.692772
18.350149 -23.432025 10.127502
27.689942 -17.113325 -7.814919
28.199542 -17.428275 -2.609005
26.219894 -18.467123 -6.453514
27.689942 -17.113325 7.814919
28.199542 -17.428275 2.609005
26.219894 -18.467123 6.453514
23.344369 -20.941825 -3.828958
26.603614 -18.693850 -1.323641
24.764841 -19.747169 -5.121250
23.436549 -21.041079 -1.282227
26.475356 -18.618210 -3.881749
23.344369 -20.941825 3.828958
26.603614 -18.693850 1.323641
24.764841 -19.747169 5.121250
23.436549 -21.041079 1.282227
26.475356 -18.618210 3.881749
25.023303 -19.892792 0.000000
2.619915 -20.171944 34.258088
7.559998 -17.751754 33.395278
4.119204 -21.345988 31.992726
2.668372 -18.056144 36.201344
16.806183 -13.010620 31.438418
12.237831 -15.383725 32.454785
6.849971 -23.191630 27.402014
8.893094 -18.901516 31.128010
5.538154 -22.349524 29.685769
6.556013 -20.106542 31.569939
2.773803 -13.304764 39.740622
7.739379 -15.657104 35.321563
2.723464 -15.754368 38.049329
5.254981 -16.846566 35.770149
36.724955 -1.821904 25.645173
31.250669 -5.083519 27.539281
35.317396 -4.547270 23.564254
21.407378 -10.562319 30.320678
26.178629 -7.954531 29.049984
32.388047 -9.253079 19.666635
30.119750 -7.529353 25.491779
33.847238 -7.028931 21.556929
32.657248 -6.092511 24.586661
11.376746 -25.337018 18.407962
13.564268 -22.035940 21.947446
10.370507 -24.966831 20.581878
13.610474 -24.147981 17.635443
17.962355 -14.152199 29.063702
15.744025 -18.351493 25.474367
15.750125 -15.324699 29.610327
8.142116 -23.914821 25.041098
12.532728 -21.460899 24.159218
9.286643 -24.494163 22.805620
9.171114 -21.956580 26.934578
11.462708 -23.251803 22.381346
17.936976 -21.742254 16.119415
15.856817 -20.851231 21.156680
15.803379 -22.944838 16.870449
14.736703 -22.537927 19.409030
11.275274 -17.674638 30.625544
13.629841 -19.502912 25.999763
13.513334 -16.501910 30.134426
10.218714 -19.871310 28.802611
14.686418 -17.490513 27.790242
11.437347 -20.723475 26.462617
2.958865 -1.828679 44.196688
8.562257 -5.291766 41.925976
2.930086 -4.848456 43.556278
17.399029 -10.753191 33.377544
13.411294 -8.288636 38.062303
15.034864 -11.986381 33.884410
2.844384 -10.568162 41.304403
8.372858 -8.096036 40.576779
2.888855 -7.789675 42.570203
5.507471 -12.044806 39.376235
5.751511 -6.541039 42.273255
10.265866 -14.403225 34.852980
10.863234 -9.559733 38.495094
12.649841 -13.208433 34.376734
7.994672 -13.322921 37.182629
13.048863 -10.834803 36.265801
8.212982 -10.789414 38.959504
26.680734 -16.489600 12.991843
25.179494 -15.561783 18.139069
28.046786 -14.918457 14.515495
24.467773 -17.868990 13.790717
20.611302 -12.738485 28.369730
23.173108 -14.321768 23.266543
22.870092 -11.523460 27.742548
19.395052 -14.968484 26.557391
30.868455 -11.364705 17.814827
26.394193 -13.836613 19.798781
29.451386 -13.207035 16.127871
29.965330 -10.631229 20.673485
27.281272 -14.417440 17.170179
20.160532 -20.455862 15.331558
22.858868 -16.947257 18.858163
22.287974 -19.193778 14.573269
19.225110 -20.068377 17.860676
23.721853 -17.441758 16.338552
27.563753 -8.962358 26.324014
25.340419 -13.145483 22.510173
25.196167 -10.260094 27.061707
28.860553 -9.826900 23.526600
24.183156 -12.385513 25.123688
27.607401 -11.932132 21.619981
17.046458 -18.968549 22.992672
21.815403 -16.350526 21.500444
18.201383 -17.050131 24.754990
18.182491 -19.571510 20.429971
20.683272 -15.704198 24.017587
20.524131 -18.266293 19.661713
2.771333 21.337786 36.238041
8.852183 20.785957 39.103334
4.530908 23.479467 35.190320
2.811139 19.022210 38.138242
22.260898 17.233425 41.642258
15.499224 19.483501 41.104014
8.193336 27.739796 32.775889
10.876183 23.116405 38.069309
6.350029 25.625892 34.037606
7.622978 23.378802 36.707821
2.890376 13.863913 41.410771
8.934196 18.074271 40.774558
2.855046 16.515527 39.887651
5.811585 18.630945 39.558903
39.156535 1.942533 27.343154
37.174313 6.047113 32.759422
41.777653 5.379056 27.874626
36.177655 0.000000 28.414470
28.494868 14.059260 40.359157
33.599171 10.209306 37.284434
46.412208 13.259702 28.182370
39.251002 9.811989 33.219992
44.276408 9.194719 28.199150
40.735939 7.599665 30.668865
30.514711 -3.467938 30.155428
34.113581 3.876943 33.711924
33.278579 -1.804824 29.348346
35.310725 1.915035 31.140494
16.120635 35.902076 26.083735
19.888845 32.310582 32.180827
14.117324 33.987234 28.018016
20.642656 36.624622 26.747223
25.038299 19.727201 40.512819
23.025466 26.838860 37.255987
21.548079 20.966045 40.510514
10.186465 29.919431 31.328497
17.600964 30.139688 33.929207
12.122174 31.973072 29.768959
11.651745 27.895464 34.219927
15.913034 32.279173 31.070767
30.372660 36.816132 27.294985
24.546209 32.277518 32.750350
25.459978 36.965200 27.179077
22.689862 34.701278 29.883767
14.448272 22.648494 39.243941
19.185054 27.451854 36.596673
17.967770 21.941479 40.067718
13.094119 25.462820 36.907265
20.499366 24.413334 38.789741
15.356415 27.824484 35.530174
2.977105 1.839952 44.469131
9.025553 5.578099 44.194556
2.977922 4.927612 44.267381
5.942078 0.000000 44.103651
22.019357 13.608711 42.240981
15.339635 9.480416 43.535085
18.870063 15.043950 42.527882
2.942579 10.933002 42.730337
9.070025 8.770154 43.955410
2.963747 7.991618 43.673810
5.947211 13.006515 42.520201
6.007497 6.832164 44.154731
11.523411 -3.537119 41.692093
12.075317 3.706526 43.688908
8.831660 -1.818226 43.145097
8.993773 1.851602 43.937064
12.302101 17.260106 41.766073
12.313253 10.835761 43.633399
15.585112 16.273319 42.353515
9.075395 15.123919 42.208994
15.535456 12.899483 43.176614
9.125642 11.988377 43.288843
49.082444 30.334619 23.900070
42.685691 26.381208 30.750367
49.321907 26.234976 25.526344
44.981704 32.850460 25.352939
28.997753 17.921597 39.912977
35.988645 22.242206 36.133754
32.069844 16.158902 38.902300
28.484742 21.983617 39.003783
48.052810 17.691395 27.732276
42.737893 22.404462 32.058499
48.995355 21.971236 26.830342
44.583148 15.817402 30.758515
46.067002 24.345209 28.993468
35.548573 36.069323 27.033761
38.687721 28.682557 31.916688
40.371441 34.766752 26.397368
32.501790 33.927409 30.195091
41.848356 30.769472 28.823277
37.235441 12.107109 35.560698
39.188150 20.329070 34.811265
34.852436 14.192209 37.432933
40.940076 13.939929 33.373608
35.667156 18.267096 37.054325
42.128967 18.208465 32.992148
26.237302 29.195716 35.389503
35.277956 26.440637 34.768632
27.539492 25.797596 37.455386
29.374874 31.618915 33.005808
31.933536 24.246191 37.081487
34.164075 30.405721 32.728512
20.237760 -9.241713 32.745383
22.502033 -3.368544 36.409054
22.666433 -7.921004 32.182137
18.420182 -8.038055 35.218816
25.515840 11.651985 41.285497
24.467547 3.662781 39.589323
28.161400 9.841273 39.983972
22.052860 9.623255 42.164384
27.739813 -5.071887 30.922254
25.204792 -1.784656 35.869474
25.176115 -6.529198 31.573259
29.423179 -1.793025 32.772928
23.949111 -4.993200 34.055973
14.124434 -5.218974 39.742768
20.328709 -1.808563 38.745173
16.373919 -6.688819 37.590456
14.660758 -1.812169 41.314514
19.414046 -5.044546 37.041258
32.455096 5.934019 36.178496
26.423326 1.870936 37.603595
30.501473 7.910282 38.251768
31.046113 1.891925 34.580629
27.431795 5.719312 39.008398
28.057455 0.000000 35.293699
15.395053 5.688467 43.317986
21.154763 1.882053 40.319578
18.656130 7.621112 42.829844
15.101138 1.866603 42.555520
21.740383 5.649022 41.479821
17.884560 0.000000 40.860865
41.550635 0.000000 -21.863430
44.862316 0.000000 -16.172147
44.478080 3.278444 -22.184331
39.764351 -2.930999 -19.833265
48.524479 0.000000 -3.363108
47.258101 0.000000 -9.953721
50.062399 10.969273 -22.191322
48.024981 3.352032 -16.078284
47.399552 6.963452 -22.323633
46.377644 3.319582 -19.202716
36.151874 -7.921310 -16.025159
42.652183 -2.977023 -14.279525
37.939010 -5.573607 -17.868028
41.310582 -2.956896 -17.104694
41.550635 0.000000 21.863430
44.862316 0.000000 16.172147
44.478080 3.278444 22.184331
39.764351 -2.930999 19.833265
48.524479 0.000000 3.363108
47.258101 0.000000 9.953721
50.062399 10.969273 22.191322
48.024981 3.352032 16.078284
47.399552 6.963452 22.323633
46.377644 3.319582 19.202716
36.151874 -7.921310 16.025159
42.652183 -2.977023 14.279525
37.939010 -5.573607 17.868028
41.310582 -2.956896 17.104694
55.444200 28.901924 -17.862371
58.293940 20.539934 -12.694377
54.986015 24.397865 -19.450930
58.191628 30.435446 -13.281182
51.703458 3.461426 -2.139279
56.588733 11.556732 -7.142453
51.308432 3.451583 -5.711385
52.374010 15.426645 -21.643907
56.534314 15.953864 -14.039528
53.974131 19.861229 -20.738261
52.281643 11.241125 -18.733054
56.359104 20.278671 -16.837895
61.721072 32.383639 -2.881041
59.955161 21.307844 -7.873242
60.431133 31.673135 -8.229948
59.722782 26.014476 -10.627029
49.482230 3.407542 -12.660544
55.577720 11.468243 -11.089082
50.554492 3.430677 -9.250674
51.223846 7.164572 -15.668875
53.759233 7.314243 -8.318291
54.153451 11.415990 -14.997213
29.487792 -15.371381 -9.500036
34.285178 -12.080420 -7.466110
31.049029 -13.776777 -10.983384
29.886388 -15.631210 -6.821025
45.588133 -3.052019 -1.886252
39.638337 -8.095068 -5.003027
45.270378 -3.045395 -5.039260
34.352502 -10.118451 -14.196399
36.196044 -10.214447 -8.988795
32.677407 -12.024528 -12.555507
37.291974 -8.018182 -13.362100
33.556869 -12.074158 -10.025480
30.294566 -15.894868 -1.414102
34.593168 -12.294285 -4.542734
30.158401 -15.806606 -4.107189
32.196101 -14.024208 -5.728951
43.799234 -3.016188 -11.206490
39.103223 -8.068795 -7.802027
44.667068 -3.031150 -8.173368
40.457587 -5.658718 -12.375581
42.094915 -5.727247 -6.513444
38.283909 -8.070561 -10.602315
55.444200 28.901924 17.862371
58.293940 20.539934 12.694377
54.986015 24.397865 19.450930
58.191628 30.435446 13.281182
51.703458 3.461426 2.139279
56.588733 11.556732 7.142453
51.308432 3.451583 5.711385
54.726225 7.373256 0.000000
52.374010 15.426645 21.643907
56.534314 15.953864 14.039528
53.974131 19.861229 20.738261
52.281643 11.241125 18.733054
56.359104 20.278671 16.837895
61.721072 32.383639 2.881041
59.955161 21.307844 7.873242
60.431133 31.673135 8.229948
61.827285 27.061438 0.000000
59.722782 26.014476 10.627029
49.482230 3.407542 12.660544
55.577720 11.468243 11.089082
50.554492 3.430677 9.250674
51.223846 7.164572 15.668875
53.759233 7.314243 8.318291
54.153451 11.415990 14.997213
59.056324 16.322766 -5.010284
59.056324 16.322766 5.010284
57.273368 11.723671 -2.413622
60.846169 21.591709 -2.668882
57.273368 11.723671 2.413622
60.846169 21.591709 2.668882
29.487792 -15.371381 9.500036
34.285178 -12.080420 7.466110
31.049029 -13.776777 10.983384
29.886388 -15.631210 6.821025
45.588133 -3.052019 1.886252
39.638337 -8.095068 5.003027
45.270378 -3.045395 5.039260
42.715464 -5.755048 0.000000
34.352502 -10.118451 14.196399
36.196044 -10.214447 8.988795
32.677407 -12.024528 12.555507
37.291974 -8.018182 13.362100
33.556869 -12.074158 10.025480
30.294566 -15.894868 1.414102
34.593168 -12.294285 4.542734
30.158401 -15.806606 4.107189
32.491027 -14.221131 0.000000
32.196101 -14.024208 5.728951
43.799234 -3.016188 11.206490
39.103223 -8.068795 7.802027
44.667068 -3.031150 8.173368
40.457587 -5.658718 12.375581
42.094915 -5.727247 6.513444
38.283909 -8.070561 10.602315
37.242499 -10.293574 -3.159619
37.242499 -10.293574 3.159619
39.902607 -8.167933 -1.681581
34.817354 -12.355193 -1.527186
39.902607 -8.167933 1.681581
34.817354 -12.355193 1.527186
-17.616336 25.227327 -1.251513
-20.366318 23.111026 -3.759450
-17.029364 25.523100 -3.286211
-25.840738 18.244395 -9.001715
-23.087887 20.805837 -6.321976
-15.718649 25.886297 -7.395567
-19.731877 23.314152 -5.828085
-16.395292 25.742784 -5.345909
-18.395516 24.433855 -4.558361
-38.055137 2.910297 -22.407733
-34.812793 7.880894 -18.505256
-28.682578 15.332981 -11.870131
-31.664956 11.940008 -15.009342
-12.494161 25.658669 -15.857929
-16.752760 23.255108 -14.372447
-13.370916 25.835234 -13.742103
-25.081947 18.222647 -11.262215
-20.892627 20.808725 -12.860500
-23.754424 19.582407 -9.866907
-14.973776 25.945654 -9.552299
-17.550241 23.396614 -12.265194
-14.200332 25.931474 -11.628583
-17.033687 24.689599 -8.759482
-15.490135 24.611891 -13.006742
-21.105998 22.099992 -7.185815
-19.656564 22.128021 -11.479034
-22.424281 20.878429 -8.501874
-19.079912 23.405712 -7.969549
-21.690007 20.878018 -10.692772
-18.350149 23.432025 -10.127502
-31.779228 -45.509178 -2.257684
-39.761321 -45.119837 -7.339604
-30.093375 -45.103048 -5.807215
-51.324356 -36.236653 -17.879027
-47.014997 -42.367946 -12.873751
-26.459209 -43.574415 -12.448960
-37.520526 -44.332287 -11.082211
-28.307650 -44.446767 -9.230097
-33.832835 -44.938484 -8.383688
-42.400064 -3.242579 -24.966126
-47.676112 -10.792882 -25.342943
-52.463413 -28.045613 -21.711702
-51.277474 -19.335364 -24.305770
-18.520803 -38.035298 -23.507107
-28.113215 -39.024965 -24.118755
-20.532863 -39.673522 -21.102872
-48.050900 -34.910153 -21.575661
-38.279782 -38.126055 -23.563198
-46.461041 -38.301034 -19.298586
-24.494560 -42.442692 -15.625942
-30.446904 -40.589440 -21.278180
-22.538182 -41.157367 -18.456407
-29.698756 -43.047073 -15.272426
-25.385718 -40.334739 -21.315857
-41.117767 -43.054222 -13.999086
-35.861027 -40.369901 -20.942110
-44.117436 -41.076133 -16.726551
-35.272247 -43.269174 -14.732977
-41.180517 -39.638880 -20.301232
-32.895511 -42.005567 -18.155130
-2.771333 -21.337786 -36.238041
-8.852183 -20.785957 -39.103334
-4.530908 -23.479467 -35.190320
-2.811139 -19.022210 -38.138242
-22.260898 -17.233425 -41.642258
-15.499224 -19.483501 -41.104014
-8.193336 -27.739796 -32.775889
-10.876183 -23.116405 -38.069309
-6.350029 -25.625892 -34.037606
-7.622978 -23.378802 -36.707821
-2.890376 -13.863913 -41.410771
-8.934196 -18.074271 -40.774558
-2.855046 -16.515527 -39.887651
-5.811585 -18.630945 -39.558903
-39.156535 -1.942533 -27.343154
-37.174313 -6.047113 -32.759422
-41.777653 -5.379056 -27.874626
-28.494868 -14.059260 -40.359157
-33.599171 -10.209306 -37.284434
-46.412208 -13.259702 -28.182370
-39.251002 -9.811989 -33.219992
-44.276408 -9.194719 -28.199150
-40.735939 -7.599665 -30.668865
-16.120635 -35.902076 -26.083735
-19.888845 -32.310582 -32.180827
-14.117324 -33.987234 -28.018016
-20.642656 -36.624622 -26.747223
-25.038299 -19.727201 -40.512819
-23.025466 -26.838860 -37.255987
-21.548079 -20.966045 -40.510514
-10.186465 -29.919431 -31.328497
-17.600964 -30.139688 -33.929207
-12.122174 -31.973072 -29.768959
-11.651745 -27.895464 -34.219927
-15.913034 -32.279173 -31.070767
-30.372660 -36.816132 -27.294985
-24.546209 -32.277518 -32.750350
-25.459978 -36.965200 -27.179077
-22.689862 -34.701278 -29.883767
-14.448272 -22.648494 -39.243941
-19.185054 -27.451854 -36.596673
-17.967770 -21.941479 -40.067718
-13.094119 -25.462820 -36.907265
-20.499366 -24.413334 -38.789741
-15.356415 -27.824484 -35.530174
-2.977105 -1.839952 -44.469131
-9.025553 -5.578099 -44.194556
-2.977922 -4.927612 -44.267381
-22.019357 -13.608711 -42.240981
-15.339635 -9.480416 -43.535085
-18.870063 -15.043950 -42.527882
-2.942579 -10.933002 -42.730337
-9.070025 -8.770154 -43.955410
-2.963747 -7.991618 -43.673810
-5.947211 -13.006515 -42.520201
-6.007497 -6.832164 -44.154731
-12.302101 -17.260106 -41.766073
-12.313253 -10.835761 -43.633399
-15.585112 -16.273319 -42.353515
-9.075395 -15.123919 -42.208994
-15.535456 -12.899483 -43.176614
-9.125642 -11.988377 -43.288843
-49.082444 -30.334619 -23.900070
-42.685691 -26.381208 -30.750367
-49.321907 -26.234976 -25.526344
-44.981704 -32.850460 -25.352939
-28.997753 -17.921597 -39.912977
-35.988645 -22.242206 -36.133754
-32.069844 -16.158902 -38.902300
-28.484742 -21.983617 -39.003783
-48.052810 -17.691395 -27.732276
-42.737893 -22.404462 -32.058499
-48.995355 -21.971236 -26.830342
-44.583148 -15.817402 -30.758515
-46.067002 -24.345209 -28.993468
-35.548573 -36.069323 -27.033761
-38.687721 -28.682557 -31.916688
-40.371441 -34.766752 -26.397368
-32.501790 -33.927409 -30.195091
-41.848356 -30.769472 -28.823277
-37.235441 -12.107109 -35.560698
-39.188150 -20.329070 -34.811265
-34.852436 -14.192209 -37.432933
-40.940076 -13.939929 -33.373608
-35.667156 -18.267096 -37.054325
-42.128967 -18.208465 -32.992148
-26.237302 -29.195716 -35.389503
-35.277956 -26.440637 -34.768632
-27.539492 -25.797596 -37.455386
-29.374874 -31.618915 -33.005808
-31.933536 -24.246191 -37.081487
-34.164075 -30.405721 -32.728512
-2.619915 20.171944 -34.258088
-7.559998 17.751754 -33.395278
-4.119204 21.345988 -31.992726
-2.668372 18.056144 -36.201344
-16.806183 13.010620 -31.438418
-12.237831 15.383725 -32.454785
-6.849971 23.191630 -27.402014
-8.893094 18.901516 -31.128010
-5.538154 22.349524 -29.685769
-6.556013 20.106542 -31.569939
-2.773803 13.304764 -39.740622
-7.739379 15.657104 -35.321563
-2.723464 15.754368 -38.049329
-5.254981 16.846566 -35.770149
-36.724955 1.821904 -25.645173
-31.250669 5.083519 -27.539281
-35.317396 4.547270 -23.564254
-36.177655 0.000000 -28.414470
-21.407378 10.562319 -30.320678
-26.178629 7.954531 -29.049984
-32.388047 9.253079 -19.666635
-30.119750 7.529353 -25.491779
-33.847238 7.028931 -21.556929
-32.657248 6.092511 -24.586661
-34.113581 -3.876943 -33.711924
-30.514711 3.467938 -30.155428
-35.310725 -1.915035 -31.140494
-33.278579 1.804824 -29.348346
-11.376746 25.337018 -18.407962
-13.564268 22.035940 -21.947446
-10.370507 24.966831 -20.581878
-13.610474 24.147981 -17.635443
-17.962355 14.152199 -29.063702
-15.744025 18.351493 -25.474367
-15.750125 15.324699 -29.610327
-8.142116 23.914821 -25.041098
-12.532728 21.460899 -24.159218
-9.286643 24.494163 -22.805620
-9.171114 21.956580 -26.934578
-11.462708 23.251803 -22.381346
-17.936976 21.742254 -16.119415
-15.856817 20.851231 -21.156680
-15.803379 22.944838 -16.870449
-14.736703 22.537927 -19.409030
-11.275274 17.674638 -30.625544
-13.629841 19.502912 -25.999763
-13.513334 16.501910 -30.134426
-10.218714 19.871310 -28.802611
-14.686418 17.490513 -27.790242
-11.437347 20.723475 -26.462617
-2.958865 1.828679 -44.196688
-8.562257 5.291766 -41.925976
-2.930086 4.848456 -43.556278
-5.942078 0.000000 -44.103651
-17.399029 10.753191 -33.377544
-13.411294 8.288636 -38.062303
-15.034864 11.986381 -33.884410
-2.844384 10.568162 -41.304403
-8.372858 8.096036 -40.576779
-2.888855 7.789675 -42.570203
-5.507471 12.044806 -39.376235
-5.751511 6.541039 -42.273255
-12.075317 -3.706526 -43.688908
-11.523411 3.537119 -41.692093
-8.993773 -1.851602 -43.937064
-8.831660 1.818226 -43.145097
-10.265866 14.403225 -34.852980
-10.863234 9.559733 -38.495094
-12.649841 13.208433 -34.376734
-7.994672 13.322921 -37.182629
-13.048863 10.834803 -36.265801
-8.212982 10.789414 -38.959504
-26.680734 16.489600 -12.991843
-25.179494 15.561783 -18.139069
-28.046786 14.918457 -14.515495
-24.467773 17.868990 -13.790717
-20.611302 12.738485 -28.369730
-23.173108 14.321768 -23.266543
-22.870092 11.523460 -27.742548
-19.395052 14.968484 -26.557391
-30.868455 11.364705 -17.814827
-26.394193 13.836613 -19.798781
-29.451386 13.207035 -16.127871
-29.965330 10.631229 -20.673485
-27.281272 14.417440 -17.170179
-20.160532 20.455862 -15.331558
-22.858868 16.947257 -18.858163
-22.287974 19.193778 -14.573269
-19.225110 20.068377 -17.860676
-23.721853 17.441758 -16.338552
-27.563753 8.962358 -26.324014
-25.340419 13.145483 -22.510173
-25.196167 10.260094 -27.061707
-28.860553 9.826900 -23.526600
-24.183156 12.385513 -25.123688
-27.607401 11.932132 -21.619981
-17.046458 18.968549 -22.992672
-21.815403 16.350526 -21.500444
-18.201383 17.050131 -24.754990
-18.182491 19.571510 -20.429971
-20.683272 15.704198 -24.017587
-20.524131 18.266293 -19.661713
-25.515840 -11.651985 -41.285497
-24.467547 -3.662781 -39.589323
-28.161400 -9.841273 -39.983972
-22.052860 -9.623255 -42.164384
-20.237760 9.241713 -32.745383
-22.502033 3.368544 -36.409054
-22.666433 7.921004 -32.182137
-18.420182 8.038055 -35.218816
-32.455096 -5.934019 -36.178496
-26.423326 -1.870936 -37.603595
-30.501473 -7.910282 -38.251768
-31.046113 -1.891925 -34.580629
-27.431795 -5.719312 -39.008398
-15.395053 -5.688467 -43.317986
-21.154763 -1.882053 -40.319578
-18.656130 -7.621112 -42.829844
-15.101138 -1.866603 -42.555520
-21.740383 -5.649022 -41.479821
-27.739813 5.071887 -30.922254
-25.204792 1.784656 -35.869474
-25.176115 6.529198 -31.573259
-29.423179 1.793025 -32.772928
-23.949111 4.993200 -34.055973
-28.057455 0.000000 -35.293699
-14.124434 5.218974 -39.742768
-20.328709 1.808563 -38.745173
-16.373919 6.688819 -37.590456
-14.660758 1.812169 -41.314514
-19.414046 5.044546 -37.041258
-17.884560 0.000000 -40.860865
-17.616336 25.227327 1.251513
-20.366318 23.111026 3.759450
-17.029364 25.523100 3.286211
-19.038739 24.240358 0.000000
-25.840738 18.244395 9.001715
-23.087887 20.805837 6.321976
-15.718649 25.886297 7.395567
-19.731877 23.314152 5.828085
-16.395292 25.742784 5.345909
-18.395516 24.433855 4.558361
-21.866358 22.126882 -2.514678
-21.866358 22.126882 2.514678
-20.461929 23.202123 -1.258339
-20.461929 23.202123 1.258339
-38.055137 2.910297 22.407733
-34.812793 7.880894 18.505256
-28.682578 15.332981 11.870131
-31.664956 11.940008 15.009342
-12.494161 25.658669 15.857929
-16.752760 23.255108 14.372447
-13.370916 25.835234 13.742103
-25.081947 18.222647 11.262215
-20.892627 20.808725 12.860500
-23.754424 19.582407 9.866907
-14.973776 25.945654 9.552299
-17.550241 23.396614 12.265194
-14.200332 25.931474 11.628583
-17.033687 24.689599 8.759482
-15.490135 24.611891 13.006742
-21.105998 22.099992 7.185815
-19.656564 22.128021 11.479034
-22.424281 20.878429 8.501874
-19.079912 23.405712 7.969549
-21.690007 20.878018 10.692772
-18.350149 23.432025 10.127502
-27.689942 17.113325 -7.814919
-28.199542 17.428275 -2.609005
-26.219894 18.467123 -6.453514
-27.689942 17.113325 7.814919
-28.199542 17.428275 2.609005
-26.219894 18.467123 6.453514
-23.344369 20.941825 -3.828958
-26.603614 18.693850 -1.323641
-24.764841 19.747169 -5.121250
-23.436549 21.041079 -1.282227
-26.475356 18.618210 -3.881749
-23.344369 20.941825 3.828958
-26.603614 18.693850 1.323641
-24.764841 19.747169 5.121250
-23.436549 21.041079 1.282227
-26.475356 18.618210 3.881749
-25.023303 19.892792 0.000000
-31.779228 -45.509178 2.257684
-39.761321 -45.119837 7.339604
-30.093375 -45.103048 5.807215
-35.943122 -45.763228 0.000000
-51.324356 -36.236653 17.879027
-47.014997 -42.367946 12.873751
-26.459209 -43.574415 12.448960
-37.520526 -44.332287 11.082211
-28.307650 -44.446767 9.230097
-33.832835 -44.938484 8.383688
-44.669190 -45.201396 -5.137052
-44.669190 -45.201396 5.137052
-40.317883 -45.717120 -2.479413
-40.317883 -45.717120 2.479413
-42.400064 -3.242579 24.966126
-47.676112 -10.792882 25.342943
-52.463413 -28.045613 21.711702
-51.277474 -19.335364 24.305770
-18.520803 -38.035298 23.507107
-28.113215 -39.024965 24.118755
-20.532863 -39.673522 21.102872
-48.050900 -34.910153 21.575661
-38.279782 -38.126055 23.563198
-46.461041 -38.301034 19.298586
-24.494560 -42.442692 15.625942
-30.446904 -40.589440 21.278180
-22.538182 -41.157367 18.456407
-29.698756 -43.047073 15.272426
-25.385718 -40.334739 21.315857
-41.117767 -43.054222 13.999086
-35.861027 -40.369901 20.942110
-44.117436 -41.076133 16.726551
-35.272247 -43.269174 14.732977
-41.180517 -39.638880 20.301232
-32.895511 -42.005567 18.155130
-55.248716 -34.145584 -15.592818
-59.998560 -37.081149 -5.551031
-54.232686 -38.197015 -13.348315
-55.248716 -34.145584 15.592818
-59.998560 -37.081149 5.551031
-54.232686 -38.197015 13.348315
-48.901354 -43.868549 -8.020830
-58.196731 -40.893728 -2.895530
-52.119506 -41.559431 -10.778064
-49.887208 -44.788194 -2.729357
-56.708912 -39.879291 -8.314516
-48.901354 -43.868549 8.020830
-58.196731 -40.893728 2.895530
-52.119506 -41.559431 10.778064
-49.887208 -44.788194 2.729357
-56.708912 -39.879291 8.314516
-54.700408 -43.485220 0.000000
-2.771333 -21.337786 36.238041
-8.852183 -20.785957 39.103334
-4.530908 -23.479467 35.190320
-2.811139 -19.022210 38.138242
-22.260898 -17.233425 41.642258
-15.499224 -19.483501 41.104014
-8.193336 -27.739796 32.775889
-10.876183 -23.116405 38.069309
-6.350029 -25.625892 34.037606
-7.622978 -23.378802 36.707821
-2.890376 -13.863913 41.410771
-8.934196 -18.074271 40.774558
-2.855046 -16.515527 39.887651
-5.811585 -18.630945 39.558903
-39.156535 -1.942533 27.343154
-37.174313 -6.047113 32.759422
-41.777653 -5.379056 27.874626
-28.494868 -14.059260 40.359157
-33.599171 -10.209306 37.284434
-46.412208 -13.259702 28.182370
-39.251002 -9.811989 33.219992
-44.276408 -9.194719 28.199150
-40.735939 -7.599665 30.668865
-16.120635 -35.902076 26.083735
-19.888845 -32.310582 32.180827
-14.117324 -33.987234 28.018016
-20.642656 -36.624622 26.747223
-25.038299 -19.727201 40.512819
-23.025466 -26.838860 37.255987
-21.548079 -20.966045 40.510514
-10.186465 -29.919431 31.328497
-17.600964 -30.139688 33.929207
-12.122174 -31.973072 29.768959
-11.651745 -27.895464 34.219927
-15.913034 -32.279173 31.070767
-30.372660 -36.816132 27.294985
-24.546209 -32.277518 32.750350
-25.459978 -36.965200 27.179077
-22.689862 -34.701278 29.883767
-14.448272 -22.648494 39.243941
-19.185054 -27.451854 36.596673
-17.967770 -21.941479 40.067718
-13.094119 -25.462820 36.907265
-20.499366 -24.413334 38.789741
-15.356415 -27.824484 35.530174
-2.977105 -1.839952 44.469131
-9.025553 -5.578099 44.194556
-2.977922 -4.927612 44.267381
-22.019357 -13.608711 42.240981
-15.339635 -9.480416 43.535085
-18.870063 -15.043950 42.527882
-2.942579 -10.933002 42.730337
-9.070025 -8.770154 43.955410
-2.963747 -7.991618 43.673810
-5.947211 -13.006515 42.520201
-6.007497 -6.832164 44.154731
-12.302101 -17.260106 41.766073
-12.313253 -10.835761 43.633399
-15.585112 -16.273319 42.353515
-9.075395 -15.123919 42.208994
-15.535456 -12.899483 43.176614
-9.125642 -11.988377 43.288843
-49.082444 -30.334619 23.900070
-42.685691 -26.381208 30.750367
-49.321907 -26.234976 25.526344
-44.981704 -32.850460 25.352939
-28.997753 -17.921597 39.912977
-35.988645 -22.242206 36.133754
-32.069844 -16.158902 38.902300
-28.484742 -21.983617 39.003783
-48.052810 -17.691395 27.732276
-42.737893 -22.404462 32.058499
-48.995355 -21.971236 26.830342
-44.583148 -15.817402 30.758515
-46.067002 -24.345209 28.993468
-35.548573 -36.069323 27.033761
-38.687721 -28.682557 31.916688
-40.371441 -34.766752 26.397368
-32.501790 -33.927409 30.195091
-41.848356 -30.769472 28.823277
-37.235441 -12.107109 35.560698
-39.188150 -20.329070 34.811265
-34.852436 -14.192209 37.432933
-40.940076 -13.939929 33.373608
-35.667156 -18.267096 37.054325
-42.128967 -18.208465 32.992148
-26.237302 -29.195716 35.389503
-35.277956 -26.440637 34.768632
-27.539492 -25.797596 37.455386
-29.374874 -31.618915 33.005808
-31.933536 -24.246191 37.081487
-34.164075 -30.405721 32.728512
-2.619915 20.171944 34.258088
-7.559998 17.751754 33.395278
-4.119204 21.345988 31.992726
-2.668372 18.056144 36.201344
-16.806183 13.010620 31.438418
-12.237831 15.383725 32.454785
-6.849971 23.191630 27.402014
-8.893094 18.901516 31.128010
-5.538154 22.349524 29.685769
-6.556013 20.106542 31.569939
-2.773803 13.304764 39.740622
-7.739379 15.657104 35.321563
-2.723464 15.754368 38.049329
-5.254981 16.846566 35.770149
-36.724955 1.821904 25.645173
-31.250669 5.083519 27.539281
-35.317396 4.547270 23.564254
-36.177655 0.000000 28.414470
-21.407378 10.562319 30.320678
-26.178629 7.954531 29.049984
-32.388047 9.253079 19.666635
-30.119750 7.529353 25.491779
-33.847238 7.028931 21.556929
-32.657248 6.092511 24.586661
-34.113581 -3.876943 33.711924
-30.514711 3.467938 30.155428
-35.310725 -1.915035 31.140494
-33.278579 1.804824 29.348346
-11.376746 25.337018 18.407962
-13.564268 22.035940 21.947446
-10.370507 24.966831 20.581878
-13.610474 24.147981 17.635443
-17.962355 14.152199 29.063702
-15.744025 18.351493 25.474367
-15.750125 15.324699 29.610327
-8.142116 23.914821 25.041098
-12.532728 21.460899 24.159218
-9.286643 24.494163 22.805620
-9.171114 21.956580 26.934578
-11.462708 23.251803 22.381346
-17.936976 21.742254 16.119415
-15.856817 20.851231 21.156680
-15.803379 22.944838 16.870449
-14.736703 22.537927 19.409030
-11.275274 17.674638 30.625544
-13.629841 19.502912 25.999763
-13.513334 16.501910 30.134426
-10.218714 19.871310 28.802611
-14.686418 17.490513 27.790242
-11.437347 20.723475 26.462617
-2.958865 1.828679 44.196688
-8.562257 5.291766 41.925976
-2.930086 4.848456 43.556278
-5.942078 0.000000 44.103651
-17.399029 10.753191 33.377544
-13.411294 8.288636 38.062303
-15.034864 11.986381 33.884410
