0.929628 13.413102 0.000000
2.840305 13.485149 0.000000
-7.127627 -13.545790 0.000000
-4.878024 -13.531873 0.000000
-0.929628 -13.413102 0.000000
-2.840305 -13.485149 0.000000
6.409982 -12.181932 0.000000
4.603048 -12.769078 0.000000
0.921578 -13.296953 0.000000
2.759699 -13.102451 0.000000
-7.896304 -13.410322 1.025565
-6.766787 -12.729938 2.881794
-6.710492 -13.454082 0.991690
-4.345756 -10.500937 5.613535
-5.558072 -11.725772 4.421475
-4.504925 -13.455973 0.939196
-5.693855 -12.845022 2.814499
-5.574127 -13.462413 0.963602
-6.218222 -13.203091 1.939662
-0.372802 -5.247570 7.514738
-1.188299 -6.437452 7.305008
-3.178481 -9.124294 6.442047
-2.118566 -7.737012 6.972271
-0.552213 -13.346228 0.893499
-1.638157 -12.978909 2.650594
-1.490116 -13.386509 0.900527
-3.445782 -10.695592 5.575393
-2.635807 -12.103907 4.264825
-4.003737 -11.318202 5.022004
-3.438607 -13.439385 0.925489
-2.588727 -12.974525 2.677242
-2.455127 -13.417153 0.910501
-4.054192 -13.253746 1.853774
-2.049166 -13.243293 1.801824
-5.120434 -12.390446 3.649577
-3.118041 -12.555717 3.543197
-4.567476 -11.887474 4.374315
-4.624348 -12.905985 2.774928
-3.587983 -12.009548 4.321177
-3.585539 -12.947027 2.729339
6.976470 -11.848165 0.906098
6.266084 -11.787997 2.668558
6.115703 -12.261569 0.903791
4.249244 -10.267728 5.488867
5.342564 -11.271118 4.250037
4.286304 -12.802961 0.893617
5.391044 -12.161899 2.664818
5.205912 -12.573114 0.899948
5.773559 -12.258941 1.800957
0.372263 -5.239980 7.503870
1.182113 -6.403940 7.266980
0.000000 -5.827720 7.419926
3.129723 -8.984327 6.343225
2.097370 -7.659606 6.902517
-0.815284 -7.089297 7.173761
0.812469 -7.064821 7.148994
-0.396511 -6.447690 7.311143
0.395853 -6.436988 7.299009
0.549523 -13.281228 0.889147
1.622291 -12.853207 2.624923
1.470190 -13.207507 0.888486
0.000000 -13.177332 1.775380
3.404155 -10.566381 5.508038
2.615511 -12.010706 4.231986
3.939649 -11.137030 4.941616
3.321372 -12.981186 0.893936
2.546271 -12.761736 2.633334
2.398837 -13.109531 0.889625
3.903887 -12.762377 1.785047
2.016066 -13.029380 1.772720
-1.070056 -12.612779 3.486086
1.065830 -12.562958 3.472316
-0.546011 -12.956413 2.652135
0.544333 -12.916590 2.643984
4.936244 -11.944743 3.518297
3.071913 -12.369966 3.490778
4.459223 -11.605732 4.270640
4.453747 -12.429858 2.672555
3.538654 -11.844437 4.261768
3.495774 -12.622893 2.661009
-2.792720 -9.895209 6.115576
-0.922279 -9.968493 6.160868
-2.263046 -9.194498 6.475843
-2.451591 -10.741670 5.618119
2.765117 -9.797405 6.055129
0.920538 -9.949677 6.149239
2.243666 -9.115757 6.420385
2.437944 -10.681876 5.586846
-1.277927 -7.791259 6.989403
-0.460435 -9.254191 6.502743
-1.754301 -8.483276 6.764456
-0.426451 -7.794679 6.997979
-1.354363 -9.237393 6.495993
-1.590286 -12.110118 4.303891
-0.503445 -10.785386 5.658846
-2.045059 -11.493014 5.006209
-0.531798 -12.124128 4.302336
-1.466987 -10.771840 5.645731
1.271094 -7.749599 6.952030
0.459853 -9.242511 6.494535
1.741899 -8.423305 6.716636
0.425739 -7.781653 6.986284
1.348703 -9.198790 6.468846
0.000000 -8.520606 6.773632
1.584839 -12.068634 4.289148
0.503169 -10.779473 5.655744
2.038096 -11.453884 4.989165
0.531286 -12.112455 4.298194
1.463817 -10.748559 5.633530
0.000000 -11.510648 5.038143
-6.976470 11.848165 0.906098
-6.266084 11.787997 2.668558
-6.115703 12.261569 0.903791
-4.249244 10.267728 5.488867
-5.342564 11.271118 4.250037
-4.286304 12.802961 0.893617
-5.391044 12.161899 2.664818
-5.205912 12.573114 0.899948
-5.773559 12.258941 1.800957
-0.372263 5.239980 7.503870
-1.182113 6.403940 7.266980
-3.129723 8.984327 6.343225
-2.097370 7.659606 6.902517
-0.549523 13.281228 0.889147
-1.622291 12.853207 2.624923
-1.470190 13.207507 0.888486
-3.404155 10.566381 5.508038
-2.615511 12.010706 4.231986
-3.939649 11.137030 4.941616
-3.321372 12.981186 0.893936
-2.546271 12.761736 2.633334
-2.398837 13.109531 0.889625
-3.903887 12.762377 1.785047
-2.016066 13.029380 1.772720
-4.936244 11.944743 3.518297
-3.071913 12.369966 3.490778
-4.459223 11.605732 4.270640
-4.453747 12.429858 2.672555
-3.538654 11.844437 4.261768
-3.495774 12.622893 2.661009
7.896304 13.410322 1.025565
6.766787 12.729938 2.881794
6.710492 13.454082 0.991690
4.345756 10.500937 5.613535
5.558072 11.725772 4.421475
4.504925 13.455973 0.939196
5.693855 12.845022 2.814499
5.574127 13.462413 0.963602
6.218222 13.203091 1.939662
0.372802 5.247570 7.514738
1.188299 6.437452 7.305008
0.000000 5.827720 7.419926
3.178481 9.124294 6.442047
2.118566 7.737012 6.972271
-0.812469 7.064821 7.148994
0.815284 7.089297 7.173761
-0.395853 6.436988 7.299009
0.396511 6.447690 7.311143
0.552213 13.346228 0.893499
1.638157 12.978909 2.650594
1.490116 13.386509 0.900527
0.000000 13.177332 1.775380
3.445782 10.695592 5.575393
2.635807 12.103907 4.264825
4.003737 11.318202 5.022004
3.438607 13.439385 0.925489
2.588727 12.974525 2.677242
2.455127 13.417153 0.910501
4.054192 13.253746 1.853774
2.049166 13.243293 1.801824
-1.065830 12.562958 3.472316
1.070056 12.612779 3.486086
-0.544333 12.916590 2.643984
0.546011 12.956413 2.652135
5.120434 12.390446 3.649577
3.118041 12.555717 3.543197
4.567476 11.887474 4.374315
4.624348 12.905985 2.774928
3.587983 12.009548 4.321177
3.585539 12.947027 2.729339
-2.765117 9.797405 6.055129
-0.920538 9.949677 6.149239
-2.243666 9.115757 6.420385
-2.437944 10.681876 5.586846
2.792720 9.895209 6.115576
0.922279 9.968493 6.160868
2.263046 9.194498 6.475843
2.451591 10.741670 5.618119
-1.271094 7.749599 6.952030
-0.459853 9.242511 6.494535
-1.741899 8.423305 6.716636
-0.425739 7.781653 6.986284
-1.348703 9.198790 6.468846
-1.584839 12.068634 4.289148
-0.503169 10.779473 5.655744
-2.038096 11.453884 4.989165
-0.531286 12.112455 4.298194
-1.463817 10.748559 5.633530
1.277927 7.791259 6.989403
0.460435 9.254191 6.502743
1.754301 8.483276 6.764456
0.426451 7.794679 6.997979
1.354363 9.237393 6.495993
0.000000 8.520606 6.773632
1.590286 12.110118 4.303891
0.503445 10.785386 5.658846
2.045059 11.493014 5.006209
0.531798 12.124128 4.302336
1.466987 10.771840 5.645731
0.000000 11.510648 5.038143
0.000000 -4.033012 7.664589
0.000000 -2.802408 7.774016
0.000000 -0.545413 7.869467
0.000000 -1.651096 7.839047
0.000000 4.033012 7.664589
0.000000 2.802408 7.774016
0.000000 0.545413 7.869467
0.000000 1.651096 7.839047
-7.896304 -13.410322 -1.025565
-6.766787 -12.729938 -2.881794
-6.710492 -13.454082 -0.991690
-4.345756 -10.500937 -5.613535
-5.558072 -11.725772 -4.421475
-4.504925 -13.455973 -0.939196
-5.693855 -12.845022 -2.814499
-5.574127 -13.462413 -0.963602
-6.218222 -13.203091 -1.939662
-0.372802 -5.247570 -7.514738
-1.188299 -6.437452 -7.305008
-3.178481 -9.124294 -6.442047
-2.118566 -7.737012 -6.972271
-0.552213 -13.346228 -0.893499
-1.638157 -12.978909 -2.650594
-1.490116 -13.386509 -0.900527
-3.445782 -10.695592 -5.575393
-2.635807 -12.103907 -4.264825
-4.003737 -11.318202 -5.022004
-3.438607 -13.439385 -0.925489
-2.588727 -12.974525 -2.677242
-2.455127 -13.417153 -0.910501
-4.054192 -13.253746 -1.853774
-2.049166 -13.243293 -1.801824
-5.120434 -12.390446 -3.649577
-3.118041 -12.555717 -3.543197
-4.567476 -11.887474 -4.374315
-4.624348 -12.905985 -2.774928
-3.587983 -12.009548 -4.321177
-3.585539 -12.947027 -2.729339
6.976470 -11.848165 -0.906098
6.266084 -11.787997 -2.668558
6.115703 -12.261569 -0.903791
4.249244 -10.267728 -5.488867
5.342564 -11.271118 -4.250037
4.286304 -12.802961 -0.893617
5.391044 -12.161899 -2.664818
5.205912 -12.573114 -0.899948
5.773559 -12.258941 -1.800957
0.372263 -5.239980 -7.503870
1.182113 -6.403940 -7.266980
0.000000 -5.827720 -7.419926
3.129723 -8.984327 -6.343225
2.097370 -7.659606 -6.902517
-0.815284 -7.089297 -7.173761
0.812469 -7.064821 -7.148994
-0.396511 -6.447690 -7.311143
0.395853 -6.436988 -7.299009
0.549523 -13.281228 -0.889147
1.622291 -12.853207 -2.624923
1.470190 -13.207507 -0.888486
0.000000 -13.177332 -1.775380
3.404155 -10.566381 -5.508038
2.615511 -12.010706 -4.231986
3.939649 -11.137030 -4.941616
3.321372 -12.981186 -0.893936
2.546271 -12.761736 -2.633334
2.398837 -13.109531 -0.889625
3.903887 -12.762377 -1.785047
2.016066 -13.029380 -1.772720
-1.070056 -12.612779 -3.486086
1.065830 -12.562958 -3.472316
-0.546011 -12.956413 -2.652135
0.544333 -12.916590 -2.643984
4.936244 -11.944743 -3.518297
3.071913 -12.369966 -3.490778
4.459223 -11.605732 -4.270640
4.453747 -12.429858 -2.672555
3.538654 -11.844437 -4.261768
3.495774 -12.622893 -2.661009
-2.792720 -9.895209 -6.115576
-0.922279 -9.968493 -6.160868
-2.263046 -9.194498 -6.475843
-2.451591 -10.741670 -5.618119
2.765117 -9.797405 -6.055129
0.920538 -9.949677 -6.149239
2.243666 -9.115757 -6.420385
2.437944 -10.681876 -5.586846
-1.277927 -7.791259 -6.989403
-0.460435 -9.254191 -6.502743
-1.754301 -8.483276 -6.764456
-0.426451 -7.794679 -6.997979
-1.354363 -9.237393 -6.495993
-1.590286 -12.110118 -4.303891
-0.503445 -10.785386 -5.658846
-2.045059 -11.493014 -5.006209
-0.531798 -12.124128 -4.302336
-1.466987 -10.771840 -5.645731
1.271094 -7.749599 -6.952030
0.459853 -9.242511 -6.494535
1.741899 -8.423305 -6.716636
0.425739 -7.781653 -6.986284
1.348703 -9.198790 -6.468846
0.000000 -8.520606 -6.773632
1.584839 -12.068634 -4.289148
0.503169 -10.779473 -5.655744
2.038096 -11.453884 -4.989165
0.531286 -12.112455 -4.298194
1.463817 -10.748559 -5.633530
0.000000 -11.510648 -5.038143
-6.976470 11.848165 -0.906098
-6.266084 11.787997 -2.668558
-6.115703 12.261569 -0.903791
-4.249244 10.267728 -5.488867
-5.342564 11.271118 -4.250037
-4.286304 12.802961 -0.893617
-5.391044 12.161899 -2.664818
-5.205912 12.573114 -0.899948
-5.773559 12.258941 -1.800957
-0.372263 5.239980 -7.503870
-1.182113 6.403940 -7.266980
-3.129723 8.984327 -6.343225
-2.097370 7.659606 -6.902517
-0.549523 13.281228 -0.889147
-1.622291 12.853207 -2.624923
-1.470190 13.207507 -0.888486
-3.404155 10.566381 -5.508038
-2.615511 12.010706 -4.231986
-3.939649 11.137030 -4.941616
-3.321372 12.981186 -0.893936
-2.546271 12.761736 -2.633334
-2.398837 13.109531 -0.889625
-3.903887 12.762377 -1.785047
-2.016066 13.029380 -1.772720
-4.936244 11.944743 -3.518297
-3.071913 12.369966 -3.490778
-4.459223 11.605732 -4.270640
-4.453747 12.429858 -2.672555
-3.538654 11.844437 -4.261768
-3.495774 12.622893 -2.661009
7.896304 13.410322 -1.025565
6.766787 12.729938 -2.881794
6.710492 13.454082 -0.991690
4.345756 10.500937 -5.613535
5.558072 11.725772 -4.421475
4.504925 13.455973 -0.939196
5.693855 12.845022 -2.814499
5.574127 13.462413 -0.963602
6.218222 13.203091 -1.939662
0.372802 5.247570 -7.514738
1.188299 6.437452 -7.305008
0.000000 5.827720 -7.419926
3.178481 9.124294 -6.442047
2.118566 7.737012 -6.972271
-0.812469 7.064821 -7.148994
0.815284 7.089297 -7.173761
-0.395853 6.436988 -7.299009
0.396511 6.447690 -7.311143
0.552213 13.346228 -0.893499
1.638157 12.978909 -2.650594
1.490116 13.386509 -0.900527
0.000000 13.177332 -1.775380
3.445782 10.695592 -5.575393
2.635807 12.103907 -4.264825
4.003737 11.318202 -5.022004
3.438607 13.439385 -0.925489
2.588727 12.974525 -2.677242
2.455127 13.417153 -0.910501
4.054192 13.253746 -1.853774
2.049166 13.243293 -1.801824
-1.065830 12.562958 -3.472316
1.070056 12.612779 -3.486086
-0.544333 12.916590 -2.643984
0.546011 12.956413 -2.652135
5.120434 12.390446 -3.649577
3.118041 12.555717 -3.543197
4.567476 11.887474 -4.374315
4.624348 12.905985 -2.774928
3.587983 12.009548 -4.321177
3.585539 12.947027 -2.729339
-2.765117 9.797405 -6.055129
-0.920538 9.949677 -6.149239
-2.243666 9.115757 -6.420385
-2.437944 10.681876 -5.586846
2.792720 9.895209 -6.115576
0.922279 9.968493 -6.160868
2.263046 9.194498 -6.475843
2.451591 10.741670 -5.618119
-1.271094 7.749599 -6.952030
-0.459853 9.242511 -6.494535
-1.741899 8.423305 -6.716636
-0.425739 7.781653 -6.986284
-1.348703 9.198790 -6.468846
-1.584839 12.068634 -4.289148
-0.503169 10.779473 -5.655744
-2.038096 11.453884 -4.989165
-0.531286 12.112455 -4.298194
-1.463817 10.748559 -5.633530
1.277927 7.791259 -6.989403
0.460435 9.254191 -6.502743
1.754301 8.483276 -6.764456
0.426451 7.794679 -6.997979
1.354363 9.237393 -6.495993
0.000000 8.520606 -6.773632
1.590286 12.110118 -4.303891
0.503445 10.785386 -5.658846
2.045059 11.493014 -5.006209
0.531798 12.124128 -4.302336
1.466987 10.771840 -5.645731
0.000000 11.510648 -5.038143
0.000000 -4.033012 -7.664589
0.000000 -2.802408 -7.774016
0.000000 -0.545413 -7.869467
0.000000 -1.651096 -7.839047
0.000000 4.033012 -7.664589
0.000000 2.802408 -7.774016
0.000000 0.545413 -7.869467
0.000000 1.651096 -7.839047
9.318367 13.344290 -0.662003
10.629098 12.061550 -1.962042
8.742100 13.102396 -1.686991
10.446957 7.375889 -3.639236
10.781734 9.716047 -2.952278
7.413682 12.209242 -3.488110
9.853222 11.642050 -2.910287
8.086029 12.696139 -2.636560
9.425189 12.519013 -2.335537
8.762447 0.670115 -5.159529
9.174666 2.076954 -4.876930
10.020402 5.356653 -4.146890
9.592060 3.616909 -4.546683
4.731944 9.717771 -6.005913
6.713890 9.319792 -5.759948
5.380707 10.396582 -5.530080
9.752439 7.085386 -4.379009
8.481519 8.447459 -5.220817
9.909653 8.169209 -4.116186
6.716748 11.638374 -4.284850
7.466912 9.954305 -5.218340
6.047915 11.044203 -4.952608
7.915532 11.473224 -4.070520
6.437588 10.228523 -5.405508
10.027050 10.499278 -3.413842
8.445638 9.507524 -4.932081
10.018874 9.328207 -3.798526
9.059973 11.114051 -3.784289
9.250532 8.904228 -4.560341
8.260225 10.547805 -4.558843
7.869054 -11.268813 -0.559039
8.769621 -9.951477 -1.618798
7.571647 -11.348158 -1.461125
9.259460 -6.537478 -3.225567
9.178581 -8.271353 -2.513300
6.790844 -11.183518 -3.195067
8.398266 -9.922951 -2.480545
7.210830 -11.321959 -2.351190
8.055080 -10.699165 -1.996028
8.670028 -0.663047 -5.105110
8.875783 -2.009293 -4.718054
9.189100 -4.912261 -3.802860
9.051251 -3.412984 -4.290336
4.585058 -9.416116 -5.819480
6.258256 -8.687310 -5.369053
5.174542 -9.998231 -5.318191
8.756293 -6.361661 -3.931723
7.647276 -7.616566 -4.707296
8.761608 -7.222797 -3.639321
6.291517 -10.901560 -4.013580
6.850871 -9.133048 -4.787813
5.753883 -10.507267 -4.711827
7.175035 -10.399905 -3.689723
6.053862 -9.618832 -5.083302
8.614795 -9.020512 -2.933021
7.582906 -8.536319 -4.428263
8.722708 -8.121395 -3.307101
7.953258 -9.756422 -3.322022
8.205496 -7.898314 -4.045157
7.430342 -9.488095 -4.100828
0.581181 -4.474780 -7.599536
1.716358 -4.030209 -7.581782
0.967135 -5.011759 -7.511474
0.565542 -3.826864 -7.672603
3.932430 -3.044317 -7.356184
2.829725 -3.557142 -7.504443
1.815984 -6.148292 -7.264500
2.136893 -4.541784 -7.479648
1.380663 -5.571743 -7.400671
1.558220 -4.778884 -7.503481
0.542825 -2.603705 -7.777128
1.676276 -3.391180 -7.650315
0.553385 -3.201154 -7.731301
1.126506 -3.611385 -7.668019
8.092036 -0.401441 -5.650699
7.124523 -1.158940 -6.278401
8.211117 -1.057217 -5.478570
5.025608 -2.479616 -7.118100
6.097041 -1.852622 -6.765784
8.418873 -2.405224 -5.112099
7.245874 -1.811328 -6.132529
8.319824 -1.727747 -5.298803
7.734950 -1.443026 -5.823412
3.892776 -8.669555 -6.298644
4.167911 -6.771014 -6.743822
3.334826 -8.028540 -6.618478
4.741422 -8.412327 -6.143583
4.441467 -3.499348 -7.186445
4.333983 -5.051762 -7.012532
3.878817 -3.774046 -7.292198
2.304823 -6.769670 -7.088490
3.623861 -6.205458 -6.985682
2.801305 -7.388636 -6.879289
2.463948 -5.898943 -7.236351
3.496432 -7.092421 -6.826908
6.313008 -7.652294 -5.673308
4.929314 -6.481898 -6.576851
5.559032 -8.071128 -5.934387
4.851253 -7.419379 -6.389361
2.737549 -4.291264 -7.435644
3.729345 -5.336312 -7.113956
3.307180 -4.038588 -7.374936
2.607531 -5.070604 -7.349623
3.811582 -4.539332 -7.212432
3.106040 -5.627873 -7.186451
0.526589 -0.325450 -7.865686
1.593673 -0.984944 -7.803585
0.528512 -0.874537 -7.856436
3.870796 -2.392284 -7.425568
2.701412 -1.669564 -7.666819
3.331026 -2.655624 -7.507207
0.538076 -1.999193 -7.813607
1.605679 -1.552593 -7.781489
0.531974 -1.434444 -7.839170
1.086703 -2.376612 -7.769493
1.064966 -1.211157 -7.827433
2.243784 -3.148075 -7.617725
2.176754 -1.915561 -7.713575
2.785917 -2.908938 -7.570904
1.656668 -2.760796 -7.705042
2.743455 -2.277960 -7.624693
1.633447 -2.145864 -7.748501
8.713852 -5.385457 -4.243099
7.585629 -4.688177 -5.464616
8.658110 -4.605363 -4.480968
8.209457 -5.995425 -4.627078
5.104187 -3.154561 -7.025486
6.365614 -3.934166 -6.391280
5.652740 -2.848223 -6.857052
5.073339 -3.915442 -6.946857
8.508926 -3.132694 -4.910678
7.522721 -3.943632 -5.642935
8.588887 -3.851558 -4.703360
7.941318 -2.817455 -5.478822
8.100076 -4.280679 -5.097994
7.032719 -7.135741 -5.348199
7.017853 -5.202942 -5.789605
7.648975 -6.587083 -5.001378
6.357390 -6.636242 -5.906196
7.624369 -5.605903 -5.251325
6.718636 -2.184566 -6.416451
6.902263 -3.580587 -6.131356
6.194923 -2.522625 -6.653599
7.341820 -2.499860 -5.984918
6.284424 -3.218596 -6.528838
7.434122 -3.213085 -5.821829
4.990667 -5.553395 -6.731532
6.359161 -4.766156 -6.267350
5.036272 -4.717724 -6.849637
5.666561 -6.099448 -6.366987
5.719754 -4.342840 -6.641825
6.369375 -5.668686 -6.101736
0.582374 4.483971 -7.615145
1.726936 4.055047 -7.628509
0.970797 5.030733 -7.539912
0.566539 3.833616 -7.686139
3.993927 3.091926 -7.471224
2.860089 3.595312 -7.584969
1.831576 6.201080 -7.326871
2.155934 4.582254 -7.546296
1.388890 5.604940 -7.444765
1.567967 4.808774 -7.550414
0.543475 2.606820 -7.786434
1.684935 3.408697 -7.689833
0.554202 3.205881 -7.742718
1.130415 3.623918 -7.694629
8.141666 0.403903 -5.685356
7.237605 1.177335 -6.378054
8.346875 1.074697 -5.569150
7.663360 0.000000 -6.018917
5.124537 2.528427 -7.258218
6.221951 1.890577 -6.904394
8.748884 2.499506 -5.312488
7.431154 1.857644 -6.289340
8.549487 1.775441 -5.445073
7.902510 1.474286 -5.949562
6.660123 -0.756910 -6.581706
6.722909 0.764046 -6.643753
7.166300 -0.388656 -6.319953
7.204163 0.390709 -6.353345
3.990050 8.886192 -6.456036
4.297660 6.981798 -6.953760
3.401647 8.189411 -6.751095
4.925851 8.739546 -6.382553
4.539218 3.576363 -7.344608
4.458621 5.197042 -7.214201
3.951028 3.844307 -7.427956
2.332292 6.850349 -7.172969
3.709279 6.351726 -7.150340
2.845190 7.504385 -6.987058
2.495160 5.973667 -7.328018
3.575902 7.253623 -6.982076
6.784421 8.223717 -6.096953
5.139140 6.757812 -6.856807
5.872548 8.526319 -6.269071
5.057080 7.734165 -6.660446
2.770370 4.342713 -7.524790
3.814683 5.458422 -7.276743
3.357426 4.099946 -7.486984
2.640481 5.134679 -7.442497
3.892103 4.635226 -7.364796
3.160336 5.726252 -7.312076
0.526668 0.325499 -7.866856
1.596019 0.986394 -7.815070
0.528724 0.874887 -7.859580
1.057703 0.000000 -7.850546
3.917552 2.421180 -7.515262
2.714594 1.677711 -7.704229
3.365931 2.683451 -7.585873
0.538571 2.001034 -7.820804
1.609422 1.556212 -7.799626
0.532324 1.435388 -7.844327
1.089171 2.382011 -7.787144
1.066190 1.212550 -7.836434
2.146804 -0.658963 -7.767208
2.149851 0.659898 -7.778234
1.600254 -0.329454 -7.817681
1.601047 0.329617 -7.821554
2.259405 3.169993 -7.670762
2.185827 1.923545 -7.745723
2.810229 2.934323 -7.636972
1.663658 2.772445 -7.737551
2.762000 2.293359 -7.676236
1.638777 2.152866 -7.773785
9.536599 5.893943 -4.643726
8.125270 5.021693 -5.853368
9.345096 4.970781 -4.836515
9.021453 6.588432 -5.084742
5.234946 3.235375 -7.205465
6.663215 4.118093 -6.690081
5.809937 2.927429 -7.047740
5.230899 4.037041 -7.162602
8.951870 3.295771 -5.166310
7.968557 4.177352 -5.977365
9.148706 4.102601 -5.009922
8.292317 2.941984 -5.720981
8.661962 4.577621 -5.451632
7.667914 7.780241 -5.831249
7.514872 5.571425 -6.199637
8.400437 7.234221 -5.492730
6.813454 7.112311 -6.329893
8.272200 6.082228 -5.697522
6.907466 2.245964 -6.596788
7.235192 3.753296 -6.427101
6.373034 2.595153 -6.844897
7.607243 2.590235 -6.201287
6.520644 3.339577 -6.774245
7.786909 3.365562 -6.098105
5.190573 5.775842 -7.001170
6.714242 5.032288 -6.617305
5.217800 4.887770 -7.096526
5.975496 6.431983 -6.714108
5.963044 4.527563 -6.924336
6.781967 6.035890 -6.496991
4.512240 -2.060546 -7.300957
4.556151 -0.682054 -7.372007
5.049684 -1.764661 -7.169615
3.905097 -1.704076 -7.466424
4.573383 2.088467 -7.399889
4.576862 0.685154 -7.405519
5.121059 1.789603 -7.270955
3.939358 1.719026 -7.531930
6.116533 -1.118334 -6.818250
5.087814 -0.360249 -7.240576
5.588700 -1.449379 -7.008765
6.152440 -0.374925 -6.852879
5.070497 -1.057158 -7.210318
2.733732 -1.010113 -7.692065
3.945605 -0.351024 -7.520062
3.308347 -1.351474 -7.595144
2.736238 -0.338218 -7.710810
3.929817 -1.021124 -7.497941
6.191941 1.132121 -6.902310
5.102525 0.361291 -7.261512
5.665916 1.469404 -7.105601
6.177810 0.376471 -6.881137
5.113578 1.066140 -7.271580
5.628081 0.000000 -7.079608
2.741967 1.013156 -7.715239
3.952839 0.351668 -7.533849
3.326017 1.358693 -7.635710
2.739001 0.338559 -7.718598
3.950704 1.026551 -7.537792
3.341233 0.000000 -7.633716
9.318367 13.344290 0.662003
10.629098 12.061550 1.962042
8.742100 13.102396 1.686991
10.336806 13.160949 0.000000
10.446957 7.375889 3.639236
10.781734 9.716047 2.952278
7.413682 12.209242 3.488110
9.853222 11.642050 2.910287
8.086029 12.696139 2.636560
9.425189 12.519013 2.335537
11.495389 11.632350 -1.321994
11.495389 11.632350 1.321994
11.114463 12.602875 -0.683502
11.114463 12.602875 0.683502
8.762447 0.670115 5.159529
9.174666 2.076954 4.876930
10.020402 5.356653 4.146890
9.592060 3.616909 4.546683
4.731944 9.717771 6.005913
6.713890 9.319792 5.759948
5.380707 10.396582 5.530080
9.752439 7.085386 4.379009
8.481519 8.447459 5.220817
9.909653 8.169209 4.116186
6.716748 11.638374 4.284850
7.466912 9.954305 5.218340
6.047915 11.044203 4.952608
7.915532 11.473224 4.070520
6.437588 10.228523 5.405508
10.027050 10.499278 3.413842
8.445638 9.507524 4.932081
10.018874 9.328207 3.798526
9.059973 11.114051 3.784289
9.250532 8.904228 4.560341
8.260225 10.547805 4.558843
10.952978 6.769313 -3.091254
12.329222 7.619878 -1.140692
11.193556 7.883814 -2.755075
10.952978 6.769313 3.091254
12.329222 7.619878 1.140692
11.193556 7.883814 2.755075
11.546818 10.358449 -1.893916
12.468147 8.761128 -0.620342
11.408601 9.097073 -2.359244
12.115291 10.876977 -0.662834
11.930304 8.389723 -1.749191
11.546818 10.358449 1.893916
12.468147 8.761128 0.620342
11.408601 9.097073 2.359244
12.115291 10.876977 0.662834
11.930304 8.389723 1.749191
12.430579 9.881946 0.000000
7.869054 -11.268813 0.559039
8.769621 -9.951477 1.618798
7.571647 -11.348158 1.461125
8.443464 -10.750323 0.000000
9.259460 -6.537478 3.225567
9.178581 -8.271353 2.513300
6.790844 -11.183518 3.195067
8.398266 -9.922951 2.480545
7.210830 -11.321959 2.351190
8.055080 -10.699165 1.996028
9.270064 -9.380512 -1.066077
9.270064 -9.380512 1.066077
8.918195 -10.112490 -0.548439
8.918195 -10.112490 0.548439
8.670028 -0.663047 5.105110
8.875783 -2.009293 4.718054
9.189100 -4.912261 3.802860
9.051251 -3.412984 4.290336
4.585058 -9.416116 5.819480
6.258256 -8.687310 5.369053
5.174542 -9.998231 5.318191
8.756293 -6.361661 3.931723
7.647276 -7.616566 4.707296
8.761608 -7.222797 3.639321
6.291517 -10.901560 4.013580
6.850871 -9.133048 4.787813
5.753883 -10.507267 4.711827
7.175035 -10.399905 3.689723
6.053862 -9.618832 5.083302
8.614795 -9.020512 2.933021
7.582906 -8.536319 4.428263
8.722708 -8.121395 3.307101
7.953258 -9.756422 3.322022
8.205496 -7.898314 4.045157
7.430342 -9.488095 4.100828
9.718208 -6.006183 -2.742765
10.424389 -6.442627 -0.964458
9.710977 -6.839609 -2.390167
9.718208 -6.006183 2.742765
10.424389 -6.442627 0.964458
9.710977 -6.839609 2.390167
9.516984 -8.537520 -1.560982
10.272379 -7.218204 -0.511094
9.650672 -7.695323 -1.995713
9.699003 -8.707659 -0.530638
10.068975 -7.080784 -1.476287
9.516984 -8.537520 1.560982
10.272379 -7.218204 0.511094
9.650672 -7.695323 1.995713
9.699003 -8.707659 0.530638
10.068975 -7.080784 1.476287
10.035578 -7.977990 0.000000
0.581181 -4.474780 7.599536
1.716358 -4.030209 7.581782
0.967135 -5.011759 7.511474
0.565542 -3.826864 7.672603
3.932430 -3.044317 7.356184
2.829725 -3.557142 7.504443
1.815984 -6.148292 7.264500
2.136893 -4.541784 7.479648
1.380663 -5.571743 7.400671
1.558220 -4.778884 7.503481
0.542825 -2.603705 7.777128
1.676276 -3.391180 7.650315
0.553385 -3.201154 7.731301
1.126506 -3.611385 7.668019
8.092036 -0.401441 5.650699
7.124523 -1.158940 6.278401
8.211117 -1.057217 5.478570
5.025608 -2.479616 7.118100
6.097041 -1.852622 6.765784
8.418873 -2.405224 5.112099
7.245874 -1.811328 6.132529
8.319824 -1.727747 5.298803
7.734950 -1.443026 5.823412
3.892776 -8.669555 6.298644
4.167911 -6.771014 6.743822
3.334826 -8.028540 6.618478
4.741422 -8.412327 6.143583
4.441467 -3.499348 7.186445
4.333983 -5.051762 7.012532
3.878817 -3.774046 7.292198
2.304823 -6.769670 7.088490
3.623861 -6.205458 6.985682
2.801305 -7.388636 6.879289
2.463948 -5.898943 7.236351
3.496432 -7.092421 6.826908
6.313008 -7.652294 5.673308
4.929314 -6.481898 6.576851
5.559032 -8.071128 5.934387
4.851253 -7.419379 6.389361
2.737549 -4.291264 7.435644
3.729345 -5.336312 7.113956
3.307180 -4.038588 7.374936
2.607531 -5.070604 7.349623
3.811582 -4.539332 7.212432
3.106040 -5.627873 7.186451
0.526589 -0.325450 7.865686
1.593673 -0.984944 7.803585
0.528512 -0.874537 7.856436
3.870796 -2.392284 7.425568
2.701412 -1.669564 7.666819
3.331026 -2.655624 7.507207
0.538076 -1.999193 7.813607
1.605679 -1.552593 7.781489
0.531974 -1.434444 7.839170
1.086703 -2.376612 7.769493
1.064966 -1.211157 7.827433
2.243784 -3.148075 7.617725
2.176754 -1.915561 7.713575
2.785917 -2.908938 7.570904
1.656668 -2.760796 7.705042
2.743455 -2.277960 7.624693
1.633447 -2.145864 7.748501
8.713852 -5.385457 4.243099
7.585629 -4.688177 5.464616
8.658110 -4.605363 4.480968
8.209457 -5.995425 4.627078
5.104187 -3.154561 7.025486
6.365614 -3.934166 6.391280
5.652740 -2.848223 6.857052
5.073339 -3.915442 6.946857
8.508926 -3.132694 4.910678
7.522721 -3.943632 5.642935
8.588887 -3.851558 4.703360
7.941318 -2.817455 5.478822
8.100076 -4.280679 5.097994
7.032719 -7.135741 5.348199
7.017853 -5.202942 5.789605
7.648975 -6.587083 5.001378
6.357390 -6.636242 5.906196
7.624369 -5.605903 5.251325
6.718636 -2.184566 6.416451
6.902263 -3.580587 6.131356
6.194923 -2.522625 6.653599
7.341820 -2.499860 5.984918
6.284424 -3.218596 6.528838
7.434122 -3.213085 5.821829
4.990667 -5.553395 6.731532
6.359161 -4.766156 6.267350
5.036272 -4.717724 6.849637
5.666561 -6.099448 6.366987
5.719754 -4.342840 6.641825
6.369375 -5.668686 6.101736
0.582374 4.483971 7.615145
1.726936 4.055047 7.628509
0.970797 5.030733 7.539912
0.566539 3.833616 7.686139
3.993927 3.091926 7.471224
2.860089 3.595312 7.584969
1.831576 6.201080 7.326871
2.155934 4.582254 7.546296
1.388890 5.604940 7.444765
1.567967 4.808774 7.550414
0.543475 2.606820 7.786434
1.684935 3.408697 7.689833
0.554202 3.205881 7.742718
1.130415 3.623918 7.694629
8.141666 0.403903 5.685356
7.237605 1.177335 6.378054
8.346875 1.074697 5.569150
7.663360 0.000000 6.018917
5.124537 2.528427 7.258218
6.221951 1.890577 6.904394
8.748884 2.499506 5.312488
7.431154 1.857644 6.289340
8.549487 1.775441 5.445073
7.902510 1.474286 5.949562
6.660123 -0.756910 6.581706
6.722909 0.764046 6.643753
7.166300 -0.388656 6.319953
7.204163 0.390709 6.353345
3.990050 8.886192 6.456036
4.297660 6.981798 6.953760
3.401647 8.189411 6.751095
4.925851 8.739546 6.382553
4.539218 3.576363 7.344608
4.458621 5.197042 7.214201
3.951028 3.844307 7.427956
2.332292 6.850349 7.172969
3.709279 6.351726 7.150340
2.845190 7.504385 6.987058
2.495160 5.973667 7.328018
3.575902 7.253623 6.982076
6.784421 8.223717 6.096953
5.139140 6.757812 6.856807
5.872548 8.526319 6.269071
5.057080 7.734165 6.660446
2.770370 4.342713 7.524790
3.814683 5.458422 7.276743
3.357426 4.099946 7.486984
2.640481 5.134679 7.442497
3.892103 4.635226 7.364796
3.160336 5.726252 7.312076
0.526668 0.325499 7.866856
1.596019 0.986394 7.815070
0.528724 0.874887 7.859580
1.057703 0.000000 7.850546
3.917552 2.421180 7.515262
2.714594 1.677711 7.704229
3.365931 2.683451 7.585873
0.538571 2.001034 7.820804
1.609422 1.556212 7.799626
0.532324 1.435388 7.844327
1.089171 2.382011 7.787144
1.066190 1.212550 7.836434
2.146804 -0.658963 7.767208
2.149851 0.659898 7.778234
1.600254 -0.329454 7.817681
1.601047 0.329617 7.821554
2.259405 3.169993 7.670762
2.185827 1.923545 7.745723
2.810229 2.934323 7.636972
1.663658 2.772445 7.737551
2.762000 2.293359 7.676236
1.638777 2.152866 7.773785
9.536599 5.893943 4.643726
8.125270 5.021693 5.853368
9.345096 4.970781 4.836515
9.021453 6.588432 5.084742
5.234946 3.235375 7.205465
6.663215 4.118093 6.690081
5.809937 2.927429 7.047740
5.230899 4.037041 7.162602
8.951870 3.295771 5.166310
7.968557 4.177352 5.977365
9.148706 4.102601 5.009922
8.292317 2.941984 5.720981
8.661962 4.577621 5.451632
7.667914 7.780241 5.831249
7.514872 5.571425 6.199637
8.400437 7.234221 5.492730
6.813454 7.112311 6.329893
8.272200 6.082228 5.697522
6.907466 2.245964 6.596788
7.235192 3.753296 6.427101
6.373034 2.595153 6.844897
7.607243 2.590235 6.201287
6.520644 3.339577 6.774245
7.786909 3.365562 6.098105
5.190573 5.775842 7.001170
6.714242 5.032288 6.617305
5.217800 4.887770 7.096526
5.975496 6.431983 6.714108
5.963044 4.527563 6.924336
6.781967 6.035890 6.496991
4.512240 -2.060546 7.300957
4.556151 -0.682054 7.372007
5.049684 -1.764661 7.169615
3.905097 -1.704076 7.466424
4.573383 2.088467 7.399889
4.576862 0.685154 7.405519
5.121059 1.789603 7.270955
3.939358 1.719026 7.531930
6.116533 -1.118334 6.818250
5.087814 -0.360249 7.240576
5.588700 -1.449379 7.008765
6.152440 -0.374925 6.852879
5.070497 -1.057158 7.210318
2.733732 -1.010113 7.692065
3.945605 -0.351024 7.520062
3.308347 -1.351474 7.595144
2.736238 -0.338218 7.710810
3.929817 -1.021124 7.497941
6.191941 1.132121 6.902310
5.102525 0.361291 7.261512
5.665916 1.469404 7.105601
6.177810 0.376471 6.881137
5.113578 1.066140 7.271580
5.628081 0.000000 7.079608
2.741967 1.013156 7.715239
3.952839 0.351668 7.533849
3.326017 1.358693 7.635710
2.739001 0.338559 7.718598
3.950704 1.026551 7.537792
3.341233 0.000000 7.633716
9.077660 0.000000 -4.776553
10.093320 0.000000 -3.638480
9.288323 0.684635 -4.632737
9.184633 -0.676992 -4.581019
11.895111 0.000000 -0.824420
11.091622 0.000000 -2.336169
9.719190 2.129591 -4.308257
10.324839 0.720650 -3.456653
9.503353 1.396134 -4.475767
9.809647 0.702147 -4.061695
9.381656 -2.055633 -4.158637
10.190146 -0.711248 -3.411559
9.287031 -1.364355 -4.373887
9.692377 -0.693753 -4.013140
9.077660 0.000000 4.776553
10.093320 0.000000 3.638480
9.288323 0.684635 4.632737
9.184633 -0.676992 4.581019
11.895111 0.000000 0.824420
11.091622 0.000000 2.336169
9.719190 2.129591 4.308257
10.324839 0.720650 3.456653
9.503353 1.396134 4.475767
9.809647 0.702147 4.061695
9.381656 -2.055633 4.158637
10.190146 -0.711248 3.411559
9.287031 -1.364355 4.373887
9.692377 -0.693753 4.013140
10.660242 5.556966 -3.434394
11.385729 4.011774 -2.479413
10.418392 4.622749 -3.685436
11.365227 5.944253 -2.593907
12.111404 0.810830 -0.501121
11.923033 2.434960 -1.504888
11.818819 0.795067 -1.315609
9.953386 2.931747 -4.113303
11.109358 3.135037 -2.758858
10.180932 3.746347 -3.911778
10.277167 2.209703 -3.682415
10.781487 3.879306 -3.221087
12.563922 6.592003 -0.586464
12.032428 4.276281 -1.580084
12.061720 6.321783 -1.642652
11.731490 5.110086 -2.087493
10.864049 0.748141 -2.779680
11.409445 2.354294 -2.276457
11.368097 0.771450 -2.080182
10.582633 1.480171 -3.237124
11.648724 1.584874 -1.802434
10.845931 2.286411 -3.003663
9.682138 -5.047100 -3.119279
10.503489 -3.700916 -2.287292
9.627341 -4.271751 -3.405607
10.144066 -5.305560 -2.315199
11.840093 -0.792667 -0.489895
11.244276 -2.296342 -1.419217
11.581914 -0.779130 -1.289238
9.476854 -2.791386 -3.916373
10.449112 -2.948717 -2.594895
9.556742 -3.516660 -3.671948
9.886117 -2.125623 -3.542298
10.047277 -3.615129 -3.001733
10.746228 -5.638300 -0.501617
10.911192 -3.877797 -1.432845
10.524084 -5.515878 -1.433246
10.544690 -4.593131 -1.876315
10.702797 -0.737037 -2.738422
10.851617 -2.239188 -2.165157
11.173005 -0.758211 -2.044484
10.294979 -1.439937 -3.149134
11.226577 -1.527438 -1.737114
10.383301 -2.188885 -2.875543
10.660242 5.556966 3.434394
11.385729 4.011774 2.479413
10.418392 4.622749 3.685436
11.365227 5.944253 2.593907
12.111404 0.810830 0.501121
11.923033 2.434960 1.504888
11.818819 0.795067 1.315609
12.288873 1.655678 0.000000
9.953386 2.931747 4.113303
11.109358 3.135037 2.758858
10.180932 3.746347 3.911778
10.277167 2.209703 3.682415
10.781487 3.879306 3.221087
12.563922 6.592003 0.586464
12.032428 4.276281 1.580084
12.061720 6.321783 1.642652
12.629159 5.527709 0.000000
11.731490 5.110086 2.087493
10.864049 0.748141 2.779680
11.409445 2.354294 2.276457
11.368097 0.771450 2.080182
10.582633 1.480171 3.237124
11.648724 1.584874 1.802434
10.845931 2.286411 3.003663
12.253139 3.386684 -1.039545
12.253139 3.386684 1.039545
12.340286 2.526016 -0.520046
12.505926 4.437819 -0.548545
12.340286 2.526016 0.520046
12.505926 4.437819 0.548545
9.682138 -5.047100 3.119279
10.503489 -3.700916 2.287292
9.627341 -4.271751 3.405607
10.144066 -5.305560 2.315199
11.840093 -0.792667 0.489895
11.244276 -2.296342 1.419217
11.581914 -0.779130 1.289238
11.733313 -1.580828 0.000000
9.476854 -2.791386 3.916373
10.449112 -2.948717 2.594895
9.556742 -3.516660 3.671948
9.886117 -2.125623 3.542298
10.047277 -3.615129 3.001733
10.746228 -5.638300 0.501617
10.911192 -3.877797 1.432845
10.524084 -5.515878 1.433246
11.000618 -4.814906 0.000000
10.544690 -4.593131 1.876315
10.702797 -0.737037 2.738422
10.851617 -2.239188 2.165157
11.173005 -0.758211 2.044484
10.294979 -1.439937 3.149134
11.226577 -1.527438 1.737114
10.383301 -2.188885 2.875543
11.255548 -3.110957 -0.954910
11.255548 -3.110957 0.954910
11.530170 -2.360188 -0.485906
11.171424 -3.964262 -0.490010
11.530170 -2.360188 0.485906
11.171424 -3.964262 0.490010
-7.869054 11.268813 -0.559039
-8.769621 9.951477 -1.618798
-7.571647 11.348158 -1.461125
-9.259460 6.537478 -3.225567
-9.178581 8.271353 -2.513300
-6.790844 11.183518 -3.195067
-8.398266 9.922951 -2.480545
-7.210830 11.321959 -2.351190
-8.055080 10.699165 -1.996028
-8.670028 0.663047 -5.105110
-8.875783 2.009293 -4.718054
-9.189100 4.912261 -3.802860
-9.051251 3.412984 -4.290336
-4.585058 9.416116 -5.819480
-6.258256 8.687310 -5.369053
-5.174542 9.998231 -5.318191
-8.756293 6.361661 -3.931723
-7.647276 7.616566 -4.707296
-8.761608 7.222797 -3.639321
-6.291517 10.901560 -4.013580
-6.850871 9.133048 -4.787813
-5.753883 10.507267 -4.711827
-7.175035 10.399905 -3.689723
-6.053862 9.618832 -5.083302
-8.614795 9.020512 -2.933021
-7.582906 8.536319 -4.428263
-8.722708 8.121395 -3.307101
-7.953258 9.756422 -3.322022
-8.205496 7.898314 -4.045157
-7.430342 9.488095 -4.100828
-9.318367 -13.344290 -0.662003
-10.629098 -12.061550 -1.962042
-8.742100 -13.102396 -1.686991
-10.446957 -7.375889 -3.639236
-10.781734 -9.716047 -2.952278
-7.413682 -12.209242 -3.488110
-9.853222 -11.642050 -2.910287
-8.086029 -12.696139 -2.636560
-9.425189 -12.519013 -2.335537
-8.762447 -0.670115 -5.159529
-9.174666 -2.076954 -4.876930
-10.020402 -5.356653 -4.146890
-9.592060 -3.616909 -4.546683
-4.731944 -9.717771 -6.005913
-6.713890 -9.319792 -5.759948
-5.380707 -10.396582 -5.530080
-9.752439 -7.085386 -4.379009
-8.481519 -8.447459 -5.220817
-9.909653 -8.169209 -4.116186
-6.716748 -11.638374 -4.284850
-7.466912 -9.954305 -5.218340
-6.047915 -11.044203 -4.952608
-7.915532 -11.473224 -4.070520
-6.437588 -10.228523 -5.405508
-10.027050 -10.499278 -3.413842
-8.445638 -9.507524 -4.932081
-10.018874 -9.328207 -3.798526
-9.059973 -11.114051 -3.784289
-9.250532 -8.904228 -4.560341
-8.260225 -10.547805 -4.558843
-0.582374 -4.483971 -7.615145
-1.726936 -4.055047 -7.628509
-0.970797 -5.030733 -7.539912
-0.566539 -3.833616 -7.686139
-3.993927 -3.091926 -7.471224
-2.860089 -3.595312 -7.584969
-1.831576 -6.201080 -7.326871
-2.155934 -4.582254 -7.546296
-1.388890 -5.604940 -7.444765
-1.567967 -4.808774 -7.550414
-0.543475 -2.606820 -7.786434
-1.684935 -3.408697 -7.689833
-0.554202 -3.205881 -7.742718
-1.130415 -3.623918 -7.694629
-8.141666 -0.403903 -5.685356
-7.237605 -1.177335 -6.378054
-8.346875 -1.074697 -5.569150
-5.124537 -2.528427 -7.258218
-6.221951 -1.890577 -6.904394
-8.748884 -2.499506 -5.312488
-7.431154 -1.857644 -6.289340
-8.549487 -1.775441 -5.445073
-7.902510 -1.474286 -5.949562
-3.990050 -8.886192 -6.456036
-4.297660 -6.981798 -6.953760
-3.401647 -8.189411 -6.751095
-4.925851 -8.739546 -6.382553
-4.539218 -3.576363 -7.344608
-4.458621 -5.197042 -7.214201
-3.951028 -3.844307 -7.427956
-2.332292 -6.850349 -7.172969
-3.709279 -6.351726 -7.150340
-2.845190 -7.504385 -6.987058
-2.495160 -5.973667 -7.328018
-3.575902 -7.253623 -6.982076
-6.784421 -8.223717 -6.096953
-5.139140 -6.757812 -6.856807
-5.872548 -8.526319 -6.269071
-5.057080 -7.734165 -6.660446
-2.770370 -4.342713 -7.524790
-3.814683 -5.458422 -7.276743
-3.357426 -4.099946 -7.486984
-2.640481 -5.134679 -7.442497
-3.892103 -4.635226 -7.364796
-3.160336 -5.726252 -7.312076
-0.526668 -0.325499 -7.866856
-1.596019 -0.986394 -7.815070
-0.528724 -0.874887 -7.859580
-3.917552 -2.421180 -7.515262
-2.714594 -1.677711 -7.704229
-3.365931 -2.683451 -7.585873
-0.538571 -2.001034 -7.820804
-1.609422 -1.556212 -7.799626
-0.532324 -1.435388 -7.844327
-1.089171 -2.382011 -7.787144
-1.066190 -1.212550 -7.836434
-2.259405 -3.169993 -7.670762
-2.185827 -1.923545 -7.745723
-2.810229 -2.934323 -7.636972
-1.663658 -2.772445 -7.737551
-2.762000 -2.293359 -7.676236
-1.638777 -2.152866 -7.773785
-9.536599 -5.893943 -4.643726
-8.125270 -5.021693 -5.853368
-9.345096 -4.970781 -4.836515
-9.021453 -6.588432 -5.084742
-5.234946 -3.235375 -7.205465
-6.663215 -4.118093 -6.690081
-5.809937 -2.927429 -7.047740
-5.230899 -4.037041 -7.162602
-8.951870 -3.295771 -5.166310
-7.968557 -4.177352 -5.977365
-9.148706 -4.102601 -5.009922
-8.292317 -2.941984 -5.720981
-8.661962 -4.577621 -5.451632
-7.667914 -7.780241 -5.831249
-7.514872 -5.571425 -6.199637
-8.400437 -7.234221 -5.492730
-6.813454 -7.112311 -6.329893
-8.272200 -6.082228 -5.697522
-6.907466 -2.245964 -6.596788
-7.235192 -3.753296 -6.427101
-6.373034 -2.595153 -6.844897
-7.607243 -2.590235 -6.201287
-6.520644 -3.339577 -6.774245
-7.786909 -3.365562 -6.098105
-5.190573 -5.775842 -7.001170
-6.714242 -5.032288 -6.617305
-5.217800 -4.887770 -7.096526
-5.975496 -6.431983 -6.714108
-5.963044 -4.527563 -6.924336
-6.781967 -6.035890 -6.496991
-0.581181 4.474780 -7.599536
-1.716358 4.030209 -7.581782
-0.967135 5.011759 -7.511474
-0.565542 3.826864 -7.672603
-3.932430 3.044317 -7.356184
-2.829725 3.557142 -7.504443
-1.815984 6.148292 -7.264500
-2.136893 4.541784 -7.479648
-1.380663 5.571743 -7.400671
-1.558220 4.778884 -7.503481
-0.542825 2.603705 -7.777128
-1.676276 3.391180 -7.650315
-0.553385 3.201154 -7.731301
-1.126506 3.611385 -7.668019
-8.092036 0.401441 -5.650699
-7.124523 1.158940 -6.278401
-8.211117 1.057217 -5.478570
-7.663360 0.000000 -6.018917
-5.025608 2.479616 -7.118100
-6.097041 1.852622 -6.765784
-8.418873 2.405224 -5.112099
-7.245874 1.811328 -6.132529
-8.319824 1.727747 -5.298803
-7.734950 1.443026 -5.823412
-6.722909 -0.764046 -6.643753
-6.660123 0.756910 -6.581706
-7.204163 -0.390709 -6.353345
-7.166300 0.388656 -6.319953
-3.892776 8.669555 -6.298644
-4.167911 6.771014 -6.743822
-3.334826 8.028540 -6.618478
-4.741422 8.412327 -6.143583
-4.441467 3.499348 -7.186445
-4.333983 5.051762 -7.012532
-3.878817 3.774046 -7.292198
-2.304823 6.769670 -7.088490
-3.623861 6.205458 -6.985682
-2.801305 7.388636 -6.879289
-2.463948 5.898943 -7.236351
-3.496432 7.092421 -6.826908
-6.313008 7.652294 -5.673308
-4.929314 6.481898 -6.576851
-5.559032 8.071128 -5.934387
-4.851253 7.419379 -6.389361
-2.737549 4.291264 -7.435644
-3.729345 5.336312 -7.113956
-3.307180 4.038588 -7.374936
-2.607531 5.070604 -7.349623
-3.811582 4.539332 -7.212432
-3.106040 5.627873 -7.186451
-0.526589 0.325450 -7.865686
-1.593673 0.984944 -7.803585
-0.528512 0.874537 -7.856436
-1.057703 0.000000 -7.850546
-3.870796 2.392284 -7.425568
-2.701412 1.669564 -7.666819
-3.331026 2.655624 -7.507207
-0.538076 1.999193 -7.813607
-1.605679 1.552593 -7.781489
-0.531974 1.434444 -7.839170
-1.086703 2.376612 -7.769493
-1.064966 1.211157 -7.827433
-2.149851 -0.659898 -7.778234
-2.146804 0.658963 -7.767208
-1.601047 -0.329617 -7.821554
-1.600254 0.329454 -7.817681
-2.243784 3.148075 -7.617725
-2.176754 1.915561 -7.713575
-2.785917 2.908938 -7.570904
-1.656668 2.760796 -7.705042
-2.743455 2.277960 -7.624693
-1.633447 2.145864 -7.748501
-8.713852 5.385457 -4.243099
-7.585629 4.688177 -5.464616
-8.658110 4.605363 -4.480968
-8.209457 5.995425 -4.627078
-5.104187 3.154561 -7.025486
-6.365614 3.934166 -6.391280
-5.652740 2.848223 -6.857052
-5.073339 3.915442 -6.946857
-8.508926 3.132694 -4.910678
-7.522721 3.943632 -5.642935
-8.588887 3.851558 -4.703360
-7.941318 2.817455 -5.478822
-8.100076 4.280679 -5.097994
-7.032719 7.135741 -5.348199
-7.017853 5.202942 -5.789605
-7.648975 6.587083 -5.001378
-6.357390 6.636242 -5.906196
-7.624369 5.605903 -5.251325
-6.718636 2.184566 -6.416451
-6.902263 3.580587 -6.131356
-6.194923 2.522625 -6.653599
-7.341820 2.499860 -5.984918
-6.284424 3.218596 -6.528838
-7.434122 3.213085 -5.821829
-4.990667 5.553395 -6.731532
-6.359161 4.766156 -6.267350
-5.036272 4.717724 -6.849637
-5.666561 6.099448 -6.366987
-5.719754 4.342840 -6.641825
-6.369375 5.668686 -6.101736
-4.573383 -2.088467 -7.399889
-4.576862 -0.685154 -7.405519
-5.121059 -1.789603 -7.270955
-3.939358 -1.719026 -7.531930
-4.512240 2.060546 -7.300957
-4.556151 0.682054 -7.372007
-5.049684 1.764661 -7.169615
-3.905097 1.704076 -7.466424
-6.191941 -1.132121 -6.902310
-5.102525 -0.361291 -7.261512
-5.665916 -1.469404 -7.105601
-6.177810 -0.376471 -6.881137
-5.113578 -1.066140 -7.271580
-2.741967 -1.013156 -7.715239
-3.952839 -0.351668 -7.533849
-3.326017 -1.358693 -7.635710
-2.739001 -0.338559 -7.718598
-3.950704 -1.026551 -7.537792
-6.116533 1.118334 -6.818250
-5.087814 0.360249 -7.240576
-5.588700 1.449379 -7.008765
-6.152440 0.374925 -6.852879
-5.070497 1.057158 -7.210318
-5.628081 0.000000 -7.079608
-2.733732 1.010113 -7.692065
-3.945605 0.351024 -7.520062
-3.308347 1.351474 -7.595144
-2.736238 0.338218 -7.710810
-3.929817 1.021124 -7.497941
-3.341233 0.000000 -7.633716
-7.869054 11.268813 0.559039
-8.769621 9.951477 1.618798
-7.571647 11.348158 1.461125
-8.443464 10.750323 0.000000
-9.259460 6.537478 3.225567
-9.178581 8.271353 2.513300
-6.790844 11.183518 3.195067
-8.398266 9.922951 2.480545
-7.210830 11.321959 2.351190
-8.055080 10.699165 1.996028
-9.270064 9.380512 -1.066077
-9.270064 9.380512 1.066077
-8.918195 10.112490 -0.548439
-8.918195 10.112490 0.548439
-8.670028 0.663047 5.105110
-8.875783 2.009293 4.718054
-9.189100 4.912261 3.802860
-9.051251 3.412984 4.290336
-4.585058 9.416116 5.819480
-6.258256 8.687310 5.369053
-5.174542 9.998231 5.318191
-8.756293 6.361661 3.931723
-7.647276 7.616566 4.707296
-8.761608 7.222797 3.639321
-6.291517 10.901560 4.013580
-6.850871 9.133048 4.787813
-5.753883 10.507267 4.711827
-7.175035 10.399905 3.689723
-6.053862 9.618832 5.083302
-8.614795 9.020512 2.933021
-7.582906 8.536319 4.428263
-8.722708 8.121395 3.307101
-7.953258 9.756422 3.322022
-8.205496 7.898314 4.045157
-7.430342 9.488095 4.100828
-9.718208 6.006183 -2.742765
-10.424389 6.442627 -0.964458
-9.710977 6.839609 -2.390167
-9.718208 6.006183 2.742765
-10.424389 6.442627 0.964458
-9.710977 6.839609 2.390167
-9.516984 8.537520 -1.560982
-10.272379 7.218204 -0.511094
-9.650672 7.695323 -1.995713
-9.699003 8.707659 -0.530638
-10.068975 7.080784 -1.476287
-9.516984 8.537520 1.560982
-10.272379 7.218204 0.511094
-9.650672 7.695323 1.995713
-9.699003 8.707659 0.530638
-10.068975 7.080784 1.476287
-10.035578 7.977990 0.000000
-9.318367 -13.344290 0.662003
-10.629098 -12.061550 1.962042
-8.742100 -13.102396 1.686991
-10.336806 -13.160949 0.000000
-10.446957 -7.375889 3.639236
-10.781734 -9.716047 2.952278
-7.413682 -12.209242 3.488110
-9.853222 -11.642050 2.910287
-8.086029 -12.696139 2.636560
-9.425189 -12.519013 2.335537
-11.495389 -11.632350 -1.321994
-11.495389 -11.632350 1.321994
-11.114463 -12.602875 -0.683502
-11.114463 -12.602875 0.683502
-8.762447 -0.670115 5.159529
-9.174666 -2.076954 4.876930
-10.020402 -5.356653 4.146890
-9.592060 -3.616909 4.546683
-4.731944 -9.717771 6.005913
-6.713890 -9.319792 5.759948
-5.380707 -10.396582 5.530080
-9.752439 -7.085386 4.379009
-8.481519 -8.447459 5.220817
-9.909653 -8.169209 4.116186
-6.716748 -11.638374 4.284850
-7.466912 -9.954305 5.218340
-6.047915 -11.044203 4.952608
-7.915532 -11.473224 4.070520
-6.437588 -10.228523 5.405508
-10.027050 -10.499278 3.413842
-8.445638 -9.507524 4.932081
-10.018874 -9.328207 3.798526
-9.059973 -11.114051 3.784289
-9.250532 -8.904228 4.560341
-8.260225 -10.547805 4.558843
-10.952978 -6.769313 -3.091254
-12.329222 -7.619878 -1.140692
-11.193556 -7.883814 -2.755075
-10.952978 -6.769313 3.091254
-12.329222 -7.619878 1.140692
-11.193556 -7.883814 2.755075
-11.546818 -10.358449 -1.893916
-12.468147 -8.761128 -0.620342
-11.408601 -9.097073 -2.359244
-12.115291 -10.876977 -0.662834
-11.930304 -8.389723 -1.749191
-11.546818 -10.358449 1.893916
-12.468147 -8.761128 0.620342
-11.408601 -9.097073 2.359244
-12.115291 -10.876977 0.662834
-11.930304 -8.389723 1.749191
-12.430579 -9.881946 0.000000
-0.582374 -4.483971 7.615145
-1.726936 -4.055047 7.628509
-0.970797 -5.030733 7.539912
-0.566539 -3.833616 7.686139
-3.993927 -3.091926 7.471224
-2.860089 -3.595312 7.584969
-1.831576 -6.201080 7.326871
-2.155934 -4.582254 7.546296
-1.388890 -5.604940 7.444765
-1.567967 -4.808774 7.550414
-0.543475 -2.606820 7.786434
-1.684935 -3.408697 7.689833
-0.554202 -3.205881 7.742718
-1.130415 -3.623918 7.694629
-8.141666 -0.403903 5.685356
-7.237605 -1.177335 6.378054
-8.346875 -1.074697 5.569150
-5.124537 -2.528427 7.258218
-6.221951 -1.890577 6.904394
-8.748884 -2.499506 5.312488
-7.431154 -1.857644 6.289340
-8.549487 -1.775441 5.445073
-7.902510 -1.474286 5.949562
-3.990050 -8.886192 6.456036
-4.297660 -6.981798 6.953760
-3.401647 -8.189411 6.751095
-4.925851 -8.739546 6.382553
-4.539218 -3.576363 7.344608
-4.458621 -5.197042 7.214201
-3.951028 -3.844307 7.427956
-2.332292 -6.850349 7.172969
-3.709279 -6.351726 7.150340
-2.845190 -7.504385 6.987058
-2.495160 -5.973667 7.328018
-3.575902 -7.253623 6.982076
-6.784421 -8.223717 6.096953
-5.139140 -6.757812 6.856807
-5.872548 -8.526319 6.269071
-5.057080 -7.734165 6.660446
-2.770370 -4.342713 7.524790
-3.814683 -5.458422 7.276743
-3.357426 -4.099946 7.486984
-2.640481 -5.134679 7.442497
-3.892103 -4.635226 7.364796
-3.160336 -5.726252 7.312076
-0.526668 -0.325499 7.866856
-1.596019 -0.986394 7.815070
-0.528724 -0.874887 7.859580
-3.917552 -2.421180 7.515262
-2.714594 -1.677711 7.704229
-3.365931 -2.683451 7.585873
-0.538571 -2.001034 7.820804
-1.609422 -1.556212 7.799626
-0.532324 -1.435388 7.844327
-1.089171 -2.382011 7.787144
-1.066190 -1.212550 7.836434
-2.259405 -3.169993 7.670762
-2.185827 -1.923545 7.745723
-2.810229 -2.934323 7.636972
-1.663658 -2.772445 7.737551
-2.762000 -2.293359 7.676236
-1.638777 -2.152866 7.773785
-9.536599 -5.893943 4.643726
-8.125270 -5.021693 5.853368
-9.345096 -4.970781 4.836515
-9.021453 -6.588432 5.084742
-5.234946 -3.235375 7.205465
-6.663215 -4.118093 6.690081
-5.809937 -2.927429 7.047740
-5.230899 -4.037041 7.162602
-8.951870 -3.295771 5.166310
-7.968557 -4.177352 5.977365
-9.148706 -4.102601 5.009922
-8.292317 -2.941984 5.720981
-8.661962 -4.577621 5.451632
-7.667914 -7.780241 5.831249
-7.514872 -5.571425 6.199637
-8.400437 -7.234221 5.492730
-6.813454 -7.112311 6.329893
-8.272200 -6.082228 5.697522
-6.907466 -2.245964 6.596788
-7.235192 -3.753296 6.427101
-6.373034 -2.595153 6.844897
-7.607243 -2.590235 6.201287
-6.520644 -3.339577 6.774245
-7.786909 -3.365562 6.098105
-5.190573 -5.775842 7.001170
-6.714242 -5.032288 6.617305
-5.217800 -4.887770 7.096526
-5.975496 -6.431983 6.714108
-5.963044 -4.527563 6.924336
-6.781967 -6.035890 6.496991
-0.581181 4.474780 7.599536
-1.716358 4.030209 7.581782
-0.967135 5.011759 7.511474
-0.565542 3.826864 7.672603
-3.932430 3.044317 7.356184
-2.829725 3.557142 7.504443
-1.815984 6.148292 7.264500
-2.136893 4.541784 7.479648
-1.380663 5.571743 7.400671
-1.558220 4.778884 7.503481
-0.542825 2.603705 7.777128
-1.676276 3.391180 7.650315
-0.553385 3.201154 7.731301
-1.126506 3.611385 7.668019
-8.092036 0.401441 5.650699
