1.625443175 7.796565771 -23.2879275
4.838097732 9.787684264 -22.08047599
1.604712896 9.282749968 -22.41933208
3.206035507 10.27799976 -21.82317688
23.56464694 1.169028489 -16.45528057
20.7901159 3.381909771 -18.32104321
23.71046064 3.052825759 -15.81994625
22.34385258 0 -17.5491952
14.5511945 7.179504031 -20.60981432
17.72822534 5.386825931 -19.67271327
23.24216435 6.640153092 -14.11308182
20.71788014 5.17906783 -17.5345287
23.56465304 4.893584831 -15.0080647
22.24076392 4.149219436 -16.74440314
19.36539402 -2.200839871 -19.13738387
19.68970818 2.237697553 -19.45787953
20.91654597 -1.134383705 -18.44628105
21.07249422 1.142841371 -18.58381165
8.432528289 18.77998441 -13.64411738
9.839084903 15.98416412 -15.91997379
7.449001283 17.93335265 -14.783697
10.3371828 18.34044122 -13.3941555
12.38018794 9.754115047 -20.03156488
11.15257048 12.99961867 -18.0452381
10.75889517 10.46828707 -20.22678552
5.494191938 16.13740386 -16.8974005
8.848578272 15.15220312 -17.05731813
6.463961876 17.04914685 -15.87383769
6.158696316 14.74454592 -18.08743086
8.166102332 16.56472422 -15.94460583
14.07381756 17.05953728 -12.64771169
11.70903352 15.39702274 -15.62257302
12.23064055 17.75759877 -13.05647329
11.03632364 16.87866322 -14.53543111
7.481699635 11.7279933 -20.32155732
9.526349543 13.63123384 -18.17209921
9.11510491 11.13097936 -20.32647569
6.824460616 13.27084443 -19.23551978
10.1551954 12.09413867 -19.21607737
7.855851963 14.23411782 -18.1761029
1.696625097 1.048571976 -25.34255611
5.079846003 3.139517488 -24.87399199
1.690493961 2.797285147 -25.12951362
3.400396001 0 -25.23862341
11.50017463 7.107498798 -22.06143718
8.391564921 5.18627234 -23.81591793
9.862849214 7.863048353 -22.22812388
1.658362 6.161557949 -24.08171649
5.044817851 4.878027213 -24.4483385
1.675851331 4.518861883 -24.69536465
3.301977078 7.221403603 -23.60782609
3.38179654 3.846026156 -24.85599619
6.743321254 -2.069866825 -24.3975655
6.843892108 2.100737114 -24.76143426
5.100566674 -1.050084065 -24.91767647
5.131166344 1.056383802 -25.06716431
6.552470552 9.193253625 -22.24587103
6.734852685 5.926724263 -23.86570925
8.202190275 8.564382364 -22.2899644
4.944431283 8.239770944 -22.9961847
8.32386637 6.911517653 -23.13394462
5.01822431 6.592452912 -23.80469469
21.24920805 13.13273281 -10.34703086
19.09268867 11.79993053 -13.75419214
21.7869687 11.58877727 -11.27575326
19.52861006 14.26188371 -11.00686781
14.29816622 8.836752704 -19.68022784
16.79869449 10.38216416 -16.86642787
15.90087355 8.011908487 -19.28854283
13.68728551 10.56341121 -18.74182029
22.78831175 8.389873914 -13.15160857
19.58680734 10.2679812 -14.69243304
22.30710817 10.00329001 -12.21559331
21.65182572 7.681728054 -14.93788648
20.70224359 10.94059546 -13.02949608
15.97528196 16.20930313 -12.14878455
17.32423836 12.84395752 -14.29219129
17.75781119 15.29252867 -11.61116546
14.79080512 15.43957092 -13.74108002
18.43409651 13.55387583 -12.69658197
19.0904552 6.207263956 -18.23182125
18.39034097 9.540091255 -16.33634196
17.50859429 7.129648683 -18.80494188
20.41652443 6.951743162 -16.6431808
17.18219085 8.799937126 -17.85044146
20.02097119 8.653218275 -15.67887595
12.400363 13.79857881 -16.72590743
16.12526991 12.0858021 -15.89246196
13.04770568 12.2224275 -17.74567429
13.59522072 14.63380317 -15.27568242
14.93951784 11.34313476 -17.34789208
15.47775645 13.7750648 -14.82738611
12.74593604 -5.820520103 -20.62335773
13.71566983 -2.053229496 -22.19241997
14.36061168 -5.01845428 -20.3894086
11.37994294 -4.965890571 -21.75809768
13.4298152 6.132818268 -21.72989746
13.99584056 2.095170924 -22.64574572
15.02983521 5.252320901 -21.33958206
11.90553896 5.195246053 -22.76302095
17.66408485 -3.229662667 -19.69059105
15.30685338 -1.083820408 -21.7835074
16.01507861 -4.153366271 -20.08444209
18.18389498 -1.108112119 -20.25408201
14.91579719 -3.109825494 -21.210473
8.406894841 -3.1063451 -23.6549855
12.1245575 -1.078672662 -23.1086042
9.923483496 -4.05378699 -22.78185539
8.58785711 -1.061517517 -24.20087323
11.8189436 -3.071034597 -22.55009323
18.14829166 3.318193982 -20.23034833
15.46802068 1.095232055 -22.012868
16.61642009 4.309318762 -20.83858189
18.3540197 1.118479384 -20.44357497
15.36098522 3.202643671 -21.84353664
16.86944229 0 -21.22020744
8.625510127 3.187123382 -24.27011647
12.25449486 1.090232661 -23.3562562
10.28732587 4.202418211 -23.61714718
8.665864489 1.071159759 -24.42070067
12.17292944 3.163014288 -23.22548471
10.44528687 0 -23.86435377
16.85959513 24.14364222 1.19775211
18.9495218 21.50329268 3.497921608
16.01269707 23.9993498 3.090021505
18.24807428 23.23367408 0
21.69341879 15.31625425 7.556981603
20.45619102 18.43426268 5.601359545
13.88938403 22.87376708 6.534904105
17.90820173 21.15939262 5.289437377
14.98098938 23.52214119 4.884756552
17.0402065 22.63366493 4.222518739
20.39621848 20.63922686 -2.345608529
20.39621848 20.63922686 2.345608529
19.42907988 22.03095796 -1.194822499
19.42907988 22.03095796 1.194822499
25.06240122 1.916667399 14.75731399
24.75163232 5.603255873 13.15709676
22.81863483 12.19826476 9.443369367
23.86860552 9.000212595 11.31383417
9.619318724 19.75474005 12.20910079
13.41170468 18.61726951 11.50610533
10.63677739 20.55234189 10.93206292
20.58151564 14.95297383 9.241446059
17.07081145 17.00225729 10.50797289
19.99248832 16.48118427 8.30430729
12.7570966 22.10472526 8.138200843
14.47971055 19.30322228 10.11931757
11.68686914 21.34159572 9.570320352
14.79517798 21.44497588 7.608340974
12.58241745 19.99189143 10.56519288
18.68646347 19.56650895 6.362052894
16.40190863 18.46415145 9.578380854
19.36337321 18.02852929 7.341370643
16.7882179 20.59444434 7.012324167
18.21674935 17.53478562 8.980520137
15.62868493 19.95688031 8.625517702
23.20143268 14.33927398 -6.548128929
24.5354909 15.16376731 -2.270009025
22.60039089 15.91784459 -5.562644343
23.20143268 14.33927398 6.548128929
24.5354909 15.16376731 2.270009025
22.60039089 15.91784459 5.562644343
21.24982499 19.06284634 -3.485409161
23.73959554 16.68135905 -1.181143957
21.95385513 17.50572478 -4.539951919
21.70195452 19.48377921 -1.187326031
23.32621803 16.4036482 -3.420030639
21.24982499 19.06284634 3.485409161
23.73959554 16.68135905 1.181143957
21.95385513 17.50572478 4.539951919
21.70195452 19.48377921 1.187326031
23.32621803 16.4036482 3.420030639
22.81543135 18.13759849 0
12.70381833 -18.1923968 0.9025142707
14.70164806 -16.68294559 2.713800008
12.24059797 -18.34584087 2.362107444
13.76287659 -17.52306486 0
18.57321881 -13.1132923 6.470048554
16.64668725 -15.00129742 4.558232782
11.15014363 -18.36264214 5.246101573
14.16446453 -16.73598895 4.183672335
11.71955271 -18.40125284 3.821320503
13.21710717 -17.55563085 3.275164694
15.84910141 -16.03793369 -1.822680389
15.84910141 -16.03793369 1.822680389
14.81649107 -16.80066653 -0.9111639354
14.81649107 -16.80066653 0.9111639354
24.88930484 -1.903429714 14.65539089
24.05488943 -5.445527742 12.78673275
20.49938489 -10.95845243 8.483560245
22.39297693 -8.443792532 10.6143791
8.441695647 -17.33631121 10.71442957
11.54659993 -16.02825054 9.906003612
9.162862415 -17.70444884 9.417230875
17.86116174 -12.97657027 8.019961484
14.65066954 -14.59183435 9.018249588
16.9601666 -13.98143276 7.044767661
10.51520285 -18.22010741 6.708017932
12.24431896 -16.32317232 8.557087621
9.858782888 -18.00329551 8.073309404
12.05126459 -17.46779111 6.19729822
10.71476655 -17.02442718 8.996965466
15.12884881 -15.8413472 5.150816072
13.82826982 -15.5669242 8.075428167
16.04558205 -14.93945517 6.083473359
13.59143226 -16.67288314 5.677048598
15.37497153 -14.79939282 7.579576287
12.94618906 -16.5314962 7.145040253
20.0290794 -12.37865183 -5.652797224
20.61497512 -12.7407553 -1.907285236
18.99349057 -13.37744257 -4.674876351
20.0290794 -12.37865183 5.652797224
20.61497512 -12.7407553 1.907285236
18.99349057 -13.37744257 4.674876351
16.92751329 -15.18537611 -2.776460979
19.43146219 -13.65411627 -0.9667963423
17.95380264 -14.31613382 -3.712760254
17.04442379 -15.30229867 -0.9325099283
19.2836555 -13.56080529 -2.827320423
16.92751329 -15.18537611 2.776460979
19.43146219 -13.65411627 0.9667963423
17.95380264 -14.31613382 3.712760254
17.04442379 -15.30229867 0.9325099283
19.2836555 -13.56080529 2.827320423
18.24572819 -14.50481856 0
1.538633109 -11.84665211 20.11921333
4.567254972 -10.7244461 20.1752371
2.46087417 -12.75241371 19.11293495
1.557529496 -10.53937505 21.13073222
10.5942268 -8.201592504 19.81804768
7.565204787 -9.50993896 20.06295816
4.241141096 -14.35903384 16.96588185
5.459386885 -11.60346346 19.10919304
3.368206312 -13.59258174 18.05435518
3.973500015 -12.18626986 19.1340607
1.604806601 -7.697580824 22.99226472
4.641704672 -9.390372474 21.1841625
1.581832685 -9.150395276 22.09967424
3.111851548 -9.976062148 21.18207569
23.43870416 -1.162780541 16.36733426
20.327845 -3.306712573 17.91367246
23.37097771 -3.009115843 15.59343855
13.72127573 -6.770025266 19.43434575
16.98701877 -5.161605938 18.85020881
22.33906442 -6.382142622 13.56470246
20.01501817 -5.003365982 16.93966313
22.96681406 -4.769433809 14.62730773
21.71265653 -4.050696136 16.34680694
7.548259933 -16.81064077 12.21334113
8.892436403 -14.44627872 14.38826434
6.77013488 -16.29899253 13.43638146
9.137331472 -16.21164044 11.83947705
11.50749368 -9.066535802 18.6195159
10.20776995 -11.89834371 16.51651873
9.994786722 -9.724817924 18.79025719
5.135651521 -15.08430787 15.79470858
8.088608756 -13.85084011 15.59233229
5.960266977 -15.72061669 14.6368918
5.753777445 -13.77512893 16.89822754
7.439135981 -15.09009206 14.52517812
12.29360834 -14.90166182 11.04789182
10.52082639 -13.83456652 14.03722846
10.72470601 -15.57114081 11.4488556
9.833624859 -15.03928732 12.95141221
7.007025013 -10.9839136 19.03226104
8.747776952 -12.51717593 16.68692398
8.488603727 -10.36592269 18.92939236
6.379760117 -12.40607995 17.98208076
9.374594709 -11.16449698 17.73899272
7.261884465 -13.15790057 16.80183892
1.69308955 -1.046386888 25.2897455
4.994269606 -3.086628366 24.4549583
1.681351807 -2.782157491 24.99361376
10.86208814 -6.71313966 20.83735968
8.073432932 -4.989655958 22.91303445
9.306776145 -7.419725198 20.97488957
1.640522903 -6.095277713 23.82266807
4.919926287 -4.757264785 23.84308548
1.661872685 -4.481169058 24.48937516
3.224729389 -7.052463383 23.05553576
3.334099845 -3.79178199 24.50542842
6.23022911 -8.741142122 21.15184985
6.489516364 -5.710826338 22.99633235
7.75667658 -8.099195688 21.0792531
4.763179444 -7.937719291 22.15319578
7.931910218 -6.586066505 22.04460806
4.860377459 -6.385089138 23.05592463
18.9264685 -11.69720082 9.216002459
17.40112036 -10.75448383 12.53560235
19.8135731 -10.53910201 10.25443073
17.2246175 -12.57926145 9.708273518
13.34561188 -8.248041742 18.36911659
15.52792244 -9.596783843 15.59053199
14.93123367 -7.523339984 18.11232189
12.64528534 -9.759228657 17.31502315
21.53002997 -7.92661777 12.42542799
18.13317208 -9.505942795 13.60203386
20.69356197 -9.279719282 11.33199944
20.56955633 -7.297755855 14.19121424
19.01803921 -10.0505374 11.9694982
13.95247218 -14.15686131 10.61049056
15.65766149 -11.60837982 12.91729475
15.56010336 -13.39992436 10.1741669
13.10777791 -13.68272146 12.17749971
16.48179445 -12.11842388 11.35192354
18.24268787 -5.931612301 17.42218407
17.12726256 -8.884862336 15.21433554
16.57358566 -6.748905209 17.80070462
19.4645602 -6.627603231 15.86715681
16.07239454 -8.231549901 16.69748289
18.81697087 -8.132840047 14.73599604
11.24447715 -12.51235985 15.16682083
14.70493249 -11.02126693 14.49263061
11.9391786 -11.18401567 16.23800995
12.19806488 -13.12991411 13.70582861
13.71782919 -10.41554265 15.92925709
13.91665058 -12.38569454 13.3318774
1.564860133 12.04858617 20.46215869
4.777941555 11.21916271 21.10591686
2.532161022 13.12182693 19.66660039
1.582158874 10.7060353 21.46487471
11.31786325 8.761800568 21.17171529
8.048857519 10.11792091 21.34560745
4.474996802 15.15078821 17.90137732
5.774165872 12.27249948 20.21099669
3.508983113 14.16069426 18.80895099
4.151310537 12.73159438 19.99029256
1.625443175 7.796565771 23.2879275
4.838097732 9.787684264 22.08047599
1.604712896 9.282749968 22.41933208
3.206035507 10.27799976 21.82317688
23.56464694 1.169028489 16.45528057
20.7901159 3.381909771 18.32104321
23.71046064 3.052825759 15.81994625
22.34385258 0 17.5491952
14.5511945 7.179504031 20.60981432
17.72822534 5.386825931 19.67271327
23.24216435 6.640153092 14.11308182
20.71788014 5.17906783 17.5345287
23.56465304 4.893584831 15.0080647
22.24076392 4.149219436 16.74440314
19.36539402 -2.200839871 19.13738387
19.68970818 2.237697553 19.45787953
20.91654597 -1.134383705 18.44628105
21.07249422 1.142841371 18.58381165
8.432528289 18.77998441 13.64411738
9.839084903 15.98416412 15.91997379
7.449001283 17.93335265 14.783697
10.3371828 18.34044122 13.3941555
12.38018794 9.754115047 20.03156488
11.15257048 12.99961867 18.0452381
10.75889517 10.46828707 20.22678552
5.494191938 16.13740386 16.8974005
8.848578272 15.15220312 17.05731813
6.463961876 17.04914685 15.87383769
6.158696316 14.74454592 18.08743086
8.166102332 16.56472422 15.94460583
14.07381756 17.05953728 12.64771169
11.70903352 15.39702274 15.62257302
12.23064055 17.75759877 13.05647329
11.03632364 16.87866322 14.53543111
7.481699635 11.7279933 20.32155732
9.526349543 13.63123384 18.17209921
9.11510491 11.13097936 20.32647569
6.824460616 13.27084443 19.23551978
10.1551954 12.09413867 19.21607737
7.855851963 14.23411782 18.1761029
1.696625097 1.048571976 25.34255611
5.079846003 3.139517488 24.87399199
1.690493961 2.797285147 25.12951362
3.400396001 0 25.23862341
11.50017463 7.107498798 22.06143718
8.391564921 5.18627234 23.81591793
9.862849214 7.863048353 22.22812388
1.658362 6.161557949 24.08171649
5.044817851 4.878027213 24.4483385
1.675851331 4.518861883 24.69536465
3.301977078 7.221403603 23.60782609
3.38179654 3.846026156 24.85599619
6.743321254 -2.069866825 24.3975655
6.843892108 2.100737114 24.76143426
5.100566674 -1.050084065 24.91767647
5.131166344 1.056383802 25.06716431
6.552470552 9.193253625 22.24587103
6.734852685 5.926724263 23.86570925
8.202190275 8.564382364 22.2899644
4.944431283 8.239770944 22.9961847
8.32386637 6.911517653 23.13394462
5.01822431 6.592452912 23.80469469
21.24920805 13.13273281 10.34703086
19.09268867 11.79993053 13.75419214
21.7869687 11.58877727 11.27575326
19.52861006 14.26188371 11.00686781
14.29816622 8.836752704 19.68022784
16.79869449 10.38216416 16.86642787
15.90087355 8.011908487 19.28854283
13.68728551 10.56341121 18.74182029
22.78831175 8.389873914 13.15160857
19.58680734 10.2679812 14.69243304
22.30710817 10.00329001 12.21559331
21.65182572 7.681728054 14.93788648
20.70224359 10.94059546 13.02949608
15.97528196 16.20930313 12.14878455
17.32423836 12.84395752 14.29219129
17.75781119 15.29252867 11.61116546
14.79080512 15.43957092 13.74108002
18.43409651 13.55387583 12.69658197
19.0904552 6.207263956 18.23182125
18.39034097 9.540091255 16.33634196
17.50859429 7.129648683 18.80494188
20.41652443 6.951743162 16.6431808
17.18219085 8.799937126 17.85044146
20.02097119 8.653218275 15.67887595
12.400363 13.79857881 16.72590743
16.12526991 12.0858021 15.89246196
13.04770568 12.2224275 17.74567429
13.59522072 14.63380317 15.27568242
14.93951784 11.34313476 17.34789208
15.47775645 13.7750648 14.82738611
12.74593604 -5.820520103 20.62335773
13.71566983 -2.053229496 22.19241997
14.36061168 -5.01845428 20.3894086
11.37994294 -4.965890571 21.75809768
13.4298152 6.132818268 21.72989746
13.99584056 2.095170924 22.64574572
15.02983521 5.252320901 21.33958206
11.90553896 5.195246053 22.76302095
17.66408485 -3.229662667 19.69059105
15.30685338 -1.083820408 21.7835074
16.01507861 -4.153366271 20.08444209
18.18389498 -1.108112119 20.25408201
14.91579719 -3.109825494 21.210473
8.406894841 -3.1063451 23.6549855
12.1245575 -1.078672662 23.1086042
9.923483496 -4.05378699 22.78185539
8.58785711 -1.061517517 24.20087323
11.8189436 -3.071034597 22.55009323
18.14829166 3.318193982 20.23034833
15.46802068 1.095232055 22.012868
16.61642009 4.309318762 20.83858189
18.3540197 1.118479384 20.44357497
15.36098522 3.202643671 21.84353664
16.86944229 0 21.22020744
8.625510127 3.187123382 24.27011647
12.25449486 1.090232661 23.3562562
10.28732587 4.202418211 23.61714718
8.665864489 1.071159759 24.42070067
12.17292944 3.163014288 23.22548471
10.44528687 0 23.86435377
26.10685725 0 -13.73710533
28.43856664 0 -10.25164792
26.3667425 1.943471658 -13.15093984
26.22045028 -1.932688574 -13.07797367
30.95456299 0 -2.145381809
30.09806546 0 -6.339394476
25.94973351 5.685898571 -11.50282261
28.59469036 1.99584288 -9.573217027
26.27173378 3.859571491 -12.37312399
27.55840961 1.972553649 -11.41059087
25.23889281 -5.530144827 -11.18772594
28.47141315 -1.987238417 -9.531945047
25.89953653 -3.804892119 -12.19783131
27.42959134 -1.963333198 -11.35725352
26.10685725 0 13.73710533
28.43856664 0 10.25164792
26.3667425 1.943471658 13.15093984
26.22045028 -1.932688574 13.07797367
30.95456299 0 2.145381809
30.09806546 0 6.339394476
25.94973351 5.685898571 11.50282261
28.59469036 1.99584288 9.573217027
26.27173378 3.859571491 12.37312399
27.55840961 1.972553649 11.41059087
25.23889281 -5.530144827 11.18772594
28.47141315 -1.987238417 9.531945047
25.89953653 -3.804892119 12.19783131
27.42959134 -1.963333198 11.35725352
23.88624385 12.45140891 -7.695393916
26.87008372 9.4677036 -5.85136262
24.44331561 10.84575277 -8.646657433
24.73413231 12.93647167 -5.645116416
30.87677303 2.067128028 -1.27755538
29.33532343 5.990953345 -3.702612792
30.6320293 2.060655106 -3.409796221
25.49341963 7.509028583 -10.53532461
27.44942857 7.746170699 -6.81669221
24.98545383 9.194067911 -9.600059305
27.03887306 5.813653507 -9.688308018
26.00378062 9.356467241 -7.768912382
25.75761233 13.51443164 -1.202324122
27.47101972 9.763099369 -3.607462263
25.39336537 13.30915797 -3.458251936
26.17170663 11.40005914 -4.656974686
29.49436249 2.031098156 -7.546439796
28.78871143 5.940436622 -5.744035236
30.16492209 2.047020789 -5.519704551
28.41876874 3.974873528 -8.693024011
29.86483382 4.063276761 -4.621055264
28.0012748 5.902897716 -7.754650417
21.26902422 -11.08710601 -6.852208349
24.8818068 -8.767132038 -5.418385583
22.31231223 -9.900204459 -7.892829412
21.72574862 -11.3630237 -4.958507485
30.70559611 -2.055668132 -1.270472775
28.37662746 -5.795165395 -3.581609185
30.47108453 -2.049828149 -3.391880697
24.3350732 -7.167840285 -10.05663027
26.06013279 -7.354114369 -6.471679502
23.35016058 -8.592317899 -8.971737233
26.27879592 -5.650228607 -9.415964514
24.18930403 -8.703597146 -7.226817761
22.20514638 -11.65053379 -1.036500696
25.24615306 -8.97238994 -3.315295368
22.04366959 -11.55351709 -3.002066167
23.48379561 -10.22923964 -4.178689728
29.36320779 -2.022066326 -7.512882501
27.89725555 -5.756488231 -5.566168505
30.01967483 -2.037164169 -5.493126595
28.03508037 -3.921207841 -8.575657482
29.40883427 -4.001235486 -4.550497392
27.17572954 -5.728866024 -7.52602458
23.88624385 12.45140891 7.695393916
26.87008372 9.4677036 5.85136262
24.44331561 10.84575277 8.646657433
24.73413231 12.93647167 5.645116416
30.87677303 2.067128028 1.27755538
29.33532343 5.990953345 3.702612792
30.6320293 2.060655106 3.409796221
30.4236251 4.098970513 0
25.49341963 7.509028583 10.53532461
27.44942857 7.746170699 6.81669221
24.98545383 9.194067911 9.600059305
27.03887306 5.813653507 9.688308018
26.00378062 9.356467241 7.768912382
25.75761233 13.51443164 1.202324122
27.47101972 9.763099369 3.607462263
25.39336537 13.30915797 3.458251936
26.85562685 11.75454946 0
26.17170663 11.40005914 4.656974686
29.49436249 2.031098156 7.546439796
28.78871143 5.940436622 5.744035236
30.16492209 2.047020789 5.519704551
28.41876874 3.974873528 8.693024011
29.86483382 4.063276761 4.621055264
28.0012748 5.902897716 7.754650417
28.68130295 7.927317168 -2.433295137
28.68130295 7.927317168 2.433295137
29.65928157 6.071157692 -1.249905424
27.83392861 9.877073419 -1.220873417
29.65928157 6.071157692 1.249905424
27.83392861 9.877073419 1.220873417
21.26902422 -11.08710601 6.852208349
24.8818068 -8.767132038 5.418385583
22.31231223 -9.900204459 7.892829412
21.72574862 -11.3630237 4.958507485
30.70559611 -2.055668132 1.270472775
28.37662746 -5.795165395 3.581609185
30.47108453 -2.049828149 3.391880697
29.91998238 -4.031114804 0
24.3350732 -7.167840285 10.05663027
26.06013279 -7.354114369 6.471679502
23.35016058 -8.592317899 8.971737233
26.27879592 -5.650228607 9.415964514
24.18930403 -8.703597146 7.226817761
22.20514638 -11.65053379 1.036500696
25.24615306 -8.97238994 3.315295368
22.04366959 -11.55351709 3.002066167
23.83457849 -10.43225441 0
23.48379561 -10.22923964 4.178689728
29.36320779 -2.022066326 7.512882501
27.89725555 -5.756488231 5.566168505
30.01967483 -2.037164169 5.493126595
28.03508037 -3.921207841 8.575657482
29.40883427 -4.001235486 4.550497392
27.17572954 -5.728866024 7.52602458
27.05740341 -7.478482373 -2.295525006
27.05740341 -7.478482373 2.295525006
28.63671033 -5.861840711 -1.206812089
25.4822089 -9.042548458 -1.117720458
28.63671033 -5.861840711 1.206812089
25.4822089 -9.042548458 1.117720458
-12.70381833 18.1923968 -0.9025142707
-14.70164806 16.68294559 -2.713800008
-12.24059797 18.34584087 -2.362107444
-18.57321881 13.1132923 -6.470048554
-16.64668725 15.00129742 -4.558232782
-11.15014363 18.36264214 -5.246101573
-14.16446453 16.73598895 -4.183672335
-11.71955271 18.40125284 -3.821320503
-13.21710717 17.55563085 -3.275164694
-24.88930484 1.903429714 -14.65539089
-24.05488943 5.445527742 -12.78673275
-20.49938489 10.95845243 -8.483560245
-22.39297693 8.443792532 -10.6143791
-8.441695647 17.33631121 -10.71442957
-11.54659993 16.02825054 -9.906003612
-9.162862415 17.70444884 -9.417230875
-17.86116174 12.97657027 -8.019961484
-14.65066954 14.59183435 -9.018249588
-16.9601666 13.98143276 -7.044767661
-10.51520285 18.22010741 -6.708017932
-12.24431896 16.32317232 -8.557087621
-9.858782888 18.00329551 -8.073309404
-12.05126459 17.46779111 -6.19729822
-10.71476655 17.02442718 -8.996965466
-15.12884881 15.8413472 -5.150816072
-13.82826982 15.5669242 -8.075428167
-16.04558205 14.93945517 -6.083473359
-13.59143226 16.67288314 -5.677048598
-15.37497153 14.79939282 -7.579576287
-12.94618906 16.5314962 -7.145040253
-16.85959513 -24.14364222 -1.19775211
-18.9495218 -21.50329268 -3.497921608
-16.01269707 -23.9993498 -3.090021505
-21.69341879 -15.31625425 -7.556981603
-20.45619102 -18.43426268 -5.601359545
-13.88938403 -22.87376708 -6.534904105
-17.90820173 -21.15939262 -5.289437377
-14.98098938 -23.52214119 -4.884756552
-17.0402065 -22.63366493 -4.222518739
-25.06240122 -1.916667399 -14.75731399
-24.75163232 -5.603255873 -13.15709676
-22.81863483 -12.19826476 -9.443369367
-23.86860552 -9.000212595 -11.31383417
-9.619318724 -19.75474005 -12.20910079
-13.41170468 -18.61726951 -11.50610533
-10.63677739 -20.55234189 -10.93206292
-20.58151564 -14.95297383 -9.241446059
-17.07081145 -17.00225729 -10.50797289
-19.99248832 -16.48118427 -8.30430729
-12.7570966 -22.10472526 -8.138200843
-14.47971055 -19.30322228 -10.11931757
-11.68686914 -21.34159572 -9.570320352
-14.79517798 -21.44497588 -7.608340974
-12.58241745 -19.99189143 -10.56519288
-18.68646347 -19.56650895 -6.362052894
-16.40190863 -18.46415145 -9.578380854
-19.36337321 -18.02852929 -7.341370643
-16.7882179 -20.59444434 -7.012324167
-18.21674935 -17.53478562 -8.980520137
-15.62868493 -19.95688031 -8.625517702
-1.564860133 -12.04858617 -20.46215869
-4.777941555 -11.21916271 -21.10591686
-2.532161022 -13.12182693 -19.66660039
-1.582158874 -10.7060353 -21.46487471
-11.31786325 -8.761800568 -21.17171529
-8.048857519 -10.11792091 -21.34560745
-4.474996802 -15.15078821 -17.90137732
-5.774165872 -12.27249948 -20.21099669
-3.508983113 -14.16069426 -18.80895099
-4.151310537 -12.73159438 -19.99029256
-1.625443175 -7.796565771 -23.2879275
-4.838097732 -9.787684264 -22.08047599
-1.604712896 -9.282749968 -22.41933208
-3.206035507 -10.27799976 -21.82317688
-23.56464694 -1.169028489 -16.45528057
-20.7901159 -3.381909771 -18.32104321
-23.71046064 -3.052825759 -15.81994625
-14.5511945 -7.179504031 -20.60981432
-17.72822534 -5.386825931 -19.67271327
-23.24216435 -6.640153092 -14.11308182
-20.71788014 -5.17906783 -17.5345287
-23.56465304 -4.893584831 -15.0080647
-22.24076392 -4.149219436 -16.74440314
-8.432528289 -18.77998441 -13.64411738
-9.839084903 -15.98416412 -15.91997379
-7.449001283 -17.93335265 -14.783697
-10.3371828 -18.34044122 -13.3941555
-12.38018794 -9.754115047 -20.03156488
-11.15257048 -12.99961867 -18.0452381
-10.75889517 -10.46828707 -20.22678552
-5.494191938 -16.13740386 -16.8974005
-8.848578272 -15.15220312 -17.05731813
-6.463961876 -17.04914685 -15.87383769
-6.158696316 -14.74454592 -18.08743086
-8.166102332 -16.56472422 -15.94460583
-14.07381756 -17.05953728 -12.64771169
-11.70903352 -15.39702274 -15.62257302
-12.23064055 -17.75759877 -13.05647329
-11.03632364 -16.87866322 -14.53543111
-7.481699635 -11.7279933 -20.32155732
-9.526349543 -13.63123384 -18.17209921
-9.11510491 -11.13097936 -20.32647569
-6.824460616 -13.27084443 -19.23551978
-10.1551954 -12.09413867 -19.21607737
-7.855851963 -14.23411782 -18.1761029
-1.696625097 -1.048571976 -25.34255611
-5.079846003 -3.139517488 -24.87399199
-1.690493961 -2.797285147 -25.12951362
-11.50017463 -7.107498798 -22.06143718
-8.391564921 -5.18627234 -23.81591793
-9.862849214 -7.863048353 -22.22812388
-1.658362 -6.161557949 -24.08171649
-5.044817851 -4.878027213 -24.4483385
-1.675851331 -4.518861883 -24.69536465
-3.301977078 -7.221403603 -23.60782609
-3.38179654 -3.846026156 -24.85599619
-6.552470552 -9.193253625 -22.24587103
-6.734852685 -5.926724263 -23.86570925
-8.202190275 -8.564382364 -22.2899644
-4.944431283 -8.239770944 -22.9961847
-8.32386637 -6.911517653 -23.13394462
-5.01822431 -6.592452912 -23.80469469
-21.24920805 -13.13273281 -10.34703086
-19.09268867 -11.79993053 -13.75419214
-21.7869687 -11.58877727 -11.27575326
-19.52861006 -14.26188371 -11.00686781
-14.29816622 -8.836752704 -19.68022784
-16.79869449 -10.38216416 -16.86642787
-15.90087355 -8.011908487 -19.28854283
-13.68728551 -10.56341121 -18.74182029
-22.78831175 -8.389873914 -13.15160857
-19.58680734 -10.2679812 -14.69243304
-22.30710817 -10.00329001 -12.21559331
-21.65182572 -7.681728054 -14.93788648
-20.70224359 -10.94059546 -13.02949608
-15.97528196 -16.20930313 -12.14878455
-17.32423836 -12.84395752 -14.29219129
-17.75781119 -15.29252867 -11.61116546
-14.79080512 -15.43957092 -13.74108002
-18.43409651 -13.55387583 -12.69658197
-19.0904552 -6.207263956 -18.23182125
-18.39034097 -9.540091255 -16.33634196
-17.50859429 -7.129648683 -18.80494188
-20.41652443 -6.951743162 -16.6431808
-17.18219085 -8.799937126 -17.85044146
-20.02097119 -8.653218275 -15.67887595
-12.400363 -13.79857881 -16.72590743
-16.12526991 -12.0858021 -15.89246196
-13.04770568 -12.2224275 -17.74567429
-13.59522072 -14.63380317 -15.27568242
-14.93951784 -11.34313476 -17.34789208
-15.47775645 -13.7750648 -14.82738611
-1.538633109 11.84665211 -20.11921333
-4.567254972 10.7244461 -20.1752371
-2.46087417 12.75241371 -19.11293495
-1.557529496 10.53937505 -21.13073222
-10.5942268 8.201592504 -19.81804768
-7.565204787 9.50993896 -20.06295816
-4.241141096 14.35903384 -16.96588185
-5.459386885 11.60346346 -19.10919304
-3.368206312 13.59258174 -18.05435518
-3.973500015 12.18626986 -19.1340607
-1.604806601 7.697580824 -22.99226472
-4.641704672 9.390372474 -21.1841625
-1.581832685 9.150395276 -22.09967424
-3.111851548 9.976062148 -21.18207569
-23.43870416 1.162780541 -16.36733426
-20.327845 3.306712573 -17.91367246
-23.37097771 3.009115843 -15.59343855
-22.34385258 0 -17.5491952
-13.72127573 6.770025266 -19.43434575
-16.98701877 5.161605938 -18.85020881
-22.33906442 6.382142622 -13.56470246
-20.01501817 5.003365982 -16.93966313
-22.96681406 4.769433809 -14.62730773
-21.71265653 4.050696136 -16.34680694
-19.68970818 -2.237697553 -19.45787953
-19.36539402 2.200839871 -19.13738387
-21.07249422 -1.142841371 -18.58381165
-20.91654597 1.134383705 -18.44628105
-7.548259933 16.81064077 -12.21334113
-8.892436403 14.44627872 -14.38826434
-6.77013488 16.29899253 -13.43638146
-9.137331472 16.21164044 -11.83947705
-11.50749368 9.066535802 -18.6195159
-10.20776995 11.89834371 -16.51651873
-9.994786722 9.724817924 -18.79025719
-5.135651521 15.08430787 -15.79470858
-8.088608756 13.85084011 -15.59233229
-5.960266977 15.72061669 -14.6368918
-5.753777445 13.77512893 -16.89822754
-7.439135981 15.09009206 -14.52517812
-12.29360834 14.90166182 -11.04789182
-10.52082639 13.83456652 -14.03722846
-10.72470601 15.57114081 -11.4488556
-9.833624859 15.03928732 -12.95141221
-7.007025013 10.9839136 -19.03226104
-8.747776952 12.51717593 -16.68692398
-8.488603727 10.36592269 -18.92939236
-6.379760117 12.40607995 -17.98208076
-9.374594709 11.16449698 -17.73899272
-7.261884465 13.15790057 -16.80183892
-1.69308955 1.046386888 -25.2897455
-4.994269606 3.086628366 -24.4549583
-1.681351807 2.782157491 -24.99361376
-3.400396001 0 -25.23862341
-10.86208814 6.71313966 -20.83735968
-8.073432932 4.989655958 -22.91303445
-9.306776145 7.419725198 -20.97488957
-1.640522903 6.095277713 -23.82266807
-4.919926287 4.757264785 -23.84308548
-1.661872685 4.481169058 -24.48937516
-3.224729389 7.052463383 -23.05553576
-3.334099845 3.79178199 -24.50542842
-6.843892108 -2.100737114 -24.76143426
-6.743321254 2.069866825 -24.3975655
-5.131166344 -1.056383802 -25.06716431
-5.100566674 1.050084065 -24.91767647
-6.23022911 8.741142122 -21.15184985
-6.489516364 5.710826338 -22.99633235
-7.75667658 8.099195688 -21.0792531
-4.763179444 7.937719291 -22.15319578
-7.931910218 6.586066505 -22.04460806
-4.860377459 6.385089138 -23.05592463
-18.9264685 11.69720082 -9.216002459
-17.40112036 10.75448383 -12.53560235
-19.8135731 10.53910201 -10.25443073
-17.2246175 12.57926145 -9.708273518
-13.34561188 8.248041742 -18.36911659
-15.52792244 9.596783843 -15.59053199
-14.93123367 7.523339984 -18.11232189
-12.64528534 9.759228657 -17.31502315
-21.53002997 7.92661777 -12.42542799
-18.13317208 9.505942795 -13.60203386
-20.69356197 9.279719282 -11.33199944
-20.56955633 7.297755855 -14.19121424
-19.01803921 10.0505374 -11.9694982
-13.95247218 14.15686131 -10.61049056
-15.65766149 11.60837982 -12.91729475
-15.56010336 13.39992436 -10.1741669
-13.10777791 13.68272146 -12.17749971
-16.48179445 12.11842388 -11.35192354
-18.24268787 5.931612301 -17.42218407
-17.12726256 8.884862336 -15.21433554
-16.57358566 6.748905209 -17.80070462
-19.4645602 6.627603231 -15.86715681
-16.07239454 8.231549901 -16.69748289
-18.81697087 8.132840047 -14.73599604
-11.24447715 12.51235985 -15.16682083
-14.70493249 11.02126693 -14.49263061
-11.9391786 11.18401567 -16.23800995
-12.19806488 13.12991411 -13.70582861
-13.71782919 10.41554265 -15.92925709
-13.91665058 12.38569454 -13.3318774
-13.4298152 -6.132818268 -21.72989746
-13.99584056 -2.095170924 -22.64574572
-15.02983521 -5.252320901 -21.33958206
-11.90553896 -5.195246053 -22.76302095
-12.74593604 5.820520103 -20.62335773
-13.71566983 2.053229496 -22.19241997
-14.36061168 5.01845428 -20.3894086
-11.37994294 4.965890571 -21.75809768
-18.14829166 -3.318193982 -20.23034833
-15.46802068 -1.095232055 -22.012868
-16.61642009 -4.309318762 -20.83858189
-18.3540197 -1.118479384 -20.44357497
-15.36098522 -3.202643671 -21.84353664
-8.625510127 -3.187123382 -24.27011647
-12.25449486 -1.090232661 -23.3562562
-10.28732587 -4.202418211 -23.61714718
-8.665864489 -1.071159759 -24.42070067
-12.17292944 -3.163014288 -23.22548471
-17.66408485 3.229662667 -19.69059105
-15.30685338 1.083820408 -21.7835074
-16.01507861 4.153366271 -20.08444209
-18.18389498 1.108112119 -20.25408201
-14.91579719 3.109825494 -21.210473
-16.86944229 0 -21.22020744
-8.406894841 3.1063451 -23.6549855
-12.1245575 1.078672662 -23.1086042
-9.923483496 4.05378699 -22.78185539
-8.58785711 1.061517517 -24.20087323
-11.8189436 3.071034597 -22.55009323
-10.44528687 0 -23.86435377
-12.70381833 18.1923968 0.9025142707
-14.70164806 16.68294559 2.713800008
-12.24059797 18.34584087 2.362107444
-13.76287659 17.52306486 0
-18.57321881 13.1132923 6.470048554
-16.64668725 15.00129742 4.558232782
-11.15014363 18.36264214 5.246101573
-14.16446453 16.73598895 4.183672335
-11.71955271 18.40125284 3.821320503
-13.21710717 17.55563085 3.275164694
-15.84910141 16.03793369 -1.822680389
-15.84910141 16.03793369 1.822680389
-14.81649107 16.80066653 -0.9111639354
-14.81649107 16.80066653 0.9111639354
-24.88930484 1.903429714 14.65539089
-24.05488943 5.445527742 12.78673275
-20.49938489 10.95845243 8.483560245
-22.39297693 8.443792532 10.6143791
-8.441695647 17.33631121 10.71442957
-11.54659993 16.02825054 9.906003612
-9.162862415 17.70444884 9.417230875
-17.86116174 12.97657027 8.019961484
-14.65066954 14.59183435 9.018249588
-16.9601666 13.98143276 7.044767661
-10.51520285 18.22010741 6.708017932
-12.24431896 16.32317232 8.557087621
-9.858782888 18.00329551 8.073309404
-12.05126459 17.46779111 6.19729822
-10.71476655 17.02442718 8.996965466
-15.12884881 15.8413472 5.150816072
-13.82826982 15.5669242 8.075428167
-16.04558205 14.93945517 6.083473359
-13.59143226 16.67288314 5.677048598
-15.37497153 14.79939282 7.579576287
-12.94618906 16.5314962 7.145040253
-20.0290794 12.37865183 -5.652797224
-20.61497512 12.7407553 -1.907285236
-18.99349057 13.37744257 -4.674876351
-20.0290794 12.37865183 5.652797224
-20.61497512 12.7407553 1.907285236
-18.99349057 13.37744257 4.674876351
-16.92751329 15.18537611 -2.776460979
-19.43146219 13.65411627 -0.9667963423
-17.95380264 14.31613382 -3.712760254
-17.04442379 15.30229867 -0.9325099283
-19.2836555 13.56080529 -2.827320423
-16.92751329 15.18537611 2.776460979
-19.43146219 13.65411627 0.9667963423
-17.95380264 14.31613382 3.712760254
-17.04442379 15.30229867 0.9325099283
-19.2836555 13.56080529 2.827320423
-18.24572819 14.50481856 0
-16.85959513 -24.14364222 1.19775211
-18.9495218 -21.50329268 3.497921608
-16.01269707 -23.9993498 3.090021505
-18.24807428 -23.23367408 0
-21.69341879 -15.31625425 7.556981603
-20.45619102 -18.43426268 5.601359545
-13.88938403 -22.87376708 6.534904105
-17.90820173 -21.15939262 5.289437377
-14.98098938 -23.52214119 4.884756552
-17.0402065 -22.63366493 4.222518739
-20.39621848 -20.63922686 -2.345608529
-20.39621848 -20.63922686 2.345608529
-19.42907988 -22.03095796 -1.194822499
-19.42907988 -22.03095796 1.194822499
-25.06240122 -1.916667399 14.75731399
-24.75163232 -5.603255873 13.15709676
-22.81863483 -12.19826476 9.443369367
-23.86860552 -9.000212595 11.31383417
-9.619318724 -19.75474005 12.20910079
-13.41170468 -18.61726951 11.50610533
-10.63677739 -20.55234189 10.93206292
-20.58151564 -14.95297383 9.241446059
-17.07081145 -17.00225729 10.50797289
-19.99248832 -16.48118427 8.30430729
-12.7570966 -22.10472526 8.138200843
-14.47971055 -19.30322228 10.11931757
-11.68686914 -21.34159572 9.570320352
-14.79517798 -21.44497588 7.608340974
-12.58241745 -19.99189143 10.56519288
-18.68646347 -19.56650895 6.362052894
-16.40190863 -18.46415145 9.578380854
-19.36337321 -18.02852929 7.341370643
-16.7882179 -20.59444434 7.012324167
-18.21674935 -17.53478562 8.980520137
-15.62868493 -19.95688031 8.625517702
-23.20143268 -14.33927398 -6.548128929
-24.5354909 -15.16376731 -2.270009025
-22.60039089 -15.91784459 -5.562644343
-23.20143268 -14.33927398 6.548128929
-24.5354909 -15.16376731 2.270009025
-22.60039089 -15.91784459 5.562644343
-21.24982499 -19.06284634 -3.485409161
-23.73959554 -16.68135905 -1.181143957
-21.95385513 -17.50572478 -4.539951919
-21.70195452 -19.48377921 -1.187326031
-23.32621803 -16.4036482 -3.420030639
-21.24982499 -19.06284634 3.485409161
-23.73959554 -16.68135905 1.181143957
-21.95385513 -17.50572478 4.539951919
-21.70195452 -19.48377921 1.187326031
-23.32621803 -16.4036482 3.420030639
-22.81543135 -18.13759849 0
-1.564860133 -12.04858617 20.46215869
-4.777941555 -11.21916271 21.10591686
-2.532161022 -13.12182693 19.66660039
-1.582158874 -10.7060353 21.46487471
-11.31786325 -8.761800568 21.17171529
-8.048857519 -10.11792091 21.34560745
-4.474996802 -15.15078821 17.90137732
-5.774165872 -12.27249948 20.21099669
-3.508983113 -14.16069426 18.80895099
-4.151310537 -12.73159438 19.99029256
-1.625443175 -7.796565771 23.2879275
-4.838097732 -9.787684264 22.08047599
-1.604712896 -9.282749968 22.41933208
-3.206035507 -10.27799976 21.82317688
-23.56464694 -1.169028489 16.45528057
-20.7901159 -3.381909771 18.32104321
-23.71046064 -3.052825759 15.81994625
-14.5511945 -7.179504031 20.60981432
-17.72822534 -5.386825931 19.67271327
-23.24216435 -6.640153092 14.11308182
-20.71788014 -5.17906783 17.5345287
-23.56465304 -4.893584831 15.0080647
-22.24076392 -4.149219436 16.74440314
-8.432528289 -18.77998441 13.64411738
-9.839084903 -15.98416412 15.91997379
-7.449001283 -17.93335265 14.783697
-10.3371828 -18.34044122 13.3941555
-12.38018794 -9.754115047 20.03156488
-11.15257048 -12.99961867 18.0452381
-10.75889517 -10.46828707 20.22678552
-5.494191938 -16.13740386 16.8974005
-8.848578272 -15.15220312 17.05731813
-6.463961876 -17.04914685 15.87383769
-6.158696316 -14.74454592 18.08743086
-8.166102332 -16.56472422 15.94460583
-14.07381756 -17.05953728 12.64771169
-11.70903352 -15.39702274 15.62257302
-12.23064055 -17.75759877 13.05647329
-11.03632364 -16.87866322 14.53543111
-7.481699635 -11.7279933 20.32155732
-9.526349543 -13.63123384 18.17209921
-9.11510491 -11.13097936 20.32647569
-6.824460616 -13.27084443 19.23551978
-10.1551954 -12.09413867 19.21607737
-7.855851963 -14.23411782 18.1761029
-1.696625097 -1.048571976 25.34255611
-5.079846003 -3.139517488 24.87399199
-1.690493961 -2.797285147 25.12951362
-11.50017463 -7.107498798 22.06143718
-8.391564921 -5.18627234 23.81591793
-9.862849214 -7.863048353 22.22812388
-1.658362 -6.161557949 24.08171649
-5.044817851 -4.878027213 24.4483385
-1.675851331 -4.518861883 24.69536465
-3.301977078 -7.221403603 23.60782609
-3.38179654 -3.846026156 24.85599619
-6.552470552 -9.193253625 22.24587103
-6.734852685 -5.926724263 23.86570925
-8.202190275 -8.564382364 22.2899644
-4.944431283 -8.239770944 22.9961847
-8.32386637 -6.911517653 23.13394462
-5.01822431 -6.592452912 23.80469469
-21.24920805 -13.13273281 10.34703086
-19.09268867 -11.79993053 13.75419214
-21.7869687 -11.58877727 11.27575326
-19.52861006 -14.26188371 11.00686781
-14.29816622 -8.836752704 19.68022784
-16.79869449 -10.38216416 16.86642787
-15.90087355 -8.011908487 19.28854283
-13.68728551 -10.56341121 18.74182029
-22.78831175 -8.389873914 13.15160857
-19.58680734 -10.2679812 14.69243304
-22.30710817 -10.00329001 12.21559331
-21.65182572 -7.681728054 14.93788648
-20.70224359 -10.94059546 13.02949608
-15.97528196 -16.20930313 12.14878455
-17.32423836 -12.84395752 14.29219129
-17.75781119 -15.29252867 11.61116546
-14.79080512 -15.43957092 13.74108002
-18.43409651 -13.55387583 12.69658197
-19.0904552 -6.207263956 18.23182125
-18.39034097 -9.540091255 16.33634196
-17.50859429 -7.129648683 18.80494188
-20.41652443 -6.951743162 16.6431808
-17.18219085 -8.799937126 17.85044146
-20.02097119 -8.653218275 15.67887595
-12.400363 -13.79857881 16.72590743
-16.12526991 -12.0858021 15.89246196
-13.04770568 -12.2224275 17.74567429
-13.59522072 -14.63380317 15.27568242
-14.93951784 -11.34313476 17.34789208
-15.47775645 -13.7750648 14.82738611
-1.538633109 11.84665211 20.11921333
-4.567254972 10.7244461 20.1752371
-2.46087417 12.75241371 19.11293495
-1.557529496 10.53937505 21.13073222
-10.5942268 8.201592504 19.81804768
-7.565204787 9.50993896 20.06295816
-4.241141096 14.35903384 16.96588185
-5.459386885 11.60346346 19.10919304
-3.368206312 13.59258174 18.05435518
-3.973500015 12.18626986 19.1340607
-1.604806601 7.697580824 22.99226472
-4.641704672 9.390372474 21.1841625
-1.581832685 9.150395276 22.09967424
-3.111851548 9.976062148 21.18207569
-23.43870416 1.162780541 16.36733426
-20.327845 3.306712573 17.91367246
-23.37097771 3.009115843 15.59343855
-22.34385258 0 17.5491952
-13.72127573 6.770025266 19.43434575
-16.98701877 5.161605938 18.85020881
-22.33906442 6.382142622 13.56470246
-20.01501817 5.003365982 16.93966313
-22.96681406 4.769433809 14.62730773
-21.71265653 4.050696136 16.34680694
-19.68970818 -2.237697553 19.45787953
-19.36539402 2.200839871 19.13738387
-21.07249422 -1.142841371 18.58381165
-20.91654597 1.134383705 18.44628105
-7.548259933 16.81064077 12.21334113
-8.892436403 14.44627872 14.38826434
-6.77013488 16.29899253 13.43638146
-9.137331472 16.21164044 11.83947705
-11.50749368 9.066535802 18.6195159
-10.20776995 11.89834371 16.51651873
-9.994786722 9.724817924 18.79025719
-5.135651521 15.08430787 15.79470858
-8.088608756 13.85084011 15.59233229
-5.960266977 15.72061669 14.6368918
-5.753777445 13.77512893 16.89822754
-7.439135981 15.09009206 14.52517812
-12.29360834 14.90166182 11.04789182
-10.52082639 13.83456652 14.03722846
-10.72470601 15.57114081 11.4488556
-9.833624859 15.03928732 12.95141221
-7.007025013 10.9839136 19.03226104
-8.747776952 12.51717593 16.68692398
-8.488603727 10.36592269 18.92939236
-6.379760117 12.40607995 17.98208076
-9.374594709 11.16449698 17.73899272
-7.261884465 13.15790057 16.80183892
-1.69308955 1.046386888 25.2897455
-4.994269606 3.086628366 24.4549583
-1.681351807 2.782157491 24.99361376
-3.400396001 0 25.23862341
-10.86208814 6.71313966 20.83735968
-8.073432932 4.989655958 22.91303445
-9.306776145 7.419725198 20.97488957
-1.640522903 6.095277713 23.82266807
-4.919926287 4.757264785 23.84308548
-1.661872685 4.481169058 24.48937516
-3.224729389 7.052463383 23.05553576
-3.334099845 3.79178199 24.50542842
-6.843892108 -2.100737114 24.76143426
-6.743321254 2.069866825 24.3975655
-5.131166344 -1.056383802 25.06716431
-5.100566674 1.050084065 24.91767647
-6.23022911 8.741142122 21.15184985
-6.489516364 5.710826338 22.99633235
-7.75667658 8.099195688 21.0792531
-4.763179444 7.937719291 22.15319578
-7.931910218 6.586066505 22.04460806
-4.860377459 6.385089138 23.05592463
-18.9264685 11.69720082 9.216002459
-17.40112036 10.75448383 12.53560235
-19.8135731 10.53910201 10.25443073
-17.2246175 12.57926145 9.708273518
-13.34561188 8.248041742 18.36911659
-15.52792244 9.596783843 15.59053199
-14.93123367 7.523339984 18.11232189
-12.64528534 9.759228657 17.31502315
-21.53002997 7.92661777 12.42542799
-18.13317208 9.505942795 13.60203386
-20.69356197 9.279719282 11.33199944
-20.56955633 7.297755855 14.19121424
-19.01803921 10.0505374 11.9694982
-13.95247218 14.15686131 10.61049056
-15.65766149 11.60837982 12.91729475
-15.56010336 13.39992436 10.1741669
-13.10777791 13.68272146 12.17749971
-16.48179445 12.11842388 11.35192354
-18.24268787 5.931612301 17.42218407
-17.12726256 8.884862336 15.21433554
-16.57358566 6.748905209 17.80070462
-19.4645602 6.627603231 15.86715681
-16.07239454 8.231549901 16.69748289
-18.81697087 8.132840047 14.73599604
-11.24447715 12.51235985 15.16682083
-14.70493249 11.02126693 14.49263061
-11.9391786 11.18401567 16.23800995
-12.19806488 13.12991411 13.70582861
-13.71782919 10.41554265 15.92925709
-13.91665058 12.38569454 13.3318774
-13.4298152 -6.132818268 21.72989746
-13.99584056 -2.095170924 22.64574572
-15.02983521 -5.252320901 21.33958206
-11.90553896 -5.195246053 22.76302095
-12.74593604 5.820520103 20.62335773
-13.71566983 2.053229496 22.19241997
-14.36061168 5.01845428 20.3894086
-11.37994294 4.965890571 21.75809768
-18.14829166 -3.318193982 20.23034833
-15.46802068 -1.095232055 22.012868
-16.61642009 -4.309318762 20.83858189
-18.3540197 -1.118479384 20.44357497
-15.36098522 -3.202643671 21.84353664
-8.625510127 -3.187123382 24.27011647
-12.25449486 -1.090232661 23.3562562
-10.28732587 -4.202418211 23.61714718
-8.665864489 -1.071159759 24.42070067
-12.17292944 -3.163014288 23.22548471
-17.66408485 3.229662667 19.69059105
-15.30685338 1.083820408 21.7835074
-16.01507861 4.153366271 20.08444209
-18.18389498 1.108112119 20.25408201
-14.91579719 3.109825494 21.210473
-16.86944229 0 21.22020744
-8.406894841 3.1063451 23.6549855
-12.1245575 1.078672662 23.1086042
-9.923483496 4.05378699 22.78185539
-8.58785711 1.061517517 24.20087323
-11.8189436 3.071034597 22.55009323
-10.44528687 0 23.86435377
-26.10685725 0 -13.73710533
-28.43856664 0 -10.25164792
-26.22045028 1.932688574 -13.07797367
-26.3667425 -1.943471658 -13.15093984
-30.95456299 0 -2.145381809
-30.09806546 0 -6.339394476
-25.23889281 5.530144827 -11.18772594
-28.47141315 1.987238417 -9.531945047
-25.89953653 3.804892119 -12.19783131
-27.42959134 1.963333198 -11.35725352
-25.94973351 -5.685898571 -11.50282261
-28.59469036 -1.99584288 -9.573217027
-26.27173378 -3.859571491 -12.37312399
-27.55840961 -1.972553649 -11.41059087
-26.10685725 0 13.73710533
-28.43856664 0 10.25164792
-26.22045028 1.932688574 13.07797367
-26.3667425 -1.943471658 13.15093984
-30.95456299 0 2.145381809
-30.09806546 0 6.339394476
-25.23889281 5.530144827 11.18772594
-28.47141315 1.987238417 9.531945047
-25.89953653 3.804892119 12.19783131
-27.42959134 1.963333198 11.35725352
-25.94973351 -5.685898571 11.50282261
-28.59469036 -1.99584288 9.573217027
-26.27173378 -3.859571491 12.37312399
-27.55840961 -1.972553649 11.41059087
-21.26902422 11.08710601 -6.852208349
-24.8818068 8.767132038 -5.418385583
-22.31231223 9.900204459 -7.892829412
-21.72574862 11.3630237 -4.958507485
-30.70559611 2.055668132 -1.270472775
-28.37662746 5.795165395 -3.581609185
-30.47108453 2.049828149 -3.391880697
-24.3350732 7.167840285 -10.05663027
-26.06013279 7.354114369 -6.471679502
-23.35016058 8.592317899 -8.971737233
-26.27879592 5.650228607 -9.415964514
-24.18930403 8.703597146 -7.226817761
-22.20514638 11.65053379 -1.036500696
-25.24615306 8.97238994 -3.315295368
-22.04366959 11.55351709 -3.002066167
-23.48379561 10.22923964 -4.178689728
-29.36320779 2.022066326 -7.512882501
-27.89725555 5.756488231 -5.566168505
-30.01967483 2.037164169 -5.493126595
-28.03508037 3.921207841 -8.575657482
-29.40883427 4.001235486 -4.550497392
-27.17572954 5.728866024 -7.52602458
-23.88624385 -12.45140891 -7.695393916
-26.87008372 -9.4677036 -5.85136262
-24.44331561 -10.84575277 -8.646657433
-24.73413231 -12.93647167 -5.645116416
-30.87677303 -2.067128028 -1.27755538
-29.33532343 -5.990953345 -3.702612792
-30.6320293 -2.060655106 -3.409796221
-25.49341963 -7.509028583 -10.53532461
-27.44942857 -7.746170699 -6.81669221
-24.98545383 -9.194067911 -9.600059305
-27.03887306 -5.813653507 -9.688308018
-26.00378062 -9.356467241 -7.768912382
-25.75761233 -13.51443164 -1.202324122
-27.47101972 -9.763099369 -3.607462263
-25.39336537 -13.30915797 -3.458251936
-26.17170663 -11.40005914 -4.656974686
-29.49436249 -2.031098156 -7.546439796
-28.78871143 -5.940436622 -5.744035236
-30.16492209 -2.047020789 -5.519704551
-28.41876874 -3.974873528 -8.693024011
-29.86483382 -4.063276761 -4.621055264
-28.0012748 -5.902897716 -7.754650417
-21.26902422 11.08710601 6.852208349
-24.8818068 8.767132038 5.418385583
-22.31231223 9.900204459 7.892829412
-21.72574862 11.3630237 4.958507485
-30.70559611 2.055668132 1.270472775
-28.37662746 5.795165395 3.581609185
-30.47108453 2.049828149 3.391880697
-29.91998238 4.031114804 0
-24.3350732 7.167840285 10.05663027
-26.06013279 7.354114369 6.471679502
-23.35016058 8.592317899 8.971737233
-26.27879592 5.650228607 9.415964514
-24.18930403 8.703597146 7.226817761
-22.20514638 11.65053379 1.036500696
-25.24615306 8.97238994 3.315295368
-22.04366959 11.55351709 3.002066167
-23.83457849 10.43225441 0
-23.48379561 10.22923964 4.178689728
-29.36320779 2.022066326 7.512882501
-27.89725555 5.756488231 5.566168505
-30.01967483 2.037164169 5.493126595
-28.03508037 3.921207841 8.575657482
-29.40883427 4.001235486 4.550497392
-27.17572954 5.728866024 7.52602458
-27.05740341 7.478482373 -2.295525006
-27.05740341 7.478482373 2.295525006
-28.63671033 5.861840711 -1.206812089
-25.4822089 9.042548458 -1.117720458
-28.63671033 5.861840711 1.206812089
-25.4822089 9.042548458 1.117720458
-23.88624385 -12.45140891 7.695393916
-26.87008372 -9.4677036 5.85136262
-24.44331561 -10.84575277 8.646657433
-24.73413231 -12.93647167 5.645116416
-30.87677303 -2.067128028 1.27755538
-29.33532343 -5.990953345 3.702612792
-30.6320293 -2.060655106 3.409796221
-30.4236251 -4.098970513 0
-25.49341963 -7.509028583 10.53532461
-27.44942857 -7.746170699 6.81669221
