26.812914 -8.077795 13.485849
20.339005 -23.813322 14.717442
29.282587 -18.097634 0.000000
7.270922 -12.138776 24.134629
20.913473 -4.784818 20.667236
13.066159 -18.056987 21.141489
7.013452 -4.334552 25.374909
21.359510 -13.200903 18.243200
7.568653 12.635837 25.122899
21.700878 4.964969 21.445369
14.645574 20.239686 23.697037
7.108013 4.392993 25.717031
23.836623 14.731843 20.358906
15.028679 0.000000 24.316914
31.248492 0.000000 -8.877042
31.248492 0.000000 8.877042
34.656464 9.578811 -5.920031
30.961498 -8.557548 -5.288855
34.656464 9.578811 5.920031
30.961498 -8.557548 5.288855
-25.556785 25.861278 -5.916832
-26.812914 8.077795 -13.485849
-20.339005 23.813322 -14.717442
-34.914896 -35.330886 -8.083395
-28.810516 -8.679603 -14.490565
-25.283912 -29.602920 -18.295611
-7.568653 -12.635837 -25.122899
-21.700878 -4.964969 -21.445369
-14.645574 -20.239686 -23.697037
-7.108013 -4.392993 -25.717031
-23.836623 -14.731843 -20.358906
-7.270922 12.138776 -24.134629
-20.913473 4.784818 -20.667236
-13.066159 18.056987 -21.141489
-7.013452 4.334552 -25.374909
-21.359510 13.200903 -18.243200
-15.028679 0.000000 -24.316914
-25.556785 25.861278 5.916832
-26.812914 8.077795 13.485849
-20.339005 23.813322 14.717442
-29.282587 18.097634 0.000000
-34.914896 -35.330886 8.083395
-28.810516 -8.679603 14.490565
-25.283912 -29.602920 18.295611
-39.058075 -24.139218 0.000000
-7.568653 -12.635837 25.122899
-21.700878 -4.964969 21.445369
-14.645574 -20.239686 23.697037
-7.108013 -4.392993 25.717031
-23.836623 -14.731843 20.358906
-7.270922 12.138776 24.134629
-20.913473 4.784818 20.667236
-13.066159 18.056987 21.141489
-7.013452 4.334552 25.374909
-21.359510 13.200903 18.243200
-15.028679 0.000000 24.316914
-31.248492 0.000000 -8.877042
-31.248492 0.000000 8.877042
-30.961498 8.557548 -5.288855
-34.656464 -9.578811 -5.920031
-30.961498 8.557548 5.288855
-34.656464 -9.578811 5.920031
-16.915356 38.373819 0.000000
-6.225435 44.695997 0.000000
21.285698 48.288286 0.000000
6.824669 48.998245 0.000000
-21.285698 -48.288286 0.000000
-6.824669 -48.998245 0.000000
16.915356 -38.373819 0.000000
6.225435 -44.695997 0.000000
-25.693715 -45.873942 6.958578
-17.112609 -38.506779 17.503885
-18.445772 -47.593918 6.779145
-2.462073 -18.693116 23.800306
-8.557456 -27.382995 21.902906
-3.919737 -47.073965 6.342268
-10.424127 -38.914380 16.866591
-10.947270 -48.062435 6.604283
-14.580170 -44.343908 12.780939
19.552462 -34.909258 5.295355
13.878283 -31.228902 14.195607
14.903681 -38.454588 5.477364
2.413925 -18.327560 23.334877
7.798326 -24.953856 19.959905
0.000000 -22.254583 22.519732
3.700286 -44.438473 5.987189
9.042077 -33.755043 14.630389
9.482023 -41.629478 5.720327
0.000000 -41.978056 11.602449
12.054012 -36.660888 10.566515
-5.960217 -32.011120 19.783960
5.523949 -29.668016 18.335842
-2.794328 -26.868339 21.359542
-3.371843 -37.394309 16.367269
2.706998 -26.028638 20.692004
3.208176 -35.579214 15.572812
-19.552462 34.909258 5.295355
-13.878283 31.228902 14.195607
-14.903681 38.454588 5.477364
-2.413925 18.327560 23.334877
-7.798326 24.953856 19.959905
-3.700286 44.438473 5.987189
-9.042077 33.755043 14.630389
-9.482023 41.629478 5.720327
-12.054012 36.660888 10.566515
25.693715 45.873942 6.958578
17.112609 38.506779 17.503885
18.445772 47.593918 6.779145
2.462073 18.693116 23.800306
8.557456 27.382995 21.902906
0.000000 22.254583 22.519732
3.919737 47.073965 6.342268
10.424127 38.914380 16.866591
10.947270 48.062435 6.604283
0.000000 41.978056 11.602449
14.580170 44.343908 12.780939
-5.523949 29.668016 18.335842
5.960217 32.011120 19.783960
-2.706998 26.028638 20.692004
-3.208176 35.579214 15.572812
2.794328 26.868339 21.359542
3.371843 37.394309 16.367269
0.000000 -11.066748 25.105790
0.000000 -3.600519 25.850206
0.000000 11.066748 25.105790
0.000000 3.600519 25.850206
-25.693715 -45.873942 -6.958578
-17.112609 -38.506779 -17.503885
-18.445772 -47.593918 -6.779145
-2.462073 -18.693116 -23.800306
-8.557456 -27.382995 -21.902906
-3.919737 -47.073965 -6.342268
-10.424127 -38.914380 -16.866591
-10.947270 -48.062435 -6.604283
-14.580170 -44.343908 -12.780939
19.552462 -34.909258 -5.295355
13.878283 -31.228902 -14.195607
14.903681 -38.454588 -5.477364
2.413925 -18.327560 -23.334877
7.798326 -24.953856 -19.959905
0.000000 -22.254583 -22.519732
3.700286 -44.438473 -5.987189
9.042077 -33.755043 -14.630389
9.482023 -41.629478 -5.720327
0.000000 -41.978056 -11.602449
12.054012 -36.660888 -10.566515
-5.960217 -32.011120 -19.783960
5.523949 -29.668016 -18.335842
-2.794328 -26.868339 -21.359542
-3.371843 -37.394309 -16.367269
2.706998 -26.028638 -20.692004
3.208176 -35.579214 -15.572812
-19.552462 34.909258 -5.295355
-13.878283 31.228902 -14.195607
-14.903681 38.454588 -5.477364
-2.413925 18.327560 -23.334877
-7.798326 24.953856 -19.959905
-3.700286 44.438473 -5.987189
-9.042077 33.755043 -14.630389
-9.482023 41.629478 -5.720327
-12.054012 36.660888 -10.566515
25.693715 45.873942 -6.958578
17.112609 38.506779 -17.503885
18.445772 47.593918 -6.779145
2.462073 18.693116 -23.800306
8.557456 27.382995 -21.902906
0.000000 22.254583 -22.519732
3.919737 47.073965 -6.342268
10.424127 38.914380 -16.866591
10.947270 48.062435 -6.604283
0.000000 41.978056 -11.602449
14.580170 44.343908 -12.780939
-5.523949 29.668016 -18.335842
5.960217 32.011120 -19.783960
-2.706998 26.028638 -20.692004
-3.208176 35.579214 -15.572812
2.794328 26.868339 -21.359542
3.371843 37.394309 -16.367269
0.000000 -11.066748 -25.105790
0.000000 -3.600519 -25.850206
0.000000 11.066748 -25.105790
0.000000 3.600519 -25.850206
33.873047 43.127583 -4.461424
33.469962 26.771704 -10.459693
29.318905 40.681908 -10.933180
27.504442 4.172125 -15.405070
30.214415 13.734455 -13.427440
19.432388 32.442298 -20.050443
29.138150 24.786391 -15.318832
24.432154 37.087019 -16.386184
29.979066 32.521172 -13.706794
23.962428 -30.509260 -3.156095
26.404226 -21.120016 -8.251581
21.872963 -30.350175 -8.156548
26.587892 -4.033094 -14.891716
26.896404 -12.226199 -11.952899
15.798302 -26.375206 -16.300774
24.001734 -20.417095 -12.618458
18.951837 -28.768120 -12.710639
23.290208 -25.265125 -10.648566
3.687533 -13.615772 -24.309802
10.823385 -10.581443 -23.810354
6.232721 -16.713943 -23.191694
3.565928 -9.702741 -25.035086
23.704163 -2.452127 -18.617603
17.772134 -6.943565 -22.218707
24.089412 -6.473980 -17.360916
12.083018 -22.983265 -19.550733
13.804539 -13.379014 -22.336213
9.105922 -19.916185 -21.604999
16.757966 -21.106052 -18.418787
10.109497 -15.073478 -22.880929
3.476514 -2.148604 -25.803590
10.648412 -6.581080 -24.567878
3.508214 -5.815221 -25.530902
7.168685 -8.177853 -24.871998
24.314328 -15.027081 -14.563871
17.994321 -11.121102 -21.153593
24.295107 -10.734324 -16.005109
21.034278 -18.356151 -16.700978
21.201414 -8.935822 -19.544148
17.476725 -15.900850 -20.026545
3.771099 13.924331 -24.860708
11.407268 11.152274 -25.094838
6.538191 17.533107 -24.328339
3.620840 9.852156 -25.420608
24.159766 2.499258 -18.975441
18.712903 7.311123 -23.394856
25.373706 6.819132 -18.286490
21.364375 0.000000 -21.112829
13.861161 26.365495 -22.427829
15.048573 14.584700 -24.349102
9.928596 21.715512 -23.556901
19.878533 25.036293 -21.848622
10.859032 16.191052 -24.577360
3.487817 2.155590 -25.887487
10.988275 6.791127 -25.352006
3.539680 5.867380 -25.759900
7.094641 0.000000 -25.668651
7.359101 8.395074 -25.532652
27.768331 17.161772 -16.632761
19.611562 12.120612 -23.054774
26.583305 11.745320 -17.512526
24.703751 21.558420 -19.614499
22.768690 9.596387 -20.988914
19.835023 18.046500 -22.728914
14.755137 -4.445208 -23.874313
15.181623 4.573693 -24.564383
18.133668 -2.372308 -22.810487
10.960200 -2.257925 -25.040776
18.449233 2.413591 -23.207439
11.079713 2.282546 -25.313828
33.873047 43.127583 4.461424
33.469962 26.771704 10.459693
29.318905 40.681908 10.933180
38.771534 39.233473 0.000000
27.504442 4.172125 15.405070
30.214415 13.734455 13.427440
19.432388 32.442298 20.050443
29.138150 24.786391 15.318832
24.432154 37.087019 16.386184
29.979066 32.521172 13.706794
36.134165 22.332142 -6.727895
36.134165 22.332142 6.727895
38.485649 30.594962 -4.002537
38.485649 30.594962 4.002537
23.962428 -30.509260 3.156095
26.404226 -21.120016 8.251581
21.872963 -30.350175 8.156548
26.317432 -26.630988 0.000000
26.587892 -4.033094 14.891716
26.896404 -12.226199 11.952899
15.798302 -26.375206 16.300774
24.001734 -20.417095 12.618458
18.951837 -28.768120 12.710639
23.290208 -25.265125 10.648566
28.590779 -17.670073 -5.323377
28.590779 -17.670073 5.323377
27.795010 -22.096218 -2.890702
27.795010 -22.096218 2.890702
3.687533 -13.615772 24.309802
10.823385 -10.581443 23.810354
6.232721 -16.713943 23.191694
3.565928 -9.702741 25.035086
23.704163 -2.452127 18.617603
17.772134 -6.943565 22.218707
24.089412 -6.473980 17.360916
12.083018 -22.983265 19.550733
13.804539 -13.379014 22.336213
9.105922 -19.916185 21.604999
16.757966 -21.106052 18.418787
10.109497 -15.073478 22.880929
3.476514 -2.148604 25.803590
10.648412 -6.581080 24.567878
3.508214 -5.815221 25.530902
7.168685 -8.177853 24.871998
24.314328 -15.027081 14.563871
17.994321 -11.121102 21.153593
24.295107 -10.734324 16.005109
21.034278 -18.356151 16.700978
21.201414 -8.935822 19.544148
17.476725 -15.900850 20.026545
3.771099 13.924331 24.860708
11.407268 11.152274 25.094838
6.538191 17.533107 24.328339
3.620840 9.852156 25.420608
24.159766 2.499258 18.975441
18.712903 7.311123 23.394856
25.373706 6.819132 18.286490
21.364375 0.000000 21.112829
13.861161 26.365495 22.427829
15.048573 14.584700 24.349102
9.928596 21.715512 23.556901
19.878533 25.036293 21.848622
10.859032 16.191052 24.577360
3.487817 2.155590 25.887487
10.988275 6.791127 25.352006
3.539680 5.867380 25.759900
7.094641 0.000000 25.668651
7.359101 8.395074 25.532652
27.768331 17.161772 16.632761
19.611562 12.120612 23.054774
26.583305 11.745320 17.512526
24.703751 21.558420 19.614499
22.768690 9.596387 20.988914
19.835023 18.046500 22.728914
14.755137 -4.445208 23.874313
15.181623 4.573693 24.564383
18.133668 -2.372308 22.810487
10.960200 -2.257925 25.040776
18.449233 2.413591 23.207439
11.079713 2.282546 25.313828
28.850124 0.000000 -12.717267
33.182566 0.000000 -4.621799
30.239633 4.307249 -11.719846
29.050134 -4.137820 -11.258836
28.850124 0.000000 12.717267
33.182566 0.000000 4.621799
30.239633 4.307249 11.719846
29.050134 -4.137820 11.258836
33.617098 14.570600 -9.005126
34.754399 4.682455 -2.893916
31.843037 9.177899 -10.469914
37.034464 16.209766 -3.339396
32.879192 4.517946 -7.488954
29.033099 -12.583765 -7.777194
32.643460 -4.398049 -2.718144
29.135108 -8.397412 -9.579553
30.387858 -13.300586 -2.740071
31.239937 -4.292695 -7.115578
33.617098 14.570600 9.005126
34.754399 4.682455 2.893916
31.843037 9.177899 10.469914
37.034464 16.209766 3.339396
32.879192 4.517946 7.488954
36.346981 10.046058 0.000000
29.033099 -12.583765 7.777194
32.643460 -4.398049 2.718144
29.135108 -8.397412 9.579553
30.387858 -13.300586 2.740071
31.239937 -4.292695 7.115578
31.794357 -8.787744 0.000000
-23.962428 30.509260 -3.156095
-26.404226 21.120016 -8.251581
-21.872963 30.350175 -8.156548
-26.587892 4.033094 -14.891716
-26.896404 12.226199 -11.952899
-15.798302 26.375206 -16.300774
-24.001734 20.417095 -12.618458
-18.951837 28.768120 -12.710639
-23.290208 25.265125 -10.648566
-33.873047 -43.127583 -4.461424
-33.469962 -26.771704 -10.459693
-29.318905 -40.681908 -10.933180
-27.504442 -4.172125 -15.405070
-30.214415 -13.734455 -13.427440
-19.432388 -32.442298 -20.050443
-29.138150 -24.786391 -15.318832
-24.432154 -37.087019 -16.386184
-29.979066 -32.521172 -13.706794
-3.771099 -13.924331 -24.860708
-11.407268 -11.152274 -25.094838
-6.538191 -17.533107 -24.328339
-3.620840 -9.852156 -25.420608
-24.159766 -2.499258 -18.975441
-18.712903 -7.311123 -23.394856
-25.373706 -6.819132 -18.286490
-13.861161 -26.365495 -22.427829
-15.048573 -14.584700 -24.349102
-9.928596 -21.715512 -23.556901
-19.878533 -25.036293 -21.848622
-10.859032 -16.191052 -24.577360
-3.487817 -2.155590 -25.887487
-10.988275 -6.791127 -25.352006
-3.539680 -5.867380 -25.759900
-7.359101 -8.395074 -25.532652
-27.768331 -17.161772 -16.632761
-19.611562 -12.120612 -23.054774
-26.583305 -11.745320 -17.512526
-24.703751 -21.558420 -19.614499
-22.768690 -9.596387 -20.988914
-19.835023 -18.046500 -22.728914
-3.687533 13.615772 -24.309802
-10.823385 10.581443 -23.810354
-6.232721 16.713943 -23.191694
-3.565928 9.702741 -25.035086
-23.704163 2.452127 -18.617603
-17.772134 6.943565 -22.218707
-24.089412 6.473980 -17.360916
-21.364375 0.000000 -21.112829
-12.083018 22.983265 -19.550733
-13.804539 13.379014 -22.336213
-9.105922 19.916185 -21.604999
-16.757966 21.106052 -18.418787
-10.109497 15.073478 -22.880929
-3.476514 2.148604 -25.803590
-10.648412 6.581080 -24.567878
-3.508214 5.815221 -25.530902
-7.094641 0.000000 -25.668651
-7.168685 8.177853 -24.871998
-24.314328 15.027081 -14.563871
-17.994321 11.121102 -21.153593
-24.295107 10.734324 -16.005109
-21.034278 18.356151 -16.700978
-21.201414 8.935822 -19.544148
-17.476725 15.900850 -20.026545
-15.181623 -4.573693 -24.564383
-14.755137 4.445208 -23.874313
-18.449233 -2.413591 -23.207439
-11.079713 -2.282546 -25.313828
-18.133668 2.372308 -22.810487
-10.960200 2.257925 -25.040776
-23.962428 30.509260 3.156095
-26.404226 21.120016 8.251581
-21.872963 30.350175 8.156548
-26.317432 26.630988 0.000000
-26.587892 4.033094 14.891716
-26.896404 12.226199 11.952899
-15.798302 26.375206 16.300774
-24.001734 20.417095 12.618458
-18.951837 28.768120 12.710639
-23.290208 25.265125 10.648566
-28.590779 17.670073 -5.323377
-28.590779 17.670073 5.323377
-27.795010 22.096218 -2.890702
-27.795010 22.096218 2.890702
-33.873047 -43.127583 4.461424
-33.469962 -26.771704 10.459693
-29.318905 -40.681908 10.933180
-38.771534 -39.233473 0.000000
-27.504442 -4.172125 15.405070
-30.214415 -13.734455 13.427440
-19.432388 -32.442298 20.050443
-29.138150 -24.786391 15.318832
-24.432154 -37.087019 16.386184
-29.979066 -32.521172 13.706794
-36.134165 -22.332142 -6.727895
-36.134165 -22.332142 6.727895
-38.485649 -30.594962 -4.002537
-38.485649 -30.594962 4.002537
-3.771099 -13.924331 24.860708
-11.407268 -11.152274 25.094838
-6.538191 -17.533107 24.328339
-3.620840 -9.852156 25.420608
-24.159766 -2.499258 18.975441
-18.712903 -7.311123 23.394856
-25.373706 -6.819132 18.286490
-13.861161 -26.365495 22.427829
-15.048573 -14.584700 24.349102
-9.928596 -21.715512 23.556901
-19.878533 -25.036293 21.848622
-10.859032 -16.191052 24.577360
-3.487817 -2.155590 25.887487
-10.988275 -6.791127 25.352006
-3.539680 -5.867380 25.759900
-7.359101 -8.395074 25.532652
-27.768331 -17.161772 16.632761
-19.611562 -12.120612 23.054774
-26.583305 -11.745320 17.512526
-24.703751 -21.558420 19.614499
-22.768690 -9.596387 20.988914
-19.835023 -18.046500 22.728914
-3.687533 13.615772 24.309802
-10.823385 10.581443 23.810354
-6.232721 16.713943 23.191694
-3.565928 9.702741 25.035086
-23.704163 2.452127 18.617603
-17.772134 6.943565 22.218707
-24.089412 6.473980 17.360916
-21.364375 0.000000 21.112829
-12.083018 22.983265 19.550733
-13.804539 13.379014 22.336213
-9.105922 19.916185 21.604999
-16.757966 21.106052 18.418787
-10.109497 15.073478 22.880929
-3.476514 2.148604 25.803590
-10.648412 6.581080 24.567878
-3.508214 5.815221 25.530902
-7.094641 0.000000 25.668651
-7.168685 8.177853 24.871998
-24.314328 15.027081 14.563871
-17.994321 11.121102 21.153593
-24.295107 10.734324 16.005109
-21.034278 18.356151 16.700978
-21.201414 8.935822 19.544148
-17.476725 15.900850 20.026545
-15.181623 -4.573693 24.564383
-14.755137 4.445208 23.874313
-18.449233 -2.413591 23.207439
-11.079713 -2.282546 25.313828
-18.133668 2.372308 22.810487
-10.960200 2.257925 25.040776
-28.850124 0.000000 -12.717267
-33.182566 0.000000 -4.621799
-29.050134 4.137820 -11.258836
-30.239633 -4.307249 -11.719846
-28.850124 0.000000 12.717267
-33.182566 0.000000 4.621799
-29.050134 4.137820 11.258836
-30.239633 -4.307249 11.719846
-29.033099 12.583765 -7.777194
-32.643460 4.398049 -2.718144
-29.135108 8.397412 -9.579553
-30.387858 13.300586 -2.740071
-31.239937 4.292695 -7.115578
-33.617098 -14.570600 -9.005126
-34.754399 -4.682455 -2.893916
-31.843037 -9.177899 -10.469914
-37.034464 -16.209766 -3.339396
-32.879192 -4.517946 -7.488954
-29.033099 12.583765 7.777194
-32.643460 4.398049 2.718144
-29.135108 8.397412 9.579553
-30.387858 13.300586 2.740071
-31.239937 4.292695 7.115578
-31.794357 8.787744 0.000000
-33.617098 -14.570600 9.005126
-34.754399 -4.682455 2.893916
-31.843037 -9.177899 10.469914
-37.034464 -16.209766 3.339396
-32.879192 -4.517946 7.488954
-36.346981 -10.046058 0.000000
-19.224392 36.535242 0.000000
-14.444335 40.069283 0.000000
-3.194353 46.089610 0.000000
-9.101827 43.213494 0.000000
25.007755 47.526306 0.000000
17.616125 48.867982 0.000000
3.349569 48.329130 0.000000
10.381978 49.291371 0.000000
-25.007755 -47.526306 0.000000
-17.616125 -48.867982 0.000000
-3.349569 -48.329130 0.000000
-10.381978 -49.291371 0.000000
19.224392 -36.535242 0.000000
14.444335 -40.069283 0.000000
3.194353 -46.089610 0.000000
9.101827 -43.213494 0.000000
-27.392412 -46.520635 3.557703
-23.789866 -44.754404 10.131468
-23.684108 -47.485031 3.500084
-14.756167 -35.656296 19.060954
-19.470732 -41.077076 15.489066
-16.317324 -48.738981 3.401867
-20.283781 -45.759091 10.026367
-19.966976 -48.223455 3.451700
-22.080632 -46.883590 6.887652
-1.196383 -16.840324 24.116045
-3.812009 -20.651051 23.434132
-10.444618 -29.982802 21.168826
-6.838025 -24.972498 22.504169
-1.969386 -47.597367 3.186533
-5.785868 -45.840682 9.361730
-5.390338 -48.424294 3.257563
-11.570596 -35.914741 18.721618
-9.069538 -41.648288 14.674820
-13.751089 -38.873081 17.248389
-12.534924 -48.991259 3.373731
-9.253284 -46.376824 9.569674
-8.947535 -48.897851 3.318255
-14.682909 -48.000579 6.713740
-7.387251 -47.742130 6.495582
-18.176262 -43.982990 12.955089
-11.008277 -44.328085 12.509292
-16.009126 -41.665918 15.332092
-16.599409 -46.326902 9.960791
-12.493805 -41.818746 15.046879
-12.886001 -46.530072 9.808920
20.570882 -34.935605 2.671729
18.315825 -34.456429 7.800220
18.399464 -36.889677 2.719109
12.320343 -29.770455 15.914532
15.424302 -32.540390 12.270111
13.500907 -40.326491 2.814695
16.038657 -36.182325 7.927982
16.014973 -38.678733 2.768515
17.312155 -36.758730 5.400213
1.185984 -16.693946 23.906426
3.686970 -19.973665 22.665457
0.000000 -18.525480 23.586870
9.266493 -26.600821 18.781039
6.378113 -23.292898 20.990584
-2.589196 -22.514334 22.782578
2.525508 -21.960535 22.222181
-1.258906 -20.471138 23.212565
1.244933 -20.243933 22.954933
1.913613 -46.249409 3.096290
5.311978 -42.086113 8.594960
4.999770 -44.915618 3.021530
0.000000 -45.888744 6.182584
9.971489 -30.951165 16.134208
7.969469 -36.596657 12.894872
11.504453 -32.522045 14.430369
10.735143 -41.957030 2.889327
8.130255 -40.748280 8.408246
7.953083 -43.463221 2.949456
12.258895 -40.076123 5.605363
6.663505 -43.064722 5.859195
-3.656165 -43.095299 11.911248
3.455740 -40.732885 11.258293
-1.887710 -44.793894 9.169163
1.833186 -43.500079 8.904324
14.548398 -35.204271 10.369338
9.450284 -38.054365 10.738861
13.051645 -33.968674 12.499685
13.532363 -37.767157 8.120352
10.550719 -35.314929 12.706728
10.879454 -39.284630 8.281521
-9.159206 -32.453041 20.057082
-2.913688 -31.492722 19.463573
-7.315027 -29.720123 20.932395
-8.078250 -35.394930 18.512293
8.177258 -28.973787 17.906785
2.804771 -30.315488 18.736002
6.709939 -27.261719 19.200898
7.251663 -31.773233 16.618070
-4.068517 -24.804917 22.252057
-1.438591 -28.913976 20.317297
-5.616057 -27.157577 21.655107
-1.339676 -24.486602 21.983805
-4.303303 -29.350554 20.640129
-5.356483 -40.789908 14.496583
-1.590315 -34.069617 17.875551
-6.801857 -38.225716 16.650631
-1.748398 -39.860636 14.144839
-4.733730 -34.758989 18.217864
3.899920 -23.777010 21.329940
1.413257 -28.404790 19.959502
5.275918 -25.512770 20.343558
1.320846 -24.142426 21.674808
4.085002 -27.861637 19.593082
0.000000 -26.467776 21.041105
4.944092 -37.649525 13.380503
1.554868 -33.310228 17.477117
6.173526 -34.694564 15.112506
1.701505 -38.791556 13.765468
4.434337 -32.560595 17.065643
0.000000 -36.517020 15.983284
-20.570882 34.935605 2.671729
-18.315825 34.456429 7.800220
-18.399464 36.889677 2.719109
-12.320343 29.770455 15.914532
-15.424302 32.540390 12.270111
-13.500907 40.326491 2.814695
-16.038657 36.182325 7.927982
-16.014973 38.678733 2.768515
-17.312155 36.758730 5.400213
-1.185984 16.693946 23.906426
-3.686970 19.973665 22.665457
-9.266493 26.600821 18.781039
-6.378113 23.292898 20.990584
-1.913613 46.249409 3.096290
-5.311978 42.086113 8.594960
-4.999770 44.915618 3.021530
-9.971489 30.951165 16.134208
-7.969469 36.596657 12.894872
-11.504453 32.522045 14.430369
-10.735143 41.957030 2.889327
-8.130255 40.748280 8.408246
-7.953083 43.463221 2.949456
-12.258895 40.076123 5.605363
-6.663505 43.064722 5.859195
-14.548398 35.204271 10.369338
-9.450284 38.054365 10.738861
-13.051645 33.968674 12.499685
-13.532363 37.767157 8.120352
-10.550719 35.314929 12.706728
-10.879454 39.284630 8.281521
27.392412 46.520635 3.557703
23.789866 44.754404 10.131468
23.684108 47.485031 3.500084
14.756167 35.656296 19.060954
19.470732 41.077076 15.489066
16.317324 48.738981 3.401867
20.283781 45.759091 10.026367
19.966976 48.223455 3.451700
22.080632 46.883590 6.887652
1.196383 16.840324 24.116045
3.812009 20.651051 23.434132
0.000000 18.525480 23.586870
10.444618 29.982802 21.168826
6.838025 24.972498 22.504169
-2.525508 21.960535 22.222181
2.589196 22.514334 22.782578
-1.244933 20.243933 22.954933
1.258906 20.471138 23.212565
1.969386 47.597367 3.186533
5.785868 45.840682 9.361730
5.390338 48.424294 3.257563
0.000000 45.888744 6.182584
11.570596 35.914741 18.721618
9.069538 41.648288 14.674820
13.751089 38.873081 17.248389
12.534924 48.991259 3.373731
9.253284 46.376824 9.569674
8.947535 48.897851 3.318255
14.682909 48.000579 6.713740
7.387251 47.742130 6.495582
-3.455740 40.732885 11.258293
3.656165 43.095299 11.911248
-1.833186 43.500079 8.904324
1.887710 44.793894 9.169163
18.176262 43.982990 12.955089
11.008277 44.328085 12.509292
16.009126 41.665918 15.332092
16.599409 46.326902 9.960791
12.493805 41.818746 15.046879
12.886001 46.530072 9.808920
-8.177258 28.973787 17.906785
-2.804771 30.315488 18.736002
-6.709939 27.261719 19.200898
-7.251663 31.773233 16.618070
9.159206 32.453041 20.057082
2.913688 31.492722 19.463573
7.315027 29.720123 20.932395
8.078250 35.394930 18.512293
-3.899920 23.777010 21.329940
-1.413257 28.404790 19.959502
-5.275918 25.512770 20.343558
-1.320846 24.142426 21.674808
-4.085002 27.861637 19.593082
-4.944092 37.649525 13.380503
-1.554868 33.310228 17.477117
-6.173526 34.694564 15.112506
-1.701505 38.791556 13.765468
-4.434337 32.560595 17.065643
4.068517 24.804917 22.252057
1.438591 28.913976 20.317297
5.616057 27.157577 21.655107
1.339676 24.486602 21.983805
4.303303 29.350554 20.640129
0.000000 26.467776 21.041105
5.356483 40.789908 14.496583
1.590315 34.069617 17.875551
6.801857 38.225716 16.650631
1.748398 39.860636 14.144839
4.733730 34.758989 18.217864
0.000000 36.517020 15.983284
0.000000 -13.039409 24.780912
0.000000 -9.145588 25.370302
0.000000 -1.796185 25.916186
0.000000 -5.421233 25.738835
0.000000 13.039409 24.780912
0.000000 9.145588 25.370302
0.000000 1.796185 25.916186
0.000000 5.421233 25.738835
-27.392412 -46.520635 -3.557703
-23.789866 -44.754404 -10.131468
-23.684108 -47.485031 -3.500084
-14.756167 -35.656296 -19.060954
-19.470732 -41.077076 -15.489066
-16.317324 -48.738981 -3.401867
-20.283781 -45.759091 -10.026367
-19.966976 -48.223455 -3.451700
-22.080632 -46.883590 -6.887652
-1.196383 -16.840324 -24.116045
-3.812009 -20.651051 -23.434132
-10.444618 -29.982802 -21.168826
-6.838025 -24.972498 -22.504169
-1.969386 -47.597367 -3.186533
-5.785868 -45.840682 -9.361730
-5.390338 -48.424294 -3.257563
-11.570596 -35.914741 -18.721618
-9.069538 -41.648288 -14.674820
-13.751089 -38.873081 -17.248389
-12.534924 -48.991259 -3.373731
-9.253284 -46.376824 -9.569674
-8.947535 -48.897851 -3.318255
-14.682909 -48.000579 -6.713740
-7.387251 -47.742130 -6.495582
-18.176262 -43.982990 -12.955089
-11.008277 -44.328085 -12.509292
-16.009126 -41.665918 -15.332092
-16.599409 -46.326902 -9.960791
-12.493805 -41.818746 -15.046879
-12.886001 -46.530072 -9.808920
20.570882 -34.935605 -2.671729
18.315825 -34.456429 -7.800220
18.399464 -36.889677 -2.719109
12.320343 -29.770455 -15.914532
15.424302 -32.540390 -12.270111
13.500907 -40.326491 -2.814695
16.038657 -36.182325 -7.927982
16.014973 -38.678733 -2.768515
17.312155 -36.758730 -5.400213
1.185984 -16.693946 -23.906426
3.686970 -19.973665 -22.665457
0.000000 -18.525480 -23.586870
9.266493 -26.600821 -18.781039
6.378113 -23.292898 -20.990584
-2.589196 -22.514334 -22.782578
2.525508 -21.960535 -22.222181
-1.258906 -20.471138 -23.212565
1.244933 -20.243933 -22.954933
1.913613 -46.249409 -3.096290
5.311978 -42.086113 -8.594960
4.999770 -44.915618 -3.021530
0.000000 -45.888744 -6.182584
9.971489 -30.951165 -16.134208
7.969469 -36.596657 -12.894872
11.504453 -32.522045 -14.430369
10.735143 -41.957030 -2.889327
8.130255 -40.748280 -8.408246
7.953083 -43.463221 -2.949456
12.258895 -40.076123 -5.605363
6.663505 -43.064722 -5.859195
-3.656165 -43.095299 -11.911248
3.455740 -40.732885 -11.258293
-1.887710 -44.793894 -9.169163
1.833186 -43.500079 -8.904324
14.548398 -35.204271 -10.369338
9.450284 -38.054365 -10.738861
13.051645 -33.968674 -12.499685
13.532363 -37.767157 -8.120352
10.550719 -35.314929 -12.706728
10.879454 -39.284630 -8.281521
-9.159206 -32.453041 -20.057082
-2.913688 -31.492722 -19.463573
-7.315027 -29.720123 -20.932395
-8.078250 -35.394930 -18.512293
8.177258 -28.973787 -17.906785
2.804771 -30.315488 -18.736002
6.709939 -27.261719 -19.200898
7.251663 -31.773233 -16.618070
-4.068517 -24.804917 -22.252057
-1.438591 -28.913976 -20.317297
-5.616057 -27.157577 -21.655107
-1.339676 -24.486602 -21.983805
-4.303303 -29.350554 -20.640129
-5.356483 -40.789908 -14.496583
-1.590315 -34.069617 -17.875551
-6.801857 -38.225716 -16.650631
-1.748398 -39.860636 -14.144839
-4.733730 -34.758989 -18.217864
3.899920 -23.777010 -21.329940
1.413257 -28.404790 -19.959502
5.275918 -25.512770 -20.343558
1.320846 -24.142426 -21.674808
4.085002 -27.861637 -19.593082
0.000000 -26.467776 -21.041105
4.944092 -37.649525 -13.380503
1.554868 -33.310228 -17.477117
6.173526 -34.694564 -15.112506
1.701505 -38.791556 -13.765468
4.434337 -32.560595 -17.065643
0.000000 -36.517020 -15.983284
-20.570882 34.935605 -2.671729
-18.315825 34.456429 -7.800220
-18.399464 36.889677 -2.719109
-12.320343 29.770455 -15.914532
-15.424302 32.540390 -12.270111
-13.500907 40.326491 -2.814695
-16.038657 36.182325 -7.927982
-16.014973 38.678733 -2.768515
-17.312155 36.758730 -5.400213
-1.185984 16.693946 -23.906426
-3.686970 19.973665 -22.665457
-9.266493 26.600821 -18.781039
-6.378113 23.292898 -20.990584
-1.913613 46.249409 -3.096290
-5.311978 42.086113 -8.594960
-4.999770 44.915618 -3.021530
-9.971489 30.951165 -16.134208
-7.969469 36.596657 -12.894872
-11.504453 32.522045 -14.430369
-10.735143 41.957030 -2.889327
-8.130255 40.748280 -8.408246
-7.953083 43.463221 -2.949456
-12.258895 40.076123 -5.605363
-6.663505 43.064722 -5.859195
-14.548398 35.204271 -10.369338
-9.450284 38.054365 -10.738861
-13.051645 33.968674 -12.499685
-13.532363 37.767157 -8.120352
-10.550719 35.314929 -12.706728
-10.879454 39.284630 -8.281521
27.392412 46.520635 -3.557703
23.789866 44.754404 -10.131468
23.684108 47.485031 -3.500084
14.756167 35.656296 -19.060954
19.470732 41.077076 -15.489066
16.317324 48.738981 -3.401867
20.283781 45.759091 -10.026367
19.966976 48.223455 -3.451700
22.080632 46.883590 -6.887652
1.196383 16.840324 -24.116045
3.812009 20.651051 -23.434132
0.000000 18.525480 -23.586870
10.444618 29.982802 -21.168826
6.838025 24.972498 -22.504169
-2.525508 21.960535 -22.222181
2.589196 22.514334 -22.782578
-1.244933 20.243933 -22.954933
1.258906 20.471138 -23.212565
1.969386 47.597367 -3.186533
5.785868 45.840682 -9.361730
5.390338 48.424294 -3.257563
0.000000 45.888744 -6.182584
11.570596 35.914741 -18.721618
9.069538 41.648288 -14.674820
13.751089 38.873081 -17.248389
12.534924 48.991259 -3.373731
9.253284 46.376824 -9.569674
8.947535 48.897851 -3.318255
14.682909 48.000579 -6.713740
7.387251 47.742130 -6.495582
-3.455740 40.732885 -11.258293
3.656165 43.095299 -11.911248
-1.833186 43.500079 -8.904324
1.887710 44.793894 -9.169163
18.176262 43.982990 -12.955089
11.008277 44.328085 -12.509292
16.009126 41.665918 -15.332092
16.599409 46.326902 -9.960791
12.493805 41.818746 -15.046879
12.886001 46.530072 -9.808920
-8.177258 28.973787 -17.906785
-2.804771 30.315488 -18.736002
-6.709939 27.261719 -19.200898
-7.251663 31.773233 -16.618070
9.159206 32.453041 -20.057082
2.913688 31.492722 -19.463573
7.315027 29.720123 -20.932395
8.078250 35.394930 -18.512293
-3.899920 23.777010 -21.329940
-1.413257 28.404790 -19.959502
-5.275918 25.512770 -20.343558
-1.320846 24.142426 -21.674808
-4.085002 27.861637 -19.593082
-4.944092 37.649525 -13.380503
-1.554868 33.310228 -17.477117
-6.173526 34.694564 -15.112506
-1.701505 38.791556 -13.765468
-4.434337 32.560595 -17.065643
4.068517 24.804917 -22.252057
1.438591 28.913976 -20.317297
5.616057 27.157577 -21.655107
1.339676 24.486602 -21.983805
4.303303 29.350554 -20.640129
0.000000 26.467776 -21.041105
5.356483 40.789908 -14.496583
1.590315 34.069617 -17.875551
6.801857 38.225716 -16.650631
1.748398 39.860636 -14.144839
4.733730 34.758989 -18.217864
0.000000 36.517020 -15.983284
0.000000 -13.039409 -24.780912
0.000000 -9.145588 -25.370302
0.000000 -1.796185 -25.916186
0.000000 -5.421233 -25.738835
0.000000 13.039409 -24.780912
0.000000 9.145588 -25.370302
0.000000 1.796185 -25.916186
0.000000 5.421233 -25.738835
31.654864 45.331083 -2.248849
34.941194 39.650115 -6.449849
29.886480 44.792959 -5.767290
32.607120 23.021680 -11.358809
34.296145 30.906250 -9.391046
25.681385 42.293454 -12.082997
32.440714 38.330247 -9.581818
27.840951 43.713987 -9.077923
31.659031 42.051127 -7.845025
26.870129 2.054915 -15.821745
28.148815 6.372307 -14.962919
30.970052 16.555806 -12.816790
29.496711 11.122421 -13.981583
15.983786 32.825145 -20.287055
22.610026 31.385790 -19.397485
18.421684 35.594309 -18.933084
30.562679 22.204533 -13.723156
27.420088 27.309973 -16.878491
31.260378 25.770081 -12.984666
23.321911 40.410797 -14.877868
25.049367 33.393865 -17.506047
20.918719 38.200038 -17.130237
26.909995 39.004884 -13.838321
21.962502 34.895675 -18.441454
32.386962 33.912237 -11.026568
27.639710 31.114903 -16.141028
31.914042 29.713999 -12.099793
29.965921 36.759798 -12.516561
29.629813 28.520589 -14.606949
27.513501 35.133068 -15.184783
22.784633 -32.628543 -1.618683
24.874230 -28.226456 -4.591573
21.938919 -32.881393 -4.233624
26.641981 -18.810099 -9.280831
26.053416 -23.478248 -7.134004
19.526640 -32.157496 -9.187212
23.887668 -28.224416 -7.055556
20.830963 -32.707377 -6.792221
23.043135 -30.607059 -5.710029
26.428537 -2.021144 -15.561726
26.716461 -6.048052 -14.201531
26.872064 -14.365125 -11.120859
26.874424 -10.133626 -12.738606
13.324092 -27.363058 -16.911300
18.156600 -25.203829 -15.576823
14.901209 -28.792061 -15.314879
25.486626 -18.516656 -11.443923
22.293240 -22.203714 -13.722650
25.285345 -20.844451 -10.502809
18.024427 -31.231638 -11.498417
19.717038 -26.285219 -13.779486
16.487931 -30.108899 -13.501887
20.487821 -29.696217 -10.535752
17.397679 -27.642742 -14.608468
24.529817 -25.685057 -8.351500
21.879962 -24.630971 -12.777453
24.975660 -23.253924 -9.469196
22.681250 -27.823545 -9.473803
23.704674 -22.817264 -11.685966
21.266805 -27.156416 -11.737213
1.862928 -14.343553 -24.359710
5.486625 -12.883234 -24.236430
3.072678 -15.922824 -23.864651
1.824496 -12.345867 -24.752626
12.594748 -9.750309 -23.560314
9.048430 -11.374447 -23.996479
5.647465 -19.120359 -22.591614
6.771625 -14.392514 -23.702348
4.342185 -17.523125 -23.275102
4.941844 -15.156070 -23.797041
1.769215 -8.486179 -25.347765
5.397704 -10.919793 -24.634450
1.795263 -10.385021 -25.081494
3.629375 -11.635152 -24.704806
24.993208 -1.239899 -17.452850
22.350025 -3.635659 -19.695694
25.198354 -3.244398 -16.812689
16.087546 -7.937534 -22.785851
19.386113 -5.890585 -21.512444
25.501310 -7.285578 -15.484878
22.565601 -5.640962 -19.098343
25.367091 -5.267890 -16.156017
23.911202 -4.460855 -18.002026
11.476344 -25.558831 -18.569115
12.609484 -20.484838 -20.402573
9.965215 -23.991098 -19.777514
13.931251 -24.717111 -18.051083
14.100308 -11.109365 -22.814778
13.461970 -15.691492 -21.781924
12.307615 -11.975174 -23.138388
7.076098 -20.783739 -21.762557
11.103191 -19.012976 -21.403513
8.487422 -22.386164 -20.842939
7.647500 -18.308894 -22.459888
10.576042 -21.453224 -20.650099
18.580840 -22.522711 -16.698036
14.909568 -19.605628 -19.892830
16.330979 -23.710857 -17.433673
14.459707 -22.114295 -19.044211
8.674492 -13.597763 -23.561382
11.574698 -16.562212 -22.079451
10.485532 -12.804486 -23.382496
8.180532 -15.907861 -23.057762
11.967505 -14.252475 -22.645404
9.634737 -17.457302 -22.291913
1.734266 -1.071836 -25.904805
5.234182 -3.234902 -25.629713
1.738208 -2.876239 -25.838795
12.498349 -7.724405 -23.976292
8.818190 -5.449941 -25.026714
10.746420 -8.567466 -24.219448
1.760646 -6.541587 -25.567016
5.255363 -5.081612 -25.468691
1.745808 -4.707498 -25.726252
3.540268 -7.742544 -25.311511
3.495371 -3.975191 -25.690759
7.226711 -10.139226 -24.534940
7.097489 -6.245847 -25.150752
8.979057 -9.375554 -24.401148
5.368684 -8.946777 -24.969351
8.903391 -7.392711 -24.744576
5.322403 -6.992053 -25.247610
25.619520 -15.833734 -12.475099
22.892058 -14.148070 -16.491222
25.660686 -13.649259 -13.280579
24.204468 -17.676696 -13.642311
16.195726 -10.009509 -22.292059
19.722772 -12.189344 -19.802296
17.899454 -9.018925 -21.712919
15.942178 -12.303665 -21.829414
25.593440 -9.422626 -14.770506
22.891631 -12.000467 -17.171443
25.650195 -11.502448 -14.046301
24.208500 -8.588796 -16.701770
24.325029 -12.855143 -15.309591
20.744748 -21.048636 -15.775839
21.232736 -15.741665 -17.516633
22.579048 -19.444443 -14.763591
18.992867 -19.825947 -17.644915
22.771676 -16.743130 -15.684113
21.072783 -6.851818 -20.124990
21.298039 -11.048476 -18.919282
19.539714 -7.956738 -20.986447
22.698642 -7.728795 -18.503522
19.651699 -10.064707 -20.415994
22.807486 -9.857572 -17.861059
15.315784 -17.042731 -20.658297
19.503195 -14.617539 -19.221618
15.649846 -14.659980 -21.284743
17.159030 -18.469863 -19.280003
17.763861 -13.487575 -20.627543
19.295775 -17.173067 -18.484973
1.885038 14.513786 -24.648817
5.664260 13.300342 -25.021110
3.140579 16.274691 -24.392018
1.842666 12.468816 -24.999131
13.321390 10.312844 -24.919605
9.484823 11.923021 -25.153796
5.935342 20.095013 -23.743214
7.080268 15.048509 -24.782676
4.494491 18.137765 -24.091498
5.112122 15.678292 -24.616999
1.780862 8.542045 -25.514633
5.542005 11.211719 -25.293019
1.809997 10.470254 -25.287345
3.698055 11.855330 -25.172307
25.237585 1.252022 -17.623499
22.987884 3.739419 -20.257801
25.860098 3.329601 -17.254214
23.943801 0.000000 -18.805818
17.011059 8.393192 -24.093882
20.279072 6.161916 -22.503344
27.100445 7.742442 -16.455903
23.587410 5.896395 -19.963148
26.480904 5.499192 -16.865392
24.766907 4.620495 -18.646260
21.154488 -2.404167 -20.905413
21.546146 2.448678 -21.292460
22.580333 -1.224617 -19.913573
22.792882 1.236144 -20.101020
13.270284 29.554093 -21.471770
14.311490 23.249846 -23.156478
11.196812 26.956148 -22.221808
16.549279 29.362070 -21.443330
15.150234 11.936582 -24.513594
14.885190 17.350421 -24.084743
13.178316 12.822357 -24.775311
7.581596 22.268474 -23.317216
12.293673 21.051544 -23.698394
9.294762 24.515578 -22.825559
8.165074 19.548020 -23.979948
11.809276 23.954806 -23.058032
22.609486 27.406023 -20.318458
17.191049 22.605706 -22.936856
19.763055 28.693870 -21.097489
16.941744 25.910258 -22.313187
9.160029 14.358870 -24.880182
12.683021 18.148109 -24.193645
11.159905 13.628003 -24.886334
8.690964 16.900446 -24.496471
12.967905 15.443883 -24.538402
10.433831 18.905191 -24.140779
1.735663 1.072699 -25.925665
5.273066 3.258934 -25.820115
1.741982 2.882483 -25.894890
3.486346 0.000000 -25.876563
13.054304 8.068004 -25.042812
9.008592 5.567616 -25.567088
11.204490 8.932657 -25.251809
1.769504 6.574501 -25.695656
5.317390 5.141587 -25.769283
1.752056 4.724345 -25.818321
3.583186 7.836405 -25.618357
3.516613 3.999349 -25.846888
7.062499 -2.167838 -25.552360
7.109946 2.182402 -25.724025
5.271744 -1.085325 -25.753926
5.284875 1.088029 -25.818075
7.469431 10.479769 -25.358986
7.238484 6.369924 -25.650384
9.328083 9.739992 -25.349649
5.484591 9.139933 -25.508425
9.170189 7.614241 -25.486071
5.410657 7.107993 -25.666259
29.731999 18.375386 -14.477618
25.822404 15.959123 -18.602215
29.052355 15.453332 -15.035923
28.455737 20.781428 -16.038445
17.403272 10.755813 -23.954145
21.768315 13.453558 -21.856086
19.165941 9.657065 -23.249230
17.427259 13.449804 -23.862917
27.746551 10.215327 -16.013112
25.294271 13.260002 -18.973709
28.388297 12.730309 -15.545713
25.972821 9.214749 -17.918999
27.167827 14.357488 -17.098779
25.062189 25.429324 -19.059140
24.283469 18.003438 -20.033434
26.922517 23.184916 -17.603622
22.529763 23.517981 -20.930793
26.372457 19.390644 -18.164170
22.236440 7.230181 -21.236309
23.301314 12.087686 -20.698814
20.788004 8.465052 -22.327162
24.143111 8.220631 -19.681027
21.285170 10.901296 -22.112993
24.712445 10.680910 -19.352876
17.343249 19.298805 -23.392991
22.006709 16.493909 -21.688989
17.412547 16.311189 -23.682124
19.911692 21.432810 -22.372913
19.749123 14.994926 -22.932846
22.307950 19.853876 -21.370577
14.571795 -6.654311 -23.577659
14.906984 -2.231569 -24.120007
16.287160 -5.691705 -23.124750
12.700758 -5.542257 -24.283454
15.209804 6.945663 -24.609980
15.120514 2.263534 -24.465506
16.946858 5.922243 -24.061400
13.104275 5.718341 -25.054966
19.568824 -3.577921 -21.813851
16.615202 -1.176460 -23.645445
17.970442 -4.660472 -22.536655
19.788075 -1.205870 -22.040893
16.463389 -3.432486 -23.411170
8.970773 -3.314698 -25.241604
12.983139 -1.155057 -24.745005
10.816718 -4.418677 -24.832500
9.018653 -1.114767 -25.414870
12.862308 -3.342143 -24.540793
20.104647 3.675890 -22.411146
16.749916 1.185998 -23.837161
18.596523 4.822841 -23.321821
19.967201 1.216785 -22.240412
16.859078 3.514984 -23.973846
18.307671 0.000000 -23.029367
9.089042 3.358398 -25.574384
13.067600 1.162571 -24.905982
11.048286 4.513274 -25.364122
9.058314 1.119669 -25.526637
13.106859 3.405687 -25.007387
11.033148 0.000000 -25.207440
31.654864 45.331083 2.248849
34.941194 39.650115 6.449849
29.886480 44.792959 5.767290
34.646634 44.112523 0.000000
32.607120 23.021680 11.358809
34.296145 30.906250 9.391046
25.681385 42.293454 12.082997
32.440714 38.330247 9.581818
27.840951 43.713987 9.077923
31.659031 42.051127 7.845025
37.477895 37.924421 -4.310038
37.477895 37.924421 4.310038
36.796912 41.724633 -2.262885
36.796912 41.724633 2.262885
26.870129 2.054915 15.821745
28.148815 6.372307 14.962919
30.970052 16.555806 12.816790
29.496711 11.122421 13.981583
15.983786 32.825145 20.287055
22.610026 31.385790 19.397485
18.421684 35.594309 18.933084
30.562679 22.204533 13.723156
27.420088 27.309973 16.878491
31.260378 25.770081 12.984666
23.321911 40.410797 14.877868
25.049367 33.393865 17.506047
20.918719 38.200038 17.130237
26.909995 39.004884 13.838321
21.962502 34.895675 18.441454
32.386962 33.912237 11.026568
27.639710 31.114903 16.141028
31.914042 29.713999 12.099793
29.965921 36.759798 12.516561
29.629813 28.520589 14.606949
27.513501 35.133068 15.184783
33.912610 20.959146 -9.571139
38.143146 23.573761 -3.528981
34.935359 24.605575 -8.598656
33.912610 20.959146 9.571139
38.143146 23.573761 3.528981
34.935359 24.605575 8.598656
36.976526 33.170995 -6.064912
39.201235 27.545957 -1.950425
36.003660 28.708860 -7.445384
39.242276 35.231290 -2.146967
37.339518 26.258192 -5.474625
36.976526 33.170995 6.064912
39.201235 27.545957 1.950425
36.003660 28.708860 7.445384
39.242276 35.231290 2.146967
37.339518 26.258192 5.474625
39.773943 31.619118 0.000000
22.784633 -32.628543 1.618683
24.874230 -28.226456 4.591573
21.938919 -32.881393 4.233624
24.166863 -30.769550 0.000000
26.641981 -18.810099 9.280831
26.053416 -23.478248 7.134004
19.526640 -32.157496 9.187212
23.887668 -28.224416 7.055556
20.830963 -32.707377 6.792221
23.043135 -30.607059 5.710029
26.121173 -26.432391 -3.003991
26.121173 -26.432391 3.003991
25.276693 -28.661665 -1.554431
25.276693 -28.661665 1.554431
26.428537 -2.021144 15.561726
26.716461 -6.048052 14.201531
26.872064 -14.365125 11.120859
26.874424 -10.133626 12.738606
13.324092 -27.363058 16.911300
18.156600 -25.203829 15.576823
14.901209 -28.792061 15.314879
25.486626 -18.516656 11.443923
22.293240 -22.203714 13.722650
25.285345 -20.844451 10.502809
18.024427 -31.231638 11.498417
19.717038 -26.285219 13.779486
16.487931 -30.108899 13.501887
20.487821 -29.696217 10.535752
17.397679 -27.642742 14.608468
24.529817 -25.685057 8.351500
21.879962 -24.630971 12.777453
24.975660 -23.253924 9.469196
22.681250 -27.823545 9.473803
23.704674 -22.817264 11.685966
21.266805 -27.156416 11.737213
27.799059 -17.180763 -7.845715
29.103917 -17.987210 -2.692677
27.574515 -19.421206 -6.786928
27.799059 -17.180763 7.845715
29.103917 -17.987210 2.692677
27.574515 -19.421206 6.786928
26.784929 -24.028291 -4.393280
28.619157 -20.110133 -1.423922
27.243382 -21.723526 -5.633801
27.160797 -24.384669 -1.485982
28.256898 -19.871040 -4.142954
26.784929 -24.028291 4.393280
28.619157 -20.110133 1.423922
27.243382 -21.723526 5.633801
27.160797 -24.384669 1.485982
28.256898 -19.871040 4.142954
27.987257 -22.249048 0.000000
1.862928 -14.343553 24.359710
5.486625 -12.883234 24.236430
3.072678 -15.922824 23.864651
1.824496 -12.345867 24.752626
12.594748 -9.750309 23.560314
9.048430 -11.374447 23.996479
5.647465 -19.120359 22.591614
6.771625 -14.392514 23.702348
4.342185 -17.523125 23.275102
4.941844 -15.156070 23.797041
1.769215 -8.486179 25.347765
5.397704 -10.919793 24.634450
1.795263 -10.385021 25.081494
3.629375 -11.635152 24.704806
24.993208 -1.239899 17.452850
22.350025 -3.635659 19.695694
25.198354 -3.244398 16.812689
16.087546 -7.937534 22.785851
19.386113 -5.890585 21.512444
25.501310 -7.285578 15.484878
22.565601 -5.640962 19.098343
25.367091 -5.267890 16.156017
23.911202 -4.460855 18.002026
11.476344 -25.558831 18.569115
12.609484 -20.484838 20.402573
9.965215 -23.991098 19.777514
13.931251 -24.717111 18.051083
14.100308 -11.109365 22.814778
13.461970 -15.691492 21.781924
12.307615 -11.975174 23.138388
7.076098 -20.783739 21.762557
11.103191 -19.012976 21.403513
8.487422 -22.386164 20.842939
7.647500 -18.308894 22.459888
10.576042 -21.453224 20.650099
18.580840 -22.522711 16.698036
14.909568 -19.605628 19.892830
16.330979 -23.710857 17.433673
14.459707 -22.114295 19.044211
8.674492 -13.597763 23.561382
11.574698 -16.562212 22.079451
10.485532 -12.804486 23.382496
8.180532 -15.907861 23.057762
11.967505 -14.252475 22.645404
9.634737 -17.457302 22.291913
1.734266 -1.071836 25.904805
5.234182 -3.234902 25.629713
1.738208 -2.876239 25.838795
12.498349 -7.724405 23.976292
8.818190 -5.449941 25.026714
10.746420 -8.567466 24.219448
1.760646 -6.541587 25.567016
5.255363 -5.081612 25.468691
1.745808 -4.707498 25.726252
3.540268 -7.742544 25.311511
3.495371 -3.975191 25.690759
7.226711 -10.139226 24.534940
7.097489 -6.245847 25.150752
8.979057 -9.375554 24.401148
5.368684 -8.946777 24.969351
8.903391 -7.392711 24.744576
5.322403 -6.992053 25.247610
25.619520 -15.833734 12.475099
22.892058 -14.148070 16.491222
25.660686 -13.649259 13.280579
24.204468 -17.676696 13.642311
16.195726 -10.009509 22.292059
19.722772 -12.189344 19.802296
17.899454 -9.018925 21.712919
15.942178 -12.303665 21.829414
25.593440 -9.422626 14.770506
22.891631 -12.000467 17.171443
25.650195 -11.502448 14.046301
24.208500 -8.588796 16.701770
24.325029 -12.855143 15.309591
20.744748 -21.048636 15.775839
21.232736 -15.741665 17.516633
22.579048 -19.444443 14.763591
18.992867 -19.825947 17.644915
22.771676 -16.743130 15.684113
21.072783 -6.851818 20.124990
21.298039 -11.048476 18.919282
19.539714 -7.956738 20.986447
22.698642 -7.728795 18.503522
19.651699 -10.064707 20.415994
22.807486 -9.857572 17.861059
15.315784 -17.042731 20.658297
19.503195 -14.617539 19.221618
15.649846 -14.659980 21.284743
17.159030 -18.469863 19.280003
17.763861 -13.487575 20.627543
19.295775 -17.173067 18.484973
1.885038 14.513786 24.648817
5.664260 13.300342 25.021110
3.140579 16.274691 24.392018
1.842666 12.468816 24.999131
13.321390 10.312844 24.919605
9.484823 11.923021 25.153796
5.935342 20.095013 23.743214
7.080268 15.048509 24.782676
4.494491 18.137765 24.091498
5.112122 15.678292 24.616999
1.780862 8.542045 25.514633
5.542005 11.211719 25.293019
1.809997 10.470254 25.287345
3.698055 11.855330 25.172307
25.237585 1.252022 17.623499
22.987884 3.739419 20.257801
25.860098 3.329601 17.254214
23.943801 0.000000 18.805818
17.011059 8.393192 24.093882
20.279072 6.161916 22.503344
27.100445 7.742442 16.455903
23.587410 5.896395 19.963148
26.480904 5.499192 16.865392
24.766907 4.620495 18.646260
21.154488 -2.404167 20.905413
21.546146 2.448678 21.292460
22.580333 -1.224617 19.913573
22.792882 1.236144 20.101020
13.270284 29.554093 21.471770
14.311490 23.249846 23.156478
11.196812 26.956148 22.221808
16.549279 29.362070 21.443330
15.150234 11.936582 24.513594
14.885190 17.350421 24.084743
13.178316 12.822357 24.775311
7.581596 22.268474 23.317216
12.293673 21.051544 23.698394
9.294762 24.515578 22.825559
8.165074 19.548020 23.979948
11.809276 23.954806 23.058032
22.609486 27.406023 20.318458
17.191049 22.605706 22.936856
19.763055 28.693870 21.097489
16.941744 25.910258 22.313187
9.160029 14.358870 24.880182
12.683021 18.148109 24.193645
11.159905 13.628003 24.886334
8.690964 16.900446 24.496471
12.967905 15.443883 24.538402
10.433831 18.905191 24.140779
1.735663 1.072699 25.925665
5.273066 3.258934 25.820115
1.741982 2.882483 25.894890
3.486346 0.000000 25.876563
13.054304 8.068004 25.042812
9.008592 5.567616 25.567088
11.204490 8.932657 25.251809
1.769504 6.574501 25.695656
5.317390 5.141587 25.769283
1.752056 4.724345 25.818321
3.583186 7.836405 25.618357
3.516613 3.999349 25.846888
7.062499 -2.167838 25.552360
7.109946 2.182402 25.724025
5.271744 -1.085325 25.753926
5.284875 1.088029 25.818075
7.469431 10.479769 25.358986
7.238484 6.369924 25.650384
9.328083 9.739992 25.349649
5.484591 9.139933 25.508425
9.170189 7.614241 25.486071
5.410657 7.107993 25.666259
29.731999 18.375386 14.477618
25.822404 15.959123 18.602215
29.052355 15.453332 15.035923
28.455737 20.781428 16.038445
17.403272 10.755813 23.954145
21.768315 13.453558 21.856086
19.165941 9.657065 23.249230
17.427259 13.449804 23.862917
27.746551 10.215327 16.013112
25.294271 13.260002 18.973709
28.388297 12.730309 15.545713
25.972821 9.214749 17.918999
27.167827 14.357488 17.098779
25.062189 25.429324 19.059140
24.283469 18.003438 20.033434
26.922517 23.184916 17.603622
22.529763 23.517981 20.930793
26.372457 19.390644 18.164170
22.236440 7.230181 21.236309
23.301314 12.087686 20.698814
20.788004 8.465052 22.327162
24.143111 8.220631 19.681027
21.285170 10.901296 22.112993
24.712445 10.680910 19.352876
17.343249 19.298805 23.392991
22.006709 16.493909 21.688989
17.412547 16.311189 23.682124
19.911692 21.432810 22.372913
19.749123 14.994926 22.932846
22.307950 19.853876 21.370577
14.571795 -6.654311 23.577659
14.906984 -2.231569 24.120007
16.287160 -5.691705 23.124750
12.700758 -5.542257 24.283454
15.209804 6.945663 24.609980
15.120514 2.263534 24.465506
16.946858 5.922243 24.061400
13.104275 5.718341 25.054966
19.568824 -3.577921 21.813851
16.615202 -1.176460 23.645445
17.970442 -4.660472 22.536655
19.788075 -1.205870 22.040893
16.463389 -3.432486 23.411170
8.970773 -3.314698 25.241604
12.983139 -1.155057 24.745005
10.816718 -4.418677 24.832500
9.018653 -1.114767 25.414870
12.862308 -3.342143 24.540793
20.104647 3.675890 22.411146
16.749916 1.185998 23.837161
18.596523 4.822841 23.321821
19.967201 1.216785 22.240412
