-2.212807 -12.953998 3.580397
4.353170 -8.655085 2.607475
1.657991 -7.161419 7.246743
1.871140 -10.953844 3.027568
0.000000 -10.180335 6.291793
-4.353170 8.655085 2.607475
-1.657991 7.161419 7.246743
-1.871140 10.953844 3.027568
6.303674 12.533128 3.775794
1.927112 8.323842 8.423016
2.212807 12.953998 3.580397
0.000000 10.180335 6.291793
0.000000 -2.662793 9.373422
0.000000 2.662793 9.373422
-6.303674 -12.533128 -3.775794
-1.927112 -8.323842 -8.423016
-2.212807 -12.953998 -3.580397
4.353170 -8.655085 -2.607475
1.657991 -7.161419 -7.246743
1.871140 -10.953844 -3.027568
0.000000 -10.180335 -6.291793
-4.353170 8.655085 -2.607475
-1.657991 7.161419 -7.246743
-1.871140 10.953844 -3.027568
6.303674 12.533128 -3.775794
1.927112 8.323842 -8.423016
2.212807 12.953998 -3.580397
0.000000 10.180335 -6.291793
0.000000 -2.662793 -9.373422
0.000000 2.662793 -9.373422
11.558499 11.696212 -2.675990
11.765696 3.544594 -5.917686
8.428613 9.868392 -6.099002
6.633114 -6.712144 -1.535679
9.117329 -2.746733 -4.585661
5.633834 -6.596207 -4.076680
2.503761 -4.180020 -8.310824
7.265574 -1.662299 -7.180028
4.093492 -5.657068 -6.623410
2.519527 -1.557153 -9.115734
6.696253 -4.138512 -5.719283
2.851440 4.760468 -9.464887
8.470481 1.937971 -8.370748
5.751249 7.948030 -9.305716
2.635170 1.628624 -9.534134
9.373601 5.793204 -8.006011
5.414365 0.000000 -8.760628
11.558499 11.696212 2.675990
11.765696 3.544594 5.917686
8.428613 9.868392 6.099002
13.520819 8.356326 0.000000
6.633114 -6.712144 1.535679
9.117329 -2.746733 4.585661
5.633834 -6.596207 4.076680
8.356326 -5.164493 0.000000
2.503761 -4.180020 8.310824
7.265574 -1.662299 7.180028
4.093492 -5.657068 6.623410
2.519527 -1.557153 9.115734
6.696253 -4.138512 5.719283
2.851440 4.760468 9.464887
8.470481 1.937971 8.370748
5.751249 7.948030 9.305716
2.635170 1.628624 9.534134
9.373601 5.793204 8.006011
5.414365 0.000000 8.760628
12.546187 0.000000 -3.564109
12.546187 0.000000 3.564109
13.260514 3.665116 -2.265166
10.408211 -2.876759 -1.777935
13.260514 3.665116 2.265166
10.408211 -2.876759 1.777935
-6.633114 6.712144 -1.535679
-9.117329 2.746733 -4.585661
-5.633834 6.596207 -4.076680
-11.558499 -11.696212 -2.675990
-11.765696 -3.544594 -5.917686
-8.428613 -9.868392 -6.099002
-2.851440 -4.760468 -9.464887
-8.470481 -1.937971 -8.370748
-5.751249 -7.948030 -9.305716
-2.635170 -1.628624 -9.534134
-9.373601 -5.793204 -8.006011
-2.503761 4.180020 -8.310824
-7.265574 1.662299 -7.180028
-4.093492 5.657068 -6.623410
-2.519527 1.557153 -9.115734
-6.696253 4.138512 -5.719283
-5.414365 0.000000 -8.760628
-6.633114 6.712144 1.535679
-9.117329 2.746733 4.585661
-5.633834 6.596207 4.076680
-8.356326 5.164493 0.000000
-11.558499 -11.696212 2.675990
-11.765696 -3.544594 5.917686
-8.428613 -9.868392 6.099002
-13.520819 -8.356326 0.000000
-2.851440 -4.760468 9.464887
-8.470481 -1.937971 8.370748
-5.751249 -7.948030 9.305716
-2.635170 -1.628624 9.534134
-9.373601 -5.793204 8.006011
-2.503761 4.180020 8.310824
-7.265574 1.662299 7.180028
-4.093492 5.657068 6.623410
-2.519527 1.557153 9.115734
-6.696253 4.138512 5.719283
-5.414365 0.000000 8.760628
-12.546187 0.000000 -3.564109
-12.546187 0.000000 3.564109
-10.408211 2.876759 -1.777935
-13.260514 -3.665116 -2.265166
-10.408211 2.876759 1.777935
-13.260514 -3.665116 2.265166
-4.136605 9.384214 0.000000
-1.652997 11.867822 0.000000
5.960039 13.520819 0.000000
1.883233 13.520819 0.000000
-5.960039 -13.520819 0.000000
-1.883233 -13.520819 0.000000
4.136605 -9.384214 0.000000
1.652997 -11.867822 0.000000
-7.389958 -13.194141 2.001408
-5.238459 -11.787576 5.358235
-5.156981 -13.306080 1.895281
-0.890853 -6.763736 8.611672
-3.192056 -10.214258 8.170105
-1.114925 -13.389657 1.803986
-3.258953 -12.166019 5.273096
-3.043031 -13.359994 1.835803
-4.205732 -12.791249 3.686734
4.808899 -8.585881 1.302385
3.800578 -8.552057 3.887477
3.737369 -9.643187 1.373549
0.837362 -6.357614 8.094593
2.438605 -7.803291 6.241638
0.000000 -7.744612 7.836885
1.023593 -12.292807 1.656208
2.571857 -9.601017 4.161352
2.477494 -10.877084 1.494625
0.000000 -12.592982 3.480615
3.198491 -9.727842 2.803789
-2.108005 -11.321669 6.997176
1.708582 -9.176450 5.671358
-0.978123 -9.404956 7.476664
-1.107906 -12.286867 5.377889
0.892423 -8.580930 6.821588
0.972502 -10.785216 4.720625
-4.808899 8.585881 1.302385
-3.800578 8.552057 3.887477
-3.737369 9.643187 1.373549
-0.837362 6.357614 8.094593
-2.438605 7.803291 6.241638
-1.023593 12.292807 1.656208
-2.571857 9.601017 4.161352
-2.477494 10.877084 1.494625
-3.198491 9.727842 2.803789
7.389958 13.194141 2.001408
5.238459 11.787576 5.358235
5.156981 13.306080 1.895281
0.890853 6.763736 8.611672
3.192056 10.214258 8.170105
0.000000 7.744612 7.836885
1.114925 13.389657 1.803986
3.258953 12.166019 5.273096
3.043031 13.359994 1.835803
0.000000 12.592982 3.480615
4.205732 12.791249 3.686734
-1.708582 9.176450 5.671358
2.108005 11.321669 6.997176
-0.892423 8.580930 6.821588
-0.972502 10.785216 4.720625
0.978123 9.404956 7.476664
1.107906 12.286867 5.377889
0.000000 -4.023465 9.127548
0.000000 -1.325235 9.514628
0.000000 4.023465 9.127548
0.000000 1.325235 9.514628
-7.389958 -13.194141 -2.001408
-5.238459 -11.787576 -5.358235
-5.156981 -13.306080 -1.895281
-0.890853 -6.763736 -8.611672
-3.192056 -10.214258 -8.170105
-1.114925 -13.389657 -1.803986
-3.258953 -12.166019 -5.273096
-3.043031 -13.359994 -1.835803
-4.205732 -12.791249 -3.686734
4.808899 -8.585881 -1.302385
3.800578 -8.552057 -3.887477
3.737369 -9.643187 -1.373549
0.837362 -6.357614 -8.094593
2.438605 -7.803291 -6.241638
0.000000 -7.744612 -7.836885
1.023593 -12.292807 -1.656208
2.571857 -9.601017 -4.161352
2.477494 -10.877084 -1.494625
0.000000 -12.592982 -3.480615
3.198491 -9.727842 -2.803789
-2.108005 -11.321669 -6.997176
1.708582 -9.176450 -5.671358
-0.978123 -9.404956 -7.476664
-1.107906 -12.286867 -5.377889
0.892423 -8.580930 -6.821588
0.972502 -10.785216 -4.720625
-4.808899 8.585881 -1.302385
-3.800578 8.552057 -3.887477
-3.737369 9.643187 -1.373549
-0.837362 6.357614 -8.094593
-2.438605 7.803291 -6.241638
-1.023593 12.292807 -1.656208
-2.571857 9.601017 -4.161352
-2.477494 10.877084 -1.494625
-3.198491 9.727842 -2.803789
7.389958 13.194141 -2.001408
5.238459 11.787576 -5.358235
5.156981 13.306080 -1.895281
0.890853 6.763736 -8.611672
3.192056 10.214258 -8.170105
0.000000 7.744612 -7.836885
1.114925 13.389657 -1.803986
3.258953 12.166019 -5.273096
3.043031 13.359994 -1.835803
0.000000 12.592982 -3.480615
4.205732 12.791249 -3.686734
-1.708582 9.176450 -5.671358
2.108005 11.321669 -6.997176
-0.892423 8.580930 -6.821588
-0.972502 10.785216 -4.720625
0.978123 9.404956 -7.476664
1.107906 12.286867 -5.377889
0.000000 -4.023465 -9.127548
0.000000 -1.325235 -9.514628
0.000000 4.023465 -9.127548
0.000000 1.325235 -9.514628
10.385138 13.222486 -1.367828
11.834270 9.465907 -3.698326
8.889338 12.334541 -3.314883
11.649639 1.767124 -6.524892
11.825482 5.375466 -5.255305
6.325609 10.560580 -6.526797
10.364757 8.816789 -5.449075
7.514368 11.406506 -5.039745
9.880288 10.718097 -4.517388
5.928023 -7.547633 -0.780781
7.295383 -5.835376 -2.279879
5.529727 -7.672860 -2.062066
9.673044 -1.467296 -5.417813
8.532982 -3.878806 -3.792101
4.444308 -7.419755 -4.585661
6.779338 -5.766849 -3.564109
5.025061 -7.627839 -3.370213
6.194356 -6.719612 -2.832135
1.295424 -4.783197 -8.539991
3.667669 -3.585683 -8.068501
2.105302 -5.645671 -7.833740
1.275184 -3.469724 -8.952608
8.635758 -0.893344 -6.782653
6.010713 -2.348383 -7.514588
8.308125 -2.232792 -5.987554
3.658510 -6.958899 -5.919593
4.478733 -4.340676 -7.246743
2.921633 -6.390104 -6.931959
4.930127 -6.209316 -5.418734
3.333616 -4.970494 -7.545008
1.273070 -0.786801 -9.449060
3.712458 -2.294425 -8.565334
1.272011 -2.108488 -9.257018
2.525679 -2.881230 -8.762930
7.403146 -4.575396 -4.434359
5.828174 -3.602010 -6.851430
7.876324 -3.480002 -5.188758
6.192213 -5.403808 -4.916547
7.010091 -2.954564 -6.462128
5.398139 -4.911389 -6.185717
1.393313 5.144640 -9.185317
4.345843 4.248698 -9.560416
2.447473 6.563253 -9.106945
1.341787 3.650947 -9.420200
9.472132 0.979865 -7.439554
7.230030 2.824770 -9.038977
10.717440 2.880290 -7.723915
7.867884 0.000000 -7.775247
5.043423 9.593161 -8.160430
5.908278 5.726156 -9.559795
3.798803 8.308621 -9.013159
7.050646 8.880034 -7.749410
4.175350 6.225537 -9.450113
1.287255 0.795567 -9.554339
4.115755 2.543677 -9.495818
1.311062 2.173218 -9.541206
2.593436 0.000000 -9.383140
2.754471 3.142230 -9.556730
10.615974 6.561033 -6.358789
7.926276 4.898708 -9.317896
10.697300 4.726396 -7.047158
9.005645 7.859028 -7.150380
9.479852 3.995501 -8.738834
7.654273 6.964088 -8.771016
5.136372 -1.547410 -8.310824
5.651215 1.702514 -9.143859
6.414222 -0.839130 -8.068501
3.920449 -0.807657 -8.957052
6.828929 0.893384 -8.590164
4.063746 0.837178 -9.284444
10.385138 13.222486 1.367828
11.834270 9.465907 3.698326
8.889338 12.334541 3.314883
13.361623 13.520819 0.000000
11.649639 1.767124 6.524892
11.825482 5.375466 5.255305
6.325609 10.560580 6.526797
10.364757 8.816789 5.449075
7.514368 11.406506 5.039745
9.880288 10.718097 4.517388
12.988510 8.027341 -2.418358
12.988510 8.027341 2.418358
13.208449 10.500329 -1.373689
13.208449 10.500329 1.373689
5.928023 -7.547633 0.780781
7.295383 -5.835376 2.279879
5.529727 -7.672860 2.062066
6.720375 -6.800444 0.000000
9.673044 -1.467296 5.417813
8.532982 -3.878806 3.792101
4.444308 -7.419755 4.585661
6.779338 -5.766849 3.564109
5.025061 -7.627839 3.370213
6.194356 -6.719612 2.832135
8.247823 -5.097435 -1.535679
8.247823 -5.097435 1.535679
7.507452 -5.968204 -0.780781
7.507452 -5.968204 0.780781
1.295424 -4.783197 8.539991
3.667669 -3.585683 8.068501
2.105302 -5.645671 7.833740
1.275184 -3.469724 8.952608
8.635758 -0.893344 6.782653
6.010713 -2.348383 7.514588
8.308125 -2.232792 5.987554
3.658510 -6.958899 5.919593
4.478733 -4.340676 7.246743
2.921633 -6.390104 6.931959
4.930127 -6.209316 5.418734
3.333616 -4.970494 7.545008
1.273070 -0.786801 9.449060
3.712458 -2.294425 8.565334
1.272011 -2.108488 9.257018
2.525679 -2.881230 8.762930
7.403146 -4.575396 4.434359
5.828174 -3.602010 6.851430
7.876324 -3.480002 5.188758
6.192213 -5.403808 4.916547
7.010091 -2.954564 6.462128
5.398139 -4.911389 6.185717
1.393313 5.144640 9.185317
4.345843 4.248698 9.560416
2.447473 6.563253 9.106945
1.341787 3.650947 9.420200
9.472132 0.979865 7.439554
7.230030 2.824770 9.038977
10.717440 2.880290 7.723915
7.867884 0.000000 7.775247
5.043423 9.593161 8.160430
5.908278 5.726156 9.559795
3.798803 8.308621 9.013159
7.050646 8.880034 7.749410
4.175350 6.225537 9.450113
1.287255 0.795567 9.554339
4.115755 2.543677 9.495818
1.311062 2.173218 9.541206
2.593436 0.000000 9.383140
2.754471 3.142230 9.556730
10.615974 6.561033 6.358789
7.926276 4.898708 9.317896
10.697300 4.726396 7.047158
9.005645 7.859028 7.150380
9.479852 3.995501 8.738834
7.654273 6.964088 8.771016
5.136372 -1.547410 8.310824
5.651215 1.702514 9.143859
6.414222 -0.839130 8.068501
3.920449 -0.807657 8.957052
6.828929 0.893384 8.590164
4.063746 0.837178 9.284444
11.473917 0.000000 -5.057755
13.265909 0.000000 -1.847728
12.518154 1.783051 -4.851608
10.670565 -1.519886 -4.135545
11.473917 0.000000 5.057755
13.265909 0.000000 1.847728
12.518154 1.783051 4.851608
10.670565 -1.519886 4.135545
12.785752 5.541706 -3.424962
13.467110 1.814422 -1.121374
12.645590 3.644751 -4.157840
13.424977 5.876033 -1.210529
13.138602 1.805382 -2.992604
9.119406 -3.952608 -2.442846
11.851803 -1.596792 -0.986872
9.872276 -2.845418 -3.245981
9.367740 -4.100205 -0.844689
11.437547 -1.571639 -2.605151
12.785752 5.541706 3.424962
13.467110 1.814422 1.121374
12.645590 3.644751 4.157840
13.424977 5.876033 1.210529
13.138602 1.805382 2.992604
13.520819 3.737062 0.000000
9.119406 -3.952608 2.442846
11.851803 -1.596792 0.986872
9.872276 -2.845418 3.245981
9.367740 -4.100205 0.844689
11.437547 -1.571639 2.605151
10.592989 -2.927830 0.000000
-5.928023 7.547633 -0.780781
-7.295383 5.835376 -2.279879
-5.529727 7.672860 -2.062066
-9.673044 1.467296 -5.417813
-8.532982 3.878806 -3.792101
-4.444308 7.419755 -4.585661
-6.779338 5.766849 -3.564109
-5.025061 7.627839 -3.370213
-6.194356 6.719612 -2.832135
-10.385138 -13.222486 -1.367828
-11.834270 -9.465907 -3.698326
-8.889338 -12.334541 -3.314883
-11.649639 -1.767124 -6.524892
-11.825482 -5.375466 -5.255305
-6.325609 -10.560580 -6.526797
-10.364757 -8.816789 -5.449075
-7.514368 -11.406506 -5.039745
-9.880288 -10.718097 -4.517388
-1.393313 -5.144640 -9.185317
-4.345843 -4.248698 -9.560416
-2.447473 -6.563253 -9.106945
-1.341787 -3.650947 -9.420200
-9.472132 -0.979865 -7.439554
-7.230030 -2.824770 -9.038977
-10.717440 -2.880290 -7.723915
-5.043423 -9.593161 -8.160430
-5.908278 -5.726156 -9.559795
-3.798803 -8.308621 -9.013159
-7.050646 -8.880034 -7.749410
-4.175350 -6.225537 -9.450113
-1.287255 -0.795567 -9.554339
-4.115755 -2.543677 -9.495818
-1.311062 -2.173218 -9.541206
-2.754471 -3.142230 -9.556730
-10.615974 -6.561033 -6.358789
-7.926276 -4.898708 -9.317896
-10.697300 -4.726396 -7.047158
-9.005645 -7.859028 -7.150380
-9.479852 -3.995501 -8.738834
-7.654273 -6.964088 -8.771016
-1.295424 4.783197 -8.539991
-3.667669 3.585683 -8.068501
-2.105302 5.645671 -7.833740
-1.275184 3.469724 -8.952608
-8.635758 0.893344 -6.782653
-6.010713 2.348383 -7.514588
-8.308125 2.232792 -5.987554
-7.867884 0.000000 -7.775247
-3.658510 6.958899 -5.919593
-4.478733 4.340676 -7.246743
-2.921633 6.390104 -6.931959
-4.930127 6.209316 -5.418734
-3.333616 4.970494 -7.545008
-1.273070 0.786801 -9.449060
-3.712458 2.294425 -8.565334
-1.272011 2.108488 -9.257018
-2.593436 0.000000 -9.383140
-2.525679 2.881230 -8.762930
-7.403146 4.575396 -4.434359
-5.828174 3.602010 -6.851430
-7.876324 3.480002 -5.188758
-6.192213 5.403808 -4.916547
-7.010091 2.954564 -6.462128
-5.398139 4.911389 -6.185717
-5.651215 -1.702514 -9.143859
-5.136372 1.547410 -8.310824
-6.828929 -0.893384 -8.590164
-4.063746 -0.837178 -9.284444
-6.414222 0.839130 -8.068501
-3.920449 0.807657 -8.957052
-5.928023 7.547633 0.780781
-7.295383 5.835376 2.279879
-5.529727 7.672860 2.062066
-6.720375 6.800444 0.000000
-9.673044 1.467296 5.417813
-8.532982 3.878806 3.792101
-4.444308 7.419755 4.585661
-6.779338 5.766849 3.564109
-5.025061 7.627839 3.370213
-6.194356 6.719612 2.832135
-8.247823 5.097435 -1.535679
-8.247823 5.097435 1.535679
-7.507452 5.968204 -0.780781
-7.507452 5.968204 0.780781
-10.385138 -13.222486 1.367828
-11.834270 -9.465907 3.698326
-8.889338 -12.334541 3.314883
-13.361623 -13.520819 0.000000
-11.649639 -1.767124 6.524892
-11.825482 -5.375466 5.255305
-6.325609 -10.560580 6.526797
-10.364757 -8.816789 5.449075
-7.514368 -11.406506 5.039745
-9.880288 -10.718097 4.517388
-12.988510 -8.027341 -2.418358
-12.988510 -8.027341 2.418358
-13.208449 -10.500329 -1.373689
-13.208449 -10.500329 1.373689
-1.393313 -5.144640 9.185317
-4.345843 -4.248698 9.560416
-2.447473 -6.563253 9.106945
-1.341787 -3.650947 9.420200
-9.472132 -0.979865 7.439554
-7.230030 -2.824770 9.038977
-10.717440 -2.880290 7.723915
-5.043423 -9.593161 8.160430
-5.908278 -5.726156 9.559795
-3.798803 -8.308621 9.013159
-7.050646 -8.880034 7.749410
-4.175350 -6.225537 9.450113
-1.287255 -0.795567 9.554339
-4.115755 -2.543677 9.495818
-1.311062 -2.173218 9.541206
-2.754471 -3.142230 9.556730
-10.615974 -6.561033 6.358789
-7.926276 -4.898708 9.317896
-10.697300 -4.726396 7.047158
-9.005645 -7.859028 7.150380
-9.479852 -3.995501 8.738834
-7.654273 -6.964088 8.771016
-1.295424 4.783197 8.539991
-3.667669 3.585683 8.068501
-2.105302 5.645671 7.833740
-1.275184 3.469724 8.952608
-8.635758 0.893344 6.782653
-6.010713 2.348383 7.514588
-8.308125 2.232792 5.987554
-7.867884 0.000000 7.775247
-3.658510 6.958899 5.919593
-4.478733 4.340676 7.246743
-2.921633 6.390104 6.931959
-4.930127 6.209316 5.418734
-3.333616 4.970494 7.545008
-1.273070 0.786801 9.449060
-3.712458 2.294425 8.565334
-1.272011 2.108488 9.257018
-2.593436 0.000000 9.383140
-2.525679 2.881230 8.762930
-7.403146 4.575396 4.434359
-5.828174 3.602010 6.851430
-7.876324 3.480002 5.188758
-6.192213 5.403808 4.916547
-7.010091 2.954564 6.462128
-5.398139 4.911389 6.185717
-5.651215 -1.702514 9.143859
-5.136372 1.547410 8.310824
-6.828929 -0.893384 8.590164
-4.063746 -0.837178 9.284444
-6.414222 0.839130 8.068501
-3.920449 0.807657 8.957052
-11.473917 0.000000 -5.057755
-13.265909 0.000000 -1.847728
-10.670565 1.519886 -4.135545
-12.518154 -1.783051 -4.851608
-11.473917 0.000000 5.057755
-13.265909 0.000000 1.847728
-10.670565 1.519886 4.135545
-12.518154 -1.783051 4.851608
-9.119406 3.952608 -2.442846
-11.851803 1.596792 -0.986872
-9.872276 2.845418 -3.245981
-9.367740 4.100205 -0.844689
-11.437547 1.571639 -2.605151
-12.785752 -5.541706 -3.424962
-13.467110 -1.814422 -1.121374
-12.645590 -3.644751 -4.157840
-13.424977 -5.876033 -1.210529
-13.138602 -1.805382 -2.992604
-9.119406 3.952608 2.442846
-11.851803 1.596792 0.986872
-9.872276 2.845418 3.245981
-9.367740 4.100205 0.844689
-11.437547 1.571639 2.605151
-10.592989 2.927830 0.000000
-12.785752 -5.541706 3.424962
-13.467110 -1.814422 1.121374
-12.645590 -3.644751 4.157840
-13.424977 -5.876033 1.210529
-13.138602 -1.805382 2.992604
-13.520819 -3.737062 0.000000
-4.661607 8.859211 0.000000
-3.582577 9.938242 0.000000
-0.876355 12.644463 0.000000
-2.352354 11.168465 0.000000
7.114488 13.520819 0.000000
4.874039 13.520819 0.000000
0.937093 13.520819 0.000000
2.847818 13.520819 0.000000
-7.114488 -13.520819 0.000000
-4.874039 -13.520819 0.000000
-0.937093 -13.520819 0.000000
-2.847818 -13.520819 0.000000
4.661607 -8.859211 0.000000
3.582577 -9.938242 0.000000
0.876355 -12.644463 0.000000
2.352354 -11.168465 0.000000
-7.906079 -13.426924 1.026835
-6.848367 -12.883408 2.916536
-6.707809 -13.448702 0.991293
-4.721034 -11.407746 6.098292
-5.765943 -12.164313 4.586837
-4.510210 -13.471757 0.940297
-5.761719 -12.998119 2.848044
-5.574121 -13.462397 0.963601
-6.245041 -13.260035 1.948027
-0.431109 -6.068307 8.690068
-1.386511 -7.511238 8.523505
-3.707712 -10.643528 7.514674
-2.524064 -9.217894 8.306780
-0.558135 -13.489361 0.903081
-1.667784 -13.213637 2.698531
-1.501255 -13.486578 0.907259
-3.749294 -11.637682 6.066485
-2.745028 -12.605463 4.441549
-4.242934 -11.994390 5.322035
-3.448501 -13.478055 0.928152
-2.629961 -13.181186 2.719886
-2.467167 -13.482951 0.914966
-4.079519 -13.336546 1.865355
-2.069731 -13.376201 1.819907
-5.239584 -12.678765 3.734501
-3.198770 -12.880794 3.634933
-4.743370 -12.345263 4.542771
-4.684445 -13.073709 2.810990
-3.731339 -12.489381 4.493827
-3.637061 -13.133066 2.768558
4.999290 -8.490312 0.649303
4.593429 -8.641334 1.956219
4.488699 -8.999536 0.663349
3.490051 -8.433240 4.508197
4.088632 -8.625718 3.252527
3.382036 -10.101963 0.705094
4.060132 -9.159434 2.006942
3.948953 -9.537355 0.682657
4.286486 -9.101453 1.337091
0.419276 -5.901745 8.451545
1.251258 -6.778524 7.692046
0.000000 -6.564634 8.358173
2.807259 -8.058648 5.689666
2.054680 -7.503702 6.762022
-0.924116 -8.035642 8.131382
0.857104 -7.452942 7.541740
-0.447506 -7.276915 8.251415
0.432367 -7.030746 7.972280
0.535002 -12.930280 0.865652
1.467802 -11.629210 2.374954
1.349376 -12.122170 0.815474
0.000000 -13.281874 1.789465
2.877512 -8.931701 4.655912
2.237745 -10.275964 3.620747
3.205469 -9.061571 4.020713
2.746394 -10.733953 0.739182
2.185261 -10.952377 2.259980
2.084554 -11.391991 0.773071
3.131383 -10.236950 1.431821
1.787128 -11.549807 1.571416
-1.102985 -13.000911 3.593363
0.994783 -11.725526 3.240856
-0.557861 -13.237610 2.709695
0.526808 -12.500740 2.558861
3.792380 -9.176815 2.703010
2.562008 -10.316683 2.911346
3.512980 -9.143006 3.364414
3.480529 -9.713727 2.088558
2.895928 -9.693131 3.487703
2.855566 -10.311165 2.173678
-3.162565 -11.205651 6.925473
-0.992854 -10.731305 6.632311
-2.664061 -10.823776 7.623372
-2.686627 -11.771480 6.156732
2.459083 -8.713061 5.384968
0.894091 -9.663817 5.972568
2.086062 -8.475434 5.969394
2.152306 -9.430350 4.932272
-1.459648 -8.899175 7.983294
-0.489267 -9.833679 6.909938
-2.028020 -9.806899 7.819897
-0.467322 -8.541716 7.668660
-1.512735 -10.317566 7.255601
-1.663328 -12.666333 4.501568
-0.522435 -11.192231 5.872308
-2.182015 -12.262692 5.341471
-0.549214 -12.521178 4.443232
-1.617738 -11.878777 6.225898
1.288038 -7.852905 7.044704
0.465383 -9.353655 6.572634
1.692859 -8.186160 6.527539
0.448160 -8.191480 7.354222
1.306072 -8.908026 6.264373
0.000000 -8.986052 7.143648
1.434268 -10.922031 3.881650
0.491915 -10.538379 5.529247
1.809901 -10.171455 4.430555
0.512040 -11.673690 4.142494
1.357351 -9.966803 5.223796
0.000000 -11.496562 5.031977
-4.999290 8.490312 0.649303
-4.593429 8.641334 1.956219
-4.488699 8.999536 0.663349
-3.490051 8.433240 4.508197
-4.088632 8.625718 3.252527
-3.382036 10.101963 0.705094
-4.060132 9.159434 2.006942
-3.948953 9.537355 0.682657
-4.286486 9.101453 1.337091
-0.419276 5.901745 8.451545
-1.251258 6.778524 7.692046
-2.807259 8.058648 5.689666
-2.054680 7.503702 6.762022
-0.535002 12.930280 0.865652
-1.467802 11.629210 2.374954
-1.349376 12.122170 0.815474
-2.877512 8.931701 4.655912
-2.237745 10.275964 3.620747
-3.205469 9.061571 4.020713
-2.746394 10.733953 0.739182
-2.185261 10.952377 2.259980
-2.084554 11.391991 0.773071
-3.131383 10.236950 1.431821
-1.787128 11.549807 1.571416
-3.792380 9.176815 2.703010
-2.562008 10.316683 2.911346
-3.512980 9.143006 3.364414
-3.480529 9.713727 2.088558
-2.895928 9.693131 3.487703
-2.855566 10.311165 2.173678
7.906079 13.426924 1.026835
6.848367 12.883408 2.916536
6.707809 13.448702 0.991293
4.721034 11.407746 6.098292
5.765943 12.164313 4.586837
4.510210 13.471757 0.940297
5.761719 12.998119 2.848044
5.574121 13.462397 0.963601
6.245041 13.260035 1.948027
0.431109 6.068307 8.690068
1.386511 7.511238 8.523505
0.000000 6.564634 8.358173
3.707712 10.643528 7.514674
2.524064 9.217894 8.306780
-0.857104 7.452942 7.541740
0.924116 8.035642 8.131382
-0.432367 7.030746 7.972280
0.447506 7.276915 8.251415
0.558135 13.489361 0.903081
1.667784 13.213637 2.698531
1.501255 13.486578 0.907259
0.000000 13.281874 1.789465
3.749294 11.637682 6.066485
2.745028 12.605463 4.441549
4.242934 11.994390 5.322035
3.448501 13.478055 0.928152
2.629961 13.181186 2.719886
2.467167 13.482951 0.914966
4.079519 13.336546 1.865355
2.069731 13.376201 1.819907
-0.994783 11.725526 3.240856
1.102985 13.000911 3.593363
-0.526808 12.500740 2.558861
0.557861 13.237610 2.709695
5.239584 12.678765 3.734501
3.198770 12.880794 3.634933
4.743370 12.345263 4.542771
4.684445 13.073709 2.810990
3.731339 12.489381 4.493827
3.637061 13.133066 2.768558
-2.459083 8.713061 5.384968
-0.894091 9.663817 5.972568
-2.086062 8.475434 5.969394
-2.152306 9.430350 4.932272
3.162565 11.205651 6.925473
0.992854 10.731305 6.632311
2.664061 10.823776 7.623372
2.686627 11.771480 6.156732
-1.288038 7.852905 7.044704
-0.465383 9.353655 6.572634
-1.692859 8.186160 6.527539
-0.448160 8.191480 7.354222
-1.306072 8.908026 6.264373
-1.434268 10.922031 3.881650
-0.491915 10.538379 5.529247
-1.809901 10.171455 4.430555
-0.512040 11.673690 4.142494
-1.357351 9.966803 5.223796
1.459648 8.899175 7.983294
0.489267 9.833679 6.909938
2.028020 9.806899 7.819897
0.467322 8.541716 7.668660
1.512735 10.317566 7.255601
0.000000 8.986052 7.143648
1.663328 12.666333 4.501568
0.522435 11.192231 5.872308
2.182015 12.262692 5.341471
0.549214 12.521178 4.443232
1.617738 11.878777 6.225898
0.000000 11.496562 5.031977
0.000000 -4.714918 8.960527
0.000000 -3.339676 9.264424
0.000000 -0.661831 9.549202
0.000000 -1.991743 9.456360
0.000000 4.714918 8.960527
0.000000 3.339676 9.264424
0.000000 0.661831 9.549202
0.000000 1.991743 9.456360
-7.906079 -13.426924 -1.026835
-6.848367 -12.883408 -2.916536
-6.707809 -13.448702 -0.991293
-4.721034 -11.407746 -6.098292
-5.765943 -12.164313 -4.586837
-4.510210 -13.471757 -0.940297
-5.761719 -12.998119 -2.848044
-5.574121 -13.462397 -0.963601
-6.245041 -13.260035 -1.948027
-0.431109 -6.068307 -8.690068
-1.386511 -7.511238 -8.523505
-3.707712 -10.643528 -7.514674
-2.524064 -9.217894 -8.306780
-0.558135 -13.489361 -0.903081
-1.667784 -13.213637 -2.698531
-1.501255 -13.486578 -0.907259
-3.749294 -11.637682 -6.066485
-2.745028 -12.605463 -4.441549
-4.242934 -11.994390 -5.322035
-3.448501 -13.478055 -0.928152
-2.629961 -13.181186 -2.719886
-2.467167 -13.482951 -0.914966
-4.079519 -13.336546 -1.865355
-2.069731 -13.376201 -1.819907
-5.239584 -12.678765 -3.734501
-3.198770 -12.880794 -3.634933
-4.743370 -12.345263 -4.542771
-4.684445 -13.073709 -2.810990
-3.731339 -12.489381 -4.493827
-3.637061 -13.133066 -2.768558
4.999290 -8.490312 -0.649303
4.593429 -8.641334 -1.956219
4.488699 -8.999536 -0.663349
3.490051 -8.433240 -4.508197
4.088632 -8.625718 -3.252527
3.382036 -10.101963 -0.705094
4.060132 -9.159434 -2.006942
3.948953 -9.537355 -0.682657
4.286486 -9.101453 -1.337091
0.419276 -5.901745 -8.451545
1.251258 -6.778524 -7.692046
0.000000 -6.564634 -8.358173
2.807259 -8.058648 -5.689666
2.054680 -7.503702 -6.762022
-0.924116 -8.035642 -8.131382
0.857104 -7.452942 -7.541740
-0.447506 -7.276915 -8.251415
0.432367 -7.030746 -7.972280
0.535002 -12.930280 -0.865652
1.467802 -11.629210 -2.374954
1.349376 -12.122170 -0.815474
0.000000 -13.281874 -1.789465
2.877512 -8.931701 -4.655912
2.237745 -10.275964 -3.620747
3.205469 -9.061571 -4.020713
2.746394 -10.733953 -0.739182
2.185261 -10.952377 -2.259980
2.084554 -11.391991 -0.773071
3.131383 -10.236950 -1.431821
1.787128 -11.549807 -1.571416
-1.102985 -13.000911 -3.593363
0.994783 -11.725526 -3.240856
-0.557861 -13.237610 -2.709695
0.526808 -12.500740 -2.558861
3.792380 -9.176815 -2.703010
2.562008 -10.316683 -2.911346
3.512980 -9.143006 -3.364414
3.480529 -9.713727 -2.088558
2.895928 -9.693131 -3.487703
2.855566 -10.311165 -2.173678
-3.162565 -11.205651 -6.925473
-0.992854 -10.731305 -6.632311
-2.664061 -10.823776 -7.623372
-2.686627 -11.771480 -6.156732
2.459083 -8.713061 -5.384968
0.894091 -9.663817 -5.972568
2.086062 -8.475434 -5.969394
2.152306 -9.430350 -4.932272
-1.459648 -8.899175 -7.983294
-0.489267 -9.833679 -6.909938
-2.028020 -9.806899 -7.819897
-0.467322 -8.541716 -7.668660
-1.512735 -10.317566 -7.255601
-1.663328 -12.666333 -4.501568
-0.522435 -11.192231 -5.872308
-2.182015 -12.262692 -5.341471
-0.549214 -12.521178 -4.443232
-1.617738 -11.878777 -6.225898
1.288038 -7.852905 -7.044704
0.465383 -9.353655 -6.572634
1.692859 -8.186160 -6.527539
0.448160 -8.191480 -7.354222
1.306072 -8.908026 -6.264373
0.000000 -8.986052 -7.143648
1.434268 -10.922031 -3.881650
0.491915 -10.538379 -5.529247
1.809901 -10.171455 -4.430555
0.512040 -11.673690 -4.142494
1.357351 -9.966803 -5.223796
0.000000 -11.496562 -5.031977
-4.999290 8.490312 -0.649303
-4.593429 8.641334 -1.956219
-4.488699 8.999536 -0.663349
-3.490051 8.433240 -4.508197
-4.088632 8.625718 -3.252527
-3.382036 10.101963 -0.705094
-4.060132 9.159434 -2.006942
-3.948953 9.537355 -0.682657
-4.286486 9.101453 -1.337091
-0.419276 5.901745 -8.451545
-1.251258 6.778524 -7.692046
-2.807259 8.058648 -5.689666
-2.054680 7.503702 -6.762022
-0.535002 12.930280 -0.865652
-1.467802 11.629210 -2.374954
-1.349376 12.122170 -0.815474
-2.877512 8.931701 -4.655912
-2.237745 10.275964 -3.620747
-3.205469 9.061571 -4.020713
-2.746394 10.733953 -0.739182
-2.185261 10.952377 -2.259980
-2.084554 11.391991 -0.773071
-3.131383 10.236950 -1.431821
-1.787128 11.549807 -1.571416
-3.792380 9.176815 -2.703010
-2.562008 10.316683 -2.911346
-3.512980 9.143006 -3.364414
-3.480529 9.713727 -2.088558
-2.895928 9.693131 -3.487703
-2.855566 10.311165 -2.173678
7.906079 13.426924 -1.026835
6.848367 12.883408 -2.916536
6.707809 13.448702 -0.991293
4.721034 11.407746 -6.098292
5.765943 12.164313 -4.586837
4.510210 13.471757 -0.940297
5.761719 12.998119 -2.848044
5.574121 13.462397 -0.963601
6.245041 13.260035 -1.948027
0.431109 6.068307 -8.690068
1.386511 7.511238 -8.523505
0.000000 6.564634 -8.358173
3.707712 10.643528 -7.514674
2.524064 9.217894 -8.306780
-0.857104 7.452942 -7.541740
0.924116 8.035642 -8.131382
-0.432367 7.030746 -7.972280
0.447506 7.276915 -8.251415
0.558135 13.489361 -0.903081
1.667784 13.213637 -2.698531
1.501255 13.486578 -0.907259
0.000000 13.281874 -1.789465
3.749294 11.637682 -6.066485
2.745028 12.605463 -4.441549
4.242934 11.994390 -5.322035
3.448501 13.478055 -0.928152
2.629961 13.181186 -2.719886
2.467167 13.482951 -0.914966
4.079519 13.336546 -1.865355
2.069731 13.376201 -1.819907
-0.994783 11.725526 -3.240856
1.102985 13.000911 -3.593363
-0.526808 12.500740 -2.558861
0.557861 13.237610 -2.709695
5.239584 12.678765 -3.734501
3.198770 12.880794 -3.634933
4.743370 12.345263 -4.542771
4.684445 13.073709 -2.810990
3.731339 12.489381 -4.493827
3.637061 13.133066 -2.768558
-2.459083 8.713061 -5.384968
-0.894091 9.663817 -5.972568
-2.086062 8.475434 -5.969394
-2.152306 9.430350 -4.932272
3.162565 11.205651 -6.925473
0.992854 10.731305 -6.632311
2.664061 10.823776 -7.623372
2.686627 11.771480 -6.156732
-1.288038 7.852905 -7.044704
-0.465383 9.353655 -6.572634
-1.692859 8.186160 -6.527539
-0.448160 8.191480 -7.354222
-1.306072 8.908026 -6.264373
-1.434268 10.922031 -3.881650
-0.491915 10.538379 -5.529247
-1.809901 10.171455 -4.430555
-0.512040 11.673690 -4.142494
-1.357351 9.966803 -5.223796
1.459648 8.899175 -7.983294
0.489267 9.833679 -6.909938
2.028020 9.806899 -7.819897
0.467322 8.541716 -7.668660
1.512735 10.317566 -7.255601
0.000000 8.986052 -7.143648
1.663328 12.666333 -4.501568
0.522435 11.192231 -5.872308
2.182015 12.262692 -5.341471
0.549214 12.521178 -4.443232
1.617738 11.878777 -6.225898
0.000000 11.496562 -5.031977
0.000000 -4.714918 -8.960527
0.000000 -3.339676 -9.264424
0.000000 -0.661831 -9.549202
0.000000 -1.991743 -9.456360
0.000000 4.714918 -8.960527
0.000000 3.339676 -9.264424
0.000000 0.661831 -9.549202
0.000000 1.991743 -9.456360
9.403787 13.466615 -0.668071
11.134876 12.635490 -2.055404
8.816048 13.213228 -1.701261
11.861824 8.374831 -4.132110
11.753061 10.591366 -3.218249
7.564443 12.457522 -3.559043
10.254688 12.116401 -3.028865
8.185992 12.853094 -2.669155
9.628798 12.789457 -2.385991
10.873093 0.831529 -6.402325
11.731285 2.655720 -6.235938
11.848199 6.333747 -4.903313
11.797405 4.448486 -5.592027
5.266129 10.814800 -6.683914
7.384424 10.250585 -6.335210
5.804272 11.214993 -5.965403
11.183866 8.125352 -5.021744
9.433627 9.395743 -5.806888
11.094067 9.145603 -4.608158
6.942669 12.029837 -4.428973
8.009745 10.677969 -5.597706
6.364734 11.622752 -5.212050
8.183554 11.861711 -4.208349
6.908326 10.976468 -5.800777
10.684675 11.187873 -3.637738
9.132234 10.280447 -5.333039
10.940690 10.186476 -4.148020
9.456963 11.601046 -3.950109
10.163166 9.782697 -5.010253
8.708716 11.120501 -4.806366
5.554714 -7.954582 -0.394622
6.286796 -7.134049 -1.160489
5.379004 -8.061890 -1.038004
7.614195 -5.375868 -2.652433
6.968791 -6.279983 -1.908210
4.954123 -8.158710 -2.330897
6.087230 -7.192352 -1.797948
5.178066 -8.130251 -1.688379
5.742602 -7.627614 -1.423002
9.934732 -0.759767 -5.849797
9.399598 -2.127874 -4.996495
8.232390 -4.400828 -3.406931
8.828105 -3.328842 -4.184565
3.817146 -7.839092 -4.844825
5.047602 -7.006757 -4.330414
4.131435 -7.982744 -4.246127
7.349879 -5.339867 -3.300219
6.209164 -6.184229 -3.822064
7.054554 -5.815555 -2.930260
4.698302 -8.140934 -2.997212
5.336127 -7.113709 -3.729216
4.426964 -8.084156 -3.625219
5.291618 -7.669973 -2.721186
4.747100 -7.542550 -3.986041
6.429431 -6.732227 -2.188985
5.928815 -6.674256 -3.462307
6.746513 -6.281431 -2.557852
5.869073 -7.199710 -2.451472
6.491907 -6.248876 -3.200390
5.617292 -7.172941 -3.100200
0.661605 -5.094006 -8.651170
1.907633 -4.479345 -8.426715
1.072736 -5.558991 -8.331649
0.653218 -4.420148 -8.862096
4.244728 -3.286085 -7.940384
3.088862 -3.882894 -8.191677
1.888874 -6.395073 -7.556083
2.309593 -4.908844 -8.084142
1.485706 -5.995650 -7.963726
1.704599 -5.227811 -8.208357
0.641573 -3.077357 -9.191901
1.897078 -3.837872 -8.658028
0.647229 -3.744011 -9.042388
1.287073 -4.126136 -8.760985
9.381913 -0.465431 -6.551425
7.932916 -1.290440 -6.990788
9.190322 -1.183294 -6.131909
5.411612 -2.670069 -7.664822
6.626870 -2.013614 -7.353726
8.745087 -2.498421 -5.310182
7.812683 -1.953019 -6.612246
8.974650 -1.863733 -5.715855
8.481130 -1.582233 -6.385188
3.417775 -7.611687 -5.530077
3.883053 -6.308245 -6.282912
3.062753 -7.373530 -6.078508
4.066690 -7.215205 -5.269316
4.656103 -3.668455 -7.533733
4.291575 -5.002330 -6.943914
4.083828 -3.973520 -7.677620
2.304651 -6.769165 -7.087961
3.515873 -6.020540 -6.777514
2.688441 -7.090949 -6.602124
2.520742 -6.034914 -7.403151
3.299091 -6.692120 -6.441593
5.299712 -6.424030 -4.762690
4.527248 -5.953193 -6.040401
4.695694 -6.817652 -5.012755
4.304380 -6.583005 -5.669100
2.926372 -4.587256 -7.948520
3.723338 -5.327717 -7.102497
3.505211 -4.280415 -7.816540
2.728288 -5.305429 -7.689991
3.909428 -4.655860 -7.397580
3.133945 -5.678435 -7.251017
0.638195 -0.394426 -9.532739
1.901298 -1.175067 -9.309901
0.638090 -1.055857 -9.485333
4.280322 -2.645385 -8.211185
3.124382 -1.930974 -8.867241
3.695179 -2.945941 -8.327907
0.641686 -2.384153 -9.318177
1.896257 -1.833563 -9.189695
0.638824 -1.722563 -9.413724
1.275375 -2.789238 -9.118428
1.274126 -1.449029 -9.364747
2.518274 -3.533191 -8.549629
2.526095 -2.222984 -8.951502
3.106070 -3.243228 -8.440940
1.905053 -3.174723 -8.860260
3.118482 -2.589355 -8.666982
1.905331 -2.503037 -9.038220
7.688926 -4.752018 -3.744025
7.071350 -4.370335 -5.094134
7.963811 -4.236057 -4.121637
7.097259 -5.183179 -4.000212
5.341620 -3.301303 -7.352293
6.280813 -3.881756 -6.306138
5.926656 -2.986240 -7.189326
5.151375 -3.975667 -7.053710
8.487035 -3.124635 -4.898044
7.280808 -3.816814 -5.461471
8.231989 -3.691513 -4.507918
8.098474 -2.873212 -5.587247
7.644298 -4.039812 -4.811138
5.920482 -6.007211 -4.502372
6.450476 -4.782297 -5.321529
6.505935 -5.602729 -4.253986
5.564753 -5.808839 -5.169814
6.794554 -4.995772 -4.679785
7.145815 -2.323463 -6.824417
6.859904 -3.558613 -6.093728
6.529921 -2.659039 -7.013400
7.647341 -2.603888 -6.233974
6.412939 -3.284416 -6.662351
7.468150 -3.227792 -5.848477
4.750031 -5.285625 -6.406955
6.044640 -4.530425 -5.957371
4.953469 -4.640158 -6.737019
5.171178 -5.566221 -5.810371
5.618167 -4.265708 -6.523862
5.814387 -5.174753 -5.570069
0.687437 5.292896 -8.988946
2.115635 4.967756 -9.345532
1.150411 5.961507 -8.934928
0.674884 4.566755 -9.156033
5.092366 3.942289 -9.526013
3.596632 4.521193 -9.538284
2.202184 7.455831 -8.809419
2.663458 5.660954 -9.322756
1.655806 6.682096 -8.875499
1.899852 5.826627 -9.148578
0.655897 3.146061 -9.397117
2.069026 4.185731 -9.442778
0.665101 3.847397 -9.292081
1.369071 4.389006 -9.319134
9.865011 0.489397 -6.888774
9.005309 1.464886 -7.935822
10.527802 1.355501 -7.024295
9.046600 0.000000 -7.105335
6.544078 3.228823 -9.268809
7.875583 2.393042 -8.739402
11.254770 3.215423 -6.834109
9.572306 2.392891 -8.101498
11.233324 2.332783 -7.154379
10.090972 1.882564 -7.597190
7.566183 -0.859882 -7.477098
8.170014 0.928506 -8.073819
8.279414 -0.449024 -7.301607
8.638195 0.468482 -7.618016
4.643466 10.341409 -7.513287
5.412109 8.792285 -8.756976
4.130169 9.943316 -8.196960
5.676844 10.071972 -7.355633
5.883589 4.635568 -9.519847
5.893399 6.869442 -9.535719
5.085181 4.947825 -9.560169
2.839726 8.340774 -8.733585
4.798517 8.216925 -9.250055
3.521358 9.287825 -8.647555
3.086157 7.388574 -9.063712
4.525729 9.180322 -8.836647
7.724764 9.363551 -6.942011
6.395896 8.410409 -8.533613
6.713783 9.747704 -7.167109
6.055360 9.260909 -7.975235
3.482104 5.458398 -9.457981
4.949243 7.081862 -9.440987
4.276833 5.222687 -9.537240
3.300566 6.418280 -9.303021
5.039749 6.001995 -9.536420
4.010570 7.266802 -9.279264
0.639959 0.395517 -9.559100
1.949546 1.204885 -9.546152
0.642846 1.063727 -9.556030
1.282301 0.000000 -9.517569
4.935104 3.050062 -9.467290
3.353558 2.072613 -9.517660
4.233607 3.375197 -9.541375
0.652704 2.425087 -9.478164
1.972782 1.907558 -9.560552
0.646657 1.743683 -9.529141
1.328109 2.904567 -9.495455
1.300668 1.479215 -9.559829
2.560299 -0.785886 -9.263250
2.618590 0.803778 -9.474149
1.927890 -0.396906 -9.418276
1.944235 0.400271 -9.498124
2.806203 3.937161 -9.527158
2.697226 2.373580 -9.557923
3.517870 3.673212 -9.560032
2.045175 3.408232 -9.511956
3.436838 2.853694 -9.551766
2.013266 2.644832 -9.550227
11.241554 6.947663 -5.473931
9.992954 6.175986 -7.198830
11.264004 5.991473 -5.829638
10.514730 7.678983 -5.926394
6.816067 4.212561 -9.381745
8.755793 5.411378 -8.791097
7.571243 3.814891 -9.184290
6.934225 5.351614 -9.494943
11.265827 4.147691 -6.501743
10.064394 5.276052 -7.549492
11.271049 5.054334 -6.172138
10.711627 3.800317 -7.390096
10.664241 5.635773 -6.711818
8.750713 8.878901 -6.654688
9.209092 6.827497 -7.597339
9.670727 8.328159 -6.323325
8.051846 8.405022 -7.480395
9.852511 7.244169 -6.785969
8.955246 2.911799 -8.552464
9.441782 4.897977 -8.387239
8.292440 3.376752 -8.906418
10.133084 3.450274 -8.260307
8.733864 4.473088 -9.073542
10.102316 4.366299 -7.911353
6.720739 7.478543 -9.065094
8.542280 6.402392 -8.418951
7.003419 6.560447 -9.525076
7.373822 7.937132 -8.285277
7.909184 6.005210 -9.184210
8.322453 7.406909 -7.972746
4.984545 -2.276227 -8.065164
5.279847 -0.790391 -8.542972
5.588838 -1.953073 -7.935115
4.416019 -1.927028 -8.443290
5.748967 2.625306 -9.302024
5.538771 0.829152 -8.961920
6.405920 2.238611 -9.095220
4.895209 2.136133 -9.359488
6.860331 -1.254328 -7.647380
5.930883 -0.419943 -8.440366
6.215925 -1.612044 -7.795365
7.119274 -0.433843 -7.929784
5.762834 -1.201505 -8.194831
3.212872 -1.187155 -9.040252
4.651024 -0.413783 -8.864544
3.820471 -1.560679 -8.770854
3.265372 -0.403622 -9.201930
4.540401 -1.179778 -8.662912
7.614522 1.392223 -8.488096
6.099408 0.431876 -8.680197
7.034761 1.824402 -8.822264
7.372760 0.449290 -8.212129
6.256198 1.304368 -8.896401
6.625413 0.000000 -8.334160
3.355959 1.240026 -9.442864
4.752154 0.422780 -9.057291
4.097064 1.673669 -9.405841
3.313499 0.409571 -9.337552
4.832418 1.255656 -9.220068
3.997564 0.000000 -9.133237
9.403787 13.466615 0.668071
11.134876 12.635490 2.055404
8.816048 13.213228 1.701261
10.619453 13.520819 0.000000
11.861824 8.374831 4.132110
11.753061 10.591366 3.218249
7.564443 12.457522 3.559043
10.254688 12.116401 3.028865
8.185992 12.853094 2.669155
9.628798 12.789457 2.385991
12.433007 12.581138 -1.429822
12.433007 12.581138 1.429822
11.790064 13.368950 -0.725049
11.790064 13.368950 0.725049
10.873093 0.831529 6.402325
11.731285 2.655720 6.235938
11.848199 6.333747 4.903313
11.797405 4.448486 5.592027
5.266129 10.814800 6.683914
7.384424 10.250585 6.335210
5.804272 11.214993 5.965403
11.183866 8.125352 5.021744
9.433627 9.395743 5.806888
11.094067 9.145603 4.608158
6.942669 12.029837 4.428973
8.009745 10.677969 5.597706
6.364734 11.622752 5.212050
8.183554 11.861711 4.208349
6.908326 10.976468 5.800777
10.684675 11.187873 3.637738
9.132234 10.280447 5.333039
10.940690 10.186476 4.148020
9.456963 11.601046 3.950109
10.163166 9.782697 5.010253
8.708716 11.120501 4.806366
12.458785 7.699952 -3.516237
13.375107 8.266271 -1.237457
12.513296 8.813330 -3.079903
12.458785 7.699952 3.516237
13.375107 8.266271 1.237457
12.513296 8.813330 3.079903
12.572540 11.278606 -2.062156
13.465526 9.461967 -0.669966
12.558996 10.014384 -2.597140
13.347419 11.983168 -0.730245
13.093577 9.207769 -1.919747
12.572540 11.278606 2.062156
13.465526 9.461967 0.669966
12.558996 10.014384 2.597140
13.347419 11.983168 0.730245
13.093577 9.207769 1.919747
13.520819 10.748654 0.000000
5.554714 -7.954582 0.394622
6.286796 -7.134049 1.160489
5.379004 -8.061890 1.038004
5.947891 -7.572928 0.000000
7.614195 -5.375868 2.652433
6.968791 -6.279983 1.908210
4.954123 -8.158710 2.330897
6.087230 -7.192352 1.797948
5.178066 -8.130251 1.688379
5.742602 -7.627614 1.423002
6.698524 -6.778333 -0.770345
6.698524 -6.778333 0.770345
6.330895 -7.178708 -0.389329
6.330895 -7.178708 0.389329
9.934732 -0.759767 5.849797
9.399598 -2.127874 4.996495
8.232390 -4.400828 3.406931
8.828105 -3.328842 4.184565
3.817146 -7.839092 4.844825
5.047602 -7.006757 4.330414
4.131435 -7.982744 4.246127
7.349879 -5.339867 3.300219
6.209164 -6.184229 3.822064
7.054554 -5.815555 2.930260
4.698302 -8.140934 2.997212
5.336127 -7.113709 3.729216
4.426964 -8.084156 3.625219
5.291618 -7.669973 2.721186
4.747100 -7.542550 3.986041
6.429431 -6.732227 2.188985
5.928815 -6.674256 3.462307
6.746513 -6.281431 2.557852
5.869073 -7.199710 2.451472
6.491907 -6.248876 3.200390
5.617292 -7.172941 3.100200
8.113129 -5.014190 -2.289764
8.329137 -5.147690 -0.770607
7.772823 -5.474533 -1.913128
8.113129 -5.014190 2.289764
8.329137 -5.147690 0.770607
7.772823 -5.474533 1.913128
7.074477 -6.346390 -1.160360
7.934128 -5.575160 -0.394756
7.424843 -5.920475 -1.535422
7.118597 -6.390999 -0.389462
7.880171 -5.541557 -1.155371
7.074477 -6.346390 1.160360
7.934128 -5.575160 0.394756
7.424843 -5.920475 1.535422
7.118597 -6.390999 0.389462
7.880171 -5.541557 1.155371
7.532613 -5.988206 0.000000
0.661605 -5.094006 8.651170
1.907633 -4.479345 8.426715
1.072736 -5.558991 8.331649
0.653218 -4.420148 8.862096
4.244728 -3.286085 7.940384
3.088862 -3.882894 8.191677
1.888874 -6.395073 7.556083
2.309593 -4.908844 8.084142
1.485706 -5.995650 7.963726
1.704599 -5.227811 8.208357
0.641573 -3.077357 9.191901
1.897078 -3.837872 8.658028
0.647229 -3.744011 9.042388
1.287073 -4.126136 8.760985
9.381913 -0.465431 6.551425
7.932916 -1.290440 6.990788
9.190322 -1.183294 6.131909
5.411612 -2.670069 7.664822
6.626870 -2.013614 7.353726
8.745087 -2.498421 5.310182
7.812683 -1.953019 6.612246
8.974650 -1.863733 5.715855
8.481130 -1.582233 6.385188
3.417775 -7.611687 5.530077
3.883053 -6.308245 6.282912
3.062753 -7.373530 6.078508
4.066690 -7.215205 5.269316
4.656103 -3.668455 7.533733
4.291575 -5.002330 6.943914
4.083828 -3.973520 7.677620
2.304651 -6.769165 7.087961
3.515873 -6.020540 6.777514
2.688441 -7.090949 6.602124
2.520742 -6.034914 7.403151
3.299091 -6.692120 6.441593
5.299712 -6.424030 4.762690
4.527248 -5.953193 6.040401
4.695694 -6.817652 5.012755
4.304380 -6.583005 5.669100
2.926372 -4.587256 7.948520
3.723338 -5.327717 7.102497
3.505211 -4.280415 7.816540
2.728288 -5.305429 7.689991
3.909428 -4.655860 7.397580
3.133945 -5.678435 7.251017
0.638195 -0.394426 9.532739
1.901298 -1.175067 9.309901
0.638090 -1.055857 9.485333
4.280322 -2.645385 8.211185
3.124382 -1.930974 8.867241
3.695179 -2.945941 8.327907
0.641686 -2.384153 9.318177
1.896257 -1.833563 9.189695
0.638824 -1.722563 9.413724
1.275375 -2.789238 9.118428
1.274126 -1.449029 9.364747
2.518274 -3.533191 8.549629
2.526095 -2.222984 8.951502
3.106070 -3.243228 8.440940
1.905053 -3.174723 8.860260
3.118482 -2.589355 8.666982
1.905331 -2.503037 9.038220
7.688926 -4.752018 3.744025
7.071350 -4.370335 5.094134
7.963811 -4.236057 4.121637
7.097259 -5.183179 4.000212
5.341620 -3.301303 7.352293
6.280813 -3.881756 6.306138
5.926656 -2.986240 7.189326
5.151375 -3.975667 7.053710
8.487035 -3.124635 4.898044
7.280808 -3.816814 5.461471
8.231989 -3.691513 4.507918
8.098474 -2.873212 5.587247
7.644298 -4.039812 4.811138
5.920482 -6.007211 4.502372
6.450476 -4.782297 5.321529
6.505935 -5.602729 4.253986
5.564753 -5.808839 5.169814
6.794554 -4.995772 4.679785
7.145815 -2.323463 6.824417
6.859904 -3.558613 6.093728
6.529921 -2.659039 7.013400
7.647341 -2.603888 6.233974
6.412939 -3.284416 6.662351
7.468150 -3.227792 5.848477
4.750031 -5.285625 6.406955
6.044640 -4.530425 5.957371
4.953469 -4.640158 6.737019
5.171178 -5.566221 5.810371
5.618167 -4.265708 6.523862
5.814387 -5.174753 5.570069
0.687437 5.292896 8.988946
2.115635 4.967756 9.345532
1.150411 5.961507 8.934928
0.674884 4.566755 9.156033
5.092366 3.942289 9.526013
3.596632 4.521193 9.538284
2.202184 7.455831 8.809419
2.663458 5.660954 9.322756
1.655806 6.682096 8.875499
1.899852 5.826627 9.148578
0.655897 3.146061 9.397117
2.069026 4.185731 9.442778
0.665101 3.847397 9.292081
1.369071 4.389006 9.319134
9.865011 0.489397 6.888774
9.005309 1.464886 7.935822
10.527802 1.355501 7.024295
9.046600 0.000000 7.105335
6.544078 3.228823 9.268809
7.875583 2.393042 8.739402
11.254770 3.215423 6.834109
9.572306 2.392891 8.101498
11.233324 2.332783 7.154379
10.090972 1.882564 7.597190
7.566183 -0.859882 7.477098
8.170014 0.928506 8.073819
8.279414 -0.449024 7.301607
8.638195 0.468482 7.618016
4.643466 10.341409 7.513287
5.412109 8.792285 8.756976
4.130169 9.943316 8.196960
5.676844 10.071972 7.355633
5.883589 4.635568 9.519847
5.893399 6.869442 9.535719
5.085181 4.947825 9.560169
2.839726 8.340774 8.733585
4.798517 8.216925 9.250055
3.521358 9.287825 8.647555
3.086157 7.388574 9.063712
4.525729 9.180322 8.836647
7.724764 9.363551 6.942011
6.395896 8.410409 8.533613
6.713783 9.747704 7.167109
6.055360 9.260909 7.975235
3.482104 5.458398 9.457981
4.949243 7.081862 9.440987
4.276833 5.222687 9.537240
3.300566 6.418280 9.303021
5.039749 6.001995 9.536420
4.010570 7.266802 9.279264
0.639959 0.395517 9.559100
1.949546 1.204885 9.546152
0.642846 1.063727 9.556030
1.282301 0.000000 9.517569
4.935104 3.050062 9.467290
3.353558 2.072613 9.517660
4.233607 3.375197 9.541375
0.652704 2.425087 9.478164
1.972782 1.907558 9.560552
0.646657 1.743683 9.529141
1.328109 2.904567 9.495455
1.300668 1.479215 9.559829
2.560299 -0.785886 9.263250
2.618590 0.803778 9.474149
1.927890 -0.396906 9.418276
1.944235 0.400271 9.498124
2.806203 3.937161 9.527158
2.697226 2.373580 9.557923
3.517870 3.673212 9.560032
2.045175 3.408232 9.511956
3.436838 2.853694 9.551766
2.013266 2.644832 9.550227
11.241554 6.947663 5.473931
9.992954 6.175986 7.198830
11.264004 5.991473 5.829638
10.514730 7.678983 5.926394
6.816067 4.212561 9.381745
8.755793 5.411378 8.791097
7.571243 3.814891 9.184290
6.934225 5.351614 9.494943
11.265827 4.147691 6.501743
10.064394 5.276052 7.549492
11.271049 5.054334 6.172138
10.711627 3.800317 7.390096
10.664241 5.635773 6.711818
8.750713 8.878901 6.654688
9.209092 6.827497 7.597339
9.670727 8.328159 6.323325
8.051846 8.405022 7.480395
9.852511 7.244169 6.785969
8.955246 2.911799 8.552464
9.441782 4.897977 8.387239
8.292440 3.376752 8.906418
10.133084 3.450274 8.260307
8.733864 4.473088 9.073542
10.102316 4.366299 7.911353
6.720739 7.478543 9.065094
8.542280 6.402392 8.418951
7.003419 6.560447 9.525076
7.373822 7.937132 8.285277
7.909184 6.005210 9.184210
8.322453 7.406909 7.972746
4.984545 -2.276227 8.065164
5.279847 -0.790391 8.542972
5.588838 -1.953073 7.935115
4.416019 -1.927028 8.443290
5.748967 2.625306 9.302024
5.538771 0.829152 8.961920
6.405920 2.238611 9.095220
4.895209 2.136133 9.359488
6.860331 -1.254328 7.647380
5.930883 -0.419943 8.440366
6.215925 -1.612044 7.795365
7.119274 -0.433843 7.929784
5.762834 -1.201505 8.194831
3.212872 -1.187155 9.040252
4.651024 -0.413783 8.864544
3.820471 -1.560679 8.770854
3.265372 -0.403622 9.201930
4.540401 -1.179778 8.662912
7.614522 1.392223 8.488096
6.099408 0.431876 8.680197
7.034761 1.824402 8.822264
7.372760 0.449290 8.212129
6.256198 1.304368 8.896401
6.625413 0.000000 8.334160
3.355959 1.240026 9.442864
4.752154 0.422780 9.057291
4.097064 1.673669 9.405841
3.313499 0.409571 9.337552
4.832418 1.255656 9.220068
3.997564 0.000000 9.133237
10.847081 0.000000 -5.707600
12.045793 0.000000 -4.342316
11.612989 0.855984 -5.792210
10.524685 -0.775766 -5.249397
13.456336 0.000000 -0.932624
12.958174 0.000000 -2.729311
12.178201 2.668390 -5.398271
12.794340 0.893015 -4.283417
12.130569 1.782098 -5.713100
12.317918 0.881682 -5.100248
9.863126 -2.161129 -4.372060
11.557371 -0.806678 -3.869292
10.194534 -1.497675 -4.801291
11.072398 -0.792531 -4.584539
10.847081 0.000000 5.707600
12.045793 0.000000 4.342316
11.612989 0.855984 5.792210
10.524685 -0.775766 5.249397
13.456336 0.000000 0.932624
12.958174 0.000000 2.729311
12.178201 2.668390 5.398271
12.794340 0.893015 4.283417
12.130569 1.782098 5.713100
12.317918 0.881682 5.100248
9.863126 -2.161129 4.372060
11.557371 -0.806678 3.869292
10.194534 -1.497675 4.801291
11.072398 -0.792531 4.584539
12.392163 6.459780 -3.992364
13.066795 4.604100 -2.845490
12.337306 5.474191 -4.364238
12.883442 6.738312 -2.940412
13.508438 0.904358 -0.558924
13.388451 2.734232 -1.689849
13.432224 0.903603 -1.495205
12.232493 3.603053 -5.055159
12.992598 3.666484 -3.226535
