4.255735949 -19.54279519 6.885925413
6.323729624 -17.87660958 7.932037164
5.212309434 -20.37169155 1.402875047
4.071229523 -20.4047237 4.210433947
3.814657286 -20.84692012 1.414692162
6.066064405 -19.83085303 2.773699784
3.228968618 -20.86809304 2.839220134
-1.775739305 -20.93067799 5.785097115
1.750015967 -20.62747645 5.70129427
-0.8936975471 -21.20674627 4.34095143
0.8876059142 -21.06219657 4.311362581
7.526215838 -18.21196648 5.364293172
4.902241654 -19.74032683 5.57067849
6.953765232 -18.09811529 6.659686961
6.846260274 -19.10706824 4.1082287
5.647806896 -18.9041045 6.801919961
5.495859425 -19.84500419 4.183489172
-5.155624794 -18.26749028 11.28992988
-1.694691456 -18.31714603 11.32061882
-4.300586463 -17.47279336 12.30638932
-4.377059949 -19.1781306 10.03056587
4.798476603 -17.00203724 10.50783689
1.659544167 -17.93725503 11.08583327
4.042401636 -16.42381779 11.56757776
4.148394863 -18.17623231 9.506551981
-2.551412943 -15.55544156 13.95451456
-0.866852105 -17.42270131 12.24259848
-3.424151808 -16.55817817 13.20328061
-0.8453654952 -15.45159716 13.87227621
-2.565792913 -17.49991484 12.30642902
-2.691220075 -20.49378604 7.28341618
-0.8937255888 -19.14644881 10.04570495
-3.544944634 -19.92221501 8.677860888
-0.8972294043 -20.45537141 7.25873836
-2.615993798 -19.20880478 10.06770916
2.453501019 -14.95849263 13.41900212
0.8568300846 -17.22127057 12.10105695
3.253757531 -15.7342022 12.54625266
0.834573879 -15.25434791 13.69518798
2.477031919 -16.8945231 11.88070064
0 -16.39458625 13.03321503
2.625157151 -19.99071331 7.104625982
0.8851223839 -18.96214075 9.949002717
3.414145434 -19.1871373 8.357670481
0.8903126894 -20.29768156 7.202780961
2.539809549 -18.64939658 9.774512418
0 -19.80392053 8.668059195
-9.94760221 16.89404982 1.291986121
-9.151292266 17.2157601 3.8972908
-8.948809884 17.94175692 1.322472659
-6.912542183 16.70323056 8.929124389
-8.13485943 17.16197602 6.47132203
-6.596367473 19.70299899 1.375223503
-8.074739695 18.2161675 3.991381286
-7.824029446 18.89628774 1.352543265
-8.53754503 18.12768629 2.663132239
-0.7824659722 11.01401483 15.77252783
-2.37756135 12.88012016 14.61593578
-5.509189256 15.81493194 11.16585269
-3.97455737 14.51510194 13.080402
-0.8853020252 21.39654383 1.432448767
-2.623679463 20.78707387 4.245202547
-2.357789967 21.18129256 1.424892169
-5.652374086 17.54477902 9.145733387
-4.255735949 19.54279519 6.885925413
-6.323729624 17.87660958 7.932037164
-5.212309434 20.37169155 1.402875047
-4.071229523 20.4047237 4.210433947
-3.814657286 20.84692012 1.414692162
-6.066064405 19.83085303 2.773699784
-3.228968618 20.86809304 2.839220134
-7.526215838 18.21196648 5.364293172
-4.902241654 19.74032683 5.57067849
-6.953765232 18.09811529 6.659686961
-6.846260274 19.10706824 4.1082287
-5.647806896 18.9041045 6.801919961
-5.495859425 19.84500419 4.183489172
12.28827696 20.86922645 1.595990968
10.90619199 20.51714442 4.644655692
10.53306769 21.11808637 1.556597381
7.763819852 18.76022881 10.0287436
9.384218902 19.79772867 7.465193841
7.176066222 21.43452833 1.496080224
9.214607343 20.78764606 4.554823152
8.819900859 21.30147715 1.524699976
9.89126572 21.00202826 3.085400841
0.791672506 11.14360627 15.95810818
2.47149855 13.38901236 15.19340987
0 12.15459149 15.47537636
6.042542764 17.34600104 12.24683692
4.249647517 15.51973243 13.98573293
-1.616715848 14.05813854 14.2256326
1.659134109 14.42698615 14.59887481
-0.8078545636 13.13657122 14.89577737
0.8182583824 13.30574833 15.08761012
0.8911616846 21.53816382 1.441929895
2.682366817 21.2520462 4.34016068
2.402669814 21.58447231 1.452014577
0 21.36012051 2.877845879
6.142575341 19.06634723 9.93889568
4.45698204 20.46693878 7.211548428
6.941791202 19.62381355 8.707289696
5.508367565 21.52879955 1.482558068
4.233843346 21.21973305 4.3786079
3.948556699 21.57867402 1.46434969
6.523999098 21.32790861 2.983089806
3.320470804 21.45945095 2.919677667
-1.750015967 20.62747645 5.70129427
1.775739305 20.93067799 5.785097115
-0.8876059142 21.06219657 4.311362581
0.8936975471 21.20674627 4.34095143
8.461686175 20.47562126 6.031047521
5.174112368 20.83509471 5.879619672
7.72025493 20.09300849 7.39376142
7.518559356 20.98337208 4.511654552
6.068994561 20.31388634 7.309176112
5.850807115 21.12668515 4.453678
-4.798476603 17.00203724 10.50783689
-1.659544167 17.93725503 11.08583327
-4.042401636 16.42381779 11.56757776
-4.148394863 18.17623231 9.506551981
5.155624794 18.26749028 11.28992988
1.694691456 18.31714603 11.32061882
4.300586463 17.47279336 12.30638932
4.377059949 19.1781306 10.03056587
-2.453501019 14.95849263 13.41900212
-0.8568300846 17.22127057 12.10105695
-3.253757531 15.7342022 12.54625266
-0.834573879 15.25434791 13.69518798
-2.477031919 16.8945231 11.88070064
-2.625157151 19.99071331 7.104625982
-0.8851223839 18.96214075 9.949002717
-3.414145434 19.1871373 8.357670481
-0.8903126894 20.29768156 7.202780961
-2.539809549 18.64939658 9.774512418
2.551412943 15.55544156 13.95451456
0.866852105 17.42270131 12.24259848
3.424151808 16.55817817 13.20328061
0.8453654952 15.45159716 13.87227621
2.565792913 17.49991484 12.30642902
0 16.39458625 13.03321503
2.691220075 20.49378604 7.28341618
0.8937255888 19.14644881 10.04570495
3.544944634 19.92221501 8.677860888
0.8972294043 20.45537141 7.25873836
2.615993798 19.20880478 10.06770916
0 19.80392053 8.668059195
0 -8.720294523 16.57259509
0 -6.161477827 17.09223718
0 -1.217006806 17.5595382
0 -3.666805495 17.40919456
0 8.720294523 16.57259509
0 6.161477827 17.09223718
0 1.217006806 17.5595382
0 3.666805495 17.40919456
-12.28827696 -20.86922645 -1.595990968
-10.90619199 -20.51714442 -4.644655692
-10.53306769 -21.11808637 -1.556597381
-7.763819852 -18.76022881 -10.0287436
-9.384218902 -19.79772867 -7.465193841
-7.176066222 -21.43452833 -1.496080224
-9.214607343 -20.78764606 -4.554823152
-8.819900859 -21.30147715 -1.524699976
-9.89126572 -21.00202826 -3.085400841
-0.791672506 -11.14360627 -15.95810818
-2.47149855 -13.38901236 -15.19340987
-6.042542764 -17.34600104 -12.24683692
-4.249647517 -15.51973243 -13.98573293
-0.8911616846 -21.53816382 -1.441929895
-2.682366817 -21.2520462 -4.34016068
-2.402669814 -21.58447231 -1.452014577
-6.142575341 -19.06634723 -9.93889568
-4.45698204 -20.46693878 -7.211548428
-6.941791202 -19.62381355 -8.707289696
-5.508367565 -21.52879955 -1.482558068
-4.233843346 -21.21973305 -4.3786079
-3.948556699 -21.57867402 -1.46434969
-6.523999098 -21.32790861 -2.983089806
-3.320470804 -21.45945095 -2.919677667
-8.461686175 -20.47562126 -6.031047521
-5.174112368 -20.83509471 -5.879619672
-7.72025493 -20.09300849 -7.39376142
-7.518559356 -20.98337208 -4.511654552
-6.068994561 -20.31388634 -7.309176112
-5.850807115 -21.12668515 -4.453678
9.94760221 -16.89404982 -1.291986121
9.151292266 -17.2157601 -3.8972908
8.948809884 -17.94175692 -1.322472659
6.912542183 -16.70323056 -8.929124389
8.13485943 -17.16197602 -6.47132203
6.596367473 -19.70299899 -1.375223503
8.074739695 -18.2161675 -3.991381286
7.824029446 -18.89628774 -1.352543265
8.53754503 -18.12768629 -2.663132239
0.7824659722 -11.01401483 -15.77252783
2.37756135 -12.88012016 -14.61593578
0 -12.15459149 -15.47537636
5.509189256 -15.81493194 -11.16585269
3.97455737 -14.51510194 -13.080402
-1.659134109 -14.42698615 -14.59887481
1.616715848 -14.05813854 -14.2256326
-0.8182583824 -13.30574833 -15.08761012
0.8078545636 -13.13657122 -14.89577737
0.8853020252 -21.39654383 -1.432448767
2.623679463 -20.78707387 -4.245202547
2.357789967 -21.18129256 -1.424892169
0 -21.36012051 -2.877845879
5.652374086 -17.54477902 -9.145733387
4.255735949 -19.54279519 -6.885925413
6.323729624 -17.87660958 -7.932037164
5.212309434 -20.37169155 -1.402875047
4.071229523 -20.4047237 -4.210433947
3.814657286 -20.84692012 -1.414692162
6.066064405 -19.83085303 -2.773699784
3.228968618 -20.86809304 -2.839220134
-1.775739305 -20.93067799 -5.785097115
1.750015967 -20.62747645 -5.70129427
-0.8936975471 -21.20674627 -4.34095143
0.8876059142 -21.06219657 -4.311362581
7.526215838 -18.21196648 -5.364293172
4.902241654 -19.74032683 -5.57067849
6.953765232 -18.09811529 -6.659686961
6.846260274 -19.10706824 -4.1082287
5.647806896 -18.9041045 -6.801919961
5.495859425 -19.84500419 -4.183489172
-5.155624794 -18.26749028 -11.28992988
-1.694691456 -18.31714603 -11.32061882
-4.300586463 -17.47279336 -12.30638932
-4.377059949 -19.1781306 -10.03056587
4.798476603 -17.00203724 -10.50783689
1.659544167 -17.93725503 -11.08583327
4.042401636 -16.42381779 -11.56757776
4.148394863 -18.17623231 -9.506551981
-2.551412943 -15.55544156 -13.95451456
-0.866852105 -17.42270131 -12.24259848
-3.424151808 -16.55817817 -13.20328061
-0.8453654952 -15.45159716 -13.87227621
-2.565792913 -17.49991484 -12.30642902
-2.691220075 -20.49378604 -7.28341618
-0.8937255888 -19.14644881 -10.04570495
-3.544944634 -19.92221501 -8.677860888
-0.8972294043 -20.45537141 -7.25873836
-2.615993798 -19.20880478 -10.06770916
2.453501019 -14.95849263 -13.41900212
0.8568300846 -17.22127057 -12.10105695
3.253757531 -15.7342022 -12.54625266
0.834573879 -15.25434791 -13.69518798
2.477031919 -16.8945231 -11.88070064
0 -16.39458625 -13.03321503
2.625157151 -19.99071331 -7.104625982
0.8851223839 -18.96214075 -9.949002717
3.414145434 -19.1871373 -8.357670481
0.8903126894 -20.29768156 -7.202780961
2.539809549 -18.64939658 -9.774512418
0 -19.80392053 -8.668059195
-9.94760221 16.89404982 -1.291986121
-9.151292266 17.2157601 -3.8972908
-8.948809884 17.94175692 -1.322472659
-6.912542183 16.70323056 -8.929124389
-8.13485943 17.16197602 -6.47132203
-6.596367473 19.70299899 -1.375223503
-8.074739695 18.2161675 -3.991381286
-7.824029446 18.89628774 -1.352543265
-8.53754503 18.12768629 -2.663132239
-0.7824659722 11.01401483 -15.77252783
-2.37756135 12.88012016 -14.61593578
-5.509189256 15.81493194 -11.16585269
-3.97455737 14.51510194 -13.080402
-0.8853020252 21.39654383 -1.432448767
-2.623679463 20.78707387 -4.245202547
-2.357789967 21.18129256 -1.424892169
-5.652374086 17.54477902 -9.145733387
-4.255735949 19.54279519 -6.885925413
-6.323729624 17.87660958 -7.932037164
-5.212309434 20.37169155 -1.402875047
-4.071229523 20.4047237 -4.210433947
-3.814657286 20.84692012 -1.414692162
-6.066064405 19.83085303 -2.773699784
-3.228968618 20.86809304 -2.839220134
-7.526215838 18.21196648 -5.364293172
-4.902241654 19.74032683 -5.57067849
-6.953765232 18.09811529 -6.659686961
-6.846260274 19.10706824 -4.1082287
-5.647806896 18.9041045 -6.801919961
-5.495859425 19.84500419 -4.183489172
12.28827696 20.86922645 -1.595990968
10.90619199 20.51714442 -4.644655692
10.53306769 21.11808637 -1.556597381
7.763819852 18.76022881 -10.0287436
9.384218902 19.79772867 -7.465193841
7.176066222 21.43452833 -1.496080224
9.214607343 20.78764606 -4.554823152
8.819900859 21.30147715 -1.524699976
9.89126572 21.00202826 -3.085400841
0.791672506 11.14360627 -15.95810818
2.47149855 13.38901236 -15.19340987
0 12.15459149 -15.47537636
6.042542764 17.34600104 -12.24683692
4.249647517 15.51973243 -13.98573293
-1.616715848 14.05813854 -14.2256326
1.659134109 14.42698615 -14.59887481
-0.8078545636 13.13657122 -14.89577737
0.8182583824 13.30574833 -15.08761012
0.8911616846 21.53816382 -1.441929895
2.682366817 21.2520462 -4.34016068
2.402669814 21.58447231 -1.452014577
0 21.36012051 -2.877845879
6.142575341 19.06634723 -9.93889568
4.45698204 20.46693878 -7.211548428
6.941791202 19.62381355 -8.707289696
5.508367565 21.52879955 -1.482558068
4.233843346 21.21973305 -4.3786079
3.948556699 21.57867402 -1.46434969
6.523999098 21.32790861 -2.983089806
3.320470804 21.45945095 -2.919677667
-1.750015967 20.62747645 -5.70129427
1.775739305 20.93067799 -5.785097115
-0.8876059142 21.06219657 -4.311362581
0.8936975471 21.20674627 -4.34095143
8.461686175 20.47562126 -6.031047521
5.174112368 20.83509471 -5.879619672
7.72025493 20.09300849 -7.39376142
7.518559356 20.98337208 -4.511654552
6.068994561 20.31388634 -7.309176112
5.850807115 21.12668515 -4.453678
-4.798476603 17.00203724 -10.50783689
-1.659544167 17.93725503 -11.08583327
-4.042401636 16.42381779 -11.56757776
-4.148394863 18.17623231 -9.506551981
5.155624794 18.26749028 -11.28992988
1.694691456 18.31714603 -11.32061882
4.300586463 17.47279336 -12.30638932
4.377059949 19.1781306 -10.03056587
-2.453501019 14.95849263 -13.41900212
-0.8568300846 17.22127057 -12.10105695
-3.253757531 15.7342022 -12.54625266
-0.834573879 15.25434791 -13.69518798
-2.477031919 16.8945231 -11.88070064
-2.625157151 19.99071331 -7.104625982
-0.8851223839 18.96214075 -9.949002717
-3.414145434 19.1871373 -8.357670481
-0.8903126894 20.29768156 -7.202780961
-2.539809549 18.64939658 -9.774512418
2.551412943 15.55544156 -13.95451456
0.866852105 17.42270131 -12.24259848
3.424151808 16.55817817 -13.20328061
0.8453654952 15.45159716 -13.87227621
2.565792913 17.49991484 -12.30642902
0 16.39458625 -13.03321503
2.691220075 20.49378604 -7.28341618
0.8937255888 19.14644881 -10.04570495
3.544944634 19.92221501 -8.677860888
0.8972294043 20.45537141 -7.25873836
2.615993798 19.20880478 -10.06770916
0 19.80392053 -8.668059195
0 -8.720294523 -16.57259509
0 -6.161477827 -17.09223718
0 -1.217006806 -17.5595382
0 -3.666805495 -17.40919456
0 8.720294523 -16.57259509
0 6.161477827 -17.09223718
0 1.217006806 -17.5595382
0 3.666805495 -17.40919456
14.33314956 20.52566697 -1.018266452
16.92693894 19.20813233 -3.124569902
13.65118577 20.45998754 -2.634313096
18.81132675 13.28140419 -6.552994324
18.50246222 16.67364411 -5.066385197
12.10592133 19.93666704 -5.695791463
16.05241608 18.96669355 -4.741305179
12.89709547 20.25015124 -4.205274433
14.93801442 19.84142698 -3.701601021
15.70690571 1.201198315 -9.248584655
16.63992117 3.766932815 -8.845196549
18.34003996 9.804121275 -7.589926954
17.5445844 6.615593416 -8.316217651
8.689862039 17.8459588 -11.0294091
12.21646124 16.95810911 -10.48068781
9.565889332 18.48317595 -9.831446144
17.81182717 12.9407275 -7.997809434
15.41978155 15.35785771 -9.49167806
17.78092233 14.6580382 -7.385686093
11.26306862 19.51596396 -7.185107822
13.17150723 17.55922751 -9.205064149
10.42690796 19.04075862 -8.538544263
13.20080917 19.13400667 -6.788445358
11.38719668 18.09283475 -9.561590988
16.94554599 17.74360236 -5.769334583
14.93066055 16.80792058 -8.719201916
17.50799915 16.30105829 -6.637929744
15.13462812 18.56595253 -6.321630991
16.46859014 15.85207064 -8.118710014
14.16446203 18.0871567 -7.817408727
10.95084412 -15.68206475 -0.7779781512
12.10251555 -13.73353569 -2.234022108
10.632913 -15.93629089 -2.05186732
13.69657203 -9.670222179 -4.77125085
12.99816278 -11.71339995 -3.559185728
9.823399789 -16.17769069 -4.621873473
11.75845377 -13.89317272 -3.473023467
10.25512574 -16.10190819 -3.343824054
11.23632039 -14.92464958 -2.784330895
15.17614403 -1.160607887 -8.936060065
14.9705295 -3.389017187 -7.957806683
14.24114156 -7.612953909 -5.893619882
14.66041949 -5.528051987 -6.949109568
7.547471516 -15.49988539 -9.579455996
9.821386505 -13.63341975 -8.42591679
8.185991245 -15.81694198 -8.413240972
13.26861597 -9.639973593 -5.957831331
11.68747588 -11.64054049 -7.194249671
12.9688955 -10.69115326 -5.386907911
9.320854535 -16.15061289 -5.94610111
10.3730132 -13.82849324 -7.24930338
8.780863817 -16.03488868 -7.190606714
10.39733514 -15.07049132 -5.346773867
9.3413803 -14.84228778 -7.843761745
12.22828524 -12.80418058 -4.163280956
11.33552645 -12.76076352 -6.619716767
12.62261256 -11.75245335 -4.785699077
11.36443596 -13.94098202 -4.746847427
12.18270925 -11.72663633 -6.005850088
10.89981084 -13.91839565 -6.015638028
1.236527935 -9.520603838 -16.1688769
3.600872751 -8.455268199 -15.90637308
2.021106366 -10.47350769 -15.69737899
1.21745931 -8.238213343 -16.51705905
7.868160817 -6.091190041 -14.71854333
5.815711514 -7.310715713 -15.42329389
3.620237027 -12.25686786 -14.4820727
4.38842224 -9.327219007 -15.36055412
2.823279239 -11.39349858 -15.1334216
3.230987074 -9.909067633 -15.55855104
1.189307142 -5.704605057 -17.03935205
3.562165786 -7.206417881 -16.25728136
1.202939536 -6.958619806 -16.80618446
2.411073581 -7.729488222 -16.41194713
14.51960645 -0.7203092679 -10.13909517
13.03966967 -2.121151536 -11.49105434
14.47279017 -1.863435186 -9.65644514
9.748343817 -4.809795769 -13.80722085
11.46306678 -3.483120516 -12.72037227
14.29061599 -4.082747052 -8.677532339
13.01357504 -3.253141121 -11.01400835
14.39474594 -2.989303949 -9.167853144
13.74984009 -2.565159361 -10.35184162
6.730238386 -14.98883462 -10.88975446
7.530012716 -12.23294242 -12.18381651
6.001627029 -14.44882205 -11.91115858
7.984996776 -14.16714465 -10.34636714
8.622730157 -6.793685391 -13.95187047
8.139006048 -9.486958649 -13.16918842
7.650602968 -7.443952826 -14.38317809
4.454998174 -13.0851098 -13.70135758
6.794512738 -11.63484505 -13.09771601
5.23518839 -13.80817173 -12.85628418
4.85136928 -11.61467192 -14.2479515
6.428152005 -13.0393376 -12.55119588
10.1692081 -12.32657621 -9.138757958
8.694654011 -11.43320542 -11.60068992
9.1358067 -13.26422677 -9.752671227
8.366050768 -12.79481809 -11.01853829
5.553926774 -8.706098769 -15.08540129
7.12382899 -10.19347215 -13.5891431
6.62108953 -8.085393596 -14.76487837
5.217157769 -10.14528371 -14.70515358
7.402642499 -8.816037642 -14.00758385
6.027404667 -10.92113097 -13.94562015
1.173819628 -0.725460427 -17.53339017
3.505304529 -2.16639734 -17.16408661
1.17536141 -1.944887761 -17.47197046
7.870076833 -4.863974977 -15.09761471
5.76795975 -3.564795171 -16.36992115
6.862576683 -5.471113987 -15.46634257
1.186596947 -4.408739378 -17.23103356
3.509992431 -3.393945847 -17.01022428
1.178834194 -3.178676299 -17.37131436
2.370412764 -5.184078167 -16.94751083
2.352431249 -2.675356725 -17.29022473
4.725763058 -6.630344695 -16.04413399
4.686497645 -4.124155435 -16.60713239
5.807927377 -6.064393672 -15.78340542
3.559081046 -5.931119457 -16.55302307
5.792744471 -4.809862856 -16.09937303
3.542469633 -4.653750571 -16.8042325
13.57546233 -8.39009713 -6.610398245
12.55296534 -7.758159237 -9.043037373
13.79611961 -7.338338781 -7.140123196
12.82429937 -9.365677623 -7.228131828
9.71794535 -6.006020527 -13.37593756
11.27348647 -6.967397809 -11.31894187
10.58915883 -5.335516393 -12.84517124
9.498985642 -7.331014714 -13.00683629
14.14817098 -5.208870757 -8.165203671
12.71380823 -6.664952676 -9.536866985
13.9878898 -6.272660589 -7.659906959
13.57815207 -4.817315315 -9.367750173
13.28374557 -7.020112861 -8.360471176
11.15507705 -11.31848727 -8.483144656
11.72052502 -8.689439748 -9.669226554
12.01652475 -10.34829391 -7.857153999
10.50708658 -10.96795658 -9.761383255
12.30398657 -9.046643869 -8.474436156
12.21964662 -3.973219666 -11.67004195
12.05987505 -6.256126993 -10.71291953
11.42622538 -4.65285627 -12.27223046
12.933713 -4.403876441 -10.54332851
11.36195354 -5.819076139 -11.80384319
12.83279563 -5.546433318 -10.04965288
8.999233317 -10.01395122 -12.13838203
11.03436582 -8.270197178 -10.8750576
9.259635559 -8.673955946 -12.59366824
9.78336729 -10.53075005 -10.99265799
10.30760189 -7.826257752 -11.96927285
10.7943137 -9.606842641 -10.34074011
1.257840715 9.684700845 -16.44756345
3.780546708 8.877163554 -16.70005872
2.083025096 10.79437467 -16.17828479
1.236010371 8.363743288 -16.76873807
8.64578945 6.69319652 -16.1732112
6.274716001 7.887713268 -16.64057592
3.846520198 13.02298425 -15.38727567
4.686599624 9.960969729 -16.40424809
2.953086656 11.91734355 -15.82921901
3.390970943 10.39971985 -16.32894013
1.202166102 5.766284065 -17.22358397
3.715491598 7.516602735 -16.95704129
1.218669279 7.049611327 -17.0259436
2.482611597 7.958826825 -16.89889956
14.81565968 0.7349962972 -10.34583024
13.78818748 2.242912265 -12.15067678
15.27016484 1.96610067 -10.18846451
14.07171123 0 -11.05213196
10.74421668 5.301155655 -15.21774112
12.45669098 3.785039096 -13.82298032
16.15896255 4.616522951 -9.812027709
14.20304333 3.550485102 -12.02071202
15.72078261 3.264677107 -10.01239111
14.76944476 2.755376005 -11.11947134
12.52157849 -1.423053369 -12.37414814
12.9750335 1.47458766 -12.82226412
13.30428611 -0.7215419503 -11.73303667
13.55586722 0.7351861489 -11.95490579
7.617224604 16.96423118 -12.32492831
8.735966056 14.19208357 -14.13509
6.693398555 16.11425104 -13.28408634
9.369028532 16.6227221 -12.13969293
9.702501807 7.644416975 -15.6989777
9.414798824 10.97404359 -15.23346449
8.538467472 8.307835257 -16.05236853
4.814488944 14.14099714 -14.80697231
7.720668649 13.22078372 -14.88305773
5.748673866 15.16252522 -14.11727322
5.274846645 12.62851984 -15.49165912
7.258099373 14.72286405 -14.17169769
12.76538568 15.47352535 -11.47186376
10.38136542 13.65117959 -13.85115509
11.1114877 16.13270699 -11.86175342
9.942361577 15.2055864 -13.09462431
6.03453549 9.459480497 -16.39081557
8.093639471 11.58117196 -15.4391164
7.30058518 8.915164854 -16.28013815
5.682716176 11.05060848 -16.01738299
8.357631776 9.953364133 -15.81465374
6.705350463 12.14950955 -15.51418491
1.175457817 0.7264728833 -17.55785986
3.550969674 2.194619952 -17.38769072
1.179762821 1.952170841 -17.53739828
2.354106337 0 -17.47278943
8.486075972 5.244683382 -16.27932079
5.988600307 3.701158535 -16.99611631
7.369190246 5.875006093 -16.60810889
1.196634644 4.446033922 -17.37679484
3.581902471 3.463478413 -17.35871674
1.186038817 3.19810326 -17.47748177
2.418484073 5.289209824 -17.29120161
2.377150451 2.703469207 -17.47190934
4.698453879 -1.44219346 -16.99916583
4.754638774 1.45943945 -17.20244469
3.53886447 -0.7285671234 -17.28833002
3.554404264 0.7317663933 -17.3642462
4.988582101 6.999085325 -16.93641401
4.848637513 4.266839816 -17.18169328
6.190979732 6.464360842 -16.82437412
3.6870694 6.144408846 -17.14828745
6.095018013 5.060848255 -16.93946093
3.642756799 4.785498054 -17.27995962
17.62492329 10.89280164 -8.582231617
15.54738254 9.608810847 -11.20018718
17.34413114 9.225573118 -8.976381519
16.76992107 12.24719339 -9.451993966
10.97542391 6.783185019 -15.10675144
13.34744929 8.249177323 -13.40126704
11.9323739 6.012316706 -14.47455727
10.96817954 8.464891791 -15.0185842
16.59490948 6.109675859 -9.577267336
15.29532809 8.018261405 -11.47331364
16.9902736 7.619034833 -9.304042057
15.60915617 5.537883704 -10.76896729
16.32686841 8.628323861 -10.27573977
14.35695873 14.56727317 -10.91809202
14.59918299 10.82363808 -12.04406864
15.67365776 13.49771422 -10.24841585
13.18279328 13.76102721 -12.24719113
15.69515953 11.54004175 -10.81012456
13.53046713 4.39943312 -12.9219055
14.19479336 7.363627692 -12.60939092
12.78706659 5.207002401 -13.73382924
14.58695053 4.966797065 -11.89101779
13.08940267 6.703797058 -13.59847635
14.95657132 6.464345563 -11.71282972
10.70164906 11.90832461 -14.43464126
13.40297642 10.04545794 -13.20947148
10.88443252 10.19598316 -14.80349105
11.95561996 12.86894806 -13.43341586
12.2137318 9.273525908 -14.18268671
13.38473978 11.91229868 -12.82231732
9.017459671 -4.117885508 -14.59055624
9.3381452 -1.397916062 -15.10943633
9.938046215 -3.472946117 -14.11018482
8.038775931 -3.507898221 -15.36989007
9.723099086 4.440120642 -15.7323048
9.58177578 1.434387448 -15.50363888
10.66799706 3.728034481 -15.14657982
8.496996473 3.70785292 -16.24599352
11.6723556 -2.134147986 -13.01146268
10.278533 -0.7277840556 -14.62759812
10.82765197 -2.808053933 -13.57891236
11.90029502 -0.7251945273 -13.25511126
10.11580067 -2.109064264 -14.38481057
5.889279963 -2.176087165 -16.57102114
8.304371413 -0.7388062131 -15.82758233
6.985296175 -2.853524447 -16.03650647
5.944588964 -0.7347916058 -16.75205375
8.184274709 -2.126602143 -15.61528374
12.27885479 2.245038973 -13.68754228
10.43120874 0.7385944472 -14.8448742
11.52538989 2.989005973 -14.45394253
12.10483103 0.7376587896 -13.48293315
10.56077461 2.201837805 -15.01756976
11.20073972 0 -14.08950079
6.028509858 2.227532569 -16.96278067
8.402516524 0.7475377852 -16.01464042
7.254144519 2.963350187 -16.65371555
5.991654615 0.7406092402 -16.88468636
8.466332409 2.199892023 -16.15343906
7.189096311 0 -16.42493305
14.33314956 20.52566697 1.018266452
16.92693894 19.20813233 3.124569902
13.65118577 20.45998754 2.634313096
15.83341225 20.15929649 0
18.81132675 13.28140419 6.552994324
18.50246222 16.67364411 5.066385197
12.10592133 19.93666704 5.695791463
16.05241608 18.96669355 4.741305179
12.89709547 20.25015124 4.205274433
14.93801442 19.84142698 3.701601021
18.40576144 18.62505475 -2.116701733
18.40576144 18.62505475 2.116701733
17.24041118 19.54919 -1.060226799
17.24041118 19.54919 1.060226799
15.70690571 1.201198315 9.248584655
16.63992117 3.766932815 8.845196549
18.34003996 9.804121275 7.589926954
17.5445844 6.615593416 8.316217651
8.689862039 17.8459588 11.0294091
12.21646124 16.95810911 10.48068781
9.565889332 18.48317595 9.831446144
17.81182717 12.9407275 7.997809434
15.41978155 15.35785771 9.49167806
17.78092233 14.6580382 7.385686093
11.26306862 19.51596396 7.185107822
13.17150723 17.55922751 9.205064149
10.42690796 19.04075862 8.538544263
13.20080917 19.13400667 6.788445358
11.38719668 18.09283475 9.561590988
16.94554599 17.74360236 5.769334583
14.93066055 16.80792058 8.719201916
17.50799915 16.30105829 6.637929744
15.13462812 18.56595253 6.321630991
16.46859014 15.85207064 8.118710014
14.16446203 18.0871567 7.817408727
19.61868494 12.1250141 -5.536971796
21.1590419 13.07700707 -1.957621972
19.77349211 13.92681109 -4.866858479
19.61868494 12.1250141 5.536971796
21.1590419 13.07700707 1.957621972
19.77349211 13.92681109 4.866858479
19.26411195 17.28149791 -3.159711307
21.08079981 14.81307422 -1.048857772
19.68554856 15.69700598 -4.070877001
19.70136654 17.68767303 -1.077872747
20.59005076 14.47949894 -3.018860767
19.26411195 17.28149791 3.159711307
21.08079981 14.81307422 1.048857772
19.68554856 15.69700598 4.070877001
19.70136654 17.68767303 1.077872747
20.59005076 14.47949894 3.018860767
20.61952971 16.39192112 0
10.95084412 -15.68206475 0.7779781512
12.10251555 -13.73353569 2.234022108
10.632913 -15.93629089 2.05186732
11.60646061 -14.77748933 0
13.69657203 -9.670222179 4.77125085
12.99816278 -11.71339995 3.559185728
9.823399789 -16.17769069 4.621873473
11.75845377 -13.89317272 3.473023467
10.25512574 -16.10190819 3.343824054
11.23632039 -14.92464958 2.784330895
12.71742851 -12.86894884 -1.462531342
12.71742851 -12.86894884 1.462531342
12.19665829 -13.82999441 -0.7500531071
12.19665829 -13.82999441 0.7500531071
15.17614403 -1.160607887 8.936060065
14.9705295 -3.389017187 7.957806683
14.24114156 -7.612953909 5.893619882
14.66041949 -5.528051987 6.949109568
7.547471516 -15.49988539 9.579455996
9.821386505 -13.63341975 8.42591679
8.185991245 -15.81694198 8.413240972
13.26861597 -9.639973593 5.957831331
11.68747588 -11.64054049 7.194249671
12.9688955 -10.69115326 5.386907911
9.320854535 -16.15061289 5.94610111
10.3730132 -13.82849324 7.24930338
8.780863817 -16.03488868 7.190606714
10.39733514 -15.07049132 5.346773867
9.3413803 -14.84228778 7.843761745
12.22828524 -12.80418058 4.163280956
11.33552645 -12.76076352 6.619716767
12.62261256 -11.75245335 4.785699077
11.36443596 -13.94098202 4.746847427
12.18270925 -11.72663633 6.005850088
10.89981084 -13.91839565 6.015638028
14.32069087 -8.850673699 -4.041721537
14.72475048 -9.100396275 -1.362325156
13.9905449 -9.853781758 -3.44349909
14.32069087 -8.850673699 4.041721537
14.72475048 -9.100396275 1.362325156
13.9905449 -9.853781758 3.44349909
13.20452739 -11.84555057 -2.165814577
14.29973857 -10.04815237 -0.7114716744
13.6175827 -10.8584872 -2.816050773
13.29887486 -11.9395855 -0.7275888582
14.19505003 -9.982355757 -2.081242057
13.20452739 -11.84555057 2.165814577
14.29973857 -10.04815237 0.7114716744
13.6175827 -10.8584872 2.816050773
13.29887486 -11.9395855 0.7275888582
14.19505003 -9.982355757 2.081242057
13.82816891 -10.99298855 0
1.236527935 -9.520603838 16.1688769
3.600872751 -8.455268199 15.90637308
2.021106366 -10.47350769 15.69737899
1.21745931 -8.238213343 16.51705905
7.868160817 -6.091190041 14.71854333
5.815711514 -7.310715713 15.42329389
3.620237027 -12.25686786 14.4820727
4.38842224 -9.327219007 15.36055412
2.823279239 -11.39349858 15.1334216
3.230987074 -9.909067633 15.55855104
1.189307142 -5.704605057 17.03935205
3.562165786 -7.206417881 16.25728136
1.202939536 -6.958619806 16.80618446
2.411073581 -7.729488222 16.41194713
14.51960645 -0.7203092679 10.13909517
13.03966967 -2.121151536 11.49105434
14.47279017 -1.863435186 9.65644514
9.748343817 -4.809795769 13.80722085
11.46306678 -3.483120516 12.72037227
14.29061599 -4.082747052 8.677532339
13.01357504 -3.253141121 11.01400835
14.39474594 -2.989303949 9.167853144
13.74984009 -2.565159361 10.35184162
6.730238386 -14.98883462 10.88975446
7.530012716 -12.23294242 12.18381651
6.001627029 -14.44882205 11.91115858
7.984996776 -14.16714465 10.34636714
8.622730157 -6.793685391 13.95187047
8.139006048 -9.486958649 13.16918842
7.650602968 -7.443952826 14.38317809
4.454998174 -13.0851098 13.70135758
6.794512738 -11.63484505 13.09771601
5.23518839 -13.80817173 12.85628418
4.85136928 -11.61467192 14.2479515
6.428152005 -13.0393376 12.55119588
10.1692081 -12.32657621 9.138757958
8.694654011 -11.43320542 11.60068992
9.1358067 -13.26422677 9.752671227
8.366050768 -12.79481809 11.01853829
5.553926774 -8.706098769 15.08540129
7.12382899 -10.19347215 13.5891431
6.62108953 -8.085393596 14.76487837
5.217157769 -10.14528371 14.70515358
7.402642499 -8.816037642 14.00758385
6.027404667 -10.92113097 13.94562015
1.173819628 -0.725460427 17.53339017
3.505304529 -2.16639734 17.16408661
1.17536141 -1.944887761 17.47197046
7.870076833 -4.863974977 15.09761471
5.76795975 -3.564795171 16.36992115
6.862576683 -5.471113987 15.46634257
1.186596947 -4.408739378 17.23103356
3.509992431 -3.393945847 17.01022428
1.178834194 -3.178676299 17.37131436
2.370412764 -5.184078167 16.94751083
2.352431249 -2.675356725 17.29022473
4.725763058 -6.630344695 16.04413399
4.686497645 -4.124155435 16.60713239
5.807927377 -6.064393672 15.78340542
3.559081046 -5.931119457 16.55302307
5.792744471 -4.809862856 16.09937303
3.542469633 -4.653750571 16.8042325
13.57546233 -8.39009713 6.610398245
12.55296534 -7.758159237 9.043037373
13.79611961 -7.338338781 7.140123196
12.82429937 -9.365677623 7.228131828
9.71794535 -6.006020527 13.37593756
11.27348647 -6.967397809 11.31894187
10.58915883 -5.335516393 12.84517124
9.498985642 -7.331014714 13.00683629
14.14817098 -5.208870757 8.165203671
12.71380823 -6.664952676 9.536866985
13.9878898 -6.272660589 7.659906959
13.57815207 -4.817315315 9.367750173
13.28374557 -7.020112861 8.360471176
11.15507705 -11.31848727 8.483144656
11.72052502 -8.689439748 9.669226554
12.01652475 -10.34829391 7.857153999
10.50708658 -10.96795658 9.761383255
12.30398657 -9.046643869 8.474436156
12.21964662 -3.973219666 11.67004195
12.05987505 -6.256126993 10.71291953
11.42622538 -4.65285627 12.27223046
12.933713 -4.403876441 10.54332851
11.36195354 -5.819076139 11.80384319
12.83279563 -5.546433318 10.04965288
8.999233317 -10.01395122 12.13838203
11.03436582 -8.270197178 10.8750576
9.259635559 -8.673955946 12.59366824
9.78336729 -10.53075005 10.99265799
10.30760189 -7.826257752 11.96927285
10.7943137 -9.606842641 10.34074011
1.257840715 9.684700845 16.44756345
3.780546708 8.877163554 16.70005872
2.083025096 10.79437467 16.17828479
1.236010371 8.363743288 16.76873807
8.64578945 6.69319652 16.1732112
6.274716001 7.887713268 16.64057592
3.846520198 13.02298425 15.38727567
4.686599624 9.960969729 16.40424809
2.953086656 11.91734355 15.82921901
3.390970943 10.39971985 16.32894013
1.202166102 5.766284065 17.22358397
3.715491598 7.516602735 16.95704129
1.218669279 7.049611327 17.0259436
2.482611597 7.958826825 16.89889956
14.81565968 0.7349962972 10.34583024
13.78818748 2.242912265 12.15067678
15.27016484 1.96610067 10.18846451
14.07171123 0 11.05213196
10.74421668 5.301155655 15.21774112
12.45669098 3.785039096 13.82298032
16.15896255 4.616522951 9.812027709
14.20304333 3.550485102 12.02071202
15.72078261 3.264677107 10.01239111
14.76944476 2.755376005 11.11947134
12.52157849 -1.423053369 12.37414814
12.9750335 1.47458766 12.82226412
13.30428611 -0.7215419503 11.73303667
13.55586722 0.7351861489 11.95490579
7.617224604 16.96423118 12.32492831
8.735966056 14.19208357 14.13509
6.693398555 16.11425104 13.28408634
9.369028532 16.6227221 12.13969293
9.702501807 7.644416975 15.6989777
9.414798824 10.97404359 15.23346449
8.538467472 8.307835257 16.05236853
4.814488944 14.14099714 14.80697231
7.720668649 13.22078372 14.88305773
5.748673866 15.16252522 14.11727322
5.274846645 12.62851984 15.49165912
7.258099373 14.72286405 14.17169769
12.76538568 15.47352535 11.47186376
10.38136542 13.65117959 13.85115509
11.1114877 16.13270699 11.86175342
9.942361577 15.2055864 13.09462431
6.03453549 9.459480497 16.39081557
8.093639471 11.58117196 15.4391164
7.30058518 8.915164854 16.28013815
5.682716176 11.05060848 16.01738299
8.357631776 9.953364133 15.81465374
6.705350463 12.14950955 15.51418491
1.175457817 0.7264728833 17.55785986
3.550969674 2.194619952 17.38769072
1.179762821 1.952170841 17.53739828
2.354106337 0 17.47278943
8.486075972 5.244683382 16.27932079
5.988600307 3.701158535 16.99611631
7.369190246 5.875006093 16.60810889
1.196634644 4.446033922 17.37679484
3.581902471 3.463478413 17.35871674
1.186038817 3.19810326 17.47748177
2.418484073 5.289209824 17.29120161
2.377150451 2.703469207 17.47190934
4.698453879 -1.44219346 16.99916583
4.754638774 1.45943945 17.20244469
3.53886447 -0.7285671234 17.28833002
3.554404264 0.7317663933 17.3642462
4.988582101 6.999085325 16.93641401
4.848637513 4.266839816 17.18169328
6.190979732 6.464360842 16.82437412
3.6870694 6.144408846 17.14828745
6.095018013 5.060848255 16.93946093
3.642756799 4.785498054 17.27995962
17.62492329 10.89280164 8.582231617
15.54738254 9.608810847 11.20018718
17.34413114 9.225573118 8.976381519
16.76992107 12.24719339 9.451993966
10.97542391 6.783185019 15.10675144
13.34744929 8.249177323 13.40126704
11.9323739 6.012316706 14.47455727
10.96817954 8.464891791 15.0185842
16.59490948 6.109675859 9.577267336
15.29532809 8.018261405 11.47331364
16.9902736 7.619034833 9.304042057
15.60915617 5.537883704 10.76896729
16.32686841 8.628323861 10.27573977
14.35695873 14.56727317 10.91809202
14.59918299 10.82363808 12.04406864
15.67365776 13.49771422 10.24841585
13.18279328 13.76102721 12.24719113
15.69515953 11.54004175 10.81012456
13.53046713 4.39943312 12.9219055
14.19479336 7.363627692 12.60939092
12.78706659 5.207002401 13.73382924
14.58695053 4.966797065 11.89101779
13.08940267 6.703797058 13.59847635
14.95657132 6.464345563 11.71282972
10.70164906 11.90832461 14.43464126
13.40297642 10.04545794 13.20947148
10.88443252 10.19598316 14.80349105
11.95561996 12.86894806 13.43341586
12.2137318 9.273525908 14.18268671
13.38473978 11.91229868 12.82231732
9.017459671 -4.117885508 14.59055624
9.3381452 -1.397916062 15.10943633
9.938046215 -3.472946117 14.11018482
8.038775931 -3.507898221 15.36989007
9.723099086 4.440120642 15.7323048
9.58177578 1.434387448 15.50363888
10.66799706 3.728034481 15.14657982
8.496996473 3.70785292 16.24599352
11.6723556 -2.134147986 13.01146268
10.278533 -0.7277840556 14.62759812
10.82765197 -2.808053933 13.57891236
11.90029502 -0.7251945273 13.25511126
10.11580067 -2.109064264 14.38481057
5.889279963 -2.176087165 16.57102114
8.304371413 -0.7388062131 15.82758233
6.985296175 -2.853524447 16.03650647
5.944588964 -0.7347916058 16.75205375
8.184274709 -2.126602143 15.61528374
12.27885479 2.245038973 13.68754228
10.43120874 0.7385944472 14.8448742
11.52538989 2.989005973 14.45394253
12.10483103 0.7376587896 13.48293315
10.56077461 2.201837805 15.01756976
11.20073972 0 14.08950079
6.028509858 2.227532569 16.96278067
8.402516524 0.7475377852 16.01464042
7.254144519 2.963350187 16.65371555
5.991654615 0.7406092402 16.88468636
8.466332409 2.199892023 16.15343906
7.189096311 0 16.42493305
15.90279534 0 -8.36785418
17.11133456 0 -6.168362126
16.38856603 1.207988191 -8.174124881
15.80645303 -1.165081104 -7.883784389
18.68260125 0 -1.294843441
18.09539336 0 -3.811335878
17.37312542 3.806660632 -7.701041696
17.63963117 1.231205228 -5.905572516
16.8824981 2.480202064 -7.951102278
17.03888779 1.219595788 -7.054970886
15.53469619 -3.403838687 -6.886115203
16.93610793 -1.182100942 -5.670039954
15.68341069 -2.30404454 -7.386371479
16.39823826 -1.173739892 -6.789709218
15.90279534 0 8.36785418
17.11133456 0 6.168362126
16.38856603 1.207988191 8.174124881
15.80645303 -1.165081104 7.883784389
18.68260125 0 1.294843441
18.09539336 0 3.811335878
17.37312542 3.806660632 7.701041696
17.63963117 1.231205228 5.905572516
16.8824981 2.480202064 7.951102278
17.03888779 1.219595788 7.054970886
15.53469619 -3.403838687 6.886115203
16.93610793 -1.182100942 5.670039954
15.68341069 -2.30404454 7.386371479
16.39823826 -1.173739892 6.789709218
19.24020332 10.02952329 -6.198586286
19.85929157 6.997443263 -4.324657771
18.82865229 8.354468396 -6.66050829
20.15324359 10.54057048 -4.599611775
19.19944285 1.285357974 -0.7943949156
19.79724833 4.043057218 -2.498746779
19.00909373 1.278765624 -2.11599223
17.88766534 5.26877101 -7.392196241
19.32394814 5.453177304 -4.798839671
18.36713874 6.758681356 -7.057131019
18.09587345 3.890810757 -6.483938716
19.15381207 6.891767695 -5.722409752
21.37888532 11.21701347 -0.9979321526
20.52472214 7.294410757 -2.695282568
20.92238441 10.96582966 -2.849361451
20.45021858 8.907852456 -3.638897209
18.20768854 1.253853262 -4.658626727
19.34908017 3.992606085 -3.860603436
18.66480957 1.26661203 -3.415365503
18.20184443 2.545853772 -5.567766574
19.23858103 2.617515962 -2.976830432
18.76957761 3.956780454 -5.198031657
14.66803891 -7.646147782 -4.725579212
15.95340982 -5.621201525 -3.4740936
14.92536157 -6.622537799 -5.279745619
14.9713904 -7.830352218 -3.41694791
18.26510898 -1.222806498 -0.7557359774
17.15661759 -3.503779181 -2.165454623
18.10810376 -1.218154896 -2.01569877
15.35646019 -4.523210308 -6.346158938
16.23622678 -4.581828866 -4.032046072
15.15521238 -5.576766897 -5.823025614
16.04893439 -3.450696466 -5.750499268
15.5916712 -5.610067358 -4.658181409
15.29613064 -8.025530837 -0.7139988989
16.19001759 -5.753872703 -2.126054223
15.18580588 -7.959176991 -2.068112747
15.59756458 -6.794098728 -2.775419442
17.42886737 -1.200220564 -4.45935722
16.88810366 -3.484793325 -3.369579868
17.82027758 -1.209301272 -3.260829481
16.74207737 -2.341679217 -5.121238075
17.50449842 -2.381584377 -2.708511792
16.50709536 -3.479830693 -4.571461649
19.24020332 10.02952329 6.198586286
19.85929157 6.997443263 4.324657771
18.82865229 8.354468396 6.66050829
20.15324359 10.54057048 4.599611775
19.19944285 1.285357974 0.7943949156
19.79724833 4.043057218 2.498746779
19.00909373 1.278765624 2.11599223
19.69516552 2.653526739 0
17.88766534 5.26877101 7.392196241
19.32394814 5.453177304 4.798839671
18.36713874 6.758681356 7.057131019
18.09587345 3.890810757 6.483938716
19.15381207 6.891767695 5.722409752
21.37888532 11.21701347 0.9979321526
20.52472214 7.294410757 2.695282568
20.92238441 10.96582966 2.849361451
21.27674725 9.312706763 0
20.45021858 8.907852456 3.638897209
18.20768854 1.253853262 4.658626727
19.34908017 3.992606085 3.860603436
18.66480957 1.26661203 3.415365503
18.20184443 2.545853772 5.567766574
19.23858103 2.617515962 2.976830432
18.76957761 3.956780454 5.198031657
20.39560914 5.637207723 -1.73034456
20.39560914 5.637207723 1.73034456
20.10872581 4.116190241 -0.8474246212
20.91573006 7.422099997 -0.9174220132
20.10872581 4.116190241 0.8474246212
20.91573006 7.422099997 0.9174220132
14.66803891 -7.646147782 4.725579212
15.95340982 -5.621201525 3.4740936
14.92536157 -6.622537799 5.279745619
14.9713904 -7.830352218 3.41694791
18.26510898 -1.222806498 0.7557359774
17.15661759 -3.503779181 2.165454623
18.10810376 -1.218154896 2.01569877
17.81701853 -2.400484273 0
15.35646019 -4.523210308 6.346158938
16.23622678 -4.581828866 4.032046072
15.15521238 -5.576766897 5.823025614
16.04893439 -3.450696466 5.750499268
15.5916712 -5.610067358 4.658181409
15.29613064 -8.025530837 0.7139988989
16.19001759 -5.753872703 2.126054223
15.18580588 -7.959176991 2.068112747
15.83211383 -6.929622835 0
15.59756458 -6.794098728 2.775419442
17.42886737 -1.200220564 4.45935722
16.88810366 -3.484793325 3.369579868
17.82027758 -1.209301272 3.260829481
16.74207737 -2.341679217 5.121238075
17.50449842 -2.381584377 2.708511792
16.50709536 -3.479830693 4.571461649
16.78238754 -4.638537832 -1.423802191
16.78238754 -4.638537832 1.423802191
17.31583294 -3.544494227 -0.7297261551
16.33110998 -5.795213983 -0.7163278427
17.31583294 -3.544494227 0.7297261551
16.33110998 -5.795213983 0.7163278427
-10.95084412 15.68206475 -0.7779781512
-12.10251555 13.73353569 -2.234022108
-10.632913 15.93629089 -2.05186732
-13.69657203 9.670222179 -4.77125085
-12.99816278 11.71339995 -3.559185728
-9.823399789 16.17769069 -4.621873473
-11.75845377 13.89317272 -3.473023467
-10.25512574 16.10190819 -3.343824054
-11.23632039 14.92464958 -2.784330895
-15.17614403 1.160607887 -8.936060065
-14.9705295 3.389017187 -7.957806683
-14.24114156 7.612953909 -5.893619882
-14.66041949 5.528051987 -6.949109568
-7.547471516 15.49988539 -9.579455996
-9.821386505 13.63341975 -8.42591679
-8.185991245 15.81694198 -8.413240972
-13.26861597 9.639973593 -5.957831331
-11.68747588 11.64054049 -7.194249671
-12.9688955 10.69115326 -5.386907911
-9.320854535 16.15061289 -5.94610111
-10.3730132 13.82849324 -7.24930338
-8.780863817 16.03488868 -7.190606714
-10.39733514 15.07049132 -5.346773867
-9.3413803 14.84228778 -7.843761745
-12.22828524 12.80418058 -4.163280956
-11.33552645 12.76076352 -6.619716767
-12.62261256 11.75245335 -4.785699077
-11.36443596 13.94098202 -4.746847427
-12.18270925 11.72663633 -6.005850088
-10.89981084 13.91839565 -6.015638028
-14.33314956 -20.52566697 -1.018266452
-16.92693894 -19.20813233 -3.124569902
-13.65118577 -20.45998754 -2.634313096
-18.81132675 -13.28140419 -6.552994324
-18.50246222 -16.67364411 -5.066385197
-12.10592133 -19.93666704 -5.695791463
-16.05241608 -18.96669355 -4.741305179
-12.89709547 -20.25015124 -4.205274433
-14.93801442 -19.84142698 -3.701601021
-15.70690571 -1.201198315 -9.248584655
-16.63992117 -3.766932815 -8.845196549
-18.34003996 -9.804121275 -7.589926954
-17.5445844 -6.615593416 -8.316217651
-8.689862039 -17.8459588 -11.0294091
-12.21646124 -16.95810911 -10.48068781
-9.565889332 -18.48317595 -9.831446144
-17.81182717 -12.9407275 -7.997809434
-15.41978155 -15.35785771 -9.49167806
-17.78092233 -14.6580382 -7.385686093
-11.26306862 -19.51596396 -7.185107822
-13.17150723 -17.55922751 -9.205064149
-10.42690796 -19.04075862 -8.538544263
-13.20080917 -19.13400667 -6.788445358
-11.38719668 -18.09283475 -9.561590988
-16.94554599 -17.74360236 -5.769334583
-14.93066055 -16.80792058 -8.719201916
-17.50799915 -16.30105829 -6.637929744
-15.13462812 -18.56595253 -6.321630991
-16.46859014 -15.85207064 -8.118710014
-14.16446203 -18.0871567 -7.817408727
-1.257840715 -9.684700845 -16.44756345
-3.780546708 -8.877163554 -16.70005872
-2.083025096 -10.79437467 -16.17828479
-1.236010371 -8.363743288 -16.76873807
-8.64578945 -6.69319652 -16.1732112
-6.274716001 -7.887713268 -16.64057592
-3.846520198 -13.02298425 -15.38727567
-4.686599624 -9.960969729 -16.40424809
-2.953086656 -11.91734355 -15.82921901
-3.390970943 -10.39971985 -16.32894013
-1.202166102 -5.766284065 -17.22358397
-3.715491598 -7.516602735 -16.95704129
-1.218669279 -7.049611327 -17.0259436
-2.482611597 -7.958826825 -16.89889956
-14.81565968 -0.7349962972 -10.34583024
-13.78818748 -2.242912265 -12.15067678
-15.27016484 -1.96610067 -10.18846451
-10.74421668 -5.301155655 -15.21774112
-12.45669098 -3.785039096 -13.82298032
-16.15896255 -4.616522951 -9.812027709
-14.20304333 -3.550485102 -12.02071202
-15.72078261 -3.264677107 -10.01239111
-14.76944476 -2.755376005 -11.11947134
-7.617224604 -16.96423118 -12.32492831
-8.735966056 -14.19208357 -14.13509
-6.693398555 -16.11425104 -13.28408634
-9.369028532 -16.6227221 -12.13969293
-9.702501807 -7.644416975 -15.6989777
-9.414798824 -10.97404359 -15.23346449
-8.538467472 -8.307835257 -16.05236853
-4.814488944 -14.14099714 -14.80697231
-7.720668649 -13.22078372 -14.88305773
-5.748673866 -15.16252522 -14.11727322
-5.274846645 -12.62851984 -15.49165912
-7.258099373 -14.72286405 -14.17169769
-12.76538568 -15.47352535 -11.47186376
-10.38136542 -13.65117959 -13.85115509
-11.1114877 -16.13270699 -11.86175342
-9.942361577 -15.2055864 -13.09462431
-6.03453549 -9.459480497 -16.39081557
-8.093639471 -11.58117196 -15.4391164
-7.30058518 -8.915164854 -16.28013815
-5.682716176 -11.05060848 -16.01738299
-8.357631776 -9.953364133 -15.81465374
-6.705350463 -12.14950955 -15.51418491
-1.175457817 -0.7264728833 -17.55785986
-3.550969674 -2.194619952 -17.38769072
-1.179762821 -1.952170841 -17.53739828
-8.486075972 -5.244683382 -16.27932079
-5.988600307 -3.701158535 -16.99611631
-7.369190246 -5.875006093 -16.60810889
-1.196634644 -4.446033922 -17.37679484
-3.581902471 -3.463478413 -17.35871674
-1.186038817 -3.19810326 -17.47748177
-2.418484073 -5.289209824 -17.29120161
-2.377150451 -2.703469207 -17.47190934
-4.988582101 -6.999085325 -16.93641401
-4.848637513 -4.266839816 -17.18169328
-6.190979732 -6.464360842 -16.82437412
-3.6870694 -6.144408846 -17.14828745
-6.095018013 -5.060848255 -16.93946093
-3.642756799 -4.785498054 -17.27995962
-17.62492329 -10.89280164 -8.582231617
-15.54738254 -9.608810847 -11.20018718
-17.34413114 -9.225573118 -8.976381519
-16.76992107 -12.24719339 -9.451993966
-10.97542391 -6.783185019 -15.10675144
-13.34744929 -8.249177323 -13.40126704
-11.9323739 -6.012316706 -14.47455727
-10.96817954 -8.464891791 -15.0185842
-16.59490948 -6.109675859 -9.577267336
-15.29532809 -8.018261405 -11.47331364
-16.9902736 -7.619034833 -9.304042057
-15.60915617 -5.537883704 -10.76896729
-16.32686841 -8.628323861 -10.27573977
-14.35695873 -14.56727317 -10.91809202
-14.59918299 -10.82363808 -12.04406864
-15.67365776 -13.49771422 -10.24841585
-13.18279328 -13.76102721 -12.24719113
-15.69515953 -11.54004175 -10.81012456
-13.53046713 -4.39943312 -12.9219055
-14.19479336 -7.363627692 -12.60939092
-12.78706659 -5.207002401 -13.73382924
-14.58695053 -4.966797065 -11.89101779
-13.08940267 -6.703797058 -13.59847635
-14.95657132 -6.464345563 -11.71282972
-10.70164906 -11.90832461 -14.43464126
-13.40297642 -10.04545794 -13.20947148
-10.88443252 -10.19598316 -14.80349105
-11.95561996 -12.86894806 -13.43341586
-12.2137318 -9.273525908 -14.18268671
-13.38473978 -11.91229868 -12.82231732
-1.236527935 9.520603838 -16.1688769
-3.600872751 8.455268199 -15.90637308
-2.021106366 10.47350769 -15.69737899
-1.21745931 8.238213343 -16.51705905
-7.868160817 6.091190041 -14.71854333
-5.815711514 7.310715713 -15.42329389
-3.620237027 12.25686786 -14.4820727
-4.38842224 9.327219007 -15.36055412
-2.823279239 11.39349858 -15.1334216
-3.230987074 9.909067633 -15.55855104
-1.189307142 5.704605057 -17.03935205
-3.562165786 7.206417881 -16.25728136
-1.202939536 6.958619806 -16.80618446
-2.411073581 7.729488222 -16.41194713
-14.51960645 0.7203092679 -10.13909517
-13.03966967 2.121151536 -11.49105434
-14.47279017 1.863435186 -9.65644514
-14.07171123 0 -11.05213196
-9.748343817 4.809795769 -13.80722085
-11.46306678 3.483120516 -12.72037227
-14.29061599 4.082747052 -8.677532339
-13.01357504 3.253141121 -11.01400835
-14.39474594 2.989303949 -9.167853144
-13.74984009 2.565159361 -10.35184162
-12.9750335 -1.47458766 -12.82226412
-12.52157849 1.423053369 -12.37414814
-13.55586722 -0.7351861489 -11.95490579
-13.30428611 0.7215419503 -11.73303667
-6.730238386 14.98883462 -10.88975446
-7.530012716 12.23294242 -12.18381651
-6.001627029 14.44882205 -11.91115858
-7.984996776 14.16714465 -10.34636714
-8.622730157 6.793685391 -13.95187047
-8.139006048 9.486958649 -13.16918842
-7.650602968 7.443952826 -14.38317809
-4.454998174 13.0851098 -13.70135758
-6.794512738 11.63484505 -13.09771601
-5.23518839 13.80817173 -12.85628418
-4.85136928 11.61467192 -14.2479515
-6.428152005 13.0393376 -12.55119588
-10.1692081 12.32657621 -9.138757958
-8.694654011 11.43320542 -11.60068992
-9.1358067 13.26422677 -9.752671227
-8.366050768 12.79481809 -11.01853829
-5.553926774 8.706098769 -15.08540129
-7.12382899 10.19347215 -13.5891431
-6.62108953 8.085393596 -14.76487837
-5.217157769 10.14528371 -14.70515358
-7.402642499 8.816037642 -14.00758385
