19.136358 2.503484 24.071780
13.037653 2.685904 29.787134
24.600720 0.000000 -10.844111
25.842469 0.000000 -3.599441
26.260419 3.740461 -10.177639
23.445818 -3.339557 -9.086796
24.600720 0.000000 10.844111
25.842469 0.000000 3.599441
26.260419 3.740461 10.177639
23.445818 -3.339557 9.086796
29.112644 12.618242 -7.798502
27.411305 3.693121 -2.282474
27.842610 8.024884 -9.154583
29.855618 13.067628 -2.692079
27.036856 3.715148 -6.158235
20.838325 -9.031918 -5.582033
24.397703 -3.287099 -2.031539
22.157963 -6.386437 -7.285485
21.054003 -9.215213 -1.898438
24.083890 -3.309379 -5.485632
29.112644 12.618242 7.798502
27.411305 3.693121 2.282474
27.842610 8.024884 9.154583
29.855618 13.067628 2.692079
27.036856 3.715148 6.158235
28.837713 7.970548 0.000000
20.838325 -9.031918 5.582033
24.397703 -3.287099 2.031539
22.157963 -6.386437 7.285485
21.054003 -9.215213 1.898438
24.083890 -3.309379 5.485632
22.829976 -6.310050 0.000000
-14.358755 18.281744 -1.891193
-17.471443 13.974928 -5.459998
-13.575214 18.836502 -5.062272
-22.479746 3.409933 -12.590768
-20.156053 9.162263 -8.957453
-11.532929 19.254181 -11.899739
-16.693813 14.200605 -8.776457
-12.629782 19.171496 -8.470556
-15.234501 16.526326 -6.965399
-25.388870 -32.325423 -3.343971
-28.825428 -23.056669 -9.008231
-23.369014 -32.426044 -8.714433
-25.111358 -3.809120 -14.064718
-27.911081 -12.687437 -12.403827
-17.698067 -29.546857 -18.260962
-26.877722 -22.863556 -14.130455
-20.689757 -31.406213 -13.876229
-25.837556 -28.028478 -11.813245
-4.492555 -16.588222 -29.616858
-13.475193 -13.173973 -29.644064
-7.487182 -20.077963 -27.859493
-4.498466 -12.240139 -31.582098
-22.917353 -2.370734 -17.999631
-19.922400 -7.783673 -24.906969
-24.483568 -6.579909 -17.644978
-13.945978 -26.526827 -22.565067
-16.825333 -16.306692 -27.223960
-10.741650 -23.493798 -25.485979
-19.658698 -24.759419 -21.607000
-12.474639 -18.599956 -28.233980
-4.476879 -2.766864 -33.228563
-13.133020 -8.116653 -30.300334
-4.510643 -7.476850 -32.826048
-9.114552 -10.397649 -31.623250
-26.733523 -16.522226 -16.012928
-20.825089 -12.870613 -24.481360
-25.839818 -11.416825 -17.022732
-24.187262 -21.107691 -19.204412
-23.100284 -9.736144 -21.294587
-20.691282 -18.825550 -23.710100
-4.112980 15.186683 -27.114531
-11.152295 10.903000 -24.533922
-6.351686 17.032966 -23.634360
-4.208281 11.450559 -29.544817
-21.456801 2.219644 -16.852491
-16.826763 6.574209 -21.036806
-20.564904 5.526776 -14.820850
-20.648185 0.000000 -20.405072
-9.965158 18.954857 -16.123965
-12.863324 12.466812 -20.813295
-8.352563 18.268462 -19.817554
-13.073458 16.465547 -14.369121
-9.858410 14.699103 -22.312642
-4.406722 2.723504 -32.707834
-11.625364 7.184870 -26.821888
-4.325608 7.170136 -31.479464
-8.744114 0.000000 -31.636502
-8.166852 9.316537 -28.335173
-18.255712 11.282650 -10.934862
-15.998136 9.887391 -18.806936
-19.453348 8.595086 -12.815459
-15.870107 13.849493 -12.600685
-18.361688 7.738955 -16.926397
-14.597175 13.280948 -16.726874
-16.890788 -5.088605 -27.329869
-15.275312 4.601919 -24.715974
-19.136358 -2.503484 -24.071780
-13.037653 -2.685904 -29.787134
-18.048918 2.361221 -22.703880
-12.483616 2.571766 -28.521326
-14.358755 18.281744 1.891193
-17.471443 13.974928 5.459998
-13.575214 18.836502 5.062272
-16.078328 16.269892 0.000000
-22.479746 3.409933 12.590768
-20.156053 9.162263 8.957453
-11.532929 19.254181 11.899739
-16.693813 14.200605 8.776457
-12.629782 19.171496 8.470556
-15.234501 16.526326 6.965399
-19.197506 11.864711 -3.574423
-19.197506 11.864711 3.574423
-17.720738 14.087467 -1.842970
-17.720738 14.087467 1.842970
-25.388870 -32.325423 3.343971
-28.825428 -23.056669 9.008231
-23.369014 -32.426044 8.714433
-28.325128 -28.662605 0.000000
-25.111358 -3.809120 14.064718
-27.911081 -12.687437 12.403827
-17.698067 -29.546857 18.260962
-26.877722 -22.863556 14.130455
-20.689757 -31.406213 13.876229
-25.837556 -28.028478 11.813245
-29.987432 -18.533252 -5.583422
-29.987432 -18.533252 5.583422
-29.818446 -23.704790 -3.101141
-29.818446 -23.704790 3.101141
-4.492555 -16.588222 29.616858
-13.475193 -13.173973 29.644064
-7.487182 -20.077963 27.859493
-4.498466 -12.240139 31.582098
-22.917353 -2.370734 17.999631
-19.922400 -7.783673 24.906969
-24.483568 -6.579909 17.644978
-13.945978 -26.526827 22.565067
-16.825333 -16.306692 27.223960
-10.741650 -23.493798 25.485979
-19.658698 -24.759419 21.607000
-12.474639 -18.599956 28.233980
-4.476879 -2.766864 33.228563
-13.133020 -8.116653 30.300334
-4.510643 -7.476850 32.826048
-9.114552 -10.397649 31.623250
-26.733523 -16.522226 16.012928
-20.825089 -12.870613 24.481360
-25.839818 -11.416825 17.022732
-24.187262 -21.107691 19.204412
-23.100284 -9.736144 21.294587
-20.691282 -18.825550 23.710100
-4.112980 15.186683 27.114531
-11.152295 10.903000 24.533922
-6.351686 17.032966 23.634360
-4.208281 11.450559 29.544817
-21.456801 2.219644 16.852491
-16.826763 6.574209 21.036806
-20.564904 5.526776 14.820850
-20.648185 0.000000 20.405072
-9.965158 18.954857 16.123965
-12.863324 12.466812 20.813295
-8.352563 18.268462 19.817554
-13.073458 16.465547 14.369121
-9.858410 14.699103 22.312642
-4.406722 2.723504 32.707834
-11.625364 7.184870 26.821888
-4.325608 7.170136 31.479464
-8.744114 0.000000 31.636502
-8.166852 9.316537 28.335173
-18.255712 11.282650 10.934862
-15.998136 9.887391 18.806936
-19.453348 8.595086 12.815459
-15.870107 13.849493 12.600685
-18.361688 7.738955 16.926397
-14.597175 13.280948 16.726874
-16.890788 -5.088605 27.329869
-15.275312 4.601919 24.715974
-19.136358 -2.503484 24.071780
-13.037653 -2.685904 29.787134
-18.048918 2.361221 22.703880
-12.483616 2.571766 28.521326
-24.600720 0.000000 -10.844111
-25.842469 0.000000 -3.599441
-23.445818 3.339557 -9.086796
-26.260419 -3.740461 -10.177639
-24.600720 0.000000 10.844111
-25.842469 0.000000 3.599441
-23.445818 3.339557 9.086796
-26.260419 -3.740461 10.177639
-20.838325 9.031918 -5.582033
-24.397703 3.287099 -2.031539
-22.157963 6.386437 -7.285485
-21.054003 9.215213 -1.898438
-24.083890 3.309379 -5.485632
-29.112644 -12.618242 -7.798502
-27.411305 -3.693121 -2.282474
-27.842610 -8.024884 -9.154583
-29.855618 -13.067628 -2.692079
-27.036856 -3.715148 -6.158235
-20.838325 9.031918 5.582033
-24.397703 3.287099 2.031539
-22.157963 6.386437 7.285485
-21.054003 9.215213 1.898438
-24.083890 3.309379 5.485632
-22.829976 6.310050 0.000000
-29.112644 -12.618242 7.798502
-27.411305 -3.693121 2.282474
-27.842610 -8.024884 9.154583
-29.855618 -13.067628 2.692079
-27.036856 -3.715148 6.158235
-28.837713 -7.970548 0.000000
-11.365408 21.599535 0.000000
-8.714127 24.173409 0.000000
-2.044804 29.503376 0.000000
-5.648449 26.817605 0.000000
18.839588 35.803935 0.000000
12.930023 35.868508 0.000000
2.226183 32.120395 0.000000
7.246853 34.406481 0.000000
-18.839588 -35.803935 0.000000
-12.930023 -35.868508 0.000000
-2.226183 -32.120395 0.000000
-7.246853 -34.406481 0.000000
11.365408 -21.599535 0.000000
8.714127 -24.173409 0.000000
2.044804 -29.503376 0.000000
5.648449 -26.817605 0.000000
-20.721237 -35.190954 2.691257
-18.484993 -34.774674 7.872264
-17.872396 -35.832942 2.641218
-12.942055 -31.272740 16.717616
-15.831769 -33.400017 12.594253
-11.923123 -35.613734 2.485756
-15.564914 -35.113589 7.693809
-14.884414 -35.948251 2.573075
-16.764364 -35.595611 5.229339
-1.346328 -18.950949 27.138549
-4.123264 -22.337233 25.347556
-9.965404 -28.607147 20.197570
-7.005598 -25.584477 23.055659
-1.305270 -31.546587 2.111970
-4.097272 -32.462160 6.629526
-3.650006 -32.789964 2.205822
-10.043447 -31.174520 16.250638
-7.065171 -32.444021 11.431687
-11.456915 -32.387659 14.370740
-8.926512 -34.888209 2.402540
-6.687672 -33.518154 6.916338
-6.209036 -33.932086 2.302664
-10.738055 -35.104274 4.909961
-5.148265 -33.272068 4.526850
-14.206228 -34.376287 10.125457
-8.314646 -33.481382 9.448375
-12.860051 -33.470023 12.316193
-12.522380 -34.948417 7.514292
-9.894489 -33.118423 11.916400
-9.521046 -34.379554 7.247491
12.190294 -20.702821 1.583265
11.322114 -21.299592 4.821786
10.959629 -21.973314 1.619636
9.042055 -21.848912 11.679876
10.283664 -21.695272 8.180707
8.227315 -24.574553 1.715247
10.013591 -22.590109 4.949764
9.635244 -23.270663 1.665649
10.506172 -22.307652 3.277210
1.303918 -18.353988 26.283675
3.704835 -20.070448 22.775283
0.000000 -20.046996 25.524083
7.557683 -21.695431 15.317675
5.789158 -21.142033 19.052315
-2.688449 -23.377384 23.655911
2.493109 -21.678811 21.937101
-1.336528 -21.733360 24.643820
1.288905 -20.958961 23.765716
1.240759 -29.987443 2.007589
3.533416 -27.994802 5.717188
3.188901 -28.647609 1.927161
0.000000 -30.599253 4.122633
7.462667 -23.163866 12.074848
5.596152 -25.698130 9.054764
8.180529 -23.125612 10.261074
6.640676 -25.954293 1.787315
5.319083 -26.658880 5.500954
4.993844 -27.291118 1.852002
7.637594 -24.968415 3.492280
4.284535 -27.689982 3.767376
-2.655937 -31.305590 8.652652
2.409087 -28.395963 7.848451
-1.308602 -31.052107 6.356264
1.244716 -29.536146 6.045952
9.438694 -22.839790 6.727408
6.337460 -25.519657 7.201593
8.842249 -23.013150 8.468306
8.572298 -23.924226 5.143970
7.276442 -24.355405 8.763362
7.003580 -25.289235 5.331177
-8.349223 -29.583096 18.283359
-2.582782 -27.916112 17.253106
-6.927677 -28.146362 19.823967
-6.958605 -30.489196 15.946491
6.519707 -23.100727 14.277035
2.370807 -25.624969 15.837101
5.646609 -22.941530 16.158115
5.589799 -24.491757 12.809704
-4.110386 -25.060180 22.481049
-1.316340 -26.456876 18.590740
-5.505822 -26.624518 21.230052
-1.327055 -24.255918 21.776700
-4.017309 -27.399938 19.268402
-4.113266 -31.322746 11.131989
-1.326323 -28.414073 14.908216
-5.527251 -31.062565 13.530454
-1.316819 -30.021336 10.653291
-4.022320 -29.535225 15.479988
3.651848 -22.264567 19.973154
1.260689 -25.338356 17.804777
4.687179 -22.665800 18.073421
1.274953 -23.303593 20.921713
3.543637 -24.169275 16.996509
0.000000 -24.907532 19.800757
3.561539 -27.121310 9.638814
1.265955 -27.120794 14.229662
4.598300 -25.841962 11.256426
1.254153 -28.592659 10.146314
3.517255 -25.826613 13.536232
0.000000 -28.610215 12.522522
-12.190294 20.702821 1.583265
-11.322114 21.299592 4.821786
-10.959629 21.973314 1.619636
-9.042055 21.848912 11.679876
-10.283664 21.695272 8.180707
-8.227315 24.574553 1.715247
-10.013591 22.590109 4.949764
-9.635244 23.270663 1.665649
-10.506172 22.307652 3.277210
-1.303918 18.353988 26.283675
-3.704835 20.070448 22.775283
-7.557683 21.695431 15.317675
-5.789158 21.142033 19.052315
-1.240759 29.987443 2.007589
-3.533416 27.994802 5.717188
-3.188901 28.647609 1.927161
-7.462667 23.163866 12.074848
-5.596152 25.698130 9.054764
-8.180529 23.125612 10.261074
-6.640676 25.954293 1.787315
-5.319083 26.658880 5.500954
-4.993844 27.291118 1.852002
-7.637594 24.968415 3.492280
-4.284535 27.689982 3.767376
-9.438694 22.839790 6.727408
-6.337460 25.519657 7.201593
-8.842249 23.013150 8.468306
-8.572298 23.924226 5.143970
-7.276442 24.355405 8.763362
-7.003580 25.289235 5.331177
20.721237 35.190954 2.691257
18.484993 34.774674 7.872264
17.872396 35.832942 2.641218
12.942055 31.272740 16.717616
15.831769 33.400017 12.594253
11.923123 35.613734 2.485756
15.564914 35.113589 7.693809
14.884414 35.948251 2.573075
16.764364 35.595611 5.229339
1.346328 18.950949 27.138549
4.123264 22.337233 25.347556
0.000000 20.046996 25.524083
9.965404 28.607147 20.197570
7.005598 25.584477 23.055659
-2.493109 21.678811 21.937101
2.688449 23.377384 23.655911
-1.288905 20.958961 23.765716
1.336528 21.733360 24.643820
1.305270 31.546587 2.111970
4.097272 32.462160 6.629526
3.650006 32.789964 2.205822
0.000000 30.599253 4.122633
10.043447 31.174520 16.250638
7.065171 32.444021 11.431687
11.456915 32.387659 14.370740
8.926512 34.888209 2.402540
6.687672 33.518154 6.916338
6.209036 33.932086 2.302664
10.738055 35.104274 4.909961
5.148265 33.272068 4.526850
-2.409087 28.395963 7.848451
2.655937 31.305590 8.652652
-1.244716 29.536146 6.045952
1.308602 31.052107 6.356264
14.206228 34.376287 10.125457
8.314646 33.481382 9.448375
12.860051 33.470023 12.316193
12.522380 34.948417 7.514292
9.894489 33.118423 11.916400
9.521046 34.379554 7.247491
-6.519707 23.100727 14.277035
-2.370807 25.624969 15.837101
-5.646609 22.941530 16.158115
-5.589799 24.491757 12.809704
8.349223 29.583096 18.283359
2.582782 27.916112 17.253106
6.927677 28.146362 19.823967
6.958605 30.489196 15.946491
-3.651848 22.264567 19.973154
-1.260689 25.338356 17.804777
-4.687179 22.665800 18.073421
-1.274953 23.303593 20.921713
-3.543637 24.169275 16.996509
-3.561539 27.121310 9.638814
-1.265955 27.120794 14.229662
-4.598300 25.841962 11.256426
-1.254153 28.592659 10.146314
-3.517255 25.826613 13.536232
4.110386 25.060180 22.481049
1.316340 26.456876 18.590740
5.505822 26.624518 21.230052
1.327055 24.255918 21.776700
4.017309 27.399938 19.268402
0.000000 24.907532 19.800757
4.113266 31.322746 11.131989
1.326323 28.414073 14.908216
5.527251 31.062565 13.530454
1.316819 30.021336 10.653291
4.022320 29.535225 15.479988
0.000000 28.610215 12.522522
0.000000 -15.335414 29.144383
0.000000 -11.271988 31.269038
0.000000 -2.321745 33.499211
0.000000 -6.896566 32.743397
0.000000 15.335414 29.144383
0.000000 11.271988 31.269038
0.000000 2.321745 33.499211
0.000000 6.896566 32.743397
-20.721237 -35.190954 -2.691257
-18.484993 -34.774674 -7.872264
-17.872396 -35.832942 -2.641218
-12.942055 -31.272740 -16.717616
-15.831769 -33.400017 -12.594253
-11.923123 -35.613734 -2.485756
-15.564914 -35.113589 -7.693809
-14.884414 -35.948251 -2.573075
-16.764364 -35.595611 -5.229339
-1.346328 -18.950949 -27.138549
-4.123264 -22.337233 -25.347556
-9.965404 -28.607147 -20.197570
-7.005598 -25.584477 -23.055659
-1.305270 -31.546587 -2.111970
-4.097272 -32.462160 -6.629526
-3.650006 -32.789964 -2.205822
-10.043447 -31.174520 -16.250638
-7.065171 -32.444021 -11.431687
-11.456915 -32.387659 -14.370740
-8.926512 -34.888209 -2.402540
-6.687672 -33.518154 -6.916338
-6.209036 -33.932086 -2.302664
-10.738055 -35.104274 -4.909961
-5.148265 -33.272068 -4.526850
-14.206228 -34.376287 -10.125457
-8.314646 -33.481382 -9.448375
-12.860051 -33.470023 -12.316193
-12.522380 -34.948417 -7.514292
-9.894489 -33.118423 -11.916400
-9.521046 -34.379554 -7.247491
12.190294 -20.702821 -1.583265
11.322114 -21.299592 -4.821786
10.959629 -21.973314 -1.619636
9.042055 -21.848912 -11.679876
10.283664 -21.695272 -8.180707
8.227315 -24.574553 -1.715247
10.013591 -22.590109 -4.949764
9.635244 -23.270663 -1.665649
10.506172 -22.307652 -3.277210
1.303918 -18.353988 -26.283675
3.704835 -20.070448 -22.775283
0.000000 -20.046996 -25.524083
7.557683 -21.695431 -15.317675
5.789158 -21.142033 -19.052315
-2.688449 -23.377384 -23.655911
2.493109 -21.678811 -21.937101
-1.336528 -21.733360 -24.643820
1.288905 -20.958961 -23.765716
1.240759 -29.987443 -2.007589
3.533416 -27.994802 -5.717188
3.188901 -28.647609 -1.927161
0.000000 -30.599253 -4.122633
7.462667 -23.163866 -12.074848
5.596152 -25.698130 -9.054764
8.180529 -23.125612 -10.261074
6.640676 -25.954293 -1.787315
5.319083 -26.658880 -5.500954
4.993844 -27.291118 -1.852002
7.637594 -24.968415 -3.492280
4.284535 -27.689982 -3.767376
-2.655937 -31.305590 -8.652652
2.409087 -28.395963 -7.848451
-1.308602 -31.052107 -6.356264
1.244716 -29.536146 -6.045952
9.438694 -22.839790 -6.727408
6.337460 -25.519657 -7.201593
8.842249 -23.013150 -8.468306
8.572298 -23.924226 -5.143970
7.276442 -24.355405 -8.763362
7.003580 -25.289235 -5.331177
-8.349223 -29.583096 -18.283359
-2.582782 -27.916112 -17.253106
-6.927677 -28.146362 -19.823967
-6.958605 -30.489196 -15.946491
6.519707 -23.100727 -14.277035
2.370807 -25.624969 -15.837101
5.646609 -22.941530 -16.158115
5.589799 -24.491757 -12.809704
-4.110386 -25.060180 -22.481049
-1.316340 -26.456876 -18.590740
-5.505822 -26.624518 -21.230052
-1.327055 -24.255918 -21.776700
-4.017309 -27.399938 -19.268402
-4.113266 -31.322746 -11.131989
-1.326323 -28.414073 -14.908216
-5.527251 -31.062565 -13.530454
-1.316819 -30.021336 -10.653291
-4.022320 -29.535225 -15.479988
3.651848 -22.264567 -19.973154
1.260689 -25.338356 -17.804777
4.687179 -22.665800 -18.073421
1.274953 -23.303593 -20.921713
3.543637 -24.169275 -16.996509
0.000000 -24.907532 -19.800757
3.561539 -27.121310 -9.638814
1.265955 -27.120794 -14.229662
4.598300 -25.841962 -11.256426
1.254153 -28.592659 -10.146314
3.517255 -25.826613 -13.536232
0.000000 -28.610215 -12.522522
-12.190294 20.702821 -1.583265
-11.322114 21.299592 -4.821786
-10.959629 21.973314 -1.619636
-9.042055 21.848912 -11.679876
-10.283664 21.695272 -8.180707
-8.227315 24.574553 -1.715247
-10.013591 22.590109 -4.949764
-9.635244 23.270663 -1.665649
-10.506172 22.307652 -3.277210
-1.303918 18.353988 -26.283675
-3.704835 20.070448 -22.775283
-7.557683 21.695431 -15.317675
-5.789158 21.142033 -19.052315
-1.240759 29.987443 -2.007589
-3.533416 27.994802 -5.717188
-3.188901 28.647609 -1.927161
-7.462667 23.163866 -12.074848
-5.596152 25.698130 -9.054764
-8.180529 23.125612 -10.261074
-6.640676 25.954293 -1.787315
-5.319083 26.658880 -5.500954
-4.993844 27.291118 -1.852002
-7.637594 24.968415 -3.492280
-4.284535 27.689982 -3.767376
-9.438694 22.839790 -6.727408
-6.337460 25.519657 -7.201593
-8.842249 23.013150 -8.468306
-8.572298 23.924226 -5.143970
-7.276442 24.355405 -8.763362
-7.003580 25.289235 -5.331177
20.721237 35.190954 -2.691257
18.484993 34.774674 -7.872264
17.872396 35.832942 -2.641218
12.942055 31.272740 -16.717616
15.831769 33.400017 -12.594253
11.923123 35.613734 -2.485756
15.564914 35.113589 -7.693809
14.884414 35.948251 -2.573075
16.764364 35.595611 -5.229339
1.346328 18.950949 -27.138549
4.123264 22.337233 -25.347556
0.000000 20.046996 -25.524083
9.965404 28.607147 -20.197570
7.005598 25.584477 -23.055659
-2.493109 21.678811 -21.937101
2.688449 23.377384 -23.655911
-1.288905 20.958961 -23.765716
1.336528 21.733360 -24.643820
1.305270 31.546587 -2.111970
4.097272 32.462160 -6.629526
3.650006 32.789964 -2.205822
0.000000 30.599253 -4.122633
10.043447 31.174520 -16.250638
7.065171 32.444021 -11.431687
11.456915 32.387659 -14.370740
8.926512 34.888209 -2.402540
6.687672 33.518154 -6.916338
6.209036 33.932086 -2.302664
10.738055 35.104274 -4.909961
5.148265 33.272068 -4.526850
-2.409087 28.395963 -7.848451
2.655937 31.305590 -8.652652
-1.244716 29.536146 -6.045952
1.308602 31.052107 -6.356264
14.206228 34.376287 -10.125457
8.314646 33.481382 -9.448375
12.860051 33.470023 -12.316193
12.522380 34.948417 -7.514292
9.894489 33.118423 -11.916400
9.521046 34.379554 -7.247491
-6.519707 23.100727 -14.277035
-2.370807 25.624969 -15.837101
-5.646609 22.941530 -16.158115
-5.589799 24.491757 -12.809704
8.349223 29.583096 -18.283359
2.582782 27.916112 -17.253106
6.927677 28.146362 -19.823967
6.958605 30.489196 -15.946491
-3.651848 22.264567 -19.973154
-1.260689 25.338356 -17.804777
-4.687179 22.665800 -18.073421
-1.274953 23.303593 -20.921713
-3.543637 24.169275 -16.996509
-3.561539 27.121310 -9.638814
-1.265955 27.120794 -14.229662
-4.598300 25.841962 -11.256426
-1.254153 28.592659 -10.146314
-3.517255 25.826613 -13.536232
4.110386 25.060180 -22.481049
1.316340 26.456876 -18.590740
5.505822 26.624518 -21.230052
1.327055 24.255918 -21.776700
4.017309 27.399938 -19.268402
0.000000 24.907532 -19.800757
4.113266 31.322746 -11.131989
1.326323 28.414073 -14.908216
5.527251 31.062565 -13.530454
1.316819 30.021336 -10.653291
4.022320 29.535225 -15.479988
0.000000 28.610215 -12.522522
0.000000 -15.335414 -29.144383
0.000000 -11.271988 -31.269038
0.000000 -2.321745 -33.499211
0.000000 -6.896566 -32.743397
0.000000 15.335414 -29.144383
0.000000 11.271988 -31.269038
0.000000 2.321745 -33.499211
0.000000 6.896566 -32.743397
23.657877 33.879065 -1.680721
26.775386 30.383826 -4.942510
22.736152 34.076262 -4.387468
28.898685 20.403405 -10.066962
28.473639 25.659251 -7.796715
20.430312 33.645710 -9.612386
25.860068 30.554901 -7.638132
21.649161 33.992055 -7.059005
24.472551 32.505681 -6.064234
24.293077 1.857833 -14.304318
25.896064 5.862331 -13.765436
28.397997 15.180850 -11.752358
27.314484 10.299561 -12.947197
14.612066 30.008109 -18.546031
20.580330 28.568296 -17.656178
16.136969 31.179792 -16.584944
28.029072 20.363805 -12.585524
25.244821 25.143441 -15.539501
27.951226 23.042120 -11.610139
19.054311 33.016158 -12.155416
22.057334 29.405119 -15.415030
17.632246 32.198552 -14.438960
22.103794 32.038502 -11.366758
19.237366 30.565775 -16.153214
26.921762 28.189652 -9.165869
24.565829 27.654537 -14.345944
27.594680 25.692398 -10.462163
24.779917 30.398023 -10.350402
26.507698 25.515353 -13.067804
23.498205 30.005779 -12.968729
13.487517 -19.314686 -0.958190
15.188078 -17.234930 -2.803591
13.110513 -19.649643 -2.529978
18.176551 -12.833232 -6.331868
16.740432 -15.085776 -4.583902
12.250985 -20.175566 -5.764044
14.814000 -17.503446 -4.375522
12.698105 -19.937710 -4.140391
13.987409 -18.578785 -3.466044
22.986233 -1.757891 -13.534819
21.938369 -4.966392 -11.661665
19.517630 -10.433631 -8.077266
20.773283 -7.833049 -9.846637
9.997694 -20.531791 -12.689345
12.955717 -17.984297 -11.114907
10.631940 -20.542995 -10.927091
17.802440 -12.933908 -7.993595
15.523519 -15.461179 -9.555534
17.109852 -14.104829 -7.106943
11.749373 -20.358602 -7.495338
13.472331 -17.960263 -9.415299
11.216848 -20.483283 -9.185423
13.128014 -19.028493 -6.751011
12.109922 -19.241155 -10.168448
15.631170 -16.367325 -5.321838
14.786292 -16.645400 -8.634894
16.383196 -15.253795 -6.211475
14.423246 -17.693286 -6.024492
15.977650 -15.379510 -7.876686
13.975943 -17.846429 -7.713364
2.106708 -16.220528 -27.547384
6.017995 -14.130951 -26.583685
3.335359 -17.284051 -25.904817
2.124778 -14.377793 -28.826500
12.685545 -9.820600 -23.730163
9.533437 -11.984130 -25.282718
5.581162 -18.895881 -22.326383
7.099275 -15.088907 -24.849205
4.503866 -18.175600 -24.141752
5.278260 -16.187821 -25.417026
2.162832 -10.374192 -30.987160
6.101425 -12.343452 -27.846146
2.146095 -12.414471 -29.982942
4.170328 -13.369355 -28.387021
22.478356 -1.115138 -15.696719
20.383309 -3.315735 -17.962549
22.038621 -2.837569 -14.704472
15.517437 -7.656244 -21.978367
18.071492 -5.491130 -20.053630
21.021807 -6.005810 -12.764839
19.982169 -4.995154 -16.911862
21.546534 -4.474489 -13.722747
21.031811 -3.923678 -15.834219
9.165970 -20.413425 -14.830852
10.732979 -17.436346 -17.366324
8.395913 -20.213027 -16.662989
10.797317 -19.156821 -13.990363
13.516456 -10.649359 -21.870085
12.181359 -14.198792 -19.709854
12.066357 -11.740433 -22.684821
6.631203 -19.477004 -20.394280
9.962346 -17.059405 -19.204317
7.546629 -19.904757 -18.532592
7.401583 -17.720143 -21.737655
9.200100 -18.662162 -17.963523
13.720883 -16.631729 -12.330540
12.327818 -16.210705 -16.448175
12.320021 -17.887370 -13.151889
11.578742 -17.708224 -15.249826
8.897148 -13.946789 -24.166153
10.713798 -15.330351 -20.437230
10.519291 -12.845712 -23.457778
8.160442 -15.868793 -23.001135
11.405232 -13.582846 -21.581447
9.119474 -16.523691 -21.099749
2.233974 -1.380672 -33.368952
6.464760 -3.995441 -31.655366
2.223324 -3.678966 -33.050130
12.971239 -8.016666 -24.883463
10.091456 -6.236863 -28.640343
11.409304 -9.095942 -25.713403
2.194448 -8.153359 -31.866433
6.385347 -6.174236 -30.944849
2.208474 -5.955056 -32.544099
4.278149 -9.356286 -30.587068
4.377709 -4.978651 -32.175892
8.011177 -11.239849 -27.198231
8.287062 -7.292681 -29.366139
9.748124 -10.178581 -26.491134
6.234571 -10.389756 -28.996528
9.938014 -8.251785 -27.620033
6.332697 -8.319279 -30.040092
18.592783 -11.490972 -9.053518
17.838691 -11.024917 -12.850824
19.229891 -10.228634 -9.952349
17.490550 -12.773474 -9.858161
15.142283 -9.358445 -20.842083
16.722789 -10.335252 -16.790217
16.431375 -8.279210 -19.932067
14.482280 -11.176962 -19.830395
20.434331 -7.523219 -11.793077
18.420902 -9.656779 -13.817865
19.848199 -8.900629 -10.869070
20.024161 -7.104258 -13.814939
18.865907 -9.970140 -11.873750
15.092591 -15.313682 -11.477521
16.616183 -12.319015 -13.708058
16.319494 -14.053890 -10.670704
14.519445 -15.156308 -13.488979
17.095284 -12.569499 -11.774468
18.828479 -6.122082 -17.981628
17.861390 -9.265695 -15.866469
17.665848 -7.193683 -18.973838
19.491780 -6.636871 -15.889346
17.210882 -8.814631 -17.880248
18.965995 -8.197249 -14.852700
13.089710 -14.565654 -17.655716
16.007198 -11.997308 -15.776094
13.793664 -12.921203 -18.760222
13.851400 -14.909553 -15.563527
15.312258 -11.626145 -17.780721
15.286236 -13.604613 -14.643913
2.206661 16.990110 -28.854367
6.815522 16.003640 -30.106657
3.616361 18.740222 -28.087282
2.214218 14.983003 -30.039905
15.415115 11.933715 -28.836222
11.362408 14.283263 -30.133159
6.546851 22.165368 -26.189437
8.352380 17.752275 -29.235378
5.074000 20.476404 -27.197797
5.981768 18.345399 -28.804710
2.228582 10.689570 -31.929178
6.800959 13.758638 -31.038728
2.224239 12.866509 -31.074686
4.508689 14.454083 -30.690215
23.245911 1.153216 -16.232706
22.442855 3.650759 -19.777500
24.075245 3.099793 -16.063335
22.212475 0.000000 -17.446009
18.651445 9.202552 -26.417269
20.966837 6.370897 -23.266546
25.627270 7.321564 -15.561363
23.207167 5.801341 -19.641330
24.876464 5.166004 -15.843543
23.719993 4.425183 -17.858070
19.974756 -2.270093 -19.739572
21.262841 2.416481 -21.012490
21.116270 -1.145215 -18.622417
21.810624 1.182873 -19.234768
12.770014 28.439947 -20.662316
14.954486 24.294430 -24.196867
11.216636 27.003875 -22.261153
15.849839 28.121108 -20.537047
17.069212 13.448508 -27.618565
16.397692 19.113418 -26.532023
15.166765 14.757096 -28.513606
8.129534 23.877865 -25.002401
13.316877 22.803667 -25.670815
9.656190 25.468868 -23.713133
9.109547 21.809182 -26.753762
12.347862 25.047315 -24.109641
21.461817 26.014879 -19.287082
17.752950 23.344589 -23.686563
18.809509 27.309421 -20.079557
16.912002 25.864771 -22.274015
10.801379 16.931782 -29.338367
14.135881 20.227003 -26.965065
13.048761 15.934593 -29.098439
10.010945 19.467280 -28.216988
14.741158 17.555704 -27.893824
11.680440 21.163938 -27.025062
2.242954 1.386222 -33.503093
6.692588 4.136247 -32.770949
2.247265 3.718582 -33.406017
4.459091 0.000000 -33.096536
15.175759 9.379135 -29.112519
11.030897 6.817469 -31.306550
13.343452 10.637920 -30.072435
2.247154 8.349184 -32.631794
6.738800 6.516004 -32.657764
2.247092 6.059187 -33.113170
4.518894 9.882793 -32.308298
4.506811 5.125475 -33.124785
8.582637 -2.634446 -31.052273
8.845655 2.715180 -32.003881
6.602705 -1.359338 -32.256037
6.680844 1.375425 -32.637768
9.149249 12.836588 -31.062026
9.023617 7.940855 -31.976204
11.309717 11.809131 -30.734862
6.834422 11.389393 -31.786391
11.198729 9.298589 -31.123851
6.814884 8.952729 -32.327418
27.827032 17.198051 -13.550018
25.472807 15.743061 -18.350369
27.461221 14.606987 -14.212439
26.952338 19.683485 -15.191087
19.034752 11.764124 -26.199741
22.504373 13.908467 -22.595112
20.419583 10.288732 -24.769960
19.006374 14.668515 -26.025179
26.343795 9.698881 -15.203552
25.088750 13.152262 -18.819544
26.953451 12.086873 -14.759977
25.199881 8.940522 -17.385737
26.349418 13.924980 -16.583692
23.829066 24.178137 -18.121382
24.246690 17.976170 -20.003091
25.620078 22.063292 -16.752006
22.146634 23.118047 -20.574855
25.677608 18.879749 -17.685589
22.482909 7.310321 -21.471692
23.633299 12.259905 -20.993719
21.570565 8.783718 -23.167664
23.905685 8.139788 -19.487482
22.092061 11.314549 -22.951266
24.542792 10.607584 -19.220016
18.401631 20.476526 -24.820562
22.583172 16.925965 -22.257129
18.802138 17.612887 -25.572053
20.314686 21.866590 -22.825719
20.861682 15.839659 -24.224758
22.509870 20.033583 -21.564013
14.726784 -6.725088 -23.828438
15.777059 -2.361819 -25.527818
16.121569 -5.633838 -22.889642
13.502530 -5.892128 -25.816417
17.080477 7.799918 -27.636792
16.598678 2.484814 -26.857224
18.436181 6.442702 -26.175963
15.154533 6.613016 -28.974996
18.721055 -3.422917 -20.868821
17.221680 -1.219402 -24.508537
17.459508 -4.527966 -21.895895
19.380665 -1.181042 -21.587102
16.695131 -3.480802 -23.740710
10.472712 -3.869664 -29.467699
14.400128 -1.281121 -27.445691
12.078131 -4.933970 -27.728391
10.725536 -1.325749 -30.224924
13.984490 -3.633730 -26.681873
20.500106 3.748195 -22.851974
17.710241 1.253995 -25.203819
19.579586 5.077789 -24.554676
19.982263 1.217703 -22.257190
18.114489 3.776727 -25.759058
18.626703 0.000000 -23.430680
11.070020 4.090369 -31.148381
14.757141 1.312883 -28.126134
13.134664 5.365569 -30.153929
10.928747 1.350867 -30.797580
15.007312 3.899500 -28.633378
12.798154 0.000000 -29.239952
23.657877 33.879065 1.680721
26.775386 30.383826 4.942510
22.736152 34.076262 4.387468
25.515589 32.486763 0.000000
28.898685 20.403405 10.066962
28.473639 25.659251 7.796715
20.430312 33.645710 9.612386
25.860068 30.554901 7.638132
21.649161 33.992055 7.059005
24.472551 32.505681 6.064234
28.192904 28.528805 -3.242244
28.192904 28.528805 3.242244
27.045951 30.667855 -1.663234
27.045951 30.667855 1.663234
24.293077 1.857833 14.304318
25.896064 5.862331 13.765436
28.397997 15.180850 11.752358
27.314484 10.299561 12.947197
14.612066 30.008109 18.546031
20.580330 28.568296 17.656178
16.136969 31.179792 16.584944
28.029072 20.363805 12.585524
25.244821 25.143441 15.539501
27.951226 23.042120 11.610139
19.054311 33.016158 12.155416
22.057334 29.405119 15.415030
17.632246 32.198552 14.438960
22.103794 32.038502 11.366758
19.237366 30.565775 16.153214
26.921762 28.189652 9.165869
24.565829 27.654537 14.345944
27.594680 25.692398 10.462163
24.779917 30.398023 10.350402
26.507698 25.515353 13.067804
23.498205 30.005779 12.968729
29.464025 18.209769 -8.315617
30.304285 18.729078 -2.803734
29.575389 20.830456 -7.279404
29.464025 18.209769 8.315617
30.304285 18.729078 2.803734
29.575389 20.830456 7.279404
29.008044 26.022609 -4.757917
30.268885 21.269365 -1.506003
29.438419 23.473820 -6.087724
29.264862 26.273676 -1.601097
30.036497 21.122504 -4.403875
29.008044 26.022609 4.757917
30.268885 21.269365 1.506003
29.438419 23.473820 6.087724
29.264862 26.273676 1.601097
30.036497 21.122504 4.403875
29.946310 23.806437 0.000000
13.487517 -19.314686 0.958190
15.188078 -17.234930 2.803591
13.110513 -19.649643 2.529978
14.381561 -18.310781 0.000000
18.176551 -12.833232 6.331868
16.740432 -15.085776 4.583902
12.250985 -20.175566 5.764044
14.814000 -17.503446 4.375522
12.698105 -19.937710 4.140391
13.987409 -18.578785 3.466044
16.054030 -16.245304 -1.846248
16.054030 -16.245304 1.846248
15.240855 -17.281860 -0.937261
15.240855 -17.281860 0.937261
22.986233 -1.757891 13.534819
21.938369 -4.966392 11.661665
19.517630 -10.433631 8.077266
20.773283 -7.833049 9.846637
9.997694 -20.531791 12.689345
12.955717 -17.984297 11.114907
10.631940 -20.542995 10.927091
17.802440 -12.933908 7.993595
15.523519 -15.461179 9.555534
17.109852 -14.104829 7.106943
11.749373 -20.358602 7.495338
13.472331 -17.960263 9.415299
11.216848 -20.483283 9.185423
13.128014 -19.028493 6.751011
12.109922 -19.241155 10.168448
15.631170 -16.367325 5.321838
14.786292 -16.645400 8.634894
16.383196 -15.253795 6.211475
14.423246 -17.693286 6.024492
15.977650 -15.379510 7.876686
13.975943 -17.846429 7.713364
19.058033 -11.778512 -5.378739
19.279867 -11.915613 -1.783762
18.355140 -12.927841 -4.517759
19.058033 -11.778512 5.378739
19.279867 -11.915613 1.783762
18.355140 -12.927841 4.517759
16.872366 -15.135905 -2.767416
18.530865 -13.021284 -0.921988
17.622819 -14.052212 -3.644315
16.918026 -15.188820 -0.925595
18.472687 -12.990510 -2.708418
16.872366 -15.135905 2.767416
18.530865 -13.021284 0.921988
17.622819 -14.052212 3.644315
16.918026 -15.188820 0.925595
18.472687 -12.990510 2.708418
17.747464 -14.108713 0.000000
2.106708 -16.220528 27.547384
6.017995 -14.130951 26.583685
3.335359 -17.284051 25.904817
2.124778 -14.377793 28.826500
12.685545 -9.820600 23.730163
9.533437 -11.984130 25.282718
5.581162 -18.895881 22.326383
7.099275 -15.088907 24.849205
4.503866 -18.175600 24.141752
5.278260 -16.187821 25.417026
2.162832 -10.374192 30.987160
6.101425 -12.343452 27.846146
2.146095 -12.414471 29.982942
4.170328 -13.369355 28.387021
22.478356 -1.115138 15.696719
20.383309 -3.315735 17.962549
22.038621 -2.837569 14.704472
15.517437 -7.656244 21.978367
18.071492 -5.491130 20.053630
21.021807 -6.005810 12.764839
19.982169 -4.995154 16.911862
21.546534 -4.474489 13.722747
21.031811 -3.923678 15.834219
9.165970 -20.413425 14.830852
10.732979 -17.436346 17.366324
8.395913 -20.213027 16.662989
10.797317 -19.156821 13.990363
13.516456 -10.649359 21.870085
12.181359 -14.198792 19.709854
12.066357 -11.740433 22.684821
6.631203 -19.477004 20.394280
9.962346 -17.059405 19.204317
7.546629 -19.904757 18.532592
7.401583 -17.720143 21.737655
9.200100 -18.662162 17.963523
13.720883 -16.631729 12.330540
12.327818 -16.210705 16.448175
12.320021 -17.887370 13.151889
11.578742 -17.708224 15.249826
8.897148 -13.946789 24.166153
10.713798 -15.330351 20.437230
10.519291 -12.845712 23.457778
8.160442 -15.868793 23.001135
11.405232 -13.582846 21.581447
9.119474 -16.523691 21.099749
2.233974 -1.380672 33.368952
6.464760 -3.995441 31.655366
2.223324 -3.678966 33.050130
12.971239 -8.016666 24.883463
10.091456 -6.236863 28.640343
11.409304 -9.095942 25.713403
2.194448 -8.153359 31.866433
6.385347 -6.174236 30.944849
2.208474 -5.955056 32.544099
4.278149 -9.356286 30.587068
4.377709 -4.978651 32.175892
8.011177 -11.239849 27.198231
8.287062 -7.292681 29.366139
9.748124 -10.178581 26.491134
6.234571 -10.389756 28.996528
9.938014 -8.251785 27.620033
6.332697 -8.319279 30.040092
18.592783 -11.490972 9.053518
17.838691 -11.024917 12.850824
19.229891 -10.228634 9.952349
17.490550 -12.773474 9.858161
15.142283 -9.358445 20.842083
16.722789 -10.335252 16.790217
16.431375 -8.279210 19.932067
14.482280 -11.176962 19.830395
20.434331 -7.523219 11.793077
18.420902 -9.656779 13.817865
19.848199 -8.900629 10.869070
20.024161 -7.104258 13.814939
18.865907 -9.970140 11.873750
15.092591 -15.313682 11.477521
16.616183 -12.319015 13.708058
16.319494 -14.053890 10.670704
14.519445 -15.156308 13.488979
17.095284 -12.569499 11.774468
18.828479 -6.122082 17.981628
17.861390 -9.265695 15.866469
17.665848 -7.193683 18.973838
19.491780 -6.636871 15.889346
17.210882 -8.814631 17.880248
18.965995 -8.197249 14.852700
13.089710 -14.565654 17.655716
16.007198 -11.997308 15.776094
13.793664 -12.921203 18.760222
13.851400 -14.909553 15.563527
15.312258 -11.626145 17.780721
15.286236 -13.604613 14.643913
2.206661 16.990110 28.854367
6.815522 16.003640 30.106657
3.616361 18.740222 28.087282
2.214218 14.983003 30.039905
15.415115 11.933715 28.836222
11.362408 14.283263 30.133159
6.546851 22.165368 26.189437
8.352380 17.752275 29.235378
5.074000 20.476404 27.197797
5.981768 18.345399 28.804710
2.228582 10.689570 31.929178
6.800959 13.758638 31.038728
2.224239 12.866509 31.074686
4.508689 14.454083 30.690215
23.245911 1.153216 16.232706
22.442855 3.650759 19.777500
24.075245 3.099793 16.063335
22.212475 0.000000 17.446009
18.651445 9.202552 26.417269
20.966837 6.370897 23.266546
25.627270 7.321564 15.561363
23.207167 5.801341 19.641330
24.876464 5.166004 15.843543
23.719993 4.425183 17.858070
19.974756 -2.270093 19.739572
21.262841 2.416481 21.012490
21.116270 -1.145215 18.622417
21.810624 1.182873 19.234768
12.770014 28.439947 20.662316
14.954486 24.294430 24.196867
11.216636 27.003875 22.261153
15.849839 28.121108 20.537047
17.069212 13.448508 27.618565
16.397692 19.113418 26.532023
15.166765 14.757096 28.513606
8.129534 23.877865 25.002401
13.316877 22.803667 25.670815
9.656190 25.468868 23.713133
9.109547 21.809182 26.753762
12.347862 25.047315 24.109641
21.461817 26.014879 19.287082
17.752950 23.344589 23.686563
18.809509 27.309421 20.079557
16.912002 25.864771 22.274015
10.801379 16.931782 29.338367
14.135881 20.227003 26.965065
13.048761 15.934593 29.098439
10.010945 19.467280 28.216988
14.741158 17.555704 27.893824
11.680440 21.163938 27.025062
2.242954 1.386222 33.503093
6.692588 4.136247 32.770949
2.247265 3.718582 33.406017
4.459091 0.000000 33.096536
15.175759 9.379135 29.112519
11.030897 6.817469 31.306550
13.343452 10.637920 30.072435
2.247154 8.349184 32.631794
6.738800 6.516004 32.657764
2.247092 6.059187 33.113170
4.518894 9.882793 32.308298
4.506811 5.125475 33.124785
8.582637 -2.634446 31.052273
8.845655 2.715180 32.003881
6.602705 -1.359338 32.256037
6.680844 1.375425 32.637768
9.149249 12.836588 31.062026
9.023617 7.940855 31.976204
11.309717 11.809131 30.734862
6.834422 11.389393 31.786391
11.198729 9.298589 31.123851
6.814884 8.952729 32.327418
27.827032 17.198051 13.550018
25.472807 15.743061 18.350369
27.461221 14.606987 14.212439
26.952338 19.683485 15.191087
19.034752 11.764124 26.199741
22.504373 13.908467 22.595112
20.419583 10.288732 24.769960
19.006374 14.668515 26.025179
26.343795 9.698881 15.203552
25.088750 13.152262 18.819544
26.953451 12.086873 14.759977
25.199881 8.940522 17.385737
26.349418 13.924980 16.583692
23.829066 24.178137 18.121382
24.246690 17.976170 20.003091
25.620078 22.063292 16.752006
22.146634 23.118047 20.574855
25.677608 18.879749 17.685589
22.482909 7.310321 21.471692
23.633299 12.259905 20.993719
21.570565 8.783718 23.167664
23.905685 8.139788 19.487482
22.092061 11.314549 22.951266
24.542792 10.607584 19.220016
18.401631 20.476526 24.820562
22.583172 16.925965 22.257129
18.802138 17.612887 25.572053
20.314686 21.866590 22.825719
20.861682 15.839659 24.224758
22.509870 20.033583 21.564013
14.726784 -6.725088 23.828438
15.777059 -2.361819 25.527818
16.121569 -5.633838 22.889642
13.502530 -5.892128 25.816417
17.080477 7.799918 27.636792
16.598678 2.484814 26.857224
18.436181 6.442702 26.175963
15.154533 6.613016 28.974996
18.721055 -3.422917 20.868821
17.221680 -1.219402 24.508537
17.459508 -4.527966 21.895895
19.380665 -1.181042 21.587102
16.695131 -3.480802 23.740710
10.472712 -3.869664 29.467699
14.400128 -1.281121 27.445691
12.078131 -4.933970 27.728391
10.725536 -1.325749 30.224924
13.984490 -3.633730 26.681873
20.500106 3.748195 22.851974
17.710241 1.253995 25.203819
19.579586 5.077789 24.554676
19.982263 1.217703 22.257190
18.114489 3.776727 25.759058
18.626703 0.000000 23.430680
11.070020 4.090369 31.148381
14.757141 1.312883 28.126134
13.134664 5.365569 30.153929
10.928747 1.350867 30.797580
15.007312 3.899500 28.633378
12.798154 0.000000 29.239952
24.073572 0.000000 -12.667216
25.036547 0.000000 -9.025274
24.915739 1.836519 -12.427223
23.558306 -1.736464 -11.750176
25.954802 0.000000 -1.798861
25.653693 0.000000 -5.403300
26.528516 5.812717 -11.759381
25.869912 1.805660 -8.660989
25.741862 3.781728 -12.123572
25.443111 1.821147 -10.534749
22.424358 -4.913446 -9.940118
24.433513 -1.705402 -8.180096
23.003692 -3.379465 -10.833984
24.040875 -1.720778 -9.954152
24.073572 0.000000 12.667216
25.036547 0.000000 9.025274
24.915739 1.836519 12.427223
23.558306 -1.736464 11.750176
25.954802 0.000000 1.798861
25.653693 0.000000 5.403300
26.528516 5.812717 11.759381
25.869912 1.805660 8.660989
25.741862 3.781728 12.123572
25.443111 1.821147 10.534749
22.424358 -4.913446 9.940118
24.433513 -1.705402 8.180096
23.003692 -3.379465 10.833984
24.040875 -1.720778 9.954152
29.078136 15.157836 -9.368058
28.911712 10.187074 -6.295958
28.590812 12.686040 -10.113806
29.662695 15.514214 -6.769971
26.729076 1.789449 -1.105940
28.020922 5.722522 -3.536713
26.642716 1.792289 -2.965727
27.305826 8.042869 -11.284314
28.250209 7.972149 -7.015555
27.986723 10.298466 -10.753225
27.076220 5.821683 -9.701690
28.521100 10.262229 -8.520989
30.261650 15.877597 -1.412565
29.261321 10.399366 -3.842563
30.061214 15.755669 -4.093953
29.571717 12.881060 -5.261970
26.225406 1.805985 -6.710043
27.810725 5.738633 -5.548904
26.474041 1.796554 -4.844332
26.702516 3.734825 -8.168039
27.270989 3.710370 -4.219704
27.505440 5.798372 -7.617334
19.868028 -10.356795 -6.400852
21.773727 -7.671997 -4.741555
20.528211 -9.108580 -7.261716
20.033362 -10.477870 -4.572251
25.212417 -1.687913 -1.043187
23.552230 -4.809912 -2.972689
25.133242 -1.690745 -2.797700
21.799146 -6.420889 -9.008641
22.449558 -6.335218 -5.575042
21.175444 -7.792073 -8.136155
22.815079 -4.905492 -8.174879
21.508584 -7.739042 -6.425923
20.197169 -10.596994 -0.942772
21.880450 -7.776231 -2.873315
20.143152 -10.557419 -2.743240
20.978881 -9.138131 -3.732967
24.750671 -1.704429 -6.332717
23.391720 -4.826789 -4.667207
24.979579 -1.695138 -4.570869
23.803610 -3.329361 -7.281292
24.274004 -3.302613 -3.755973
23.137250 -4.877522 -6.407611
29.078136 15.157836 9.368058
28.911712 10.187074 6.295958
28.590812 12.686040 10.113806
29.662695 15.514214 6.769971
26.729076 1.789449 1.105940
28.020922 5.722522 3.536713
26.642716 1.792289 2.965727
27.474792 3.701675 0.000000
27.305826 8.042869 11.284314
28.250209 7.972149 7.015555
27.986723 10.298466 10.753225
27.076220 5.821683 9.701690
28.521100 10.262229 8.520989
30.261650 15.877597 1.412565
29.261321 10.399366 3.842563
30.061214 15.755669 4.093953
29.951941 13.109788 0.000000
29.571717 12.881060 5.261970
26.225406 1.805985 6.710043
27.810725 5.738633 5.548904
26.474041 1.796554 4.844332
26.702516 3.734825 8.168039
27.270989 3.710370 4.219704
27.505440 5.798372 7.617334
28.761544 7.949495 -2.440103
28.761544 7.949495 2.440103
28.164494 5.765180 -1.186912
29.429106 10.443134 -1.290842
28.164494 5.765180 1.186912
29.429106 10.443134 1.290842
19.868028 -10.356795 6.400852
21.773727 -7.671997 4.741555
20.528211 -9.108580 7.261716
20.033362 -10.477870 4.572251
25.212417 -1.687913 1.043187
23.552230 -4.809912 2.972689
25.133242 -1.690745 2.797700
24.442436 -3.293126 0.000000
21.799146 -6.420889 9.008641
22.449558 -6.335218 5.575042
21.175444 -7.792073 8.136155
22.815079 -4.905492 8.174879
21.508584 -7.739042 6.425923
20.197169 -10.596994 0.942772
21.880450 -7.776231 2.873315
20.143152 -10.557419 2.743240
21.087700 -9.229962 0.000000
20.978881 -9.138131 3.732967
24.750671 -1.704429 6.332717
23.391720 -4.826789 4.667207
24.979579 -1.695138 4.570869
23.803610 -3.329361 7.281292
24.274004 -3.302613 3.755973
23.137250 -4.877522 6.407611
22.792127 -6.299589 -1.933663
22.792127 -6.299589 1.933663
23.629195 -4.836819 -0.995785
21.957726 -7.791860 -0.963127
23.629195 -4.836819 0.995785
21.957726 -7.791860 0.963127
-13.487517 19.314686 -0.958190
-15.188078 17.234930 -2.803591
-13.110513 19.649643 -2.529978
-18.176551 12.833232 -6.331868
-16.740432 15.085776 -4.583902
-12.250985 20.175566 -5.764044
-14.814000 17.503446 -4.375522
-12.698105 19.937710 -4.140391
-13.987409 18.578785 -3.466044
-22.986233 1.757891 -13.534819
-21.938369 4.966392 -11.661665
-19.517630 10.433631 -8.077266
-20.773283 7.833049 -9.846637
-9.997694 20.531791 -12.689345
-12.955717 17.984297 -11.114907
-10.631940 20.542995 -10.927091
-17.802440 12.933908 -7.993595
-15.523519 15.461179 -9.555534
-17.109852 14.104829 -7.106943
-11.749373 20.358602 -7.495338
-13.472331 17.960263 -9.415299
-11.216848 20.483283 -9.185423
-13.128014 19.028493 -6.751011
-12.109922 19.241155 -10.168448
-15.631170 16.367325 -5.321838
-14.786292 16.645400 -8.634894
-16.383196 15.253795 -6.211475
-14.423246 17.693286 -6.024492
-15.977650 15.379510 -7.876686
-13.975943 17.846429 -7.713364
-23.657877 -33.879065 -1.680721
-26.775386 -30.383826 -4.942510
-22.736152 -34.076262 -4.387468
-28.898685 -20.403405 -10.066962
-28.473639 -25.659251 -7.796715
-20.430312 -33.645710 -9.612386
-25.860068 -30.554901 -7.638132
-21.649161 -33.992055 -7.059005
-24.472551 -32.505681 -6.064234
-24.293077 -1.857833 -14.304318
-25.896064 -5.862331 -13.765436
-28.397997 -15.180850 -11.752358
-27.314484 -10.299561 -12.947197
-14.612066 -30.008109 -18.546031
-20.580330 -28.568296 -17.656178
-16.136969 -31.179792 -16.584944
-28.029072 -20.363805 -12.585524
-25.244821 -25.143441 -15.539501
-27.951226 -23.042120 -11.610139
-19.054311 -33.016158 -12.155416
-22.057334 -29.405119 -15.415030
-17.632246 -32.198552 -14.438960
-22.103794 -32.038502 -11.366758
-19.237366 -30.565775 -16.153214
-26.921762 -28.189652 -9.165869
-24.565829 -27.654537 -14.345944
-27.594680 -25.692398 -10.462163
-24.779917 -30.398023 -10.350402
-26.507698 -25.515353 -13.067804
-23.498205 -30.005779 -12.968729
-2.206661 -16.990110 -28.854367
-6.815522 -16.003640 -30.106657
-3.616361 -18.740222 -28.087282
-2.214218 -14.983003 -30.039905
-15.415115 -11.933715 -28.836222
-11.362408 -14.283263 -30.133159
-6.546851 -22.165368 -26.189437
-8.352380 -17.752275 -29.235378
-5.074000 -20.476404 -27.197797
-5.981768 -18.345399 -28.804710
-2.228582 -10.689570 -31.929178
-6.800959 -13.758638 -31.038728
-2.224239 -12.866509 -31.074686
-4.508689 -14.454083 -30.690215
-23.245911 -1.153216 -16.232706
-22.442855 -3.650759 -19.777500
-24.075245 -3.099793 -16.063335
-18.651445 -9.202552 -26.417269
-20.966837 -6.370897 -23.266546
-25.627270 -7.321564 -15.561363
-23.207167 -5.801341 -19.641330
-24.876464 -5.166004 -15.843543
-23.719993 -4.425183 -17.858070
-12.770014 -28.439947 -20.662316
-14.954486 -24.294430 -24.196867
-11.216636 -27.003875 -22.261153
-15.849839 -28.121108 -20.537047
-17.069212 -13.448508 -27.618565
-16.397692 -19.113418 -26.532023
-15.166765 -14.757096 -28.513606
-8.129534 -23.877865 -25.002401
-13.316877 -22.803667 -25.670815
-9.656190 -25.468868 -23.713133
-9.109547 -21.809182 -26.753762
-12.347862 -25.047315 -24.109641
-21.461817 -26.014879 -19.287082
-17.752950 -23.344589 -23.686563
-18.809509 -27.309421 -20.079557
-16.912002 -25.864771 -22.274015
-10.801379 -16.931782 -29.338367
-14.135881 -20.227003 -26.965065
-13.048761 -15.934593 -29.098439
-10.010945 -19.467280 -28.216988
-14.741158 -17.555704 -27.893824
-11.680440 -21.163938 -27.025062
-2.242954 -1.386222 -33.503093
-6.692588 -4.136247 -32.770949
-2.247265 -3.718582 -33.406017
-15.175759 -9.379135 -29.112519
-11.030897 -6.817469 -31.306550
-13.343452 -10.637920 -30.072435
-2.247154 -8.349184 -32.631794
-6.738800 -6.516004 -32.657764
-2.247092 -6.059187 -33.113170
-4.518894 -9.882793 -32.308298
-4.506811 -5.125475 -33.124785
-9.149249 -12.836588 -31.062026
-9.023617 -7.940855 -31.976204
-11.309717 -11.809131 -30.734862
-6.834422 -11.389393 -31.786391
-11.198729 -9.298589 -31.123851
-6.814884 -8.952729 -32.327418
-27.827032 -17.198051 -13.550018
-25.472807 -15.743061 -18.350369
-27.461221 -14.606987 -14.212439
-26.952338 -19.683485 -15.191087
-19.034752 -11.764124 -26.199741
-22.504373 -13.908467 -22.595112
-20.419583 -10.288732 -24.769960
-19.006374 -14.668515 -26.025179
-26.343795 -9.698881 -15.203552
-25.088750 -13.152262 -18.819544
-26.953451 -12.086873 -14.759977
-25.199881 -8.940522 -17.385737
-26.349418 -13.924980 -16.583692
-23.829066 -24.178137 -18.121382
-24.246690 -17.976170 -20.003091
-25.620078 -22.063292 -16.752006
-22.146634 -23.118047 -20.574855
-25.677608 -18.879749 -17.685589
-22.482909 -7.310321 -21.471692
-23.633299 -12.259905 -20.993719
-21.570565 -8.783718 -23.167664
-23.905685 -8.139788 -19.487482
-22.092061 -11.314549 -22.951266
-24.542792 -10.607584 -19.220016
-18.401631 -20.476526 -24.820562
-22.583172 -16.925965 -22.257129
-18.802138 -17.612887 -25.572053
-20.314686 -21.866590 -22.825719
-20.861682 -15.839659 -24.224758
-22.509870 -20.033583 -21.564013
-2.106708 16.220528 -27.547384
-6.017995 14.130951 -26.583685
-3.335359 17.284051 -25.904817
-2.124778 14.377793 -28.826500
-12.685545 9.820600 -23.730163
-9.533437 11.984130 -25.282718
-5.581162 18.895881 -22.326383
-7.099275 15.088907 -24.849205
-4.503866 18.175600 -24.141752
-5.278260 16.187821 -25.417026
-2.162832 10.374192 -30.987160
-6.101425 12.343452 -27.846146
-2.146095 12.414471 -29.982942
-4.170328 13.369355 -28.387021
-22.478356 1.115138 -15.696719
-20.383309 3.315735 -17.962549
-22.038621 2.837569 -14.704472
-22.212475 0.000000 -17.446009
-15.517437 7.656244 -21.978367
-18.071492 5.491130 -20.053630
-21.021807 6.005810 -12.764839
-19.982169 4.995154 -16.911862
-21.546534 4.474489 -13.722747
-21.031811 3.923678 -15.834219
-21.262841 -2.416481 -21.012490
-19.974756 2.270093 -19.739572
-21.810624 -1.182873 -19.234768
-21.116270 1.145215 -18.622417
-9.165970 20.413425 -14.830852
-10.732979 17.436346 -17.366324
-8.395913 20.213027 -16.662989
-10.797317 19.156821 -13.990363
-13.516456 10.649359 -21.870085
-12.181359 14.198792 -19.709854
-12.066357 11.740433 -22.684821
-6.631203 19.477004 -20.394280
-9.962346 17.059405 -19.204317
-7.546629 19.904757 -18.532592
