6.202741647 -7.054211078 -45.58976891
11.44957726 -16.06399706 -38.87172283
11.88129091 -10.45563109 -42.10269289
14.05670731 -14.677423 -38.19998013
8.856960509 -14.75990294 -41.19306914
14.36299636 -11.92596067 -39.91807985
9.005296768 -11.83027924 -42.71796693
29.28512165 -18.09920055 -14.2600165
27.78377641 -17.17131816 -20.01516946
30.59357215 -16.27312631 -15.83357352
27.11402379 -19.80156565 -15.28221797
22.82127448 -14.1043233 -31.41157225
25.6611459 -15.85946036 -25.76461324
25.15462139 -12.67455677 -30.51379475
21.65627758 -16.7136256 -29.65365648
33.21052674 -12.22697561 -19.16648556
28.94403957 -15.1733179 -21.71146916
31.91130711 -14.31014981 -17.47494776
32.32410018 -11.46808359 -22.30083251
29.84245363 -15.77095793 -18.78212527
22.72913769 -23.06209579 -17.28491538
25.45566565 -18.87248844 -21.00047547
24.92038736 -21.46073827 -16.29450488
21.72807312 -22.68112675 -20.18599994
26.35594378 -19.37850272 -18.15279639
29.84749511 -9.704916863 -28.50504035
27.84303439 -14.44372834 -24.7332734
27.5077278 -11.201381 -29.54441768
31.2027866 -10.62442137 -25.43594631
26.5992555 -13.62292958 -27.63375505
30.07111326 -12.99696725 -23.54936982
19.31547206 -21.49340818 -26.0531726
24.338413 -18.24150818 -23.98702812
20.48130619 -19.18584662 -27.85582365
20.58649896 -22.15916754 -23.13113018
23.09705935 -17.53691515 -26.82049697
23.05239558 -20.51642587 -22.08374134
3.151414567 24.26420687 -41.20799273
9.956212309 23.37834495 -43.98023434
5.202074103 26.95749419 -40.40308325
3.157521177 21.36608007 -42.83754153
24.28271882 18.79863141 -45.42437013
17.18697691 21.6051126 -45.57994241
9.604788949 32.51848652 -38.42213942
12.36237562 26.27518013 -43.27134659
7.365374052 29.72337189 -39.48008728
8.712640461 26.7206713 -41.95499957
3.168844693 15.19961229 -45.40043393
9.908500554 20.04533193 -45.2211635
3.167178781 18.32111451 -44.24843411
6.488536568 20.80113497 -44.16684748
40.40267269 2.004353196 -28.21333656
38.61157447 6.280910679 -34.02599234
42.79110201 5.509541989 -28.55081324
37.713819 0 -29.62099615
30.5226871 15.05977775 -43.23129031
35.35915916 10.74408926 -39.23746377
47.72500266 13.63475962 -28.97952433
40.77213227 10.19224154 -34.50739739
45.25680948 9.398315182 -28.82355721
41.97241304 7.830340387 -31.5997691
32.4328269 -3.685928543 -32.05095945
35.66820161 4.053622671 -35.24824053
35.0419824 -1.900459755 -30.90348936
36.8459508 1.99829581 -32.49440729
19.77612592 44.04317705 -31.9984439
23.74268729 38.57137264 -38.41647501
17.12690486 41.23275228 -33.9909959
25.33980613 44.95840247 -32.83344312
27.57329514 21.72447577 -44.61452872
26.46945977 30.85323549 -42.82848557
23.95182867 23.30486676 -45.02957727
12.07927071 35.4789334 -37.14982608
20.75416924 35.53919945 -40.00760985
14.53852417 38.3463638 -35.70289822
13.62091054 32.60984642 -40.00315407
19.05788683 38.65842315 -37.21120322
36.98424216 44.83034224 -33.2366133
29.19294364 38.38783246 -38.95017406
31.17463552 45.26227936 -33.27959762
27.45032421 41.98180415 -36.15355163
16.31369625 25.57265456 -44.31074885
22.20398938 31.77164244 -42.35547899
20.13906953 24.5929772 -44.90966491
15.05427583 29.27454107 -42.43219161
23.25831735 27.69905494 -44.01034231
17.8757167 32.38923783 -41.35908719
3.173930656 1.961597024 -47.40912763
9.632058523 5.952939549 -47.16437198
3.183226169 5.267331021 -47.31926124
6.33701908 0 -47.03500358
23.69733643 14.64575936 -45.45994438
16.41444245 10.14468334 -46.58547221
20.45990311 16.31143334 -46.11094128
3.190845891 11.85542232 -46.33550825
9.728306488 9.406671397 -47.14559317
3.186682339 8.592753482 -46.95898793
6.475958392 14.16288126 -46.30053325
6.431101624 7.313918732 -47.26820066
12.37591087 -3.798793854 -44.77646616
12.86318271 3.948362262 -46.53943226
9.443948204 -1.944281912 -46.13629445
9.585112667 1.973344281 -46.82592183
13.54070666 18.99789546 -45.97118165
13.24231644 11.65334445 -46.9256402
17.02706064 17.7789411 -46.27210082
9.931052178 16.54984982 -46.18859016
16.76594959 13.92119376 -46.59644113
9.871800089 12.96860667 -46.82835454
56.01813465 34.6211112 -27.27731624
47.9517195 29.63579247 -34.54396471
54.52657165 29.0034058 -28.21999592
52.66510998 38.46170678 -29.68352085
31.53472306 19.48953068 -43.40490416
39.74095564 24.56126133 -39.90119365
34.47298557 17.36976304 -41.81742949
31.66424736 24.43745807 -43.35743807
50.24321031 18.49782486 -28.99640143
46.68593919 24.47414414 -35.02000218
52.52241096 23.55289198 -28.76179232
46.62572143 16.54207441 -32.16771383
50.6278049 26.75547363 -31.86392733
42.90097856 43.52943304 -32.62507334
44.43828809 32.94594962 -36.66080439
48.12753817 41.4460853 -31.46878875
38.83267109 40.5359799 -36.07665954
48.54513847 35.69335653 -33.43572218
39.09112607 12.71048465 -37.33291928
42.54678411 22.07137996 -37.79477584
37.01342712 15.0721827 -39.75392509
42.87911814 14.60016456 -34.95428022
38.51546437 19.7258701 -40.01340969
44.89918214 19.40577307 -35.16156637
30.55600921 34.00138377 -41.21467906
40.07154615 30.03340593 -39.49301478
31.35498819 29.37175924 -42.64469334
34.6760514 37.32506601 -38.96224708
35.87725688 27.24054176 -41.6609684
39.87773997 35.49083189 -38.20209019
22.15171148 -10.1157327 -35.84222208
24.1626072 -3.617131237 -39.09591971
24.66063022 -8.617895119 -35.01352708
20.08951517 -8.766505638 -38.41052945
27.22709307 12.43344091 -44.05436201
25.94128666 3.883398737 -41.97388352
29.85284491 10.43236463 -42.38551019
23.50289565 10.25600994 -44.93680698
29.74563676 -5.438627213 -33.15819496
26.90872927 -1.90530537 -38.29438283
27.20365804 -7.055023488 -34.11599206
31.23745051 -1.903585426 -34.79374937
25.8011588 -5.379337115 -36.68961003
15.25236997 -5.635746091 -42.91651048
21.76799174 -1.936609858 -41.48835165
17.7743636 -7.260906309 -40.80552776
15.7018608 -1.940856732 -44.24837742
20.96745981 -5.448185276 -40.00511295
34.05100477 6.22581129 -37.95749487
28.00661527 1.983042526 -39.85680766
32.14764984 8.337203194 -40.31623118
32.69449854 1.992376775 -36.41667835
28.98948527 6.044077915 -41.22345504
29.7567341 0 -37.43123569
16.39563207 6.058181088 -46.13337577
22.50832086 2.002473935 -42.89936996
19.87096074 8.117375532 -45.61879447
16.09115016 1.988975543 -45.34540806
23.08624086 5.998729397 -44.04766631
19.09449469 0 -43.62520454
41.10122219 58.85866155 2.919944116
50.70320904 57.53633023 9.359383965
38.87039099 58.25777543 7.500944001
46.31579894 58.96984859 0
60.91668091 43.00914401 21.2205481
58.46028832 52.68196362 16.00772566
33.90417911 55.83518278 15.95179158
47.60968058 56.25310341 14.06218379
36.44394551 57.22183027 11.88304705
43.36245183 57.59620372 10.7451025
56.87786017 57.55552485 -6.541074958
56.87786017 57.55552485 6.541074958
51.69236796 58.61483883 -3.178905261
51.69236796 58.61483883 3.178905261
43.26562809 3.308773894 25.47578954
48.38170623 10.9526142 25.71801253
58.32427376 31.17868087 24.13718718
53.61113341 20.21532417 25.41193588
23.00471009 47.24368542 29.19820334
34.77556671 48.27321457 29.83448735
25.7451698 49.74472179 26.45987651
56.77457492 41.24811543 25.49273731
46.62234968 46.43512038 28.69848266
56.23029053 46.35449902 23.35645289
31.19133798 54.04646358 19.89805212
37.93152004 50.56734802 26.50889295
28.49679557 52.03849578 23.33588743
37.68559922 54.62365963 19.3796174
31.7812403 50.49642553 26.68604306
51.50558028 53.93125346 17.53575398
44.34574494 49.92141887 25.8970126
54.43117684 50.67887993 20.63687145
44.49033712 54.57719082 18.58331052
50.46479352 48.57558933 24.87820882
41.23953167 52.66037424 22.7602202
64.06759138 39.59594905 -18.08176479
70.78039224 43.74468814 -6.54855979
65.11191111 45.85944053 -16.02602387
64.06759138 39.59594905 18.08176479
70.78039224 43.74468814 6.54855979
65.11191111 45.85944053 16.02602387
61.55432191 55.2193056 -10.09617715
71.48412351 50.23052429 -3.556633487
64.38062847 51.33629408 -13.3136051
63.3719953 56.89468951 -3.467117194
68.96999361 48.50162638 -10.11220469
61.55432191 55.2193056 10.09617715
71.48412351 50.23052429 3.556633487
64.38062847 51.33629408 13.3136051
63.3719953 56.89468951 3.467117194
68.96999361 48.50162638 10.11220469
68.88639446 54.76266239 0
20.05971266 -28.72634378 1.42509728
22.94031558 -26.03191392 4.23458842
19.43793803 -29.13299815 3.751001236
21.55657786 -27.44610179 0
28.46113932 -20.0944835 9.914541746
25.72257912 -23.18011108 7.043413601
18.03793453 -29.70581793 8.48678186
22.28697746 -26.33312454 6.582769917
18.76308293 -29.46052991 6.117959897
20.8861561 -27.74204989 5.175535022
24.47671907 -24.76834411 -2.814874781
24.47671907 -24.76834411 2.814874781
23.03566891 -26.12052947 -1.416615489
23.03566891 -26.12052947 1.416615489
39.50695368 -3.02132623 23.26259624
36.74839253 -8.319073409 19.53415233
31.19845153 -16.67790272 12.91131146
33.96108259 -12.8058157 16.09771699
14.48592714 -29.74906365 18.38593247
19.13866109 -26.56706362 16.4193483
15.46881544 -29.88878793 15.89824225
27.72266893 -20.14119612 12.44794378
23.49704689 -23.4026858 14.46365525
26.40196709 -21.76495881 10.96662128
17.23238106 -29.85922747 10.99314229
19.99758275 -26.65921971 13.97554804
16.38674279 -29.92411702 13.41902405
19.44914384 -28.19069977 10.00161797
17.78533242 -28.25867415 14.93397181
23.71051309 -24.82716793 8.072556837
22.21684128 -25.01020653 12.97418319
25.05917204 -23.33167947 9.500858554
21.61102269 -26.51067592 9.026776851
24.31619557 -23.40589246 11.98743419
20.84647603 -26.61968226 11.50523213
30.2422694 -18.69075039 -8.535260813
30.70768544 -18.97839332 -2.841056793
28.82051435 -20.29878468 -7.09360612
30.2422694 -18.69075039 8.535260813
30.70768544 -18.97839332 2.841056793
28.82051435 -20.29878468 7.09360612
25.97279967 -23.29974432 -4.260074327
29.17756519 -20.50251616 -1.451705643
27.39023483 -21.84062479 -5.66416916
26.06066554 -23.39698265 -1.425793541
29.05897434 -20.4350826 -4.260552757
25.97279967 -23.29974432 4.260074327
29.17756519 -20.50251616 1.451705643
27.39023483 -21.84062479 5.66416916
26.06066554 -23.39698265 1.425793541
29.05897434 -20.4350826 4.260552757
27.63544737 -21.9693698 0
2.98098061 -22.95195654 38.97939313
8.542570436 -20.05894935 37.73566071
4.721768216 -24.46851712 36.67267911
3.004110287 -20.32799064 40.75624261
18.67194923 -14.45501609 34.92860661
13.72191647 -17.24931337 36.39058608
7.930723944 -26.85068262 31.72535937
10.11084254 -21.48973767 35.39042863
6.385305196 -25.76825015 34.22669435
7.484581136 -22.95435388 36.04138146
3.054887281 -14.65300662 43.76775185
8.662148914 -17.52390781 39.53296971
3.032397607 -17.5414486 42.36541572
5.899306741 -18.91216524 40.15601643
38.27946331 -1.899022008 26.73069155
33.26168476 -5.410648851 29.31146545
37.09447823 -4.776076702 24.74994731
23.5166141 -11.60300797 33.30812808
28.35510722 -8.615866729 31.46518523
34.56948842 -9.876304633 20.99124725
32.30670673 -8.076049497 27.34270457
35.84112429 -7.442994468 22.82681233
34.67974514 -6.469825996 26.10933848
13.21544368 -29.43195893 21.38303706
15.57544463 -25.30321322 25.2015988
12.05624905 -29.02522869 23.92749392
15.69989239 -27.85507028 20.3427572
20.02975358 -15.78106259 32.40882208
17.83818619 -20.79248175 28.86279155
17.65755517 -17.18060763 33.19630647
9.452286085 -27.76301951 29.07052855
14.3845091 -24.63186706 27.72887804
10.79477282 -28.47196048 26.50920209
10.56362728 -25.29039905 31.02424086
13.24329 -26.86366612 25.85799569
20.3887139 -24.71412063 18.32271692
18.08688426 -23.78370236 24.13210873
18.09771891 -26.2759771 19.31970632
16.90677426 -25.85677606 22.26712994
12.76221222 -20.00549964 34.66431959
15.52924784 -22.22076858 29.62299789
15.22543665 -18.59265721 33.95237586
11.67097997 -22.69538477 32.89598676
16.60449505 -19.7748106 31.41970676
13.10370095 -23.74276197 30.31806328
3.158196453 -1.951872751 47.17410521
9.221095349 -5.698950339 45.15204824
3.141328764 -5.198002772 46.69644837
19.1647992 -11.84449729 36.76492117
14.62314733 -9.037602075 41.50163648
16.63763412 -13.26417131 37.49660817
3.099103213 -11.51455716 45.00327731
9.091784544 -8.791193999 44.06086258
3.119249408 -8.410923449 45.96529547
6.052692743 -13.23720188 43.27435178
6.202741647 -7.054211078 45.58976891
11.44957726 -16.06399706 38.87172283
11.88129091 -10.45563109 42.10269289
14.05670731 -14.677423 38.19998013
8.856960509 -14.75990294 41.19306914
14.36299636 -11.92596067 39.91807985
9.005296768 -11.83027924 42.71796693
29.28512165 -18.09920055 14.2600165
27.78377641 -17.17131816 20.01516946
30.59357215 -16.27312631 15.83357352
27.11402379 -19.80156565 15.28221797
22.82127448 -14.1043233 31.41157225
25.6611459 -15.85946036 25.76461324
25.15462139 -12.67455677 30.51379475
21.65627758 -16.7136256 29.65365648
33.21052674 -12.22697561 19.16648556
28.94403957 -15.1733179 21.71146916
31.91130711 -14.31014981 17.47494776
32.32410018 -11.46808359 22.30083251
29.84245363 -15.77095793 18.78212527
22.72913769 -23.06209579 17.28491538
25.45566565 -18.87248844 21.00047547
24.92038736 -21.46073827 16.29450488
21.72807312 -22.68112675 20.18599994
26.35594378 -19.37850272 18.15279639
29.84749511 -9.704916863 28.50504035
27.84303439 -14.44372834 24.7332734
27.5077278 -11.201381 29.54441768
31.2027866 -10.62442137 25.43594631
26.5992555 -13.62292958 27.63375505
30.07111326 -12.99696725 23.54936982
19.31547206 -21.49340818 26.0531726
24.338413 -18.24150818 23.98702812
20.48130619 -19.18584662 27.85582365
20.58649896 -22.15916754 23.13113018
23.09705935 -17.53691515 26.82049697
23.05239558 -20.51642587 22.08374134
3.151414567 24.26420687 41.20799273
9.956212309 23.37834495 43.98023434
5.202074103 26.95749419 40.40308325
3.157521177 21.36608007 42.83754153
24.28271882 18.79863141 45.42437013
17.18697691 21.6051126 45.57994241
9.604788949 32.51848652 38.42213942
12.36237562 26.27518013 43.27134659
7.365374052 29.72337189 39.48008728
8.712640461 26.7206713 41.95499957
3.168844693 15.19961229 45.40043393
9.908500554 20.04533193 45.2211635
3.167178781 18.32111451 44.24843411
6.488536568 20.80113497 44.16684748
40.40267269 2.004353196 28.21333656
38.61157447 6.280910679 34.02599234
42.79110201 5.509541989 28.55081324
37.713819 0 29.62099615
30.5226871 15.05977775 43.23129031
35.35915916 10.74408926 39.23746377
47.72500266 13.63475962 28.97952433
40.77213227 10.19224154 34.50739739
45.25680948 9.398315182 28.82355721
41.97241304 7.830340387 31.5997691
32.4328269 -3.685928543 32.05095945
35.66820161 4.053622671 35.24824053
35.0419824 -1.900459755 30.90348936
36.8459508 1.99829581 32.49440729
19.77612592 44.04317705 31.9984439
23.74268729 38.57137264 38.41647501
17.12690486 41.23275228 33.9909959
25.33980613 44.95840247 32.83344312
27.57329514 21.72447577 44.61452872
26.46945977 30.85323549 42.82848557
23.95182867 23.30486676 45.02957727
12.07927071 35.4789334 37.14982608
20.75416924 35.53919945 40.00760985
14.53852417 38.3463638 35.70289822
13.62091054 32.60984642 40.00315407
19.05788683 38.65842315 37.21120322
36.98424216 44.83034224 33.2366133
29.19294364 38.38783246 38.95017406
31.17463552 45.26227936 33.27959762
27.45032421 41.98180415 36.15355163
16.31369625 25.57265456 44.31074885
22.20398938 31.77164244 42.35547899
20.13906953 24.5929772 44.90966491
15.05427583 29.27454107 42.43219161
23.25831735 27.69905494 44.01034231
17.8757167 32.38923783 41.35908719
3.173930656 1.961597024 47.40912763
9.632058523 5.952939549 47.16437198
3.183226169 5.267331021 47.31926124
6.33701908 0 47.03500358
23.69733643 14.64575936 45.45994438
16.41444245 10.14468334 46.58547221
20.45990311 16.31143334 46.11094128
3.190845891 11.85542232 46.33550825
9.728306488 9.406671397 47.14559317
3.186682339 8.592753482 46.95898793
6.475958392 14.16288126 46.30053325
6.431101624 7.313918732 47.26820066
12.37591087 -3.798793854 44.77646616
12.86318271 3.948362262 46.53943226
9.443948204 -1.944281912 46.13629445
9.585112667 1.973344281 46.82592183
13.54070666 18.99789546 45.97118165
13.24231644 11.65334445 46.9256402
17.02706064 17.7789411 46.27210082
9.931052178 16.54984982 46.18859016
16.76594959 13.92119376 46.59644113
9.871800089 12.96860667 46.82835454
56.01813465 34.6211112 27.27731624
47.9517195 29.63579247 34.54396471
54.52657165 29.0034058 28.21999592
52.66510998 38.46170678 29.68352085
31.53472306 19.48953068 43.40490416
39.74095564 24.56126133 39.90119365
34.47298557 17.36976304 41.81742949
31.66424736 24.43745807 43.35743807
50.24321031 18.49782486 28.99640143
46.68593919 24.47414414 35.02000218
52.52241096 23.55289198 28.76179232
46.62572143 16.54207441 32.16771383
50.6278049 26.75547363 31.86392733
42.90097856 43.52943304 32.62507334
44.43828809 32.94594962 36.66080439
48.12753817 41.4460853 31.46878875
38.83267109 40.5359799 36.07665954
48.54513847 35.69335653 33.43572218
39.09112607 12.71048465 37.33291928
42.54678411 22.07137996 37.79477584
37.01342712 15.0721827 39.75392509
42.87911814 14.60016456 34.95428022
38.51546437 19.7258701 40.01340969
44.89918214 19.40577307 35.16156637
30.55600921 34.00138377 41.21467906
40.07154615 30.03340593 39.49301478
31.35498819 29.37175924 42.64469334
34.6760514 37.32506601 38.96224708
35.87725688 27.24054176 41.6609684
39.87773997 35.49083189 38.20209019
22.15171148 -10.1157327 35.84222208
24.1626072 -3.617131237 39.09591971
24.66063022 -8.617895119 35.01352708
20.08951517 -8.766505638 38.41052945
27.22709307 12.43344091 44.05436201
25.94128666 3.883398737 41.97388352
29.85284491 10.43236463 42.38551019
23.50289565 10.25600994 44.93680698
29.74563676 -5.438627213 33.15819496
26.90872927 -1.90530537 38.29438283
27.20365804 -7.055023488 34.11599206
31.23745051 -1.903585426 34.79374937
25.8011588 -5.379337115 36.68961003
15.25236997 -5.635746091 42.91651048
21.76799174 -1.936609858 41.48835165
17.7743636 -7.260906309 40.80552776
15.7018608 -1.940856732 44.24837742
20.96745981 -5.448185276 40.00511295
34.05100477 6.22581129 37.95749487
28.00661527 1.983042526 39.85680766
32.14764984 8.337203194 40.31623118
32.69449854 1.992376775 36.41667835
28.98948527 6.044077915 41.22345504
29.7567341 0 37.43123569
16.39563207 6.058181088 46.13337577
22.50832086 2.002473935 42.89936996
19.87096074 8.117375532 45.61879447
16.09115016 1.988975543 45.34540806
23.08624086 5.998729397 44.04766631
19.09449469 0 43.62520454
42.49921787 0 -22.3625627
45.20950815 0 -16.2973038
45.02026636 3.318408092 -22.45475771
40.99029357 -3.021361997 -20.44472823
47.97455725 0 -3.3249942
47.04662218 0 -9.909178288
50.39074501 11.04121801 -22.3368691
47.86468453 3.340843653 -16.02461881
47.6716503 7.003425961 -22.45178202
46.56766174 3.333182588 -19.28139335
37.93237542 -8.311439463 -16.81440718
43.36844544 -3.027016622 -14.51932282
39.45485099 -5.796298765 -18.58193934
42.28431729 -3.026592808 -17.5078697
42.49921787 0 22.3625627
45.20950815 0 16.2973038
45.02026636 3.318408092 22.45475771
40.99029357 -3.021361997 20.44472823
47.97455725 0 3.3249942
47.04662218 0 9.909178288
50.39074501 11.04121801 22.3368691
47.86468453 3.340843653 16.02461881
47.6716503 7.003425961 22.45178202
46.56766174 3.333182588 19.28139335
37.93237542 -8.311439463 16.81440718
43.36844544 -3.027016622 14.51932282
39.45485099 -5.796298765 18.58193934
42.28431729 -3.026592808 17.5078697
61.53244231 32.07559988 -19.82381094
59.98978059 21.13746528 -13.06367198
58.92082827 26.14378289 -20.84284414
64.88256094 33.93494469 -14.80826598
50.61467733 3.388534742 -2.094229642
55.63565736 11.36209145 -7.0221587
50.32932527 3.385716959 -5.602395501
53.30807172 15.70177089 -22.02991391
56.84220356 16.04074965 -14.11598807
56.12156148 20.65143388 -21.56335932
52.22936006 11.22988379 -18.71432019
58.28777691 20.97263022 -17.41410753
69.28850332 36.35409718 -3.234276447
61.6791531 21.92054415 -8.099634432
67.65982215 35.46183218 -9.214403352
63.8049157 27.79260148 -11.35340088
48.97966998 3.372933299 -12.53195864
54.84576711 11.31720689 -10.94303993
49.77796302 3.377980716 -9.108581423
50.72484246 7.094777234 -15.51623427
52.65617245 7.164165155 -8.147612149
53.7365519 11.32810459 -14.88175726
31.94770363 -16.65368252 -10.29254184
36.2839129 -12.78467668 -7.901364725
33.39765634 -14.81888667 -11.81419485
32.30678057 -16.89712606 -7.373435827
45.60811892 -3.053357319 -1.887078603
40.82077327 -8.336548556 -5.152270356
45.37462151 -3.05240781 -5.050863965
36.36810417 -10.7121421 -15.02936006
37.95153241 -10.7098422 -9.424746847
34.87840952 -12.83444632 -13.40118944
38.90868757 -8.36579348 -13.94138539
35.6547734 -12.82900837 -10.65225148
32.66623421 -17.13922796 -1.524807535
36.53855928 -12.98566958 -4.798200979
32.54728585 -17.0586672 -4.432524508
34.41573719 -14.99105293 -6.123911564
44.26507222 -3.048267499 -11.3256797
40.39675461 -8.335710371 -8.060116981
44.92534877 -3.048677619 -8.22062962
41.55155789 -5.811729178 -12.71021604
42.83711046 -5.828227155 -6.628285829
39.73274366 -8.37598729 -11.00355392
61.53244231 32.07559988 19.82381094
59.98978059 21.13746528 13.06367198
58.92082827 26.14378289 20.84284414
64.88256094 33.93494469 14.80826598
50.61467733 3.388534742 2.094229642
55.63565736 11.36209145 7.0221587
50.32932527 3.385716959 5.602395501
53.3747048 7.191166089 0
53.30807172 15.70177089 22.02991391
56.84220356 16.04074965 14.11598807
56.12156148 20.65143388 21.56335932
52.22936006 11.22988379 18.71432019
58.28777691 20.97263022 17.41410753
69.28850332 36.35409718 3.234276447
61.6791531 21.92054415 8.099634432
67.65982215 35.46183218 9.214403352
66.14814504 28.95265289 0
63.8049157 27.79260148 11.35340088
48.97966998 3.372933299 12.53195864
54.84576711 11.31720689 10.94303993
49.77796302 3.377980716 9.108581423
50.72484246 7.094777234 15.51623427
52.65617245 7.164165155 8.147612149
53.7365519 11.32810459 14.88175726
58.95580598 16.29498401 -5.001755891
58.95580598 16.29498401 5.001755891
56.19417658 11.5027637 -2.36814253
62.52948856 22.18904698 -2.742717042
56.19417658 11.5027637 2.36814253
62.52948856 22.18904698 2.742717042
31.94770363 -16.65368252 10.29254184
36.2839129 -12.78467668 7.901364725
33.39765634 -14.81888667 11.81419485
32.30678057 -16.89712606 7.373435827
45.60811892 -3.053357319 1.887078603
40.82077327 -8.336548556 5.152270356
45.37462151 -3.05240781 5.050863965
43.30758943 -5.834825123 0
36.36810417 -10.7121421 15.02936006
37.95153241 -10.7098422 9.424746847
34.87840952 -12.83444632 13.40118944
38.90868757 -8.36579348 13.94138539
35.6547734 -12.82900837 10.65225148
32.66623421 -17.13922796 1.524807535
36.53855928 -12.98566958 4.798200979
32.54728585 -17.0586672 4.432524508
34.66559111 -15.17292475 0
34.41573719 -14.99105293 6.123911564
44.26507222 -3.048267499 11.3256797
40.39675461 -8.335710371 8.060116981
44.92534877 -3.048677619 8.22062962
41.55155789 -5.811729178 12.71021604
42.83711046 -5.828227155 6.628285829
39.73274366 -8.37598729 11.00355392
38.81121841 -10.72715694 -3.292707768
38.81121841 -10.72715694 3.292707768
41.02459123 -8.397599315 -1.728863828
36.72470642 -13.03203104 -1.610847625
41.02459123 -8.397599315 1.728863828
36.72470642 -13.03203104 1.610847625
-20.05971266 28.72634378 -1.42509728
-22.94031558 26.03191392 -4.23458842
-19.43793803 29.13299815 -3.751001236
-28.46113932 20.0944835 -9.914541746
-25.72257912 23.18011108 -7.043413601
-18.03793453 29.70581793 -8.48678186
-22.28697746 26.33312454 -6.582769917
-18.76308293 29.46052991 -6.117959897
-20.8861561 27.74204989 -5.175535022
-39.50695368 3.02132623 -23.26259624
-36.74839253 8.319073409 -19.53415233
-31.19845153 16.67790272 -12.91131146
-33.96108259 12.8058157 -16.09771699
-14.48592714 29.74906365 -18.38593247
-19.13866109 26.56706362 -16.4193483
-15.46881544 29.88878793 -15.89824225
-27.72266893 20.14119612 -12.44794378
-23.49704689 23.4026858 -14.46365525
-26.40196709 21.76495881 -10.96662128
-17.23238106 29.85922747 -10.99314229
-19.99758275 26.65921971 -13.97554804
-16.38674279 29.92411702 -13.41902405
-19.44914384 28.19069977 -10.00161797
-17.78533242 28.25867415 -14.93397181
-23.71051309 24.82716793 -8.072556837
-22.21684128 25.01020653 -12.97418319
-25.05917204 23.33167947 -9.500858554
-21.61102269 26.51067592 -9.026776851
-24.31619557 23.40589246 -11.98743419
-20.84647603 26.61968226 -11.50523213
-41.10122219 -58.85866155 -2.919944116
-50.70320904 -57.53633023 -9.359383965
-38.87039099 -58.25777543 -7.500944001
-60.91668091 -43.00914401 -21.2205481
-58.46028832 -52.68196362 -16.00772566
-33.90417911 -55.83518278 -15.95179158
-47.60968058 -56.25310341 -14.06218379
-36.44394551 -57.22183027 -11.88304705
-43.36245183 -57.59620372 -10.7451025
-43.26562809 -3.308773894 -25.47578954
-48.38170623 -10.9526142 -25.71801253
-58.32427376 -31.17868087 -24.13718718
-53.61113341 -20.21532417 -25.41193588
-23.00471009 -47.24368542 -29.19820334
-34.77556671 -48.27321457 -29.83448735
-25.7451698 -49.74472179 -26.45987651
-56.77457492 -41.24811543 -25.49273731
-46.62234968 -46.43512038 -28.69848266
-56.23029053 -46.35449902 -23.35645289
-31.19133798 -54.04646358 -19.89805212
-37.93152004 -50.56734802 -26.50889295
-28.49679557 -52.03849578 -23.33588743
-37.68559922 -54.62365963 -19.3796174
-31.7812403 -50.49642553 -26.68604306
-51.50558028 -53.93125346 -17.53575398
-44.34574494 -49.92141887 -25.8970126
-54.43117684 -50.67887993 -20.63687145
-44.49033712 -54.57719082 -18.58331052
-50.46479352 -48.57558933 -24.87820882
-41.23953167 -52.66037424 -22.7602202
-3.151414567 -24.26420687 -41.20799273
-9.956212309 -23.37834495 -43.98023434
-5.202074103 -26.95749419 -40.40308325
-3.157521177 -21.36608007 -42.83754153
-24.28271882 -18.79863141 -45.42437013
-17.18697691 -21.6051126 -45.57994241
-9.604788949 -32.51848652 -38.42213942
-12.36237562 -26.27518013 -43.27134659
-7.365374052 -29.72337189 -39.48008728
-8.712640461 -26.7206713 -41.95499957
-3.168844693 -15.19961229 -45.40043393
-9.908500554 -20.04533193 -45.2211635
-3.167178781 -18.32111451 -44.24843411
-6.488536568 -20.80113497 -44.16684748
-40.40267269 -2.004353196 -28.21333656
-38.61157447 -6.280910679 -34.02599234
-42.79110201 -5.509541989 -28.55081324
-30.5226871 -15.05977775 -43.23129031
-35.35915916 -10.74408926 -39.23746377
-47.72500266 -13.63475962 -28.97952433
-40.77213227 -10.19224154 -34.50739739
-45.25680948 -9.398315182 -28.82355721
-41.97241304 -7.830340387 -31.5997691
-19.77612592 -44.04317705 -31.9984439
-23.74268729 -38.57137264 -38.41647501
-17.12690486 -41.23275228 -33.9909959
-25.33980613 -44.95840247 -32.83344312
-27.57329514 -21.72447577 -44.61452872
-26.46945977 -30.85323549 -42.82848557
-23.95182867 -23.30486676 -45.02957727
-12.07927071 -35.4789334 -37.14982608
-20.75416924 -35.53919945 -40.00760985
-14.53852417 -38.3463638 -35.70289822
-13.62091054 -32.60984642 -40.00315407
-19.05788683 -38.65842315 -37.21120322
-36.98424216 -44.83034224 -33.2366133
-29.19294364 -38.38783246 -38.95017406
-31.17463552 -45.26227936 -33.27959762
-27.45032421 -41.98180415 -36.15355163
-16.31369625 -25.57265456 -44.31074885
-22.20398938 -31.77164244 -42.35547899
-20.13906953 -24.5929772 -44.90966491
-15.05427583 -29.27454107 -42.43219161
-23.25831735 -27.69905494 -44.01034231
-17.8757167 -32.38923783 -41.35908719
-3.173930656 -1.961597024 -47.40912763
-9.632058523 -5.952939549 -47.16437198
-3.183226169 -5.267331021 -47.31926124
-23.69733643 -14.64575936 -45.45994438
-16.41444245 -10.14468334 -46.58547221
-20.45990311 -16.31143334 -46.11094128
-3.190845891 -11.85542232 -46.33550825
-9.728306488 -9.406671397 -47.14559317
-3.186682339 -8.592753482 -46.95898793
-6.475958392 -14.16288126 -46.30053325
-6.431101624 -7.313918732 -47.26820066
-13.54070666 -18.99789546 -45.97118165
-13.24231644 -11.65334445 -46.9256402
-17.02706064 -17.7789411 -46.27210082
-9.931052178 -16.54984982 -46.18859016
-16.76594959 -13.92119376 -46.59644113
-9.871800089 -12.96860667 -46.82835454
-56.01813465 -34.6211112 -27.27731624
-47.9517195 -29.63579247 -34.54396471
-54.52657165 -29.0034058 -28.21999592
-52.66510998 -38.46170678 -29.68352085
-31.53472306 -19.48953068 -43.40490416
-39.74095564 -24.56126133 -39.90119365
-34.47298557 -17.36976304 -41.81742949
-31.66424736 -24.43745807 -43.35743807
-50.24321031 -18.49782486 -28.99640143
-46.68593919 -24.47414414 -35.02000218
-52.52241096 -23.55289198 -28.76179232
-46.62572143 -16.54207441 -32.16771383
-50.6278049 -26.75547363 -31.86392733
-42.90097856 -43.52943304 -32.62507334
-44.43828809 -32.94594962 -36.66080439
-48.12753817 -41.4460853 -31.46878875
-38.83267109 -40.5359799 -36.07665954
-48.54513847 -35.69335653 -33.43572218
-39.09112607 -12.71048465 -37.33291928
-42.54678411 -22.07137996 -37.79477584
-37.01342712 -15.0721827 -39.75392509
-42.87911814 -14.60016456 -34.95428022
-38.51546437 -19.7258701 -40.01340969
-44.89918214 -19.40577307 -35.16156637
-30.55600921 -34.00138377 -41.21467906
-40.07154615 -30.03340593 -39.49301478
-31.35498819 -29.37175924 -42.64469334
-34.6760514 -37.32506601 -38.96224708
-35.87725688 -27.24054176 -41.6609684
-39.87773997 -35.49083189 -38.20209019
-2.98098061 22.95195654 -38.97939313
-8.542570436 20.05894935 -37.73566071
-4.721768216 24.46851712 -36.67267911
-3.004110287 20.32799064 -40.75624261
-18.67194923 14.45501609 -34.92860661
-13.72191647 17.24931337 -36.39058608
-7.930723944 26.85068262 -31.72535937
-10.11084254 21.48973767 -35.39042863
-6.385305196 25.76825015 -34.22669435
-7.484581136 22.95435388 -36.04138146
-3.054887281 14.65300662 -43.76775185
-8.662148914 17.52390781 -39.53296971
-3.032397607 17.5414486 -42.36541572
-5.899306741 18.91216524 -40.15601643
-38.27946331 1.899022008 -26.73069155
-33.26168476 5.410648851 -29.31146545
-37.09447823 4.776076702 -24.74994731
-37.713819 0 -29.62099615
-23.5166141 11.60300797 -33.30812808
-28.35510722 8.615866729 -31.46518523
-34.56948842 9.876304633 -20.99124725
-32.30670673 8.076049497 -27.34270457
-35.84112429 7.442994468 -22.82681233
-34.67974514 6.469825996 -26.10933848
-35.66820161 -4.053622671 -35.24824053
-32.4328269 3.685928543 -32.05095945
-36.8459508 -1.99829581 -32.49440729
-35.0419824 1.900459755 -30.90348936
-13.21544368 29.43195893 -21.38303706
-15.57544463 25.30321322 -25.2015988
-12.05624905 29.02522869 -23.92749392
-15.69989239 27.85507028 -20.3427572
-20.02975358 15.78106259 -32.40882208
-17.83818619 20.79248175 -28.86279155
-17.65755517 17.18060763 -33.19630647
-9.452286085 27.76301951 -29.07052855
-14.3845091 24.63186706 -27.72887804
-10.79477282 28.47196048 -26.50920209
-10.56362728 25.29039905 -31.02424086
-13.24329 26.86366612 -25.85799569
-20.3887139 24.71412063 -18.32271692
-18.08688426 23.78370236 -24.13210873
-18.09771891 26.2759771 -19.31970632
-16.90677426 25.85677606 -22.26712994
-12.76221222 20.00549964 -34.66431959
-15.52924784 22.22076858 -29.62299789
-15.22543665 18.59265721 -33.95237586
-11.67097997 22.69538477 -32.89598676
-16.60449505 19.7748106 -31.41970676
-13.10370095 23.74276197 -30.31806328
-3.158196453 1.951872751 -47.17410521
-9.221095349 5.698950339 -45.15204824
-3.141328764 5.198002772 -46.69644837
-6.33701908 0 -47.03500358
-19.1647992 11.84449729 -36.76492117
-14.62314733 9.037602075 -41.50163648
-16.63763412 13.26417131 -37.49660817
-3.099103213 11.51455716 -45.00327731
-9.091784544 8.791193999 -44.06086258
-3.119249408 8.410923449 -45.96529547
-6.052692743 13.23720188 -43.27435178
-6.202741647 7.054211078 -45.58976891
-12.86318271 -3.948362262 -46.53943226
-12.37591087 3.798793854 -44.77646616
-9.585112667 -1.973344281 -46.82592183
-9.443948204 1.944281912 -46.13629445
-11.44957726 16.06399706 -38.87172283
-11.88129091 10.45563109 -42.10269289
-14.05670731 14.677423 -38.19998013
-8.856960509 14.75990294 -41.19306914
-14.36299636 11.92596067 -39.91807985
-9.005296768 11.83027924 -42.71796693
-29.28512165 18.09920055 -14.2600165
-27.78377641 17.17131816 -20.01516946
-30.59357215 16.27312631 -15.83357352
-27.11402379 19.80156565 -15.28221797
-22.82127448 14.1043233 -31.41157225
-25.6611459 15.85946036 -25.76461324
-25.15462139 12.67455677 -30.51379475
-21.65627758 16.7136256 -29.65365648
-33.21052674 12.22697561 -19.16648556
-28.94403957 15.1733179 -21.71146916
-31.91130711 14.31014981 -17.47494776
-32.32410018 11.46808359 -22.30083251
-29.84245363 15.77095793 -18.78212527
-22.72913769 23.06209579 -17.28491538
-25.45566565 18.87248844 -21.00047547
-24.92038736 21.46073827 -16.29450488
-21.72807312 22.68112675 -20.18599994
-26.35594378 19.37850272 -18.15279639
-29.84749511 9.704916863 -28.50504035
-27.84303439 14.44372834 -24.7332734
-27.5077278 11.201381 -29.54441768
-31.2027866 10.62442137 -25.43594631
-26.5992555 13.62292958 -27.63375505
-30.07111326 12.99696725 -23.54936982
-19.31547206 21.49340818 -26.0531726
-24.338413 18.24150818 -23.98702812
-20.48130619 19.18584662 -27.85582365
-20.58649896 22.15916754 -23.13113018
-23.09705935 17.53691515 -26.82049697
-23.05239558 20.51642587 -22.08374134
-27.22709307 -12.43344091 -44.05436201
-25.94128666 -3.883398737 -41.97388352
-29.85284491 -10.43236463 -42.38551019
-23.50289565 -10.25600994 -44.93680698
-22.15171148 10.1157327 -35.84222208
-24.1626072 3.617131237 -39.09591971
-24.66063022 8.617895119 -35.01352708
-20.08951517 8.766505638 -38.41052945
-34.05100477 -6.22581129 -37.95749487
-28.00661527 -1.983042526 -39.85680766
-32.14764984 -8.337203194 -40.31623118
-32.69449854 -1.992376775 -36.41667835
-28.98948527 -6.044077915 -41.22345504
-16.39563207 -6.058181088 -46.13337577
-22.50832086 -2.002473935 -42.89936996
-19.87096074 -8.117375532 -45.61879447
-16.09115016 -1.988975543 -45.34540806
-23.08624086 -5.998729397 -44.04766631
-29.74563676 5.438627213 -33.15819496
-26.90872927 1.90530537 -38.29438283
-27.20365804 7.055023488 -34.11599206
-31.23745051 1.903585426 -34.79374937
-25.8011588 5.379337115 -36.68961003
-29.7567341 0 -37.43123569
-15.25236997 5.635746091 -42.91651048
-21.76799174 1.936609858 -41.48835165
-17.7743636 7.260906309 -40.80552776
-15.7018608 1.940856732 -44.24837742
-20.96745981 5.448185276 -40.00511295
-19.09449469 0 -43.62520454
-20.05971266 28.72634378 1.42509728
-22.94031558 26.03191392 4.23458842
-19.43793803 29.13299815 3.751001236
-21.55657786 27.44610179 0
-28.46113932 20.0944835 9.914541746
-25.72257912 23.18011108 7.043413601
-18.03793453 29.70581793 8.48678186
-22.28697746 26.33312454 6.582769917
-18.76308293 29.46052991 6.117959897
-20.8861561 27.74204989 5.175535022
-24.47671907 24.76834411 -2.814874781
-24.47671907 24.76834411 2.814874781
-23.03566891 26.12052947 -1.416615489
-23.03566891 26.12052947 1.416615489
-39.50695368 3.02132623 23.26259624
-36.74839253 8.319073409 19.53415233
-31.19845153 16.67790272 12.91131146
-33.96108259 12.8058157 16.09771699
-14.48592714 29.74906365 18.38593247
-19.13866109 26.56706362 16.4193483
-15.46881544 29.88878793 15.89824225
-27.72266893 20.14119612 12.44794378
-23.49704689 23.4026858 14.46365525
-26.40196709 21.76495881 10.96662128
-17.23238106 29.85922747 10.99314229
-19.99758275 26.65921971 13.97554804
-16.38674279 29.92411702 13.41902405
-19.44914384 28.19069977 10.00161797
-17.78533242 28.25867415 14.93397181
-23.71051309 24.82716793 8.072556837
-22.21684128 25.01020653 12.97418319
-25.05917204 23.33167947 9.500858554
-21.61102269 26.51067592 9.026776851
-24.31619557 23.40589246 11.98743419
-20.84647603 26.61968226 11.50523213
-30.2422694 18.69075039 -8.535260813
-30.70768544 18.97839332 -2.841056793
-28.82051435 20.29878468 -7.09360612
-30.2422694 18.69075039 8.535260813
-30.70768544 18.97839332 2.841056793
-28.82051435 20.29878468 7.09360612
-25.97279967 23.29974432 -4.260074327
-29.17756519 20.50251616 -1.451705643
-27.39023483 21.84062479 -5.66416916
-26.06066554 23.39698265 -1.425793541
-29.05897434 20.4350826 -4.260552757
-25.97279967 23.29974432 4.260074327
-29.17756519 20.50251616 1.451705643
-27.39023483 21.84062479 5.66416916
-26.06066554 23.39698265 1.425793541
-29.05897434 20.4350826 4.260552757
-27.63544737 21.9693698 0
-41.10122219 -58.85866155 2.919944116
-50.70320904 -57.53633023 9.359383965
-38.87039099 -58.25777543 7.500944001
-46.31579894 -58.96984859 0
-60.91668091 -43.00914401 21.2205481
-58.46028832 -52.68196362 16.00772566
-33.90417911 -55.83518278 15.95179158
-47.60968058 -56.25310341 14.06218379
-36.44394551 -57.22183027 11.88304705
-43.36245183 -57.59620372 10.7451025
-56.87786017 -57.55552485 -6.541074958
-56.87786017 -57.55552485 6.541074958
-51.69236796 -58.61483883 -3.178905261
-51.69236796 -58.61483883 3.178905261
-43.26562809 -3.308773894 25.47578954
-48.38170623 -10.9526142 25.71801253
-58.32427376 -31.17868087 24.13718718
-53.61113341 -20.21532417 25.41193588
-23.00471009 -47.24368542 29.19820334
-34.77556671 -48.27321457 29.83448735
-25.7451698 -49.74472179 26.45987651
-56.77457492 -41.24811543 25.49273731
-46.62234968 -46.43512038 28.69848266
-56.23029053 -46.35449902 23.35645289
-31.19133798 -54.04646358 19.89805212
-37.93152004 -50.56734802 26.50889295
-28.49679557 -52.03849578 23.33588743
-37.68559922 -54.62365963 19.3796174
-31.7812403 -50.49642553 26.68604306
-51.50558028 -53.93125346 17.53575398
-44.34574494 -49.92141887 25.8970126
-54.43117684 -50.67887993 20.63687145
-44.49033712 -54.57719082 18.58331052
-50.46479352 -48.57558933 24.87820882
-41.23953167 -52.66037424 22.7602202
-64.06759138 -39.59594905 -18.08176479
-70.78039224 -43.74468814 -6.54855979
-65.11191111 -45.85944053 -16.02602387
-64.06759138 -39.59594905 18.08176479
-70.78039224 -43.74468814 6.54855979
-65.11191111 -45.85944053 16.02602387
-61.55432191 -55.2193056 -10.09617715
-71.48412351 -50.23052429 -3.556633487
-64.38062847 -51.33629408 -13.3136051
-63.3719953 -56.89468951 -3.467117194
-68.96999361 -48.50162638 -10.11220469
-61.55432191 -55.2193056 10.09617715
-71.48412351 -50.23052429 3.556633487
-64.38062847 -51.33629408 13.3136051
-63.3719953 -56.89468951 3.467117194
-68.96999361 -48.50162638 10.11220469
-68.88639446 -54.76266239 0
-3.151414567 -24.26420687 41.20799273
-9.956212309 -23.37834495 43.98023434
-5.202074103 -26.95749419 40.40308325
-3.157521177 -21.36608007 42.83754153
-24.28271882 -18.79863141 45.42437013
-17.18697691 -21.6051126 45.57994241
-9.604788949 -32.51848652 38.42213942
-12.36237562 -26.27518013 43.27134659
-7.365374052 -29.72337189 39.48008728
-8.712640461 -26.7206713 41.95499957
-3.168844693 -15.19961229 45.40043393
-9.908500554 -20.04533193 45.2211635
-3.167178781 -18.32111451 44.24843411
-6.488536568 -20.80113497 44.16684748
-40.40267269 -2.004353196 28.21333656
-38.61157447 -6.280910679 34.02599234
-42.79110201 -5.509541989 28.55081324
-30.5226871 -15.05977775 43.23129031
-35.35915916 -10.74408926 39.23746377
-47.72500266 -13.63475962 28.97952433
-40.77213227 -10.19224154 34.50739739
-45.25680948 -9.398315182 28.82355721
-41.97241304 -7.830340387 31.5997691
-19.77612592 -44.04317705 31.9984439
-23.74268729 -38.57137264 38.41647501
-17.12690486 -41.23275228 33.9909959
-25.33980613 -44.95840247 32.83344312
-27.57329514 -21.72447577 44.61452872
-26.46945977 -30.85323549 42.82848557
-23.95182867 -23.30486676 45.02957727
-12.07927071 -35.4789334 37.14982608
-20.75416924 -35.53919945 40.00760985
-14.53852417 -38.3463638 35.70289822
-13.62091054 -32.60984642 40.00315407
-19.05788683 -38.65842315 37.21120322
-36.98424216 -44.83034224 33.2366133
-29.19294364 -38.38783246 38.95017406
-31.17463552 -45.26227936 33.27959762
-27.45032421 -41.98180415 36.15355163
-16.31369625 -25.57265456 44.31074885
-22.20398938 -31.77164244 42.35547899
-20.13906953 -24.5929772 44.90966491
-15.05427583 -29.27454107 42.43219161
-23.25831735 -27.69905494 44.01034231
-17.8757167 -32.38923783 41.35908719
-3.173930656 -1.961597024 47.40912763
-9.632058523 -5.952939549 47.16437198
-3.183226169 -5.267331021 47.31926124
-23.69733643 -14.64575936 45.45994438
-16.41444245 -10.14468334 46.58547221
-20.45990311 -16.31143334 46.11094128
-3.190845891 -11.85542232 46.33550825
-9.728306488 -9.406671397 47.14559317
-3.186682339 -8.592753482 46.95898793
-6.475958392 -14.16288126 46.30053325
-6.431101624 -7.313918732 47.26820066
-13.54070666 -18.99789546 45.97118165
-13.24231644 -11.65334445 46.9256402
-17.02706064 -17.7789411 46.27210082
-9.931052178 -16.54984982 46.18859016
-16.76594959 -13.92119376 46.59644113
-9.871800089 -12.96860667 46.82835454
-56.01813465 -34.6211112 27.27731624
-47.9517195 -29.63579247 34.54396471
-54.52657165 -29.0034058 28.21999592
-52.66510998 -38.46170678 29.68352085
-31.53472306 -19.48953068 43.40490416
-39.74095564 -24.56126133 39.90119365
-34.47298557 -17.36976304 41.81742949
-31.66424736 -24.43745807 43.35743807
-50.24321031 -18.49782486 28.99640143
-46.68593919 -24.47414414 35.02000218
-52.52241096 -23.55289198 28.76179232
-46.62572143 -16.54207441 32.16771383
-50.6278049 -26.75547363 31.86392733
-42.90097856 -43.52943304 32.62507334
-44.43828809 -32.94594962 36.66080439
-48.12753817 -41.4460853 31.46878875
-38.83267109 -40.5359799 36.07665954
-48.54513847 -35.69335653 33.43572218
-39.09112607 -12.71048465 37.33291928
-42.54678411 -22.07137996 37.79477584
-37.01342712 -15.0721827 39.75392509
-42.87911814 -14.60016456 34.95428022
-38.51546437 -19.7258701 40.01340969
-44.89918214 -19.40577307 35.16156637
-30.55600921 -34.00138377 41.21467906
-40.07154615 -30.03340593 39.49301478
-31.35498819 -29.37175924 42.64469334
-34.6760514 -37.32506601 38.96224708
-35.87725688 -27.24054176 41.6609684
-39.87773997 -35.49083189 38.20209019
-2.98098061 22.95195654 38.97939313
-8.542570436 20.05894935 37.73566071
-4.721768216 24.46851712 36.67267911
-3.004110287 20.32799064 40.75624261
-18.67194923 14.45501609 34.92860661
-13.72191647 17.24931337 36.39058608
-7.930723944 26.85068262 31.72535937
-10.11084254 21.48973767 35.39042863
-6.385305196 25.76825015 34.22669435
-7.484581136 22.95435388 36.04138146
-3.054887281 14.65300662 43.76775185
-8.662148914 17.52390781 39.53296971
-3.032397607 17.5414486 42.36541572
-5.899306741 18.91216524 40.15601643
-38.27946331 1.899022008 26.73069155
-33.26168476 5.410648851 29.31146545
-37.09447823 4.776076702 24.74994731
-37.713819 0 29.62099615
-23.5166141 11.60300797 33.30812808
-28.35510722 8.615866729 31.46518523
-34.56948842 9.876304633 20.99124725
-32.30670673 8.076049497 27.34270457
-35.84112429 7.442994468 22.82681233
-34.67974514 6.469825996 26.10933848
-35.66820161 -4.053622671 35.24824053
-32.4328269 3.685928543 32.05095945
-36.8459508 -1.99829581 32.49440729
-35.0419824 1.900459755 30.90348936
-13.21544368 29.43195893 21.38303706
-15.57544463 25.30321322 25.2015988
-12.05624905 29.02522869 23.92749392
-15.69989239 27.85507028 20.3427572
-20.02975358 15.78106259 32.40882208
-17.83818619 20.79248175 28.86279155
-17.65755517 17.18060763 33.19630647
-9.452286085 27.76301951 29.07052855
-14.3845091 24.63186706 27.72887804
-10.79477282 28.47196048 26.50920209
-10.56362728 25.29039905 31.02424086
-13.24329 26.86366612 25.85799569
-20.3887139 24.71412063 18.32271692
-18.08688426 23.78370236 24.13210873
-18.09771891 26.2759771 19.31970632
-16.90677426 25.85677606 22.26712994
-12.76221222 20.00549964 34.66431959
-15.52924784 22.22076858 29.62299789
-15.22543665 18.59265721 33.95237586
-11.67097997 22.69538477 32.89598676
-16.60449505 19.7748106 31.41970676
-13.10370095 23.74276197 30.31806328
-3.158196453 1.951872751 47.17410521
-9.221095349 5.698950339 45.15204824
-3.141328764 5.198002772 46.69644837
-6.33701908 0 47.03500358
-19.1647992 11.84449729 36.76492117
-14.62314733 9.037602075 41.50163648
-16.63763412 13.26417131 37.49660817
-3.099103213 11.51455716 45.00327731
-9.091784544 8.791193999 44.06086258
-3.119249408 8.410923449 45.96529547
-6.052692743 13.23720188 43.27435178
-6.202741647 7.054211078 45.58976891
-12.86318271 -3.948362262 46.53943226
-12.37591087 3.798793854 44.77646616
-9.585112667 -1.973344281 46.82592183
-9.443948204 1.944281912 46.13629445
-11.44957726 16.06399706 38.87172283
-11.88129091 10.45563109 42.10269289
-14.05670731 14.677423 38.19998013
-8.856960509 14.75990294 41.19306914
-14.36299636 11.92596067 39.91807985
-9.005296768 11.83027924 42.71796693
-29.28512165 18.09920055 14.2600165
-27.78377641 17.17131816 20.01516946
-30.59357215 16.27312631 15.83357352
-27.11402379 19.80156565 15.28221797
-22.82127448 14.1043233 31.41157225
-25.6611459 15.85946036 25.76461324
-25.15462139 12.67455677 30.51379475
-21.65627758 16.7136256 29.65365648
-33.21052674 12.22697561 19.16648556
-28.94403957 15.1733179 21.71146916
-31.91130711 14.31014981 17.47494776
-32.32410018 11.46808359 22.30083251
-29.84245363 15.77095793 18.78212527
-22.72913769 23.06209579 17.28491538
-25.45566565 18.87248844 21.00047547
-24.92038736 21.46073827 16.29450488
-21.72807312 22.68112675 20.18599994
-26.35594378 19.37850272 18.15279639
-29.84749511 9.704916863 28.50504035
-27.84303439 14.44372834 24.7332734
-27.5077278 11.201381 29.54441768
-31.2027866 10.62442137 25.43594631
-26.5992555 13.62292958 27.63375505
-30.07111326 12.99696725 23.54936982
-19.31547206 21.49340818 26.0531726
-24.338413 18.24150818 23.98702812
-20.48130619 19.18584662 27.85582365
-20.58649896 22.15916754 23.13113018
-23.09705935 17.53691515 26.82049697
-23.05239558 20.51642587 22.08374134
-27.22709307 -12.43344091 44.05436201
-25.94128666 -3.883398737 41.97388352
-29.85284491 -10.43236463 42.38551019
-23.50289565 -10.25600994 44.93680698
-22.15171148 10.1157327 35.84222208
-24.1626072 3.617131237 39.09591971
-24.66063022 8.617895119 35.01352708
-20.08951517 8.766505638 38.41052945
-34.05100477 -6.22581129 37.95749487
-28.00661527 -1.983042526 39.85680766
-32.14764984 -8.337203194 40.31623118
-32.69449854 -1.992376775 36.41667835
-28.98948527 -6.044077915 41.22345504
-16.39563207 -6.058181088 46.13337577
-22.50832086 -2.002473935 42.89936996
-19.87096074 -8.117375532 45.61879447
-16.09115016 -1.988975543 45.34540806
-23.08624086 -5.998729397 44.04766631
-29.74563676 5.438627213 33.15819496
-26.90872927 1.90530537 38.29438283
-27.20365804 7.055023488 34.11599206
-31.23745051 1.903585426 34.79374937
-25.8011588 5.379337115 36.68961003
-29.7567341 0 37.43123569
-15.25236997 5.635746091 42.91651048
-21.76799174 1.936609858 41.48835165
-17.7743636 7.260906309 40.80552776
-15.7018608 1.940856732 44.24837742
-20.96745981 5.448185276 40.00511295
-19.09449469 0 43.62520454
-42.49921787 0 -22.3625627
-45.20950815 0 -16.2973038
-40.99029357 3.021361997 -20.44472823
-45.02026636 -3.318408092 -22.45475771
-47.97455725 0 -3.3249942
-47.04662218 0 -9.909178288
-37.93237542 8.311439463 -16.81440718
-43.36844544 3.027016622 -14.51932282
-39.45485099 5.796298765 -18.58193934
-42.28431729 3.026592808 -17.5078697
-50.39074501 -11.04121801 -22.3368691
-47.86468453 -3.340843653 -16.02461881
-47.6716503 -7.003425961 -22.45178202
-46.56766174 -3.333182588 -19.28139335
-42.49921787 0 22.3625627
-45.20950815 0 16.2973038
-40.99029357 3.021361997 20.44472823
-45.02026636 -3.318408092 22.45475771
-47.97455725 0 3.3249942
-47.04662218 0 9.909178288
-37.93237542 8.311439463 16.81440718
-43.36844544 3.027016622 14.51932282
-39.45485099 5.796298765 18.58193934
-42.28431729 3.026592808 17.5078697
-50.39074501 -11.04121801 22.3368691
-47.86468453 -3.340843653 16.02461881
-47.6716503 -7.003425961 22.45178202
-46.56766174 -3.333182588 19.28139335
-31.94770363 16.65368252 -10.29254184
-36.2839129 12.78467668 -7.901364725
-33.39765634 14.81888667 -11.81419485
-32.30678057 16.89712606 -7.373435827
-45.60811892 3.053357319 -1.887078603
-40.82077327 8.336548556 -5.152270356
-45.37462151 3.05240781 -5.050863965
-36.36810417 10.7121421 -15.02936006
-37.95153241 10.7098422 -9.424746847
-34.87840952 12.83444632 -13.40118944
-38.90868757 8.36579348 -13.94138539
-35.6547734 12.82900837 -10.65225148
-32.66623421 17.13922796 -1.524807535
-36.53855928 12.98566958 -4.798200979
-32.54728585 17.0586672 -4.432524508
-34.41573719 14.99105293 -6.123911564
-44.26507222 3.048267499 -11.3256797
-40.39675461 8.335710371 -8.060116981
-44.92534877 3.048677619 -8.22062962
-41.55155789 5.811729178 -12.71021604
-42.83711046 5.828227155 -6.628285829
-39.73274366 8.37598729 -11.00355392
-61.53244231 -32.07559988 -19.82381094
-59.98978059 -21.13746528 -13.06367198
-58.92082827 -26.14378289 -20.84284414
-64.88256094 -33.93494469 -14.80826598
-50.61467733 -3.388534742 -2.094229642
-55.63565736 -11.36209145 -7.0221587
-50.32932527 -3.385716959 -5.602395501
-53.30807172 -15.70177089 -22.02991391
-56.84220356 -16.04074965 -14.11598807
-56.12156148 -20.65143388 -21.56335932
-52.22936006 -11.22988379 -18.71432019
-58.28777691 -20.97263022 -17.41410753
-69.28850332 -36.35409718 -3.234276447
