40.172159 -12.102470 20.205027
24.823416 -29.063762 17.962393
36.819076 -22.755441 0.000000
11.031904 -18.417722 36.618592
32.013081 -7.324311 31.636156
18.036470 -24.925788 29.183621
11.101369 -6.861023 40.165131
29.504578 -18.234832 25.199918
12.563822 20.975254 41.703542
37.322059 8.538958 36.882626
25.340762 35.020072 41.002215
11.610906 7.175935 42.008654
41.301325 25.525623 35.275543
23.856411 0.000000 38.600484
55.280158 0.000000 -15.703935
55.280158 0.000000 15.703935
58.427578 16.148985 -9.980622
45.859957 -12.675380 -7.833816
58.427578 16.148985 9.980622
45.859957 -12.675380 7.833816
-29.226380 29.574594 -6.766406
-40.172159 12.102470 -20.205027
-24.823416 29.063762 -17.962393
-50.928278 -51.535057 -11.790767
-51.841213 -15.617949 -26.074106
-37.137584 -43.481440 -26.873008
-12.563822 -20.975254 -41.703542
-37.322059 -8.538958 -36.882626
-25.340762 -35.020072 -41.002215
-11.610906 -7.175935 -42.008654
-41.301325 -25.525623 -35.275543
-11.031904 18.417722 -36.618592
-32.013081 7.324311 -31.636156
-18.036470 24.925788 -29.183621
-11.101369 6.861023 -40.165131
-29.504578 18.234832 -25.199918
-23.856411 0.000000 -38.600484
-29.226380 29.574594 6.766406
-40.172159 12.102470 20.205027
-24.823416 29.063762 17.962393
-36.819076 22.755441 0.000000
-50.928278 -51.535057 11.790767
-51.841213 -15.617949 26.074106
-37.137584 -43.481440 26.873008
-59.574517 -36.819076 0.000000
-12.563822 -20.975254 41.703542
-37.322059 -8.538958 36.882626
-25.340762 -35.020072 41.002215
-11.610906 -7.175935 42.008654
-41.301325 -25.525623 35.275543
-11.031904 18.417722 36.618592
-32.013081 7.324311 31.636156
-18.036470 24.925788 29.183621
-11.101369 6.861023 40.165131
-29.504578 18.234832 25.199918
-23.856411 0.000000 38.600484
-55.280158 0.000000 -15.703935
-55.280158 0.000000 15.703935
-45.859957 12.675380 -7.833816
-58.427578 -16.148985 -9.980622
-45.859957 12.675380 7.833816
-58.427578 -16.148985 9.980622
-18.226428 41.348089 0.000000
-7.283324 52.291193 0.000000
26.260721 59.574517 0.000000
8.297774 59.574517 0.000000
-26.260721 -59.574517 0.000000
-8.297774 -59.574517 0.000000
18.226428 -41.348089 0.000000
7.283324 -52.291193 0.000000
-32.561132 -58.135131 8.818467
-23.081343 -51.937619 23.609092
-22.722338 -58.628347 8.350858
-3.925214 -29.801914 37.944166
-14.064623 -45.005373 35.998563
-4.912507 -58.996599 7.948603
-14.359377 -53.605090 23.233960
-13.407995 -58.865902 8.088792
-18.531012 -56.359937 16.244237
21.188647 -37.830526 5.738480
16.745849 -37.681495 17.128738
16.467342 -42.489157 6.052037
3.689529 -28.012488 35.665846
10.744818 -34.382333 27.501484
0.000000 -34.123787 34.530351
4.510085 -54.163732 7.297472
11.331941 -42.303349 18.335466
10.916164 -47.925870 6.585517
0.000000 -55.486343 15.336048
14.092974 -42.862158 12.353865
-9.288149 -49.884770 30.830483
7.528240 -40.432654 24.988754
-4.309738 -41.439482 32.943172
-4.881581 -54.137560 23.695691
3.932135 -37.808713 30.056818
4.284974 -47.521088 20.799700
-21.188647 37.830526 5.738480
-16.745849 37.681495 17.128738
-16.467342 42.489157 6.052037
-3.689529 28.012488 35.665846
-10.744818 34.382333 27.501484
-4.510085 54.163732 7.297472
-11.331941 42.303349 18.335466
-10.916164 47.925870 6.585517
-14.092974 42.862158 12.353865
32.561132 58.135131 8.818467
23.081343 51.937619 23.609092
22.722338 58.628347 8.350858
3.925214 29.801914 37.944166
14.064623 45.005373 35.998563
0.000000 34.123787 34.530351
4.912507 58.996599 7.948603
14.359377 53.605090 23.233960
13.407995 58.865902 8.088792
0.000000 55.486343 15.336048
18.531012 56.359937 16.244237
-7.528240 40.432654 24.988754
9.288149 49.884770 30.830483
-3.932135 37.808713 30.056818
-4.284974 47.521088 20.799700
4.309738 41.439482 32.943172
4.881581 54.137560 23.695691
0.000000 -17.727920 40.217185
0.000000 -5.839161 41.922710
0.000000 17.727920 40.217185
0.000000 5.839161 41.922710
-32.561132 -58.135131 -8.818467
-23.081343 -51.937619 -23.609092
-22.722338 -58.628347 -8.350858
-3.925214 -29.801914 -37.944166
-14.064623 -45.005373 -35.998563
-4.912507 -58.996599 -7.948603
-14.359377 -53.605090 -23.233960
-13.407995 -58.865902 -8.088792
-18.531012 -56.359937 -16.244237
21.188647 -37.830526 -5.738480
16.745849 -37.681495 -17.128738
16.467342 -42.489157 -6.052037
3.689529 -28.012488 -35.665846
10.744818 -34.382333 -27.501484
0.000000 -34.123787 -34.530351
4.510085 -54.163732 -7.297472
11.331941 -42.303349 -18.335466
10.916164 -47.925870 -6.585517
0.000000 -55.486343 -15.336048
14.092974 -42.862158 -12.353865
-9.288149 -49.884770 -30.830483
7.528240 -40.432654 -24.988754
-4.309738 -41.439482 -32.943172
-4.881581 -54.137560 -23.695691
3.932135 -37.808713 -30.056818
4.284974 -47.521088 -20.799700
-21.188647 37.830526 -5.738480
-16.745849 37.681495 -17.128738
-16.467342 42.489157 -6.052037
-3.689529 28.012488 -35.665846
-10.744818 34.382333 -27.501484
-4.510085 54.163732 -7.297472
-11.331941 42.303349 -18.335466
-10.916164 47.925870 -6.585517
-14.092974 42.862158 -12.353865
32.561132 58.135131 -8.818467
23.081343 51.937619 -23.609092
22.722338 58.628347 -8.350858
3.925214 29.801914 -37.944166
14.064623 45.005373 -35.998563
0.000000 34.123787 -34.530351
4.912507 58.996599 -7.948603
14.359377 53.605090 -23.233960
13.407995 58.865902 -8.088792
0.000000 55.486343 -15.336048
18.531012 56.359937 -16.244237
-7.528240 40.432654 -24.988754
9.288149 49.884770 -30.830483
-3.932135 37.808713 -30.056818
-4.284974 47.521088 -20.799700
4.309738 41.439482 -32.943172
4.881581 54.137560 -23.695691
0.000000 -17.727920 -40.217185
0.000000 -5.839161 -41.922710
0.000000 17.727920 -40.217185
0.000000 5.839161 -41.922710
45.758291 58.260023 -6.026831
52.143358 41.708041 -16.295314
39.167599 54.347619 -14.605812
51.329852 7.786181 -28.749537
52.104640 23.685014 -23.155568
27.871469 46.531312 -28.757932
45.668490 38.847938 -24.009346
33.109301 50.258576 -22.205782
43.533855 47.225353 -19.904208
26.119655 -33.255868 -3.440223
32.144422 -25.711441 -10.045449
24.364710 -33.807637 -9.085733
42.620710 -6.465098 -23.871599
37.597448 -17.090533 -16.708498
19.582207 -32.692421 -20.205027
29.870659 -25.409500 -15.703935
22.141083 -33.609266 -14.849606
27.293150 -29.607501 -12.478760
5.707809 -21.075399 -37.628332
16.160235 -15.798994 -35.550884
9.276238 -24.875574 -34.516495
5.618632 -15.288064 -39.446376
38.050291 -3.936192 -29.885266
26.483995 -10.347286 -33.110269
36.606699 -9.837976 -26.381956
16.119878 -30.661831 -26.082511
19.733891 -19.125594 -31.930107
12.873102 -28.155641 -30.543128
21.722791 -27.359069 -23.875658
14.688354 -21.900654 -33.244304
5.609317 -3.466749 -41.633809
16.357580 -10.109540 -37.739996
5.604650 -9.290278 -40.787646
11.128475 -12.695082 -38.610628
32.619240 -20.159799 -19.538373
25.679706 -15.870931 -30.188305
34.704125 -15.333348 -22.862353
27.283708 -23.809891 -21.662955
30.887388 -13.018198 -28.472992
23.784914 -21.640229 -27.255086
6.139120 22.667964 -40.471721
19.148360 18.720324 -42.124457
10.783890 28.918561 -40.126405
5.912091 16.086554 -41.506646
41.735469 4.317413 -32.779660
31.856468 12.446308 -39.826930
47.222459 12.690940 -34.032592
34.666940 0.000000 -34.258768
22.221990 42.268736 -35.955935
26.032657 25.230200 -42.121723
16.738027 36.608884 -39.713172
31.066081 39.126604 -34.144927
18.397145 27.430541 -41.638449
5.671814 3.505374 -42.097682
18.134563 11.207777 -41.839830
5.776712 9.575487 -42.039817
11.427023 0.000000 -41.343356
12.136562 13.845081 -42.108218
46.775386 28.908779 -28.017665
34.924220 21.584355 -41.055883
47.133720 20.825125 -31.050711
39.680064 34.627918 -31.505521
41.769483 17.604707 -38.504458
33.725740 30.684692 -38.646259
22.631534 -6.818092 -36.618592
24.900003 7.501502 -40.289051
28.261910 -3.697319 -35.550884
17.274016 -3.558643 -39.465956
30.089163 3.936367 -37.849401
17.905404 3.688716 -40.908488
45.758291 58.260023 6.026831
52.143358 41.708041 16.295314
39.167599 54.347619 14.605812
58.873080 59.574517 0.000000
51.329852 7.786181 28.749537
52.104640 23.685014 23.155568
27.871469 46.531312 28.757932
45.668490 38.847938 24.009346
33.109301 50.258576 22.205782
43.533855 47.225353 19.904208
57.229094 35.369525 -10.655604
57.229094 35.369525 10.655604
58.198173 46.265840 -6.052655
58.198173 46.265840 6.052655
26.119655 -33.255868 3.440223
32.144422 -25.711441 10.045449
24.364710 -33.807637 9.085733
29.610861 -29.963656 0.000000
42.620710 -6.465098 23.871599
37.597448 -17.090533 16.708498
19.582207 -32.692421 20.205027
29.870659 -25.409500 15.703935
22.141083 -33.609266 14.849606
27.293150 -29.607501 12.478760
36.341000 -22.459973 -6.766406
36.341000 -22.459973 6.766406
33.078827 -26.296697 -3.440223
33.078827 -26.296697 3.440223
5.707809 -21.075399 37.628332
16.160235 -15.798994 35.550884
9.276238 -24.875574 34.516495
5.618632 -15.288064 39.446376
38.050291 -3.936192 29.885266
26.483995 -10.347286 33.110269
36.606699 -9.837976 26.381956
16.119878 -30.661831 26.082511
19.733891 -19.125594 31.930107
12.873102 -28.155641 30.543128
21.722791 -27.359069 23.875658
14.688354 -21.900654 33.244304
5.609317 -3.466749 41.633809
16.357580 -10.109540 37.739996
5.604650 -9.290278 40.787646
11.128475 -12.695082 38.610628
32.619240 -20.159799 19.538373
25.679706 -15.870931 30.188305
34.704125 -15.333348 22.862353
27.283708 -23.809891 21.662955
30.887388 -13.018198 28.472992
23.784914 -21.640229 27.255086
6.139120 22.667964 40.471721
19.148360 18.720324 42.124457
10.783890 28.918561 40.126405
5.912091 16.086554 41.506646
41.735469 4.317413 32.779660
31.856468 12.446308 39.826930
47.222459 12.690940 34.032592
34.666940 0.000000 34.258768
22.221990 42.268736 35.955935
26.032657 25.230200 42.121723
16.738027 36.608884 39.713172
31.066081 39.126604 34.144927
18.397145 27.430541 41.638449
5.671814 3.505374 42.097682
18.134563 11.207777 41.839830
5.776712 9.575487 42.039817
11.427023 0.000000 41.343356
12.136562 13.845081 42.108218
46.775386 28.908779 28.017665
34.924220 21.584355 41.055883
47.133720 20.825125 31.050711
39.680064 34.627918 31.505521
41.769483 17.604707 38.504458
33.725740 30.684692 38.646259
22.631534 -6.818092 36.618592
24.900003 7.501502 40.289051
28.261910 -3.697319 35.550884
17.274016 -3.558643 39.465956
30.089163 3.936367 37.849401
17.905404 3.688716 40.908488
50.555595 0.000000 -22.285139
58.451350 0.000000 -8.141335
55.156643 7.856358 -21.376825
47.015919 -6.696816 -18.221759
50.555595 0.000000 22.285139
58.451350 0.000000 8.141335
55.156643 7.856358 21.376825
47.015919 -6.696816 18.221759
56.335713 24.417489 -15.090838
59.337867 7.994582 -4.940924
55.718144 16.059257 -18.319992
59.152225 25.890580 -5.333753
57.890418 7.954751 -13.185808
40.181309 -17.415714 -10.763503
52.220614 -7.035676 -4.348287
43.498556 -12.537289 -14.302221
41.275504 -18.066044 -3.721810
50.395345 -6.924849 -11.478641
56.335713 24.417489 15.090838
59.337867 7.994582 4.940924
55.718144 16.059257 18.319992
59.152225 25.890580 5.333753
57.890418 7.954751 13.185808
59.574517 16.465991 0.000000
40.181309 -17.415714 10.763503
52.220614 -7.035676 4.348287
43.498556 -12.537289 14.302221
41.275504 -18.066044 3.721810
50.395345 -6.924849 11.478641
46.674110 -12.900407 0.000000
-26.119655 33.255868 -3.440223
-32.144422 25.711441 -10.045449
-24.364710 33.807637 -9.085733
-42.620710 6.465098 -23.871599
-37.597448 17.090533 -16.708498
-19.582207 32.692421 -20.205027
-29.870659 25.409500 -15.703935
-22.141083 33.609266 -14.849606
-27.293150 29.607501 -12.478760
-45.758291 -58.260023 -6.026831
-52.143358 -41.708041 -16.295314
-39.167599 -54.347619 -14.605812
-51.329852 -7.786181 -28.749537
-52.104640 -23.685014 -23.155568
-27.871469 -46.531312 -28.757932
-45.668490 -38.847938 -24.009346
-33.109301 -50.258576 -22.205782
-43.533855 -47.225353 -19.904208
-6.139120 -22.667964 -40.471721
-19.148360 -18.720324 -42.124457
-10.783890 -28.918561 -40.126405
-5.912091 -16.086554 -41.506646
-41.735469 -4.317413 -32.779660
-31.856468 -12.446308 -39.826930
-47.222459 -12.690940 -34.032592
-22.221990 -42.268736 -35.955935
-26.032657 -25.230200 -42.121723
-16.738027 -36.608884 -39.713172
-31.066081 -39.126604 -34.144927
-18.397145 -27.430541 -41.638449
-5.671814 -3.505374 -42.097682
-18.134563 -11.207777 -41.839830
-5.776712 -9.575487 -42.039817
-12.136562 -13.845081 -42.108218
-46.775386 -28.908779 -28.017665
-34.924220 -21.584355 -41.055883
-47.133720 -20.825125 -31.050711
-39.680064 -34.627918 -31.505521
-41.769483 -17.604707 -38.504458
-33.725740 -30.684692 -38.646259
-5.707809 21.075399 -37.628332
-16.160235 15.798994 -35.550884
-9.276238 24.875574 -34.516495
-5.618632 15.288064 -39.446376
-38.050291 3.936192 -29.885266
-26.483995 10.347286 -33.110269
-36.606699 9.837976 -26.381956
-34.666940 0.000000 -34.258768
-16.119878 30.661831 -26.082511
-19.733891 19.125594 -31.930107
-12.873102 28.155641 -30.543128
-21.722791 27.359069 -23.875658
-14.688354 21.900654 -33.244304
-5.609317 3.466749 -41.633809
-16.357580 10.109540 -37.739996
-5.604650 9.290278 -40.787646
-11.427023 0.000000 -41.343356
-11.128475 12.695082 -38.610628
-32.619240 20.159799 -19.538373
-25.679706 15.870931 -30.188305
-34.704125 15.333348 -22.862353
-27.283708 23.809891 -21.662955
-30.887388 13.018198 -28.472992
-23.784914 21.640229 -27.255086
-24.900003 -7.501502 -40.289051
-22.631534 6.818092 -36.618592
-30.089163 -3.936367 -37.849401
-17.905404 -3.688716 -40.908488
-28.261910 3.697319 -35.550884
-17.274016 3.558643 -39.465956
-26.119655 33.255868 3.440223
-32.144422 25.711441 10.045449
-24.364710 33.807637 9.085733
-29.610861 29.963656 0.000000
-42.620710 6.465098 23.871599
-37.597448 17.090533 16.708498
-19.582207 32.692421 20.205027
-29.870659 25.409500 15.703935
-22.141083 33.609266 14.849606
-27.293150 29.607501 12.478760
-36.341000 22.459973 -6.766406
-36.341000 22.459973 6.766406
-33.078827 26.296697 -3.440223
-33.078827 26.296697 3.440223
-45.758291 -58.260023 6.026831
-52.143358 -41.708041 16.295314
-39.167599 -54.347619 14.605812
-58.873080 -59.574517 0.000000
-51.329852 -7.786181 28.749537
-52.104640 -23.685014 23.155568
-27.871469 -46.531312 28.757932
-45.668490 -38.847938 24.009346
-33.109301 -50.258576 22.205782
-43.533855 -47.225353 19.904208
-57.229094 -35.369525 -10.655604
-57.229094 -35.369525 10.655604
-58.198173 -46.265840 -6.052655
-58.198173 -46.265840 6.052655
-6.139120 -22.667964 40.471721
-19.148360 -18.720324 42.124457
-10.783890 -28.918561 40.126405
-5.912091 -16.086554 41.506646
-41.735469 -4.317413 32.779660
-31.856468 -12.446308 39.826930
-47.222459 -12.690940 34.032592
-22.221990 -42.268736 35.955935
-26.032657 -25.230200 42.121723
-16.738027 -36.608884 39.713172
-31.066081 -39.126604 34.144927
-18.397145 -27.430541 41.638449
-5.671814 -3.505374 42.097682
-18.134563 -11.207777 41.839830
-5.776712 -9.575487 42.039817
-12.136562 -13.845081 42.108218
-46.775386 -28.908779 28.017665
-34.924220 -21.584355 41.055883
-47.133720 -20.825125 31.050711
-39.680064 -34.627918 31.505521
-41.769483 -17.604707 38.504458
-33.725740 -30.684692 38.646259
-5.707809 21.075399 37.628332
-16.160235 15.798994 35.550884
-9.276238 24.875574 34.516495
-5.618632 15.288064 39.446376
-38.050291 3.936192 29.885266
-26.483995 10.347286 33.110269
-36.606699 9.837976 26.381956
-34.666940 0.000000 34.258768
-16.119878 30.661831 26.082511
-19.733891 19.125594 31.930107
-12.873102 28.155641 30.543128
-21.722791 27.359069 23.875658
-14.688354 21.900654 33.244304
-5.609317 3.466749 41.633809
-16.357580 10.109540 37.739996
-5.604650 9.290278 40.787646
-11.427023 0.000000 41.343356
-11.128475 12.695082 38.610628
-32.619240 20.159799 19.538373
-25.679706 15.870931 30.188305
-34.704125 15.333348 22.862353
-27.283708 23.809891 21.662955
-30.887388 13.018198 28.472992
-23.784914 21.640229 27.255086
-24.900003 -7.501502 40.289051
-22.631534 6.818092 36.618592
-30.089163 -3.936367 37.849401
-17.905404 -3.688716 40.908488
-28.261910 3.697319 35.550884
-17.274016 3.558643 39.465956
-50.555595 0.000000 -22.285139
-58.451350 0.000000 -8.141335
-47.015919 6.696816 -18.221759
-55.156643 -7.856358 -21.376825
-50.555595 0.000000 22.285139
-58.451350 0.000000 8.141335
-47.015919 6.696816 18.221759
-55.156643 -7.856358 21.376825
-40.181309 17.415714 -10.763503
-52.220614 7.035676 -4.348287
-43.498556 12.537289 -14.302221
-41.275504 18.066044 -3.721810
-50.395345 6.924849 -11.478641
-56.335713 -24.417489 -15.090838
-59.337867 -7.994582 -4.940924
-55.718144 -16.059257 -18.319992
-59.152225 -25.890580 -5.333753
-57.890418 -7.954751 -13.185808
-40.181309 17.415714 10.763503
-52.220614 7.035676 4.348287
-43.498556 12.537289 14.302221
-41.275504 18.066044 3.721810
-50.395345 6.924849 11.478641
-46.674110 12.900407 0.000000
-56.335713 -24.417489 15.090838
-59.337867 -7.994582 4.940924
-55.718144 -16.059257 18.319992
-59.152225 -25.890580 5.333753
-57.890418 -7.954751 13.185808
-59.574517 -16.465991 0.000000
-20.539659 39.034858 0.000000
-15.785308 43.789208 0.000000
-3.861338 55.713178 0.000000
-10.364783 49.209734 0.000000
31.347374 59.574517 0.000000
21.475659 59.574517 0.000000
4.128958 59.574517 0.000000
12.547862 59.574517 0.000000
-31.347374 -59.574517 0.000000
-21.475659 -59.574517 0.000000
-4.128958 -59.574517 0.000000
-12.547862 -59.574517 0.000000
20.539659 -39.034858 0.000000
15.785308 -43.789208 0.000000
3.861338 -55.713178 0.000000
10.364783 -49.209734 0.000000
-34.835232 -59.160804 4.524370
-30.174809 -56.766001 12.850645
-29.555494 -59.256761 4.367769
-20.801502 -50.264039 26.869883
-25.405507 -53.597571 20.210210
-19.872581 -59.358343 4.143074
-25.386894 -57.271434 12.548860
-24.560313 -59.317101 4.245752
-27.516477 -58.425469 8.583266
-1.899524 -26.737761 38.289588
-6.109151 -33.095506 37.555690
-16.336669 -46.896792 33.110649
-11.121360 -40.615260 36.600771
-2.459216 -59.435909 3.979096
-7.348477 -58.221034 11.890085
-6.614727 -59.423647 3.997503
-16.519885 -51.277166 26.729735
-12.094957 -55.541340 19.570052
-18.694930 -52.848870 23.449592
-15.194550 -59.386093 4.089561
-11.587958 -58.078051 11.984176
-10.870665 -59.407665 4.031462
-17.974902 -58.762587 8.219000
-9.119507 -58.937312 8.018749
-23.086298 -55.864314 16.454706
-14.094204 -56.754482 16.015995
-20.899916 -54.394862 20.016048
-20.640285 -57.604490 12.385595
-16.440771 -55.029866 19.800395
-16.025371 -57.866026 12.198632
22.027531 -37.409438 2.860917
20.239257 -38.074862 8.619359
19.777800 -39.653147 2.922802
15.377627 -37.157971 19.863711
18.015052 -38.006052 14.331066
14.901699 -44.510584 3.106735
17.889478 -40.357676 8.842852
17.399608 -42.022849 3.007878
18.886823 -40.102208 5.891402
1.847387 -26.003871 37.238626
5.513210 -29.867074 33.892171
0.000000 -28.924646 36.827217
12.369157 -35.507470 25.069420
9.053193 -33.062303 29.794363
-4.071777 -35.406102 35.827944
3.776515 -32.838650 33.229902
-1.971769 -32.063050 36.356828
1.905066 -30.978396 35.126920
2.357292 -56.972525 3.814178
6.467332 -51.239836 10.464363
5.945530 -53.411884 3.593084
0.000000 -58.521693 7.884619
12.678699 -39.354255 20.514566
9.859800 -45.277258 15.953492
14.123722 -39.926480 17.715794
12.100974 -47.295219 3.256935
9.628548 -48.257622 9.957769
9.184823 -50.194617 3.406255
13.797288 -45.105355 6.308791
7.874325 -50.889978 6.923864
-4.859899 -57.283734 15.832835
4.383144 -51.664218 14.279639
-2.458010 -58.326661 11.939276
2.321185 -55.079915 11.274678
16.709727 -40.434262 11.909820
11.288545 -45.456669 12.827776
15.478654 -40.285293 14.824054
15.335671 -42.799967 9.202461
12.759843 -42.709216 15.367280
12.582000 -45.432356 9.577512
-13.934682 -49.373583 30.514552
-4.374646 -47.283551 29.222842
-11.738204 -47.690988 33.589584
-11.837632 -51.866699 27.127375
10.835044 -38.390898 23.726880
3.939482 -42.580057 26.315923
9.191467 -37.343884 26.301941
9.483346 -41.551372 21.732242
-6.431403 -39.210943 35.175451
-2.155773 -43.328493 30.446102
-8.935723 -43.210496 34.455500
-2.059083 -37.635932 33.789132
-6.665312 -45.460563 31.969138
-7.328844 -55.809539 19.834505
-2.301920 -49.314450 25.874167
-9.614245 -54.031043 23.535228
-2.419908 -55.169966 19.577467
-7.127966 -52.339461 27.432132
5.675267 -34.600938 31.039897
2.050541 -41.213440 28.959895
7.458959 -36.069302 28.761203
1.974654 -36.092744 32.403674
5.754727 -39.249942 27.601656
0.000000 -39.593735 31.475857
6.319576 -48.123914 17.103062
2.167441 -46.433494 24.362595
7.974665 -44.816777 19.521612
2.256118 -51.435822 18.252378
5.980669 -43.915051 23.016735
0.000000 -50.655375 22.171559
-22.027531 37.409438 2.860917
-20.239257 38.074862 8.619359
-19.777800 39.653147 2.922802
-15.377627 37.157971 19.863711
-18.015052 38.006052 14.331066
-14.901699 44.510584 3.106735
-17.889478 40.357676 8.842852
-17.399608 42.022849 3.007878
-18.886823 40.102208 5.891402
-1.847387 26.003871 37.238626
-5.513210 29.867074 33.892171
-12.369157 35.507470 25.069420
-9.053193 33.062303 29.794363
-2.357292 56.972525 3.814178
-6.467332 51.239836 10.464363
-5.945530 53.411884 3.593084
-12.678699 39.354255 20.514566
-9.859800 45.277258 15.953492
-14.123722 39.926480 17.715794
-12.100974 47.295219 3.256935
-9.628548 48.257622 9.957769
-9.184823 50.194617 3.406255
-13.797288 45.105355 6.308791
-7.874325 50.889978 6.923864
-16.709727 40.434262 11.909820
-11.288545 45.456669 12.827776
-15.478654 40.285293 14.824054
-15.335671 42.799967 9.202461
-12.759843 42.709216 15.367280
-12.582000 45.432356 9.577512
34.835232 59.160804 4.524370
30.174809 56.766001 12.850645
29.555494 59.256761 4.367769
20.801502 50.264039 26.869883
25.405507 53.597571 20.210210
19.872581 59.358343 4.143074
25.386894 57.271434 12.548860
24.560313 59.317101 4.245752
27.516477 58.425469 8.583266
1.899524 26.737761 38.289588
6.109151 33.095506 37.555690
0.000000 28.924646 36.827217
16.336669 46.896792 33.110649
11.121360 40.615260 36.600771
-3.776515 32.838650 33.229902
4.071777 35.406102 35.827944
-1.905066 30.978396 35.126920
1.971769 32.063050 36.356828
2.459216 59.435909 3.979096
7.348477 58.221034 11.890085
6.614727 59.423647 3.997503
0.000000 58.521693 7.884619
16.519885 51.277166 26.729735
12.094957 55.541340 19.570052
18.694930 52.848870 23.449592
15.194550 59.386093 4.089561
11.587958 58.078051 11.984176
10.870665 59.407665 4.031462
17.974902 58.762587 8.219000
9.119507 58.937312 8.018749
-4.383144 51.664218 14.279639
4.859899 57.283734 15.832835
-2.321185 55.079915 11.274678
2.458010 58.326661 11.939276
23.086298 55.864314 16.454706
14.094204 56.754482 16.015995
20.899916 54.394862 20.016048
20.640285 57.604490 12.385595
16.440771 55.029866 19.800395
16.025371 57.866026 12.198632
-10.835044 38.390898 23.726880
-3.939482 42.580057 26.315923
-9.191467 37.343884 26.301941
-9.483346 41.551372 21.732242
13.934682 49.373583 30.514552
4.374646 47.283551 29.222842
11.738204 47.690988 33.589584
11.837632 51.866699 27.127375
-5.675267 34.600938 31.039897
-2.050541 41.213440 28.959895
-7.458959 36.069302 28.761203
-1.974654 36.092744 32.403674
-5.754727 39.249942 27.601656
-6.319576 48.123914 17.103062
-2.167441 46.433494 24.362595
-7.974665 44.816777 19.521612
-2.256118 51.435822 18.252378
-5.980669 43.915051 23.016735
6.431403 39.210943 35.175451
2.155773 43.328493 30.446102
8.935723 43.210496 34.455500
2.059083 37.635932 33.789132
6.665312 45.460563 31.969138
0.000000 39.593735 31.475857
7.328844 55.809539 19.834505
2.301920 49.314450 25.874167
9.614245 54.031043 23.535228
2.419908 55.169966 19.577467
7.127966 52.339461 27.432132
0.000000 50.655375 22.171559
0.000000 -20.774554 39.481267
0.000000 -14.715057 40.820278
0.000000 -2.916114 42.075048
0.000000 -8.775881 41.665975
0.000000 20.774554 39.481267
0.000000 14.715057 40.820278
0.000000 2.916114 42.075048
0.000000 8.775881 41.665975
-34.835232 -59.160804 -4.524370
-30.174809 -56.766001 -12.850645
-29.555494 -59.256761 -4.367769
-20.801502 -50.264039 -26.869883
-25.405507 -53.597571 -20.210210
-19.872581 -59.358343 -4.143074
-25.386894 -57.271434 -12.548860
-24.560313 -59.317101 -4.245752
-27.516477 -58.425469 -8.583266
-1.899524 -26.737761 -38.289588
-6.109151 -33.095506 -37.555690
-16.336669 -46.896792 -33.110649
-11.121360 -40.615260 -36.600771
-2.459216 -59.435909 -3.979096
-7.348477 -58.221034 -11.890085
-6.614727 -59.423647 -3.997503
-16.519885 -51.277166 -26.729735
-12.094957 -55.541340 -19.570052
-18.694930 -52.848870 -23.449592
-15.194550 -59.386093 -4.089561
-11.587958 -58.078051 -11.984176
-10.870665 -59.407665 -4.031462
-17.974902 -58.762587 -8.219000
-9.119507 -58.937312 -8.018749
-23.086298 -55.864314 -16.454706
-14.094204 -56.754482 -16.015995
-20.899916 -54.394862 -20.016048
-20.640285 -57.604490 -12.385595
-16.440771 -55.029866 -19.800395
-16.025371 -57.866026 -12.198632
22.027531 -37.409438 -2.860917
20.239257 -38.074862 -8.619359
19.777800 -39.653147 -2.922802
15.377627 -37.157971 -19.863711
18.015052 -38.006052 -14.331066
14.901699 -44.510584 -3.106735
17.889478 -40.357676 -8.842852
17.399608 -42.022849 -3.007878
18.886823 -40.102208 -5.891402
1.847387 -26.003871 -37.238626
5.513210 -29.867074 -33.892171
0.000000 -28.924646 -36.827217
12.369157 -35.507470 -25.069420
9.053193 -33.062303 -29.794363
-4.071777 -35.406102 -35.827944
3.776515 -32.838650 -33.229902
-1.971769 -32.063050 -36.356828
1.905066 -30.978396 -35.126920
2.357292 -56.972525 -3.814178
6.467332 -51.239836 -10.464363
5.945530 -53.411884 -3.593084
0.000000 -58.521693 -7.884619
12.678699 -39.354255 -20.514566
9.859800 -45.277258 -15.953492
14.123722 -39.926480 -17.715794
12.100974 -47.295219 -3.256935
9.628548 -48.257622 -9.957769
9.184823 -50.194617 -3.406255
13.797288 -45.105355 -6.308791
7.874325 -50.889978 -6.923864
-4.859899 -57.283734 -15.832835
4.383144 -51.664218 -14.279639
-2.458010 -58.326661 -11.939276
2.321185 -55.079915 -11.274678
16.709727 -40.434262 -11.909820
11.288545 -45.456669 -12.827776
15.478654 -40.285293 -14.824054
15.335671 -42.799967 -9.202461
12.759843 -42.709216 -15.367280
12.582000 -45.432356 -9.577512
-13.934682 -49.373583 -30.514552
-4.374646 -47.283551 -29.222842
-11.738204 -47.690988 -33.589584
-11.837632 -51.866699 -27.127375
10.835044 -38.390898 -23.726880
3.939482 -42.580057 -26.315923
9.191467 -37.343884 -26.301941
9.483346 -41.551372 -21.732242
-6.431403 -39.210943 -35.175451
-2.155773 -43.328493 -30.446102
-8.935723 -43.210496 -34.455500
-2.059083 -37.635932 -33.789132
-6.665312 -45.460563 -31.969138
-7.328844 -55.809539 -19.834505
-2.301920 -49.314450 -25.874167
-9.614245 -54.031043 -23.535228
-2.419908 -55.169966 -19.577467
-7.127966 -52.339461 -27.432132
5.675267 -34.600938 -31.039897
2.050541 -41.213440 -28.959895
7.458959 -36.069302 -28.761203
1.974654 -36.092744 -32.403674
5.754727 -39.249942 -27.601656
0.000000 -39.593735 -31.475857
6.319576 -48.123914 -17.103062
2.167441 -46.433494 -24.362595
7.974665 -44.816777 -19.521612
2.256118 -51.435822 -18.252378
5.980669 -43.915051 -23.016735
0.000000 -50.655375 -22.171559
-22.027531 37.409438 -2.860917
-20.239257 38.074862 -8.619359
-19.777800 39.653147 -2.922802
-15.377627 37.157971 -19.863711
-18.015052 38.006052 -14.331066
-14.901699 44.510584 -3.106735
-17.889478 40.357676 -8.842852
-17.399608 42.022849 -3.007878
-18.886823 40.102208 -5.891402
-1.847387 26.003871 -37.238626
-5.513210 29.867074 -33.892171
-12.369157 35.507470 -25.069420
-9.053193 33.062303 -29.794363
-2.357292 56.972525 -3.814178
-6.467332 51.239836 -10.464363
-5.945530 53.411884 -3.593084
-12.678699 39.354255 -20.514566
-9.859800 45.277258 -15.953492
-14.123722 39.926480 -17.715794
-12.100974 47.295219 -3.256935
-9.628548 48.257622 -9.957769
-9.184823 50.194617 -3.406255
-13.797288 45.105355 -6.308791
-7.874325 50.889978 -6.923864
-16.709727 40.434262 -11.909820
-11.288545 45.456669 -12.827776
-15.478654 40.285293 -14.824054
-15.335671 42.799967 -9.202461
-12.759843 42.709216 -15.367280
-12.582000 45.432356 -9.577512
34.835232 59.160804 -4.524370
30.174809 56.766001 -12.850645
29.555494 59.256761 -4.367769
20.801502 50.264039 -26.869883
25.405507 53.597571 -20.210210
19.872581 59.358343 -4.143074
25.386894 57.271434 -12.548860
24.560313 59.317101 -4.245752
27.516477 58.425469 -8.583266
1.899524 26.737761 -38.289588
6.109151 33.095506 -37.555690
0.000000 28.924646 -36.827217
16.336669 46.896792 -33.110649
11.121360 40.615260 -36.600771
-3.776515 32.838650 -33.229902
4.071777 35.406102 -35.827944
-1.905066 30.978396 -35.126920
1.971769 32.063050 -36.356828
2.459216 59.435909 -3.979096
7.348477 58.221034 -11.890085
6.614727 59.423647 -3.997503
0.000000 58.521693 -7.884619
16.519885 51.277166 -26.729735
12.094957 55.541340 -19.570052
18.694930 52.848870 -23.449592
15.194550 59.386093 -4.089561
11.587958 58.078051 -11.984176
10.870665 59.407665 -4.031462
17.974902 58.762587 -8.219000
9.119507 58.937312 -8.018749
-4.383144 51.664218 -14.279639
4.859899 57.283734 -15.832835
-2.321185 55.079915 -11.274678
2.458010 58.326661 -11.939276
23.086298 55.864314 -16.454706
14.094204 56.754482 -16.015995
20.899916 54.394862 -20.016048
20.640285 57.604490 -12.385595
16.440771 55.029866 -19.800395
16.025371 57.866026 -12.198632
-10.835044 38.390898 -23.726880
-3.939482 42.580057 -26.315923
-9.191467 37.343884 -26.301941
-9.483346 41.551372 -21.732242
13.934682 49.373583 -30.514552
4.374646 47.283551 -29.222842
11.738204 47.690988 -33.589584
11.837632 51.866699 -27.127375
-5.675267 34.600938 -31.039897
-2.050541 41.213440 -28.959895
-7.458959 36.069302 -28.761203
-1.974654 36.092744 -32.403674
-5.754727 39.249942 -27.601656
-6.319576 48.123914 -17.103062
-2.167441 46.433494 -24.362595
-7.974665 44.816777 -19.521612
-2.256118 51.435822 -18.252378
-5.980669 43.915051 -23.016735
6.431403 39.210943 -35.175451
2.155773 43.328493 -30.446102
8.935723 43.210496 -34.455500
2.059083 37.635932 -33.789132
6.665312 45.460563 -31.969138
0.000000 39.593735 -31.475857
7.328844 55.809539 -19.834505
2.301920 49.314450 -25.874167
9.614245 54.031043 -23.535228
2.419908 55.169966 -19.577467
7.127966 52.339461 -27.432132
0.000000 50.655375 -22.171559
0.000000 -20.774554 -39.481267
0.000000 -14.715057 -40.820278
0.000000 -2.916114 -42.075048
0.000000 -8.775881 -41.665975
0.000000 20.774554 -39.481267
0.000000 14.715057 -40.820278
0.000000 2.916114 -42.075048
0.000000 8.775881 -41.665975
41.434331 59.335687 -2.943609
49.061738 55.673643 -9.056382
38.844673 58.219231 -7.495981
52.264767 36.900614 -18.206622
51.785541 46.666961 -14.180031
33.329938 54.889492 -15.681613
45.183510 53.386467 -13.345580
36.068566 56.632435 -11.760649
42.425757 56.352039 -10.512992
47.908284 3.663825 -28.209492
51.689594 11.701451 -27.476369
52.204731 27.907328 -21.604647
51.980928 19.600617 -24.639211
23.203260 47.651438 -29.450208
32.536751 45.165435 -27.913774
25.574390 49.414741 -26.284355
49.277592 35.801374 -22.126466
41.565809 41.398886 -25.585919
48.881929 40.296739 -20.304154
30.590319 53.005054 -19.514641
35.291999 47.048544 -24.664232
28.043859 51.211381 -22.964980
36.057822 52.264266 -18.542542
30.438997 48.363769 -25.558990
47.078090 49.295249 -16.028357
40.237829 45.297007 -23.498074
48.206126 44.882963 -18.276725
41.668629 51.115744 -17.404702
44.780254 43.103857 -22.075836
38.371755 48.998397 -21.177485
24.474806 -35.048941 -1.738758
27.700455 -31.433563 -5.113270
23.700604 -35.521754 -4.573582
33.549152 -23.686785 -11.686970
30.705416 -27.670435 -8.407825
21.828521 -35.948355 -10.270239
26.821141 -31.690455 -7.921998
22.815244 -35.822960 -7.439222
25.302663 -33.608278 -6.269934
43.773743 -3.347632 -25.774979
41.415872 -9.375694 -22.015220
36.273001 -19.390628 -15.011386
38.897801 -14.667320 -18.437745
16.818850 -34.540076 -21.346941
22.240401 -30.872700 -19.080378
18.203651 -35.173027 -18.708999
32.384540 -23.528159 -14.541202
27.358399 -27.248532 -16.840519
31.083299 -25.624103 -12.911112
20.701341 -35.870031 -13.206114
23.511683 -31.343945 -16.431419
19.505788 -35.619860 -15.973195
23.315568 -33.794916 -11.989906
20.916352 -33.233473 -17.563023
28.328923 -29.663083 -9.644955
26.123143 -29.407655 -15.255384
29.726027 -27.676818 -11.270236
25.859914 -31.722877 -10.801510
28.604202 -27.533373 -14.101342
24.750533 -31.604926 -13.659893
2.915120 -22.444866 -38.118199
8.405285 -19.736587 -37.129221
4.726618 -24.493649 -36.710346
2.878165 -19.475755 -39.047569
18.702834 -14.478926 -34.986382
13.609936 -17.108547 -36.093613
8.322629 -28.177536 -33.293100
10.176373 -21.629016 -35.619800
6.546219 -26.417626 -35.089229
7.510690 -23.034426 -36.167105
2.826857 -13.559241 -40.500733
8.358776 -16.910172 -38.148416
2.851776 -16.496608 -39.841957
5.671015 -18.180302 -38.602058
41.337952 -2.050752 -28.866446
34.953477 -5.685851 -30.802338
40.493775 -5.213751 -27.018005
23.844277 -11.764676 -33.772219
29.198867 -8.872248 -32.401491
38.532010 -11.008374 -23.397365
34.423717 -8.605261 -29.134431
39.543498 -8.211853 -25.184813
37.368983 -6.971528 -28.133985
15.059170 -33.538101 -24.366250
17.109247 -27.794964 -27.683343
13.494896 -32.488749 -26.782712
17.918375 -31.791148 -23.217303
20.515406 -16.163699 -33.194625
18.909246 -22.040927 -30.595803
17.993885 -17.507853 -33.828609
10.154600 -29.825837 -31.230496
15.491400 -26.527295 -29.862621
11.845627 -31.243660 -29.089830
11.106725 -26.590631 -32.619261
14.536232 -29.486366 -28.382512
23.351230 -28.305126 -20.985040
19.947653 -26.230557 -26.614807
20.689848 -30.039475 -22.086860
18.965667 -29.005593 -24.978803
12.893983 -20.212057 -35.022230
16.405521 -23.474626 -31.294543
15.444422 -18.860073 -34.440708
12.021199 -23.376421 -33.883119
17.225457 -20.514334 -32.594717
13.808578 -25.019938 -31.948939
2.811970 -1.737893 -42.002511
8.377369 -5.177499 -41.020657
2.811510 -4.652247 -41.793632
18.859667 -11.655915 -36.179568
13.766441 -8.508128 -39.070236
16.281447 -12.980205 -36.693861
2.827355 -10.504892 -41.057120
8.355160 -8.078923 -40.491011
2.814745 -7.589840 -41.478113
5.619473 -12.289752 -40.177000
5.613967 -6.384614 -41.262314
11.095847 -15.567707 -37.670797
11.130309 -9.794761 -39.441504
13.685757 -14.290093 -37.191900
8.393915 -13.988249 -39.039479
13.740445 -11.409041 -38.187867
8.395139 -11.028713 -39.823592
33.878428 -20.938020 -16.496668
31.157304 -19.256273 -22.445427
35.089605 -18.664626 -18.160476
31.271461 -22.837772 -17.625465
23.535886 -14.545977 -32.395175
27.674092 -17.103530 -27.785676
26.113632 -13.157769 -31.677122
22.697639 -17.517315 -31.079579
37.394998 -13.767554 -21.581431
32.080203 -16.817387 -24.063964
36.271231 -16.265293 -19.862485
35.682949 -12.659751 -24.618148
33.681790 -17.799947 -21.198512
26.086426 -26.468564 -19.838045
28.421653 -21.071432 -23.447363
28.666011 -24.686364 -18.743627
24.519038 -25.594511 -22.778886
29.937702 -22.012031 -20.619752
31.485406 -10.237484 -30.069283
30.225644 -15.679720 -26.849772
28.771694 -11.716079 -30.901969
33.695194 -11.473076 -27.467712
28.256258 -14.471571 -29.355202
32.905656 -14.222079 -25.769164
20.929263 -23.289164 -28.229893
26.633485 -19.961652 -26.248965
21.825640 -20.445150 -29.684199
22.784894 -24.525505 -25.601262
24.754387 -18.795275 -28.744999
25.618961 -22.800646 -24.542460
3.028938 23.321202 -39.606484
9.321766 21.888591 -41.177651
5.068864 26.267191 -39.368477
2.973628 20.121725 -40.342693
22.437637 17.370249 -41.972876
15.847236 19.920973 -42.026942
9.703113 32.851378 -38.815466
11.735548 24.942912 -41.077297
7.295700 29.442200 -39.106621
8.370998 25.672892 -40.309847
2.889969 13.861961 -41.404942
9.116403 18.442883 -41.606128
2.930523 16.952139 -40.942138
6.032307 19.338543 -41.061339
43.466544 2.156350 -30.352849
39.678585 6.454480 -34.966283
46.386889 5.972515 -30.949972
39.860518 0.000000 -31.307045
28.834075 14.226623 -40.839597
34.700861 10.544061 -38.506961
49.590007 14.167581 -30.111990
42.176845 10.543392 -35.696272
49.495514 10.278551 -31.523141
44.462157 8.294825 -33.474223
33.337601 -3.788754 -32.945081
35.998162 4.091122 -35.574316
36.480192 -1.978459 -32.171845
38.061031 2.064194 -33.565986
20.459728 45.565618 -33.104535
23.846467 38.739969 -38.584394
18.198070 43.811566 -36.116890
25.012924 44.378441 -32.409893
25.923873 20.424927 -41.945707
25.967094 30.267670 -42.015641
22.405979 21.800772 -42.123371
12.512210 36.750552 -38.481332
21.142902 36.204860 -40.756965
15.515569 40.923386 -38.102269
13.598016 32.555034 -39.935914
19.940959 40.449713 -38.935434
34.036333 41.257042 -30.587417
28.181166 37.057375 -37.600227
29.581817 42.949675 -31.579230
26.680718 40.804789 -35.139939
15.342610 24.050421 -41.673115
21.807022 31.203622 -41.598239
18.844293 23.011851 -42.022342
14.542730 28.279789 -40.990342
22.205802 26.445582 -42.018730
17.671101 32.018491 -40.885666
2.819746 1.742699 -42.118660
8.589956 5.308884 -42.061607
2.832465 4.686921 -42.105131
5.649986 0.000000 -41.935669
21.744721 13.438977 -41.714132
14.776221 9.132207 -41.936071
18.653833 14.871564 -42.040561
2.875899 10.685254 -41.762046
8.692338 8.404954 -42.125055
2.849255 7.682896 -41.986658
5.851825 12.797906 -41.838230
5.730915 6.517615 -42.121872
11.281017 -3.462715 -40.815104
11.537856 3.541552 -41.744354
8.494540 -1.748822 -41.498172
8.566556 1.763648 -41.849991
12.364500 17.347653 -41.977918
11.884334 10.458309 -42.113475
15.500201 16.184658 -42.122764
9.011310 15.017122 -41.910937
15.143164 12.573754 -42.086347
8.870716 11.653480 -42.079563
49.531775 30.612321 -24.118866
44.030280 27.212209 -31.718997
49.630693 26.399223 -25.686155
46.329293 33.834614 -26.112478
30.032494 18.561102 -41.337212
38.579183 23.843247 -38.734737
33.359896 16.808915 -40.467197
30.553112 23.579919 -41.835975
49.638723 18.275273 -28.647539
44.345054 23.246983 -33.264060
49.661733 22.270063 -27.195257
47.196845 16.744700 -32.561739
46.988056 24.831961 -29.573157
38.556798 39.121615 -29.321437
40.576477 30.082855 -33.474879
42.610502 36.694969 -27.861406
35.477499 37.033640 -32.959609
43.411465 31.918766 -29.899877
39.457998 12.829773 -37.683290
41.601742 21.581134 -36.955284
36.537588 14.878417 -39.242855
44.647710 15.202363 -36.396004
38.482561 19.709019 -39.979227
44.512142 19.238491 -34.858466
29.612464 32.951448 -39.942003
37.638414 28.209787 -37.095011
30.857989 28.906195 -41.968744
32.490036 34.972054 -36.506025
34.848910 26.459749 -40.466844
36.669829 32.635820 -35.128975
21.962566 -10.029358 -35.536178
23.263706 -3.482566 -37.641466
24.625161 -8.605500 -34.963168
19.457562 -8.490739 -37.202255
25.330708 11.567443 -40.985946
24.404559 3.653351 -39.487406
28.225333 9.863615 -40.074745
21.568940 9.412085 -41.239144
30.227527 -5.526735 -33.695369
26.132256 -1.850326 -37.189368
27.388188 -7.102880 -34.347411
31.368465 -1.911569 -34.939679
25.391810 -5.293991 -36.107511
14.156340 -5.230763 -39.832545
20.493027 -1.823181 -39.058353
16.833502 -6.876560 -38.645543
14.387662 -1.778413 -40.544920
20.005608 -5.198258 -38.169937
33.550592 6.134317 -37.399672
26.874798 1.902903 -38.246095
30.996089 8.038556 -38.872064
32.485355 1.979632 -36.183725
27.565636 5.747217 -39.198722
29.192445 0.000000 -36.721412
14.786800 5.463718 -41.606509
20.938620 1.862824 -39.907625
18.052204 7.374405 -41.443381
14.599713 1.804624 -41.142489
21.292271 5.532584 -40.624840
17.613795 0.000000 -40.242249
41.434331 59.335687 2.943609
49.061738 55.673643 9.056382
38.844673 58.219231 7.495981
46.790714 59.574517 0.000000
52.264767 36.900614 18.206622
51.785541 46.666961 14.180031
33.329938 54.889492 15.681613
45.183510 53.386467 13.345580
36.068566 56.632435 11.760649
42.425757 56.352039 10.512992
54.781473 55.434160 -6.299986
54.781473 55.434160 6.299986
51.948580 58.905362 -3.194661
51.948580 58.905362 3.194661
47.908284 3.663825 28.209492
51.689594 11.701451 27.476369
52.204731 27.907328 21.604647
51.980928 19.600617 24.639211
23.203260 47.651438 29.450208
32.536751 45.165435 27.913774
25.574390 49.414741 26.284355
49.277592 35.801374 22.126466
41.565809 41.398886 25.585919
48.881929 40.296739 20.304154
30.590319 53.005054 19.514641
35.291999 47.048544 24.664232
28.043859 51.211381 22.964980
36.057822 52.264266 18.542542
30.438997 48.363769 25.558990
47.078090 49.295249 16.028357
40.237829 45.297007 23.498074
48.206126 44.882963 18.276725
41.668629 51.115744 17.404702
44.780254 43.103857 22.075836
38.371755 48.998397 21.177485
54.895053 33.927009 -15.493004
58.932491 36.422283 -5.452399
55.135238 38.832698 -13.570461
54.895053 33.927009 15.493004
58.932491 36.422283 5.452399
55.135238 38.832698 13.570461
55.396275 49.695030 -9.086131
59.330887 41.690678 -2.951959
55.336599 44.124700 -11.443343
58.810493 52.799423 -3.217555
57.692034 40.570650 -8.458659
55.396275 49.695030 9.086131
59.330887 41.690678 2.951959
55.336599 44.124700 11.443343
58.810493 52.799423 3.217555
57.692034 40.570650 8.458659
59.574517 47.359993 0.000000
24.474806 -35.048941 1.738758
27.700455 -31.433563 5.113270
23.700604 -35.521754 4.573582
26.207194 -33.367323 0.000000
33.549152 -23.686785 11.686970
30.705416 -27.670435 8.407825
21.828521 -35.948355 10.270239
26.821141 -31.690455 7.921998
22.815244 -35.822960 7.439222
25.302663 -33.608278 6.269934
29.514584 -29.866232 -3.394240
29.514584 -29.866232 3.394240
27.894763 -31.630338 -1.715433
27.894763 -31.630338 1.715433
43.773743 -3.347632 25.774979
41.415872 -9.375694 22.015220
36.273001 -19.390628 15.011386
38.897801 -14.667320 18.437745
16.818850 -34.540076 21.346941
22.240401 -30.872700 19.080378
18.203651 -35.173027 18.708999
32.384540 -23.528159 14.541202
27.358399 -27.248532 16.840519
31.083299 -25.624103 12.911112
20.701341 -35.870031 13.206114
23.511683 -31.343945 16.431419
19.505788 -35.619860 15.973195
23.315568 -33.794916 11.989906
20.916352 -33.233473 17.563023
28.328923 -29.663083 9.644955
26.123143 -29.407655 15.255384
29.726027 -27.676818 11.270236
25.859914 -31.722877 10.801510
28.604202 -27.533373 14.101342
24.750533 -31.604926 13.659893
35.747521 -22.093183 -10.089005
36.699281 -22.681403 -3.395396
34.248084 -24.121516 -8.429496
35.747521 -22.093183 10.089005
36.699281 -22.681403 3.395396
34.248084 -24.121516 8.429496
31.171083 -27.963033 -5.112700
34.958820 -24.564893 -1.739347
32.714839 -26.086396 -6.765272
31.365480 -28.159587 -1.716023
34.721077 -24.416832 -5.090716
31.171083 -27.963033 5.112700
34.958820 -24.564893 1.739347
32.714839 -26.086396 6.765272
31.365480 -28.159587 1.716023
34.721077 -24.416832 5.090716
33.189688 -26.384828 0.000000
2.915120 -22.444866 38.118199
8.405285 -19.736587 37.129221
4.726618 -24.493649 36.710346
2.878165 -19.475755 39.047569
18.702834 -14.478926 34.986382
13.609936 -17.108547 36.093613
8.322629 -28.177536 33.293100
10.176373 -21.629016 35.619800
6.546219 -26.417626 35.089229
7.510690 -23.034426 36.167105
2.826857 -13.559241 40.500733
8.358776 -16.910172 38.148416
2.851776 -16.496608 39.841957
5.671015 -18.180302 38.602058
41.337952 -2.050752 28.866446
34.953477 -5.685851 30.802338
40.493775 -5.213751 27.018005
23.844277 -11.764676 33.772219
29.198867 -8.872248 32.401491
38.532010 -11.008374 23.397365
34.423717 -8.605261 29.134431
39.543498 -8.211853 25.184813
37.368983 -6.971528 28.133985
15.059170 -33.538101 24.366250
17.109247 -27.794964 27.683343
13.494896 -32.488749 26.782712
17.918375 -31.791148 23.217303
20.515406 -16.163699 33.194625
18.909246 -22.040927 30.595803
17.993885 -17.507853 33.828609
10.154600 -29.825837 31.230496
15.491400 -26.527295 29.862621
11.845627 -31.243660 29.089830
11.106725 -26.590631 32.619261
14.536232 -29.486366 28.382512
23.351230 -28.305126 20.985040
19.947653 -26.230557 26.614807
20.689848 -30.039475 22.086860
18.965667 -29.005593 24.978803
12.893983 -20.212057 35.022230
16.405521 -23.474626 31.294543
15.444422 -18.860073 34.440708
12.021199 -23.376421 33.883119
17.225457 -20.514334 32.594717
13.808578 -25.019938 31.948939
2.811970 -1.737893 42.002511
8.377369 -5.177499 41.020657
2.811510 -4.652247 41.793632
18.859667 -11.655915 36.179568
13.766441 -8.508128 39.070236
16.281447 -12.980205 36.693861
2.827355 -10.504892 41.057120
8.355160 -8.078923 40.491011
2.814745 -7.589840 41.478113
5.619473 -12.289752 40.177000
5.613967 -6.384614 41.262314
11.095847 -15.567707 37.670797
11.130309 -9.794761 39.441504
13.685757 -14.290093 37.191900
8.393915 -13.988249 39.039479
13.740445 -11.409041 38.187867
8.395139 -11.028713 39.823592
33.878428 -20.938020 16.496668
31.157304 -19.256273 22.445427
35.089605 -18.664626 18.160476
31.271461 -22.837772 17.625465
23.535886 -14.545977 32.395175
27.674092 -17.103530 27.785676
26.113632 -13.157769 31.677122
22.697639 -17.517315 31.079579
37.394998 -13.767554 21.581431
32.080203 -16.817387 24.063964
36.271231 -16.265293 19.862485
35.682949 -12.659751 24.618148
33.681790 -17.799947 21.198512
26.086426 -26.468564 19.838045
28.421653 -21.071432 23.447363
28.666011 -24.686364 18.743627
24.519038 -25.594511 22.778886
29.937702 -22.012031 20.619752
31.485406 -10.237484 30.069283
30.225644 -15.679720 26.849772
28.771694 -11.716079 30.901969
33.695194 -11.473076 27.467712
28.256258 -14.471571 29.355202
32.905656 -14.222079 25.769164
20.929263 -23.289164 28.229893
26.633485 -19.961652 26.248965
21.825640 -20.445150 29.684199
22.784894 -24.525505 25.601262
24.754387 -18.795275 28.744999
25.618961 -22.800646 24.542460
3.028938 23.321202 39.606484
9.321766 21.888591 41.177651
5.068864 26.267191 39.368477
2.973628 20.121725 40.342693
22.437637 17.370249 41.972876
15.847236 19.920973 42.026942
9.703113 32.851378 38.815466
11.735548 24.942912 41.077297
7.295700 29.442200 39.106621
8.370998 25.672892 40.309847
2.889969 13.861961 41.404942
9.116403 18.442883 41.606128
2.930523 16.952139 40.942138
6.032307 19.338543 41.061339
43.466544 2.156350 30.352849
39.678585 6.454480 34.966283
46.386889 5.972515 30.949972
39.860518 0.000000 31.307045
28.834075 14.226623 40.839597
34.700861 10.544061 38.506961
49.590007 14.167581 30.111990
42.176845 10.543392 35.696272
49.495514 10.278551 31.523141
44.462157 8.294825 33.474223
33.337601 -3.788754 32.945081
35.998162 4.091122 35.574316
36.480192 -1.978459 32.171845
38.061031 2.064194 33.565986
20.459728 45.565618 33.104535
23.846467 38.739969 38.584394
18.198070 43.811566 36.116890
25.012924 44.378441 32.409893
25.923873 20.424927 41.945707
25.967094 30.267670 42.015641
22.405979 21.800772 42.123371
12.512210 36.750552 38.481332
21.142902 36.204860 40.756965
15.515569 40.923386 38.102269
13.598016 32.555034 39.935914
19.940959 40.449713 38.935434
34.036333 41.257042 30.587417
28.181166 37.057375 37.600227
29.581817 42.949675 31.579230
26.680718 40.804789 35.139939
15.342610 24.050421 41.673115
21.807022 31.203622 41.598239
18.844293 23.011851 42.022342
14.542730 28.279789 40.990342
22.205802 26.445582 42.018730
17.671101 32.018491 40.885666
2.819746 1.742699 42.118660
8.589956 5.308884 42.061607
2.832465 4.686921 42.105131
5.649986 0.000000 41.935669
21.744721 13.438977 41.714132
14.776221 9.132207 41.936071
18.653833 14.871564 42.040561
2.875899 10.685254 41.762046
8.692338 8.404954 42.125055
2.849255 7.682896 41.986658
5.851825 12.797906 41.838230
5.730915 6.517615 42.121872
11.281017 -3.462715 40.815104
11.537856 3.541552 41.744354
8.494540 -1.748822 41.498172
8.566556 1.763648 41.849991
12.364500 17.347653 41.977918
11.884334 10.458309 42.113475
15.500201 16.184658 42.122764
9.011310 15.017122 41.910937
15.143164 12.573754 42.086347
8.870716 11.653480 42.079563
49.531775 30.612321 24.118866
44.030280 27.212209 31.718997
49.630693 26.399223 25.686155
46.329293 33.834614 26.112478
30.032494 18.561102 41.337212
38.579183 23.843247 38.734737
33.359896 16.808915 40.467197
30.553112 23.579919 41.835975
49.638723 18.275273 28.647539
44.345054 23.246983 33.264060
49.661733 22.270063 27.195257
47.196845 16.744700 32.561739
46.988056 24.831961 29.573157
38.556798 39.121615 29.321437
40.576477 30.082855 33.474879
42.610502 36.694969 27.861406
35.477499 37.033640 32.959609
43.411465 31.918766 29.899877
39.457998 12.829773 37.683290
41.601742 21.581134 36.955284
36.537588 14.878417 39.242855
44.647710 15.202363 36.396004
38.482561 19.709019 39.979227
44.512142 19.238491 34.858466
29.612464 32.951448 39.942003
37.638414 28.209787 37.095011
30.857989 28.906195 41.968744
32.490036 34.972054 36.506025
34.848910 26.459749 40.466844
36.669829 32.635820 35.128975
21.962566 -10.029358 35.536178
23.263706 -3.482566 37.641466
24.625161 -8.605500 34.963168
19.457562 -8.490739 37.202255
25.330708 11.567443 40.985946
24.404559 3.653351 39.487406
28.225333 9.863615 40.074745
21.568940 9.412085 41.239144
