-1.906156199 3.159647643 -13.87198495
-3.881463628 0 -14.04326733
-3.846077906 4.387507764 -13.34409942
-12.95277799 8.005257044 -7.758494979
-9.504196413 5.873916419 -11.17285297
-13.62200589 6.01862044 -8.973893044
-10.53864605 9.196844522 -8.367565569
-11.65384276 4.911779313 -10.74288855
-8.881587505 8.080735259 -10.17739366
-8.545286142 -2.574396553 -13.82656342
-8.0084539 2.41266773 -12.95795061
-10.56456751 -1.382092652 -13.28925463
-6.110132211 -1.258756461 -13.95982307
-10.11650099 1.323475066 -12.72562815
-5.965898973 1.22904278 -13.63029329
-10.35006496 13.17783084 1.363208449
-13.12925955 10.50173431 4.103023086
-9.487099941 13.16397482 3.537791416
-12.03695215 12.18036503 0
-16.68822567 2.53142244 9.346973345
-15.30216716 6.955849799 6.800361202
-7.277766504 12.15020362 7.509238806
-11.89604049 10.11937646 6.254118597
-8.426655674 12.79132174 5.651598679
-10.79521098 11.71060192 4.935701767
-15.20531234 9.397399839 -2.831108678
-15.20531234 9.397399839 2.831108678
-13.70529774 10.89530957 -1.425361453
-13.70529774 10.89530957 1.425361453
-19.54685293 -24.88729514 2.574518631
-24.26165672 -19.40623321 7.582006984
-15.85237742 -21.99621576 5.911438176
-25.38431565 -25.68675414 0
-19.03942059 -2.888073153 10.66386327
-23.03699568 -10.47184233 10.23775848
-10.02146096 -16.73079113 10.34019758
-19.94531182 -16.96649563 10.48587097
-12.63389372 -19.17773855 8.47331371
-18.36543937 -19.92275556 8.396902265
-28.20741653 -17.43314215 -5.251997454
-28.20741653 -17.43314215 5.251997454
-28.56620743 -22.70929674 -2.970907433
-28.56620743 -22.70929674 2.970907433
-2.056493392 -7.59335487 13.55728908
-6.398027174 -6.255007946 14.07501371
-3.558977659 -9.543913919 13.24280795
-1.986947852 -5.406402522 13.94964005
-15.2553438 -1.578121151 11.98177464
-10.95455378 -4.279939459 13.69537408
-16.96045212 -4.558086956 12.22317017
-7.346884553 -13.97460486 11.88750892
-8.60325283 -8.338057544 13.92035549
-5.360326158 -11.72393604 12.71807917
-11.25396812 -14.17396562 12.36930791
-6.04863148 -9.018640153 13.68993018
-1.912375006 -1.181912753 14.19414461
-6.120668804 -3.782781355 14.12152763
-1.944238199 -3.222772429 14.14912537
-4.073009156 -4.646385157 14.13144518
-20.00040074 -12.36092744 11.97990183
-11.75219593 -7.263256525 13.81553489
-18.71005482 -8.266676676 12.32579344
-15.84260275 -13.82549082 12.57884709
-14.41488908 -6.075485611 13.2881102
-11.83663448 -10.76932581 13.56357618
-1.961109963 7.241163015 12.92848049
-5.71141702 5.583746031 12.56454071
-3.232437997 8.668250534 12.02776744
-1.921608418 5.228616638 13.49091558
-14.27839132 1.477058245 11.21446159
-9.639023752 3.765962443 12.05069953
-14.08852611 3.786262693 10.15341165
-12.55763614 0 12.40978124
-5.833291432 11.09557966 9.438463804
-7.144006011 6.923792011 11.55924454
-4.566241324 9.987138772 10.83400841
-8.126540988 10.23508432 8.931932872
-5.219873437 7.782944015 11.81419353
-1.898624902 1.173414721 14.09208777
-5.713323274 3.531027972 13.18170531
-1.906156199 3.159647643 13.87198495
-3.881463628 0 14.04326733
-3.846077906 4.387507764 13.34409942
-12.95277799 8.005257044 7.758494979
-9.504196413 5.873916419 11.17285297
-13.62200589 6.01862044 8.973893044
-10.53864605 9.196844522 8.367565569
-11.65384276 4.911779313 10.74288855
-8.881587505 8.080735259 10.17739366
-8.545286142 -2.574396553 13.82656342
-8.0084539 2.41266773 12.95795061
-10.56456751 -1.382092652 13.28925463
-6.110132211 -1.258756461 13.95982307
-10.11650099 1.323475066 12.72562815
-5.965898973 1.22904278 13.63029329
-19.70723495 0 -8.687039807
-23.32322741 0 -3.248551298
-18.95855254 2.700403388 -7.347685382
-21.9690925 -3.129216309 -8.514467518
-19.70723495 0 8.687039807
-23.32322741 0 3.248551298
-18.95855254 2.700403388 7.347685382
-21.9690925 -3.129216309 8.514467518
-16.7984183 7.280908803 -4.499849109
-21.72415605 2.926892333 -1.808918943
-17.96608359 5.178240584 -5.907205033
-17.54111079 7.677640721 -1.581680973
-20.76002537 2.852645184 -4.728549337
-26.25686414 -11.38046629 -7.033514977
-25.39626312 -3.421634776 -2.114686589
-24.26912448 -6.994922666 -7.979629705
-28.7031569 -12.56320246 -2.588162043
-24.23217109 -3.329754416 -5.519406383
-16.7984183 7.280908803 4.499849109
-21.72415605 2.926892333 1.808918943
-17.96608359 5.178240584 5.907205033
-17.54111079 7.677640721 1.581680973
-20.76002537 2.852645184 4.728549337
-19.8299829 5.480872475 0
-26.25686414 -11.38046629 7.033514977
-25.39626312 -3.421634776 2.114686589
-24.26912448 -6.994922666 7.979629705
-28.7031569 -12.56320246 2.588162043
-24.23217109 -3.329754416 5.519406383
-27.29867381 -7.545167871 0
-7.780325321 14.78621862 0
-5.7286674 15.89160014 0
-1.252746931 18.0752133 0
-3.575371647 16.97508654 0
12.44122938 23.64409326 0
7.919650365 21.96949275 0
1.333206816 19.23612581 0
4.320432252 20.51247217 0
-12.44122938 -23.64409326 0
-7.919650365 -21.96949275 0
-1.333206816 -19.23612581 0
-4.320432252 -20.51247217 0
7.780325321 -14.78621862 0
5.7286674 -15.89160014 0
1.252746931 -18.0752133 0
3.575371647 -16.97508654 0
-14.07991669 -23.91197485 1.828687613
-11.51494194 -21.66234804 4.903906026
-11.52563935 -23.10812525 1.703281567
-7.080357178 -17.10873298 9.145895719
-9.150257207 -19.30414362 7.279076123
-7.214233194 -21.54853105 1.504037348
-9.374423058 -21.1481815 4.633820801
-9.235386618 -22.30494198 1.596525174
-10.45494823 -22.19888984 3.26123137
-0.6392709839 -8.998397815 12.88608035
-2.01512744 -10.916683 12.38789201
-5.224997571 -14.99911822 10.58986186
-3.540119106 -12.92853138 11.65065106
-0.7824033021 -18.90962188 1.265955136
-2.385406835 -18.89927059 3.859669337
-2.171467739 -19.50746001 1.312291349
-5.439385784 -16.8836705 8.801111077
-3.958774978 -18.17911861 6.405432469
-6.333452182 -17.90409436 7.944232449
-5.323411089 -20.80591916 1.432777673
-3.878878499 -19.44067354 4.011506013
-3.685499791 -20.14108057 1.366793208
-6.37575821 -20.84328743 2.91530686
-3.029613526 -19.57970622 2.663927941
-8.272913122 -20.01882749 5.896499958
-4.740355287 -19.08844346 5.386718381
-7.28254647 -18.95381297 6.974563873
-7.369948812 -20.56861838 4.422477968
-5.548687011 -18.57233454 6.682545213
-5.536983842 -19.99350039 4.214793384
8.448467101 -14.34806309 1.097279727
7.627202104 -14.34858355 3.248221533
7.439623271 -14.91594011 1.099442104
5.547668625 -13.40519677 7.166078977
6.644668288 -14.01814485 5.285867401
5.363121619 -16.01935918 1.118114012
6.606385094 -14.90364049 3.265566796
6.407275343 -15.47459903 1.107628387
7.043348591 -14.95507353 2.197044775
0.6280313041 -8.84018774 12.65951693
1.892776739 -10.25386447 11.63574739
0 -9.760497882 12.42718674
4.373649199 -12.55519845 8.864375572
3.1485489 -11.49851518 10.36198034
-1.342242699 -11.67145966 11.81051792
1.283968006 -11.16473258 11.2977535
-0.6586799676 -10.71083422 12.1451937
0.6450228916 -10.48875569 11.89337515
0.7541944277 -18.22785182 1.220312218
2.152523127 -17.05416301 3.482855582
1.967215298 -17.67255071 1.188854695
0 -18.33166596 2.469822645
4.480631675 -13.90773 7.249814342
3.393155603 -15.58173387 5.490241094
5.044131565 -14.25930202 6.327000269
4.24281154 -16.58252433 1.141938044
3.299339779 -16.53606514 3.412151571
3.133181014 -17.1226848 1.161961951
4.913453122 -16.06279792 2.246669826
2.653556237 -17.14933311 2.333262161
-1.530256809 -18.03717044 4.985351299
1.434224252 -16.9052326 4.672491374
-0.7697872829 -18.26645228 3.73908289
0.7438171709 -17.65020176 3.612938429
6.101594481 -14.76466216 4.348897549
3.929433861 -15.82302835 4.465225142
5.589848285 -14.54833682 5.353450756
5.536043571 -15.45041498 3.322008245
4.502542349 -15.07072261 5.422623904
4.429895053 -15.99591239 3.372069144
-4.426883239 -15.68540183 9.694111455
-1.382811338 -14.94617626 9.23724493
-3.614566261 -14.68557135 10.34330086
-3.755404459 -16.45434105 8.605966615
3.785469741 -13.4127355 8.289526423
1.313050076 -14.19215865 8.771236417
3.184138776 -12.93679347 9.111606471
3.271053416 -14.33215226 7.496017221
-2.082057664 -12.69387866 11.38745653
-0.6976027855 -14.02099031 9.852281317
-2.829291923 -13.68161296 10.90954411
-0.6787719178 -12.40659844 11.13850942
-2.105002591 -14.35710805 10.09631948
-2.315614499 -17.63352932 6.266891461
-0.7285463891 -15.60778422 8.189048359
-3.044422808 -17.10933513 7.452606554
-0.7506801117 -17.11428585 6.073129677
-2.182645014 -16.02679716 8.39995692
1.939606317 -11.82538201 10.60834338
0.6798041907 -13.66325962 9.600910814
2.564983366 -12.40349551 9.89038952
0.6628836175 -12.11619197 10.87778563
1.951040929 -13.30701707 9.357866173
0 -13.07491247 10.39417178
2.109880055 -16.06685043 5.710099548
0.7081612474 -15.17106955 7.959914135
2.708843907 -15.22341709 6.631124888
0.7276565262 -16.58938554 5.886864958
2.009464905 -14.75516459 7.733469494
0 -16.150416 7.068941815
-8.448467101 14.34806309 1.097279727
-7.627202104 14.34858355 3.248221533
-7.439623271 14.91594011 1.099442104
-5.547668625 13.40519677 7.166078977
-6.644668288 14.01814485 5.285867401
-5.363121619 16.01935918 1.118114012
-6.606385094 14.90364049 3.265566796
-6.407275343 15.47459903 1.107628387
-7.043348591 14.95507353 2.197044775
-0.6280313041 8.84018774 12.65951693
-1.892776739 10.25386447 11.63574739
-4.373649199 12.55519845 8.864375572
-3.1485489 11.49851518 10.36198034
-0.7541944277 18.22785182 1.220312218
-2.152523127 17.05416301 3.482855582
-1.967215298 17.67255071 1.188854695
-4.480631675 13.90773 7.249814342
-3.393155603 15.58173387 5.490241094
-5.044131565 14.25930202 6.327000269
-4.24281154 16.58252433 1.141938044
-3.299339779 16.53606514 3.412151571
-3.133181014 17.1226848 1.161961951
-4.913453122 16.06279792 2.246669826
-2.653556237 17.14933311 2.333262161
-6.101594481 14.76466216 4.348897549
-3.929433861 15.82302835 4.465225142
-5.589848285 14.54833682 5.353450756
-5.536043571 15.45041498 3.322008245
-4.502542349 15.07072261 5.422623904
-4.429895053 15.99591239 3.372069144
14.07991669 23.91197485 1.828687613
11.51494194 21.66234804 4.903906026
11.52563935 23.10812525 1.703281567
7.080357178 17.10873298 9.145895719
9.150257207 19.30414362 7.279076123
7.214233194 21.54853105 1.504037348
9.374423058 21.1481815 4.633820801
9.235386618 22.30494198 1.596525174
10.45494823 22.19888984 3.26123137
0.6392709839 8.998397815 12.88608035
2.01512744 10.916683 12.38789201
0 9.760497882 12.42718674
5.224997571 14.99911822 10.58986186
3.540119106 12.92853138 11.65065106
-1.283968006 11.16473258 11.2977535
1.342242699 11.67145966 11.81051792
-0.6450228916 10.48875569 11.89337515
0.6586799676 10.71083422 12.1451937
0.7824033021 18.90962188 1.265955136
2.385406835 18.89927059 3.859669337
2.171467739 19.50746001 1.312291349
0 18.33166596 2.469822645
5.439385784 16.8836705 8.801111077
3.958774978 18.17911861 6.405432469
6.333452182 17.90409436 7.944232449
5.323411089 20.80591916 1.432777673
3.878878499 19.44067354 4.011506013
3.685499791 20.14108057 1.366793208
6.37575821 20.84328743 2.91530686
3.029613526 19.57970622 2.663927941
-1.434224252 16.9052326 4.672491374
1.530256809 18.03717044 4.985351299
-0.7438171709 17.65020176 3.612938429
0.7697872829 18.26645228 3.73908289
8.272913122 20.01882749 5.896499958
4.740355287 19.08844346 5.386718381
7.28254647 18.95381297 6.974563873
7.369948812 20.56861838 4.422477968
5.548687011 18.57233454 6.682545213
5.536983842 19.99350039 4.214793384
-3.785469741 13.4127355 8.289526423
-1.313050076 14.19215865 8.771236417
-3.184138776 12.93679347 9.111606471
-3.271053416 14.33215226 7.496017221
4.426883239 15.68540183 9.694111455
1.382811338 14.94617626 9.23724493
3.614566261 14.68557135 10.34330086
3.755404459 16.45434105 8.605966615
-1.939606317 11.82538201 10.60834338
-0.6798041907 13.66325962 9.600910814
-2.564983366 12.40349551 9.89038952
-0.6628836175 12.11619197 10.87778563
-1.951040929 13.30701707 9.357866173
-2.109880055 16.06685043 5.710099548
-0.7081612474 15.17106955 7.959914135
-2.708843907 15.22341709 6.631124888
-0.7276565262 16.58938554 5.886864958
-2.009464905 14.75516459 7.733469494
2.082057664 12.69387866 11.38745653
0.6976027855 14.02099031 9.852281317
2.829291923 13.68161296 10.90954411
0.6787719178 12.40659844 11.13850942
2.105002591 14.35710805 10.09631948
0 13.07491247 10.39417178
2.315614499 17.63352932 6.266891461
0.7285463891 15.60778422 8.189048359
3.044422808 17.10933513 7.452606554
0.7506801117 17.11428585 6.073129677
2.182645014 16.02679716 8.39995692
0 16.150416 7.068941815
0 -7.038283338 13.37599545
0 -4.979194379 13.81252578
0 -0.9832628957 14.18697274
0 -2.963251167 14.06887171
0 7.038283338 13.37599545
0 4.979194379 13.81252578
0 0.9832628957 14.18697274
0 2.963251167 14.06887171
-14.07991669 -23.91197485 -1.828687613
-11.51494194 -21.66234804 -4.903906026
-11.52563935 -23.10812525 -1.703281567
-7.080357178 -17.10873298 -9.145895719
-9.150257207 -19.30414362 -7.279076123
-7.214233194 -21.54853105 -1.504037348
-9.374423058 -21.1481815 -4.633820801
-9.235386618 -22.30494198 -1.596525174
-10.45494823 -22.19888984 -3.26123137
-0.6392709839 -8.998397815 -12.88608035
-2.01512744 -10.916683 -12.38789201
-5.224997571 -14.99911822 -10.58986186
-3.540119106 -12.92853138 -11.65065106
-0.7824033021 -18.90962188 -1.265955136
-2.385406835 -18.89927059 -3.859669337
-2.171467739 -19.50746001 -1.312291349
-5.439385784 -16.8836705 -8.801111077
-3.958774978 -18.17911861 -6.405432469
-6.333452182 -17.90409436 -7.944232449
-5.323411089 -20.80591916 -1.432777673
-3.878878499 -19.44067354 -4.011506013
-3.685499791 -20.14108057 -1.366793208
-6.37575821 -20.84328743 -2.91530686
-3.029613526 -19.57970622 -2.663927941
-8.272913122 -20.01882749 -5.896499958
-4.740355287 -19.08844346 -5.386718381
-7.28254647 -18.95381297 -6.974563873
-7.369948812 -20.56861838 -4.422477968
-5.548687011 -18.57233454 -6.682545213
-5.536983842 -19.99350039 -4.214793384
8.448467101 -14.34806309 -1.097279727
7.627202104 -14.34858355 -3.248221533
7.439623271 -14.91594011 -1.099442104
5.547668625 -13.40519677 -7.166078977
6.644668288 -14.01814485 -5.285867401
5.363121619 -16.01935918 -1.118114012
6.606385094 -14.90364049 -3.265566796
6.407275343 -15.47459903 -1.107628387
7.043348591 -14.95507353 -2.197044775
0.6280313041 -8.84018774 -12.65951693
1.892776739 -10.25386447 -11.63574739
0 -9.760497882 -12.42718674
4.373649199 -12.55519845 -8.864375572
3.1485489 -11.49851518 -10.36198034
-1.342242699 -11.67145966 -11.81051792
1.283968006 -11.16473258 -11.2977535
-0.6586799676 -10.71083422 -12.1451937
0.6450228916 -10.48875569 -11.89337515
0.7541944277 -18.22785182 -1.220312218
2.152523127 -17.05416301 -3.482855582
1.967215298 -17.67255071 -1.188854695
0 -18.33166596 -2.469822645
4.480631675 -13.90773 -7.249814342
3.393155603 -15.58173387 -5.490241094
5.044131565 -14.25930202 -6.327000269
4.24281154 -16.58252433 -1.141938044
3.299339779 -16.53606514 -3.412151571
3.133181014 -17.1226848 -1.161961951
4.913453122 -16.06279792 -2.246669826
2.653556237 -17.14933311 -2.333262161
-1.530256809 -18.03717044 -4.985351299
1.434224252 -16.9052326 -4.672491374
-0.7697872829 -18.26645228 -3.73908289
0.7438171709 -17.65020176 -3.612938429
6.101594481 -14.76466216 -4.348897549
3.929433861 -15.82302835 -4.465225142
5.589848285 -14.54833682 -5.353450756
5.536043571 -15.45041498 -3.322008245
4.502542349 -15.07072261 -5.422623904
4.429895053 -15.99591239 -3.372069144
-4.426883239 -15.68540183 -9.694111455
-1.382811338 -14.94617626 -9.23724493
-3.614566261 -14.68557135 -10.34330086
-3.755404459 -16.45434105 -8.605966615
3.785469741 -13.4127355 -8.289526423
1.313050076 -14.19215865 -8.771236417
3.184138776 -12.93679347 -9.111606471
3.271053416 -14.33215226 -7.496017221
-2.082057664 -12.69387866 -11.38745653
-0.6976027855 -14.02099031 -9.852281317
-2.829291923 -13.68161296 -10.90954411
-0.6787719178 -12.40659844 -11.13850942
-2.105002591 -14.35710805 -10.09631948
-2.315614499 -17.63352932 -6.266891461
-0.7285463891 -15.60778422 -8.189048359
-3.044422808 -17.10933513 -7.452606554
-0.7506801117 -17.11428585 -6.073129677
-2.182645014 -16.02679716 -8.39995692
1.939606317 -11.82538201 -10.60834338
0.6798041907 -13.66325962 -9.600910814
2.564983366 -12.40349551 -9.89038952
0.6628836175 -12.11619197 -10.87778563
1.951040929 -13.30701707 -9.357866173
0 -13.07491247 -10.39417178
2.109880055 -16.06685043 -5.710099548
0.7081612474 -15.17106955 -7.959914135
2.708843907 -15.22341709 -6.631124888
0.7276565262 -16.58938554 -5.886864958
2.009464905 -14.75516459 -7.733469494
0 -16.150416 -7.068941815
-8.448467101 14.34806309 -1.097279727
-7.627202104 14.34858355 -3.248221533
-7.439623271 14.91594011 -1.099442104
-5.547668625 13.40519677 -7.166078977
-6.644668288 14.01814485 -5.285867401
-5.363121619 16.01935918 -1.118114012
-6.606385094 14.90364049 -3.265566796
-6.407275343 15.47459903 -1.107628387
-7.043348591 14.95507353 -2.197044775
-0.6280313041 8.84018774 -12.65951693
-1.892776739 10.25386447 -11.63574739
-4.373649199 12.55519845 -8.864375572
-3.1485489 11.49851518 -10.36198034
-0.7541944277 18.22785182 -1.220312218
-2.152523127 17.05416301 -3.482855582
-1.967215298 17.67255071 -1.188854695
-4.480631675 13.90773 -7.249814342
-3.393155603 15.58173387 -5.490241094
-5.044131565 14.25930202 -6.327000269
-4.24281154 16.58252433 -1.141938044
-3.299339779 16.53606514 -3.412151571
-3.133181014 17.1226848 -1.161961951
-4.913453122 16.06279792 -2.246669826
-2.653556237 17.14933311 -2.333262161
-6.101594481 14.76466216 -4.348897549
-3.929433861 15.82302835 -4.465225142
-5.589848285 14.54833682 -5.353450756
-5.536043571 15.45041498 -3.322008245
-4.502542349 15.07072261 -5.422623904
-4.429895053 15.99591239 -3.372069144
14.07991669 23.91197485 -1.828687613
11.51494194 21.66234804 -4.903906026
11.52563935 23.10812525 -1.703281567
7.080357178 17.10873298 -9.145895719
9.150257207 19.30414362 -7.279076123
7.214233194 21.54853105 -1.504037348
9.374423058 21.1481815 -4.633820801
9.235386618 22.30494198 -1.596525174
10.45494823 22.19888984 -3.26123137
0.6392709839 8.998397815 -12.88608035
2.01512744 10.916683 -12.38789201
0 9.760497882 -12.42718674
5.224997571 14.99911822 -10.58986186
3.540119106 12.92853138 -11.65065106
-1.283968006 11.16473258 -11.2977535
1.342242699 11.67145966 -11.81051792
-0.6450228916 10.48875569 -11.89337515
0.6586799676 10.71083422 -12.1451937
0.7824033021 18.90962188 -1.265955136
2.385406835 18.89927059 -3.859669337
2.171467739 19.50746001 -1.312291349
0 18.33166596 -2.469822645
5.439385784 16.8836705 -8.801111077
3.958774978 18.17911861 -6.405432469
6.333452182 17.90409436 -7.944232449
5.323411089 20.80591916 -1.432777673
3.878878499 19.44067354 -4.011506013
3.685499791 20.14108057 -1.366793208
6.37575821 20.84328743 -2.91530686
3.029613526 19.57970622 -2.663927941
-1.434224252 16.9052326 -4.672491374
1.530256809 18.03717044 -4.985351299
-0.7438171709 17.65020176 -3.612938429
0.7697872829 18.26645228 -3.73908289
8.272913122 20.01882749 -5.896499958
4.740355287 19.08844346 -5.386718381
7.28254647 18.95381297 -6.974563873
7.369948812 20.56861838 -4.422477968
5.548687011 18.57233454 -6.682545213
5.536983842 19.99350039 -4.214793384
-3.785469741 13.4127355 -8.289526423
-1.313050076 14.19215865 -8.771236417
-3.184138776 12.93679347 -9.111606471
-3.271053416 14.33215226 -7.496017221
4.426883239 15.68540183 -9.694111455
1.382811338 14.94617626 -9.23724493
3.614566261 14.68557135 -10.34330086
3.755404459 16.45434105 -8.605966615
-1.939606317 11.82538201 -10.60834338
-0.6798041907 13.66325962 -9.600910814
-2.564983366 12.40349551 -9.89038952
-0.6628836175 12.11619197 -10.87778563
-1.951040929 13.30701707 -9.357866173
-2.109880055 16.06685043 -5.710099548
-0.7081612474 15.17106955 -7.959914135
-2.708843907 15.22341709 -6.631124888
-0.7276565262 16.58938554 -5.886864958
-2.009464905 14.75516459 -7.733469494
2.082057664 12.69387866 -11.38745653
0.6976027855 14.02099031 -9.852281317
2.829291923 13.68161296 -10.90954411
0.6787719178 12.40659844 -11.13850942
2.105002591 14.35710805 -10.09631948
0 13.07491247 -10.39417178
2.315614499 17.63352932 -6.266891461
0.7285463891 15.60778422 -8.189048359
3.044422808 17.10933513 -7.452606554
0.7506801117 17.11428585 -6.073129677
2.182645014 16.02679716 -8.39995692
0 16.150416 -7.068941815
0 -7.038283338 -13.37599545
0 -4.979194379 -13.81252578
0 -0.9832628957 -14.18697274
0 -2.963251167 -14.06887171
0 7.038283338 -13.37599545
0 4.979194379 -13.81252578
0 0.9832628957 -14.18697274
0 2.963251167 -14.06887171
17.4499217 24.98901445 -1.239690536
21.2919101 24.16135771 -3.930306696
15.96462348 23.92729854 -3.080744589
24.45510359 17.2660929 -8.519024581
23.6587202 21.32024786 -6.478283179
12.89655306 21.2387209 -6.067780786
19.15116426 22.628012 -5.656563711
14.38256937 22.58254236 -4.68963352
17.6762576 23.47850019 -4.380130542
18.0176383 1.377913459 -10.60919676
20.08561252 4.546965827 -10.67680482
23.7733662 12.70863999 -9.838479813
22.13365885 8.346010621 -10.49146108
7.9858558 16.40017447 -10.13586524
12.25893173 17.01706392 -10.51712389
9.071023675 17.52699836 -9.322842616
22.35606808 16.24222952 -10.0382499
17.31056542 17.24104844 -10.65555394
22.06682964 18.19120662 -9.165929293
11.4869599 19.90390924 -7.327935951
13.71725113 18.28677077 -9.58646375
10.23791274 18.69563116 -8.383777001
14.16901073 20.5373733 -7.286337821
11.28576214 17.93166793 -9.476418528
20.42534799 21.38728684 -6.954079058
16.47014963 18.54097253 -9.618232213
21.40137918 19.92604219 -8.114054053
17.18523839 21.08147736 -7.178156919
19.28509429 18.5631359 -9.50719441
15.37373059 19.63131911 -8.484807641
9.580523583 -13.71970868 -0.6806268031
11.09180638 -12.58661624 -2.047453736
9.210959556 -13.80510974 -1.777468404
13.73680856 -9.698630469 -4.785267392
12.4839469 -11.25001014 -3.418381998
8.32491307 -13.70990406 -3.916840983
10.6452884 -12.57791486 -3.144234535
8.788962761 -13.79983776 -2.865761556
9.947168431 -13.21233268 -2.4648824
16.89243784 -1.291862844 -9.946653039
16.4242123 -3.718100805 -8.730533309
14.82621567 -7.925719724 -6.135749659
15.72873426 -5.930884905 -7.455495922
6.129540781 -12.58794809 -7.779779767
8.421361727 -11.68999502 -7.224814249
6.70891412 -12.96293903 -6.895158994
13.08824633 -9.508930642 -5.876842334
10.72412988 -10.68106317 -6.601260076
12.54615031 -10.3426553 -5.211311662
7.806358089 -13.52638507 -4.979950532
9.013913649 -12.01664758 -6.299480531
7.272258237 -13.2799977 -5.955216935
8.979816538 -13.0158589 -4.617822522
7.867048032 -12.49975776 -6.605795762
11.33204921 -11.865736 -3.85814558
10.20386321 -11.48681413 -5.958848462
11.95688665 -11.13262028 -4.533297774
10.15872924 -12.46191735 -4.243231948
11.36396411 -10.93854181 -5.602223895
9.60924633 -12.27042324 -5.303371633
0.994419256 -7.656496481 -13.00305644
2.908456897 -6.829395206 -12.84771878
1.620993231 -8.400094798 -12.58980998
0.9809498338 -6.637818567 -13.30837606
6.657489596 -5.153940707 -12.45380609
4.776163755 -6.003938698 -12.66640842
2.891202912 -9.788611018 -11.56570977
3.549203675 -7.543531176 -12.42308332
2.258786874 -9.115458607 -12.10761359
2.597915992 -7.967511069 -12.5100496
0.9602472167 -4.605901145 -13.75758188
2.883300652 -5.833043891 -13.15902537
0.9704914325 -5.613982 -13.5586682
1.944493115 -6.233711301 -13.23597855
15.61590948 -0.7746962267 -10.90464765
13.01944266 -2.117861227 -11.47322953
15.52145512 -1.998455396 -10.35612886
8.613034042 -4.249638244 -12.1992069
10.70904856 -3.254007627 -11.88365093
15.14011144 -4.325443029 -9.193362039
12.97806576 -3.24426449 -10.98395515
15.35935716 -3.189621214 -9.782203273
14.20938009 -2.650890781 -10.69781548
5.419245531 -12.06913788 -8.768523462
6.211235507 -10.09051235 -10.04999016
4.808580632 -11.57658174 -9.543373182
6.569387016 -11.65554085 -8.512124908
7.3956347 -5.826880176 -11.96638831
6.864458835 -8.001325558 -11.10692771
6.433731878 -6.259950594 -12.09545336
3.555620273 -10.4434794 -10.93531869
5.563229818 -9.526410416 -10.72418392
4.182291385 -11.03108301 -10.27063833
3.903480048 -9.345328603 -11.46410244
5.206370309 -10.5609855 -10.16562357
8.867798835 -10.74907673 -7.969221038
7.352982136 -9.668947734 -9.810587708
7.723619963 -11.21388073 -8.245131345
6.979916642 -10.674901 -9.192925182
4.535673815 -7.109928853 -12.31965462
5.893880274 -8.433541081 -11.24294008
5.47705678 -6.688349344 -12.21371148
4.230821543 -8.227254529 -11.92505255
6.178714549 -7.358423705 -11.69161716
4.907957712 -8.89279083 -11.35555314
0.9489213923 -0.5864656731 -14.17407633
2.849760799 -1.761249034 -13.95414885
0.9499302448 -1.571863506 -14.1208934
6.66897912 -4.121655766 -12.79348085
4.757437214 -2.940257898 -13.50197911
5.721307412 -4.561249578 -12.89423849
0.9585211022 -3.561335413 -13.91905593
2.85141273 -2.757139961 -13.81859676
0.9525199682 -2.568429609 -14.0363453
1.916582599 -4.191554382 -13.7028052
1.90451244 -2.165950723 -13.99804908
3.851428706 -5.40363526 -13.07573771
3.829523078 -3.370010957 -13.57034647
4.779392197 -4.990440464 -12.98829683
2.88563856 -4.808844415 -13.42089181
4.773526645 -3.96358041 -13.2667316
2.875517035 -3.777573396 -13.64044348
13.67422538 -8.451136054 -6.658489655
12.15879818 -7.51455054 -8.759083089
14.11393374 -7.507388326 -7.30460655
12.45318893 -9.094653014 -7.018963663
8.568827166 -5.295826432 -11.79427266
10.42102605 -6.440548298 -10.46304428
9.588152611 -4.83114346 -11.63090139
8.308136397 -6.411955178 -11.37622206
14.84143654 -5.464107331 -8.56530164
12.44583175 -6.524471514 -9.33585278
14.50679119 -6.505354182 -7.944062501
13.88068211 -4.924648227 -9.576469728
13.30994395 -7.033958021 -8.376959809
10.07819608 -10.22583111 -7.664204809
10.94906442 -8.117489224 -9.032785154
11.24834068 -9.686755336 -7.354867296
9.323282114 -9.732227162 -8.661595125
11.72944142 -8.624203115 -8.07871513
11.76358055 -3.824929723 -11.23448842
11.50289211 -5.967189006 -10.21814546
10.65621396 -4.339301065 -11.4452069
12.84184442 -4.372595565 -10.46843891
10.55893299 -5.407805516 -10.96959153
12.66259919 -5.472873104 -9.916368195
7.710665179 -8.580089242 -10.40033038
10.07780208 -7.553257853 -9.932304207
8.021534574 -7.514165873 -10.9097755
8.525818443 -9.177133015 -9.579667558
9.210413708 -6.993195163 -10.69520882
9.729220906 -8.658919585 -9.32040218
1.019435602 7.849108964 -13.33017094
3.112643314 7.308848672 -13.74968493
1.695401657 8.785684213 -13.16771982
1.002100817 6.780941468 -13.59532777
7.527285077 5.827298776 -14.0808855
5.284209717 6.642584475 -14.01374866
3.179107261 10.76335536 -12.7174166
3.895138443 8.278786164 -13.63393985
2.41896744 9.761876085 -12.96621801
2.78675732 8.546665811 -13.4193994
0.974239579 4.673016609 -13.9580522
3.052802257 6.175953083 -13.9326096
0.9879767059 5.715128705 -13.80295373
2.024874794 6.491401173 -13.78312895
16.18935208 0.8031443817 -11.30508475
14.24836519 2.317768967 -12.55620294
17.1090364 2.202863446 -11.41538497
14.77764978 0 -11.60658663
9.812718528 4.841558007 -13.89839899
12.08291651 3.671465515 -13.40820908
19.0374534 5.438891283 -11.5599018
14.99657837 3.748853458 -12.69231852
18.06671271 3.751847784 -11.50648783
16.09072871 3.001873701 -12.11422635
12.20602035 -1.387190791 -12.0623054
12.88581837 1.464448531 -12.73409941
13.44380567 -0.7291086257 -11.85607883
13.85596324 0.7514614957 -12.21956018
6.772129535 15.0821299 -10.95753576
7.829915031 12.72015112 -12.66906865
5.810132971 13.98780313 -11.53110895
8.645624623 15.33924409 -11.20235975
8.666760828 6.82837632 -14.02311359
8.455166052 9.855479924 -13.68074605
7.453792518 7.252458416 -14.0131733
4.030569456 11.83848833 -12.39602604
6.750675171 11.55977811 -13.01321076
4.890318756 12.8985542 -12.00937253
4.431668595 10.60986575 -13.01533558
6.326591394 12.83332457 -12.35289517
12.93563576 15.6798935 -11.62486233
9.670261044 12.71609898 -12.90237653
10.71065527 15.55074062 -11.43385613
9.223015299 14.10543712 -12.14720661
5.085811272 7.97230087 -13.81392068
7.085420167 10.13851305 -13.5158759
6.251310528 7.633835169 -13.94027965
4.785079118 9.305063672 -13.48729067
7.311039626 8.706944927 -13.83424913
5.742406178 10.40473859 -13.28621849
0.950625216 0.5875186941 -14.19952641
2.896847327 1.790350109 -14.18471291
0.9545296544 1.579474217 -14.1892645
1.908216746 0 -14.16328093
7.340383193 4.536606304 -14.08147336
4.985795943 3.081391354 -14.15007905
6.266582646 4.995964278 -14.12313748
0.9692469763 3.601186841 -14.0748105
2.926328153 2.829578547 -14.181654
0.9601174633 2.588915931 -14.14830208
1.968197102 4.304434983 -14.07182842
1.930307526 2.195286779 -14.18764137
3.847466772 -1.180982417 -13.92026555
3.9047319 1.198559985 -14.12745273
2.880104911 -0.5929443661 -14.07010769
2.896024667 0.5962218612 -14.14788009
4.137385057 5.804838018 -14.04656971
3.998708 3.518895043 -14.1698723
5.1919991 5.421267251 -14.10958186
3.023729207 5.038969022 -14.06314121
5.091852604 4.227894538 -14.15143287
2.981579589 3.916908019 -14.14356701
22.19333502 13.71623536 -10.80676144
17.75214428 10.97142854 -12.78847666
21.68409135 11.53405545 -11.22250952
20.23031112 14.77434101 -11.40236604
10.12859949 6.259818743 -13.94116858
13.5644087 8.383265615 -13.61910124
11.3616796 5.724763292 -13.78227698
10.17149711 7.850037655 -13.92769741
20.02943733 7.374151085 -11.55940478
17.20745249 9.020653325 -12.90763417
20.92607712 9.383987231 -11.45932704
17.84338887 6.330554411 -12.31039455
19.44367275 10.27547362 -12.23738175
15.43710417 15.66324161 -11.7395144
15.86696599 11.76355536 -13.08996726
17.88513851 15.40217938 -11.69442001
13.50194135 14.09417399 -12.54368879
18.02989374 13.25668122 -12.41818516
13.79612924 4.48581319 -13.1756189
15.0218077 7.792645961 -13.34403684
12.59586975 5.129145418 -13.52847605
15.73248172 5.356845755 -12.82483405
13.0994469 6.708941256 -13.60891122
16.48466036 7.124797442 -12.90951086
9.98233682 11.10790558 -13.46441564
13.72315292 10.28542849 -13.52502544
10.13434214 9.493336608 -13.78332245
11.66069411 12.55149187 -13.10203517
11.86167395 9.006218779 -13.77387422
13.76402835 12.24986212 -13.18566831
7.825626685 -3.573626708 -12.66212996
8.171887512 -1.22332782 -13.22239175
8.83204128 -3.086442023 -12.53986268
6.839588138 -2.984606023 -13.07708023
8.623102311 3.937799484 -13.95247263
8.441640083 1.263709656 -13.65886058
9.698690187 3.389300844 -13.7703436
7.330617959 3.198877779 -14.015914
10.98869059 -2.00914817 -12.24936443
9.223719579 -0.6530967056 -13.12647079
9.889509525 -2.564755147 -12.40239191
11.29574172 -0.6883535296 -12.58173122
9.036247269 -1.883985936 -12.84967047
4.86851505 -1.798914838 -13.69883353
7.109657889 -0.6325174008 -13.55053742
5.847031384 -2.388538235 -13.423333
4.922310192 -0.6084310004 -13.87123742
6.98687804 -1.815470563 -13.3306966
11.81974264 2.16109591 -13.17575864
9.402355193 0.665745218 -13.38069091
10.77420689 2.794193433 -13.51188711
11.5753312 0.7053914905 -12.8931512
9.559422145 1.993063751 -13.59363249
10.35222793 0 -13.02215096
5.010765786 1.851476442 -14.09909298
7.213041047 0.6417149807 -13.74757888
6.125864742 2.502442898 -14.06346519
4.970070438 0.6143344914 -14.00582742
7.285688013 1.893113354 -13.90081462
6.046297281 0 -13.81397936
17.4499217 24.98901445 1.239690536
21.2919101 24.16135771 3.930306696
15.96462348 23.92729854 3.080744589
20.15639444 25.66337093 0
24.45510359 17.2660929 8.519024581
23.6587202 21.32024786 6.478283179
12.89655306 21.2387209 6.067780786
19.15116426 22.628012 5.656563711
14.38256937 22.58254236 4.68963352
17.6762576 23.47850019 4.380130542
24.49259963 24.78441388 -2.816701079
24.49259963 24.78441388 2.816701079
22.61373012 25.64208604 -1.390667685
22.61373012 25.64208604 1.390667685
18.0176383 1.377913459 10.60919676
20.08561252 4.546965827 10.67680482
23.7733662 12.70863999 9.838479813
22.13365885 8.346010621 10.49146108
7.9858558 16.40017447 10.13586524
12.25893173 17.01706392 10.51712389
9.071023675 17.52699836 9.322842616
22.35606808 16.24222952 10.0382499
17.31056542 17.24104844 10.65555394
22.06682964 18.19120662 9.165929293
11.4869599 19.90390924 7.327935951
13.71725113 18.28677077 9.58646375
10.23791274 18.69563116 8.383777001
14.16901073 20.5373733 7.286337821
11.28576214 17.93166793 9.476418528
20.42534799 21.38728684 6.954079058
16.47014963 18.54097253 9.618232213
21.40137918 19.92604219 8.114054053
17.18523839 21.08147736 7.178156919
19.28509429 18.5631359 9.50719441
15.37373059 19.63131911 8.484807641
26.26943674 16.23540477 -7.414010205
29.86099358 18.45510897 -2.762721365
26.5735593 18.71621554 -6.540562065
26.26943674 16.23540477 7.414010205
29.86099358 18.45510897 2.762721365
26.5735593 18.71621554 6.540562065
25.81818272 23.16104016 -4.234713962
30.26766471 21.26850821 -1.505942643
26.46269654 21.10101756 -5.472358692
27.5042154 24.69298604 -1.504770958
28.68718364 20.17362899 -4.206041752
25.81818272 23.16104016 4.234713962
30.26766471 21.26850821 1.505942643
26.46269654 21.10101756 5.472358692
27.5042154 24.69298604 1.504770958
28.68718364 20.17362899 4.206041752
29.60365026 23.53403335 0
9.580523583 -13.71970868 0.6806268031
11.09180638 -12.58661624 2.047453736
9.210959556 -13.80510974 1.777468404
10.39991297 -13.24129794 0
13.73680856 -9.698630469 4.785267392
12.4839469 -11.25001014 3.418381998
8.32491307 -13.70990406 3.916840983
10.6452884 -12.57791486 3.144234535
8.788962761 -13.79983776 2.865761556
9.947168431 -13.21233268 2.4648824
11.97804352 -12.12075454 -1.377500495
11.97804352 -12.12075454 1.377500495
11.2049414 -12.70547007 -0.6890658828
11.2049414 -12.70547007 0.6890658828
16.89243784 -1.291862844 9.946653039
16.4242123 -3.718100805 8.730533309
14.82621567 -7.925719724 6.135749659
15.72873426 -5.930884905 7.455495922
6.129540781 -12.58794809 7.779779767
8.421361727 -11.68999502 7.224814249
6.70891412 -12.96293903 6.895158994
13.08824633 -9.508930642 5.876842334
10.72412988 -10.68106317 6.601260076
12.54615031 -10.3426553 5.211311662
7.806358089 -13.52638507 4.979950532
9.013913649 -12.01664758 6.299480531
7.272258237 -13.2799977 5.955216935
8.979816538 -13.0158589 4.617822522
7.867048032 -12.49975776 6.605795762
11.33204921 -11.865736 3.85814558
10.20386321 -11.48681413 5.958848462
11.95688665 -11.13262028 4.533297774
10.15872924 -12.46191735 4.243231948
11.36396411 -10.93854181 5.602223895
9.60924633 -12.27042324 5.303371633
14.82019584 -9.159384749 -4.18269658
15.4432216 -9.544435845 -1.428797677
14.17086629 -9.980785213 -3.487881672
14.82019584 -9.159384749 4.18269658
15.4432216 -9.544435845 1.428797677
14.17086629 -9.980785213 3.487881672
12.76215583 -11.44870679 -2.093256527
14.62808432 -10.27887465 -0.7278082461
13.47915772 -10.74810888 -2.787425151
12.8860373 -11.56894441 -0.7050022847
14.47332627 -10.17804739 -2.122042211
12.76215583 -11.44870679 2.093256527
14.62808432 -10.27887465 0.7278082461
13.47915772 -10.74810888 2.787425151
12.8860373 -11.56894441 0.7050022847
14.47332627 -10.17804739 2.122042211
13.77722613 -10.95249053 0
0.994419256 -7.656496481 13.00305644
2.908456897 -6.829395206 12.84771878
1.620993231 -8.400094798 12.58980998
0.9809498338 -6.637818567 13.30837606
6.657489596 -5.153940707 12.45380609
4.776163755 -6.003938698 12.66640842
2.891202912 -9.788611018 11.56570977
3.549203675 -7.543531176 12.42308332
2.258786874 -9.115458607 12.10761359
2.597915992 -7.967511069 12.5100496
0.9602472167 -4.605901145 13.75758188
2.883300652 -5.833043891 13.15902537
0.9704914325 -5.613982 13.5586682
1.944493115 -6.233711301 13.23597855
15.61590948 -0.7746962267 10.90464765
13.01944266 -2.117861227 11.47322953
15.52145512 -1.998455396 10.35612886
8.613034042 -4.249638244 12.1992069
10.70904856 -3.254007627 11.88365093
15.14011144 -4.325443029 9.193362039
12.97806576 -3.24426449 10.98395515
15.35935716 -3.189621214 9.782203273
14.20938009 -2.650890781 10.69781548
5.419245531 -12.06913788 8.768523462
6.211235507 -10.09051235 10.04999016
4.808580632 -11.57658174 9.543373182
6.569387016 -11.65554085 8.512124908
7.3956347 -5.826880176 11.96638831
6.864458835 -8.001325558 11.10692771
6.433731878 -6.259950594 12.09545336
3.555620273 -10.4434794 10.93531869
5.563229818 -9.526410416 10.72418392
4.182291385 -11.03108301 10.27063833
3.903480048 -9.345328603 11.46410244
5.206370309 -10.5609855 10.16562357
8.867798835 -10.74907673 7.969221038
7.352982136 -9.668947734 9.810587708
7.723619963 -11.21388073 8.245131345
6.979916642 -10.674901 9.192925182
4.535673815 -7.109928853 12.31965462
5.893880274 -8.433541081 11.24294008
5.47705678 -6.688349344 12.21371148
4.230821543 -8.227254529 11.92505255
6.178714549 -7.358423705 11.69161716
4.907957712 -8.89279083 11.35555314
0.9489213923 -0.5864656731 14.17407633
2.849760799 -1.761249034 13.95414885
0.9499302448 -1.571863506 14.1208934
6.66897912 -4.121655766 12.79348085
4.757437214 -2.940257898 13.50197911
5.721307412 -4.561249578 12.89423849
0.9585211022 -3.561335413 13.91905593
2.85141273 -2.757139961 13.81859676
0.9525199682 -2.568429609 14.0363453
1.916582599 -4.191554382 13.7028052
1.90451244 -2.165950723 13.99804908
3.851428706 -5.40363526 13.07573771
3.829523078 -3.370010957 13.57034647
4.779392197 -4.990440464 12.98829683
2.88563856 -4.808844415 13.42089181
4.773526645 -3.96358041 13.2667316
2.875517035 -3.777573396 13.64044348
13.67422538 -8.451136054 6.658489655
12.15879818 -7.51455054 8.759083089
14.11393374 -7.507388326 7.30460655
12.45318893 -9.094653014 7.018963663
8.568827166 -5.295826432 11.79427266
10.42102605 -6.440548298 10.46304428
9.588152611 -4.83114346 11.63090139
8.308136397 -6.411955178 11.37622206
14.84143654 -5.464107331 8.56530164
12.44583175 -6.524471514 9.33585278
14.50679119 -6.505354182 7.944062501
13.88068211 -4.924648227 9.576469728
13.30994395 -7.033958021 8.376959809
10.07819608 -10.22583111 7.664204809
10.94906442 -8.117489224 9.032785154
11.24834068 -9.686755336 7.354867296
9.323282114 -9.732227162 8.661595125
11.72944142 -8.624203115 8.07871513
11.76358055 -3.824929723 11.23448842
11.50289211 -5.967189006 10.21814546
10.65621396 -4.339301065 11.4452069
12.84184442 -4.372595565 10.46843891
10.55893299 -5.407805516 10.96959153
12.66259919 -5.472873104 9.916368195
7.710665179 -8.580089242 10.40033038
10.07780208 -7.553257853 9.932304207
8.021534574 -7.514165873 10.9097755
8.525818443 -9.177133015 9.579667558
9.210413708 -6.993195163 10.69520882
9.729220906 -8.658919585 9.32040218
1.019435602 7.849108964 13.33017094
3.112643314 7.308848672 13.74968493
1.695401657 8.785684213 13.16771982
1.002100817 6.780941468 13.59532777
7.527285077 5.827298776 14.0808855
5.284209717 6.642584475 14.01374866
3.179107261 10.76335536 12.7174166
3.895138443 8.278786164 13.63393985
2.41896744 9.761876085 12.96621801
2.78675732 8.546665811 13.4193994
0.974239579 4.673016609 13.9580522
3.052802257 6.175953083 13.9326096
0.9879767059 5.715128705 13.80295373
2.024874794 6.491401173 13.78312895
16.18935208 0.8031443817 11.30508475
14.24836519 2.317768967 12.55620294
17.1090364 2.202863446 11.41538497
14.77764978 0 11.60658663
9.812718528 4.841558007 13.89839899
12.08291651 3.671465515 13.40820908
19.0374534 5.438891283 11.5599018
14.99657837 3.748853458 12.69231852
18.06671271 3.751847784 11.50648783
16.09072871 3.001873701 12.11422635
12.20602035 -1.387190791 12.0623054
12.88581837 1.464448531 12.73409941
13.44380567 -0.7291086257 11.85607883
13.85596324 0.7514614957 12.21956018
6.772129535 15.0821299 10.95753576
7.829915031 12.72015112 12.66906865
5.810132971 13.98780313 11.53110895
8.645624623 15.33924409 11.20235975
8.666760828 6.82837632 14.02311359
8.455166052 9.855479924 13.68074605
7.453792518 7.252458416 14.0131733
4.030569456 11.83848833 12.39602604
6.750675171 11.55977811 13.01321076
4.890318756 12.8985542 12.00937253
4.431668595 10.60986575 13.01533558
6.326591394 12.83332457 12.35289517
12.93563576 15.6798935 11.62486233
9.670261044 12.71609898 12.90237653
10.71065527 15.55074062 11.43385613
9.223015299 14.10543712 12.14720661
5.085811272 7.97230087 13.81392068
7.085420167 10.13851305 13.5158759
6.251310528 7.633835169 13.94027965
4.785079118 9.305063672 13.48729067
7.311039626 8.706944927 13.83424913
5.742406178 10.40473859 13.28621849
0.950625216 0.5875186941 14.19952641
2.896847327 1.790350109 14.18471291
0.9545296544 1.579474217 14.1892645
1.908216746 0 14.16328093
7.340383193 4.536606304 14.08147336
4.985795943 3.081391354 14.15007905
6.266582646 4.995964278 14.12313748
0.9692469763 3.601186841 14.0748105
2.926328153 2.829578547 14.181654
0.9601174633 2.588915931 14.14830208
1.968197102 4.304434983 14.07182842
1.930307526 2.195286779 14.18764137
3.847466772 -1.180982417 13.92026555
3.9047319 1.198559985 14.12745273
2.880104911 -0.5929443661 14.07010769
2.896024667 0.5962218612 14.14788009
4.137385057 5.804838018 14.04656971
3.998708 3.518895043 14.1698723
5.1919991 5.421267251 14.10958186
3.023729207 5.038969022 14.06314121
5.091852604 4.227894538 14.15143287
2.981579589 3.916908019 14.14356701
22.19333502 13.71623536 10.80676144
17.75214428 10.97142854 12.78847666
21.68409135 11.53405545 11.22250952
20.23031112 14.77434101 11.40236604
10.12859949 6.259818743 13.94116858
13.5644087 8.383265615 13.61910124
11.3616796 5.724763292 13.78227698
10.17149711 7.850037655 13.92769741
20.02943733 7.374151085 11.55940478
17.20745249 9.020653325 12.90763417
20.92607712 9.383987231 11.45932704
17.84338887 6.330554411 12.31039455
19.44367275 10.27547362 12.23738175
15.43710417 15.66324161 11.7395144
15.86696599 11.76355536 13.08996726
17.88513851 15.40217938 11.69442001
13.50194135 14.09417399 12.54368879
18.02989374 13.25668122 12.41818516
13.79612924 4.48581319 13.1756189
15.0218077 7.792645961 13.34403684
12.59586975 5.129145418 13.52847605
15.73248172 5.356845755 12.82483405
13.0994469 6.708941256 13.60891122
16.48466036 7.124797442 12.90951086
9.98233682 11.10790558 13.46441564
13.72315292 10.28542849 13.52502544
10.13434214 9.493336608 13.78332245
11.66069411 12.55149187 13.10203517
11.86167395 9.006218779 13.77387422
13.76402835 12.24986212 13.18566831
7.825626685 -3.573626708 12.66212996
8.171887512 -1.22332782 13.22239175
8.83204128 -3.086442023 12.53986268
6.839588138 -2.984606023 13.07708023
8.623102311 3.937799484 13.95247263
8.441640083 1.263709656 13.65886058
9.698690187 3.389300844 13.7703436
7.330617959 3.198877779 14.015914
10.98869059 -2.00914817 12.24936443
9.223719579 -0.6530967056 13.12647079
9.889509525 -2.564755147 12.40239191
11.29574172 -0.6883535296 12.58173122
9.036247269 -1.883985936 12.84967047
4.86851505 -1.798914838 13.69883353
7.109657889 -0.6325174008 13.55053742
5.847031384 -2.388538235 13.423333
4.922310192 -0.6084310004 13.87123742
6.98687804 -1.815470563 13.3306966
11.81974264 2.16109591 13.17575864
9.402355193 0.665745218 13.38069091
10.77420689 2.794193433 13.51188711
11.5753312 0.7053914905 12.8931512
9.559422145 1.993063751 13.59363249
10.35222793 0 13.02215096
5.010765786 1.851476442 14.09909298
7.213041047 0.6417149807 13.74757888
6.125864742 2.502442898 14.06346519
4.970070438 0.6143344914 14.00582742
7.285688013 1.893113354 13.90081462
6.046297281 0 13.81397936
18.40342658 0 -9.683655405
20.89331661 0 -7.5317061
19.46670004 1.434875005 -9.709405743
18.16423835 -1.338871588 -9.059776941
23.6806808 0 -1.641247587
22.73082784 0 -4.787672637
21.67447667 4.7491384 -9.607715626
22.04099484 1.538410176 -7.379105158
20.57136819 3.022132717 -9.688438968
20.8358057 1.49136852 -8.627089065
17.50581659 -3.835734862 -7.759860141
20.4401326 -1.426673714 -6.843152452
17.86337608 -2.624302515 -8.413063599
19.36814798 -1.386317697 -8.019403716
18.40342658 0 9.683655405
20.89331661 0 7.5317061
19.46670004 1.434875005 9.709405743
18.16423835 -1.338871588 9.059776941
23.6806808 0 1.641247587
22.73082784 0 4.787672637
21.67447667 4.7491384 9.607715626
22.04099484 1.538410176 7.379105158
20.57136819 3.022132717 9.688438968
20.8358057 1.49136852 8.627089065
17.50581659 -3.835734862 7.759860141
20.4401326 -1.426673714 6.843152452
17.86337608 -2.624302515 8.413063599
19.36814798 -1.386317697 8.019403716
25.5578872 13.3228023 -8.233944645
26.48302121 9.331321697 -5.767073969
24.76506019 10.98851418 -8.760472398
27.31366707 14.28562264 -6.233848369
24.66534518 1.651287403 -1.02055174
25.97242265 5.304171018 -3.278157971
24.39122224 1.640828172 -2.715102437
22.81182145 6.719169956 -9.427136385
25.45917287 7.184524751 -6.322439281
23.83223829 8.769711322 -9.15696399
23.14478737 4.976382483 -8.293016819
25.29949318 9.103056308 -7.558498848
29.8220336 15.64694078 -1.392044802
27.53444157 9.78563926 -3.615790746
28.8470942 15.1193246 -3.928605679
27.67216222 12.05363832 -4.923964675
23.09344254 1.590305557 -5.908697767
25.31819278 5.224308838 -5.051583909
23.86184038 1.619287568 -4.3663401
23.22787763 3.248834485 -7.10518108
24.94910557 3.394464589 -3.860433187
24.37893899 5.139279705 -6.751483665
15.54161189 -8.101523456 -5.007016856
18.06418511 -6.364935523 -3.93374649
16.10102862 -7.144193471 -5.695629882
16.03351181 -8.38586407 -3.65935783
22.81426832 -1.527362119 -0.9439617026
20.5515344 -4.197099925 -2.593950408
22.56178208 -1.517759434 -2.511458792
17.08310752 -5.03179034 -7.05970739
18.72181555 -5.28325676 -4.649308232
16.61809911 -6.115075309 -6.385104633
18.49570194 -3.976778257 -6.627201402
17.40937277 -6.264097841 -5.20123953
16.55510506 -8.686085994 -0.7727658098
18.46829234 -6.563563171 -2.425234606
16.37876844 -8.584431932 -2.230579006
17.26208457 -7.519142249 -3.071602934
21.37688049 -1.472096323 -5.469497492
20.07241388 -4.141863131 -4.00492578
22.07730588 -1.49818733 -4.039798457
19.94449265 -2.78959432 -6.100825658
21.3445946 -2.904050822 -3.302698814
19.36628694 -4.082571661 -5.363283857
25.5578872 13.3228023 8.233944645
26.48302121 9.331321697 5.767073969
24.76506019 10.98851418 8.760472398
27.31366707 14.28562264 6.233848369
24.66534518 1.651287403 1.02055174
25.97242265 5.304171018 3.278157971
24.39122224 1.640828172 2.715102437
25.58916947 3.447625021 0
22.81182145 6.719169956 9.427136385
25.45917287 7.184524751 6.322439281
23.83223829 8.769711322 9.15696399
23.14478737 4.976382483 8.293016819
25.29949318 9.103056308 7.558498848
29.8220336 15.64694078 1.392044802
27.53444157 9.78563926 3.615790746
28.8470942 15.1193246 3.928605679
29.10575673 12.73941803 0
27.67216222 12.05363832 4.923964675
23.09344254 1.590305557 5.908697767
25.31819278 5.224308838 5.051583909
23.86184038 1.619287568 4.3663401
23.22787763 3.248834485 7.10518108
24.94910557 3.394464589 3.860433187
24.37893899 5.139279705 6.751483665
27.0562018 7.478150257 -2.295423063
27.0562018 7.478150257 2.295423063
26.39822098 5.403629281 -1.112477371
28.11650407 9.977347392 -1.233267961
26.39822098 5.403629281 1.112477371
28.11650407 9.977347392 1.233267961
15.54161189 -8.101523456 5.007016856
18.06418511 -6.364935523 3.93374649
16.10102862 -7.144193471 5.695629882
16.03351181 -8.38586407 3.65935783
22.81426832 -1.527362119 0.9439617026
20.5515344 -4.197099925 2.593950408
22.56178208 -1.517759434 2.511458792
21.87468351 -2.947172876 0
17.08310752 -5.03179034 7.05970739
18.72181555 -5.28325676 4.649308232
16.61809911 -6.115075309 6.385104633
18.49570194 -3.976778257 6.627201402
17.40937277 -6.264097841 5.20123953
16.55510506 -8.686085994 0.7727658098
18.46829234 -6.563563171 2.425234606
16.37876844 -8.584431932 2.230579006
17.6497795 -7.725204377 0
17.26208457 -7.519142249 3.071602934
21.37688049 -1.472096323 5.469497492
20.07241388 -4.141863131 4.00492578
22.07730588 -1.49818733 4.039798457
19.94449265 -2.78959432 6.100825658
21.3445946 -2.904050822 3.302698814
19.36628694 -4.082571661 5.363283857
19.70189756 -5.445470558 -1.671490713
19.70189756 -5.445470558 1.671490713
20.82256165 -4.262310097 -0.877507187
18.7109826 -6.639729212 -0.8207156659
20.82256165 -4.262310097 0.877507187
18.7109826 -6.639729212 0.8207156659
-9.580523583 13.71970868 -0.6806268031
-11.09180638 12.58661624 -2.047453736
-9.210959556 13.80510974 -1.777468404
-13.73680856 9.698630469 -4.785267392
-12.4839469 11.25001014 -3.418381998
-8.32491307 13.70990406 -3.916840983
-10.6452884 12.57791486 -3.144234535
-8.788962761 13.79983776 -2.865761556
-9.947168431 13.21233268 -2.4648824
-16.89243784 1.291862844 -9.946653039
-16.4242123 3.718100805 -8.730533309
-14.82621567 7.925719724 -6.135749659
-15.72873426 5.930884905 -7.455495922
-6.129540781 12.58794809 -7.779779767
-8.421361727 11.68999502 -7.224814249
-6.70891412 12.96293903 -6.895158994
-13.08824633 9.508930642 -5.876842334
-10.72412988 10.68106317 -6.601260076
-12.54615031 10.3426553 -5.211311662
